ply
format ascii 1.0
comment PCL generated
element vertex 765
property float x
property float y
property float z
property uchar red
property uchar green
property uchar blue
element camera 1
property float view_px
property float view_py
property float view_pz
property float x_axisx
property float x_axisy
property float x_axisz
property float y_axisx
property float y_axisy
property float y_axisz
property float z_axisx
property float z_axisy
property float z_axisz
property float focal
property float scalex
property float scaley
property float centerx
property float centery
property int viewportx
property int viewporty
property float k1
property float k2
end_header
-13.965 9.7220001 -0.84399998 203 177 128
-13.964 9.7189999 -0.84399998 81 44 17
-13.965 9.7189999 -0.85000002 126 87 58
-13.971 9.7229996 -0.85399997 78 41 12
-13.959 9.7119999 -0.847 140 77 23
-13.962 9.7110004 -0.85100001 114 84 56
-13.949 9.7950001 -0.81900001 99 58 38
-13.945 9.7919998 -0.81900001 218 141 69
-13.948 9.7969999 -0.81099999 187 100 31
-13.957 9.7259998 -0.86199999 110 75 47
-14 9.7670002 -0.995 183 107 47
-13.992 9.776 -0.98299998 206 142 78
-13.994 9.7770004 -0.98199999 214 153 98
-13.99 9.7720003 -1.0039999 215 149 73
-13.948 9.7950001 -0.82800001 95 54 36
-13.943 9.7910004 -0.83499998 204 125 50
-13.971 9.724 -0.85900003 139 79 27
-13.964 9.7220001 -0.85900003 159 97 40
-14.001 9.7679996 -1.01 231 152 96
-14.002 9.7670002 -1.0089999 226 170 123
-13.965 9.816 -0.986 197 103 29
-13.955 9.8149996 -0.96799999 171 74 3
-13.961 9.816 -0.98699999 139 83 48
-13.964 9.8120003 -0.98400003 167 65 1
-13.884 9.6899996 -1.0549999 236 153 83
-13.885 9.6879997 -1.048 162 96 38
-13.885 9.6960001 -1.052 206 120 47
-13.891 9.6850004 -1.05 160 98 39
-13.949 9.7209997 -0.88300002 94 59 37
-13.962 9.7220001 -0.90399998 137 88 48
-13.955 9.7259998 -0.90700001 136 83 43
-13.87 9.7620001 -1.097 165 112 70
-13.865 9.7799997 -1.101 114 52 3
-13.865 9.7639999 -1.099 130 67 16
-13.874 9.7559996 -1.095 176 97 41
-13.929 9.7709999 -1.084 162 98 50
-13.933 9.7779999 -1.082 98 38 2
-13.936 9.7729998 -1.086 155 70 13
-13.946 9.7939997 -0.83700001 92 54 33
-13.946 9.7989998 -0.85900003 159 70 14
-13.957 9.7930002 -0.85399997 201 131 72
-13.895 9.8109999 -0.82499999 202 118 56
-13.898 9.802 -0.84600002 158 80 14
-13.89 9.8059998 -0.84899998 172 108 47
-13.894 9.8070002 -0.85100001 123 82 60
-13.895 9.8109999 -0.85900003 197 112 48
-13.96 9.8339996 -1.049 181 95 36
-13.958 9.8439999 -1.066 116 42 7
-13.965 9.8389997 -1.046 229 134 76
-13.958 9.842 -1.048 138 89 59
-13.958 9.8100004 -0.98299998 201 101 13
-13.944 9.809 -0.97899997 140 117 85
-13.925 9.8030005 -0.91900003 147 97 64
-13.917 9.8009996 -0.93400002 109 71 60
-13.932 9.8079996 -0.92400002 248 149 56
-13.97 9.7309999 -0.898 138 65 24
-13.972 9.7349997 -0.88499999 171 119 79
-13.97 9.7320004 -0.889 171 74 6
-13.877 9.7370005 -1.098 130 47 0
-13.873 9.7419996 -1.092 148 53 0
-13.874 9.7390003 -1.094 139 57 0
-13.869 9.7600002 -1.107 131 73 23
-13.89 9.8030005 -0.85600001 125 86 71
-13.909 9.7530003 -0.93599999 67 39 25
-13.904 9.75 -0.95200002 168 122 73
-13.904 9.757 -0.94199997 201 136 94
-13.892 9.8039999 -0.85399997 179 99 38
-13.836 9.6660004 -1.13 168 71 0
-13.837 9.6750002 -1.131 251 172 95
-13.834 9.6669998 -1.135 161 123 100
-13.9 9.8059998 -0.81999999 239 187 114
-13.896 9.8129997 -0.81800002 222 147 66
-13.914 9.6809998 -1.053 234 143 60
-13.908 9.6829996 -1.053 168 101 48
-13.921 9.6829996 -1.045 133 62 0
-13.968 9.7349997 -0.86799997 223 120 41
-13.949 9.7290001 -0.86400002 220 171 128
-13.956 9.7250004 -0.89999998 187 142 109
-13.961 9.7209997 -0.86299998 119 71 33
-13.952 9.724 -0.87599999 160 82 20
-13.994 9.7639999 -0.98100001 205 126 51
-13.995 9.7629995 -0.98799998 194 98 24
-13.99 9.7770004 -0.97799999 153 90 37
-13.93 9.7639999 -1.086 143 95 59
-13.937 9.7679996 -1.08 167 82 15
-13.877 9.7620001 -1.1 209 125 65
-13.872 9.7819996 -1.105 113 40 0
-13.896 9.7550001 -1.1 136 79 36
-13.895 9.7659998 -1.092 151 93 47
-13.865 9.7600002 -1.103 154 90 44
-13.869 9.7819996 -1.108 113 57 6
-13.863 9.7930002 -1.102 143 76 21
-13.858 9.7629995 -1.108 186 107 40
-13.909 9.7959995 -0.852 205 140 86
-13.954 9.7980003 -0.93199998 132 74 36
-13.946 9.8039999 -0.94 165 112 78
-13.928 9.7880001 -0.866 209 110 25
-13.917 9.7919998 -0.87300003 205 155 106
-13.921 9.7779999 -0.87199998 134 83 30
-13.915 9.802 -0.85000002 213 126 47
-13.978 9.7519999 -0.986 144 96 48
-13.971 9.743 -0.97299999 194 133 78
-13.982 9.7539997 -0.98299998 141 80 33
-13.97 9.7469997 -0.97299999 130 94 72
-13.972 9.7519999 -0.97500002 178 115 64
-13.969 9.8479996 -1.077 126 52 3
-13.967 9.8570004 -1.075 188 105 51
-13.95 9.849 -1.066 133 56 2
-13.955 9.842 -1.068 170 70 20
-13.929 9.8009996 -1.076 130 68 21
-13.924 9.7939997 -1.075 140 86 39
-13.928 9.8030005 -1.0779999 159 112 70
-13.91 9.8479996 -1.084 216 116 41
-13.905 9.8400002 -1.086 159 98 54
-13.899 9.8470001 -1.0880001 177 101 41
-13.913 9.8450003 -1.084 222 125 56
-13.931 9.8529997 -1.081 180 96 34
-13.935 9.8590002 -1.077 128 67 23
-13.939 9.8579998 -1.082 181 118 67
-13.95 9.8800001 -1.075 185 83 9
-13.94 9.8599997 -1.053 137 115 102
-13.966 9.8620005 -1.067 136 58 12
-13.983 9.8730001 -1.0650001 166 91 36
-13.934 9.8710003 -1.0470001 133 80 46
-13.947 9.8520002 -1.041 155 84 38
-13.942 9.8100004 -0.97899997 122 74 88
-13.954 9.8050003 -0.972 141 55 0
-13.964 9.7930002 -0.96100003 123 69 31
-13.958 9.7869997 -0.96499997 124 60 22
-13.923 9.8520002 -1.0190001 142 86 29
-13.937 9.849 -1.023 170 127 93
-13.933 9.8509998 -1.027 250 167 89
-13.926 9.849 -1.016 155 79 21
-13.919 9.8520002 -1.016 164 127 101
-13.946 9.882 -1.073 183 109 46
-13.949 9.8879995 -1.071 172 72 10
-13.941 9.8280001 -1.013 108 86 63
-13.938 9.8479996 -1.026 120 75 20
-13.93 9.783 -0.92400002 136 74 25
-13.93 9.7889996 -0.92799997 121 82 39
-13.931 9.7860003 -0.92799997 178 113 45
-13.911 9.7589998 -0.94700003 255 172 93
-13.916 9.7919998 -0.884 172 120 80
-13.931 9.8009996 -0.91799998 144 91 49
-13.921 9.6820002 -1.051 151 89 32
-13.924 9.6870003 -1.052 183 120 67
-13.931 9.6730003 -1.08 214 115 34
-13.936 9.6870003 -1.084 144 101 84
-13.935 9.6870003 -1.0880001 192 125 55
-13.954 9.743 -0.949 135 58 16
-13.939 9.7460003 -0.94999999 251 203 157
-13.957 9.743 -0.96100003 245 187 139
-13.959 9.743 -0.95499998 248 195 141
-13.89 9.7360001 -1.0930001 140 46 0
-13.891 9.743 -1.091 121 63 26
-13.907 9.7030001 -1.0549999 251 162 82
-13.902 9.7069998 -1.0599999 175 110 52
-13.968 9.7469997 -0.94599998 137 86 39
-13.961 9.7449999 -0.93400002 150 68 20
-13.973 9.7489996 -0.94199997 187 105 47
-13.967 9.7489996 -0.93800002 164 112 73
-13.966 9.7449999 -0.92699999 120 72 26
-13.908 9.7469997 -0.94800001 194 144 93
-13.912 9.7460003 -0.95200002 254 166 95
-13.842 9.7030001 -1.104 205 116 48
-13.843 9.6999998 -1.103 143 88 34
-13.846 9.7080002 -1.1 182 127 86
-13.862 9.6689997 -1.118 120 82 61
-13.863 9.6719999 -1.122 177 104 35
-13.869 9.6689997 -1.119 191 99 34
-13.947 9.7860003 -0.84899998 132 76 25
-13.961 9.7290001 -0.86699998 152 99 55
-13.977 9.7469997 -0.88 143 83 29
-13.97 9.743 -0.88 157 107 74
-13.974 9.7379999 -0.87800002 125 79 45
-13.966 9.7340002 -0.875 167 123 94
-13.968 9.7299995 -0.88300002 135 61 16
-13.915 9.7880001 -0.991 141 86 30
-13.917 9.7889996 -0.98799998 235 153 80
-13.912 9.7819996 -0.986 94 62 51
-13.991 9.7559996 -0.99800003 197 132 74
-13.98 9.7449999 -0.96200001 189 127 68
-13.978 9.7460003 -0.96700001 120 80 44
-13.992 9.7589998 -0.99199998 200 140 67
-13.997 9.7670002 -1.003 252 174 100
-14 9.7629995 -1.017 188 96 29
-13.991 9.7600002 -0.977 179 115 54
-13.982 9.7819996 -0.98199999 193 120 52
-13.982 9.7819996 -0.98100001 142 80 23
-13.968 9.743 -0.96499997 158 84 37
-13.923 9.7659998 -0.977 125 106 74
-13.938 9.7620001 -0.963 111 53 13
-13.932 9.7480001 -0.97600001 102 82 57
-13.926 9.7779999 -0.96499997 206 114 31
-13.961 9.7530003 -0.96499997 112 76 40
-13.958 9.7559996 -0.96700001 89 45 16
-13.951 9.7519999 -0.963 255 178 87
-13.948 9.7510004 -0.96100003 211 151 101
-13.898 9.8009996 -1.092 99 43 0
-13.887 9.8129997 -1.094 115 29 0
-13.895 9.7959995 -1.103 116 70 36
-13.899 9.7779999 -1.0829999 150 104 70
-13.896 9.7659998 -1.091 159 106 66
-13.903 9.7799997 -1.082 120 66 38
-13.926 9.7650003 -1.0829999 88 28 0
-13.918 9.7799997 -1.085 154 68 17
-13.861 9.757 -1.105 142 88 42
-13.875 9.7299995 -1.097 164 92 33
-13.928 9.7969999 -0.96600002 150 73 29
-13.936 9.8050003 -0.95099998 113 51 14
-13.927 9.7959995 -0.96399999 101 48 16
-13.956 9.79 -0.86799997 216 140 78
-13.944 9.8000002 -0.86500001 158 106 46
-13.903 9.8050003 -0.83899999 214 146 75
-13.908 9.8100004 -0.85000002 174 108 47
-13.901 9.8079996 -0.84200001 242 191 134
-13.902 9.776 -0.99800003 250 164 87
-13.912 9.7740002 -0.99199998 200 146 86
-13.912 9.7810001 -0.995 156 85 21
-13.902 9.8039999 -0.86000001 167 104 53
-13.894 9.8109999 -0.84200001 199 115 53
-13.899 9.8079996 -0.84799999 187 123 75
-13.961 9.7580004 -0.991 203 149 87
-13.933 9.7849998 -1.073 99 39 11
-13.949 9.7840004 -1.071 91 40 9
-13.921 9.79 -1.059 75 27 4
-13.928 9.7849998 -1.063 152 79 24
-13.923 9.776 -1.046 195 100 46
-13.92 9.7790003 -1.077 99 53 19
-13.94 9.79 -1.061 82 31 2
-13.946 9.7930002 -1.05 154 86 49
-13.949 9.7679996 -1.028 231 125 51
-13.951 9.7659998 -1.023 125 62 8
-13.947 9.7709999 -1.017 141 77 33
-13.948 9.7670002 -1.025 124 65 21
-13.938 9.7449999 -1.027 213 106 34
-13.937 9.8400002 -1.08 176 115 70
-13.936 9.8360004 -1.08 170 93 39
-13.93 9.8389997 -1.084 199 103 43
-13.898 9.8520002 -1.0829999 227 128 45
-13.899 9.8620005 -1.079 199 117 44
-13.894 9.8529997 -1.0829999 245 139 53
-13.895 9.8669996 -1.073 208 156 99
-13.936 9.8620005 -1.046 149 99 66
-13.967 9.8559999 -1.073 150 84 34
-13.983 9.8699999 -1.063 158 67 14
-13.987 9.868 -1.062 100 56 31
-13.94 9.8400002 -1.033 139 62 6
-13.94 9.8500004 -1.04 128 52 0
-13.945 9.849 -1.038 188 103 38
-13.942 9.809 -0.95300001 126 76 25
-13.942 9.809 -0.963 188 84 0
-13.935 9.8079996 -0.94300002 225 124 32
-13.938 9.8310003 -1.002 217 155 108
-13.946 9.8310003 -1.002 252 159 89
-13.938 9.8310003 -0.99800003 149 107 82
-13.956 9.809 -0.97000003 88 36 0
-13.9 9.8640003 -1.071 194 103 33
-13.941 9.8240004 -1.015 121 33 0
-13.927 9.7969999 -0.92900002 213 159 123
-13.925 9.7869997 -0.912 94 65 49
-13.92 9.8000002 -0.93199998 168 113 59
-13.923 9.7959995 -0.91100001 137 87 50
-13.923 9.7919998 -0.89899999 139 62 16
-13.923 9.7779999 -0.90600002 176 105 39
-13.921 9.7840004 -0.88999999 189 100 44
-13.93 9.7720003 -0.89399999 153 97 40
-13.969 9.7530003 -0.93400002 184 124 72
-13.963 9.7250004 -0.90700001 153 59 0
-13.959 9.7320004 -0.90499997 151 95 62
-13.957 9.7440004 -0.93400002 148 81 38
-13.946 9.7460003 -0.94599998 140 86 48
-13.915 9.6969995 -1.066 187 85 10
-13.899 9.7349997 -1.092 136 73 38
-13.914 9.6890001 -1.0549999 198 102 28
-13.924 9.6859999 -1.066 202 101 21
-13.911 9.6990004 -1.029 182 115 63
-13.911 9.6969995 -1.025 129 62 10
-13.904 9.6949997 -1.024 159 94 26
-13.907 9.7550001 -0.94199997 186 132 85
-13.941 9.7449999 -0.898 173 98 43
-13.944 9.7519999 -0.89399999 112 79 38
-13.928 9.7550001 -0.89300001 173 117 82
-13.925 9.7819996 -0.91399997 123 83 71
-13.936 9.7729998 -0.921 163 85 36
-13.947 9.7709999 -0.94199997 89 54 26
-13.931 9.7880001 -0.93400002 113 75 64
-13.931 9.7889996 -0.94599998 118 54 16
-13.978 9.7629995 -0.963 246 193 139
-13.979 9.7589998 -0.95999998 213 157 106
-13.984 9.7720003 -0.98000002 204 124 65
-13.879 9.7360001 -1.089 94 39 0
-13.89 9.7419996 -1.089 121 69 30
-13.909 9.6789999 -1.059 150 84 32
-13.968 9.7530003 -0.88300002 183 122 65
-13.959 9.7360001 -0.875 137 95 79
-13.946 9.7939997 -0.84600002 99 57 35
-13.953 9.7930002 -0.85399997 134 78 17
-13.942 9.79 -0.84500003 191 147 100
-13.951 9.7329998 -0.87199998 81 44 15
-13.956 9.7279997 -0.87800002 183 102 39
-13.949 9.7270002 -0.88 184 92 27
-13.961 9.7290001 -0.88599998 143 92 49
-13.991 9.7559996 -1.008 131 88 53
-13.977 9.7659998 -1.001 172 101 55
-13.999 9.7629995 -0.99900001 139 49 0
-13.979 9.7510004 -0.963 148 86 39
-13.976 9.7510004 -0.95700002 204 120 47
-13.974 9.7650003 -0.97000003 181 120 65
-13.973 9.7659998 -0.972 250 161 81
-13.981 9.7539997 -0.972 214 124 46
-13.975 9.7749996 -0.98699999 156 86 16
-13.957 9.7779999 -0.97000003 122 69 29
-13.952 9.7770004 -0.977 195 143 96
-13.963 9.7659998 -0.97100002 179 105 44
-13.969 9.7469997 -0.95099998 153 68 13
-13.923 9.7600002 -0.98199999 250 170 83
-13.924 9.7550001 -0.98500001 87 52 22
-13.93 9.7629995 -0.977 196 140 79
-13.902 9.7589998 -1.086 80 43 25
-13.894 9.7539997 -1.091 116 63 23
-13.892 9.7629995 -1.091 119 56 3
-13.891 9.7510004 -1.09 96 42 0
-13.903 9.7069998 -1.051 236 135 57
-13.89 9.7729998 -1.09 125 69 22
-13.898 9.7709999 -1.0829999 153 72 27
-13.901 9.7690001 -1.0829999 133 83 46
-13.904 9.7880001 -1.01 123 86 68
-13.922 9.7740002 -1.08 168 76 11
-13.92 9.7889996 -1.077 107 64 32
-13.897 9.7980003 -1.094 127 68 26
-13.923 9.7880001 -0.98100001 244 147 52
-13.925 9.7930002 -0.972 159 88 26
-13.951 9.7919998 -0.88800001 163 96 43
-13.959 9.7869997 -0.91399997 183 120 77
-13.948 9.7969999 -0.92199999 184 116 71
-13.944 9.8009996 -0.92900002 186 104 48
-13.967 9.7449999 -0.88099998 156 87 32
-13.954 9.7559996 -0.89200002 183 121 64
-13.972 9.7629995 -0.93099999 146 56 4
-13.961 9.7580004 -0.92699999 150 115 83
-13.932 9.776 -0.87199998 110 60 25
-13.931 9.7690001 -0.87199998 94 70 32
-13.902 9.7799997 -1.008 155 84 38
-13.904 9.7779999 -1.002 166 108 71
-13.956 9.7589998 -0.98900002 175 117 69
-13.957 9.7609997 -0.98100001 99 70 36
-13.935 9.8009996 -0.96200001 109 55 11
-13.924 9.783 -0.98000002 122 74 28
-13.927 9.783 -0.97500002 156 100 43
-13.9 9.8039999 -0.86199999 102 70 55
-13.931 9.757 -0.99800003 231 129 57
-13.934 9.7580004 -0.99800003 232 176 119
-13.953 9.7550001 -0.995 175 98 30
-13.96 9.7589998 -1 248 176 128
-13.93 9.7559996 -0.98000002 156 98 60
-13.942 9.7910004 -1.052 89 33 0
-13.923 9.7939997 -1.056 134 78 31
-13.927 9.7869997 -1.034 149 85 13
-13.939 9.7810001 -1.0319999 211 115 39
-13.921 9.7889996 -1.035 216 134 76
-13.922 9.7770004 -1.043 147 91 44
-13.932 9.7840004 -1.0599999 140 77 46
-13.956 9.7779999 -1.071 103 51 14
-13.949 9.7799997 -1.074 102 36 4
-13.947 9.783 -1.061 104 48 11
-13.971 9.7860003 -1.0829999 110 61 28
-13.946 9.7840004 -1.051 160 70 7
-13.931 9.6879997 -1.071 148 87 32
-13.929 9.6809998 -1.076 222 136 61
-13.936 9.6879997 -1.0779999 202 134 63
-13.937 9.8509998 -1.054 126 35 0
-13.936 9.8240004 -1.035 179 91 27
-13.924 9.802 -1.079 108 71 45
-13.939 9.8500004 -1.034 186 82 29
-13.932 9.8660002 -1.045 253 152 74
-13.924 9.8039999 -0.93199998 205 100 45
-13.931 9.7959995 -0.97100002 111 65 31
-13.95 9.8129997 -0.96600002 121 65 30
-13.954 9.8079996 -0.95999998 127 77 42
-13.946 9.7720003 -1.0319999 192 122 70
-13.954 9.7969999 -1.002 193 101 26
-13.974 9.7740002 -0.991 225 151 86
-13.948 9.8140001 -1.002 179 82 11
-13.956 9.7989998 -0.95200002 98 38 1
-13.956 9.7989998 -0.95999998 119 71 33
-13.927 9.835 -1.015 192 146 112
-13.926 9.8310003 -1.024 127 109 95
-13.92 9.8450003 -1.0190001 197 108 40
-13.926 9.8249998 -1.028 199 97 31
-13.916 9.8450003 -1.038 144 61 9
-13.929 9.8260002 -1.034 138 84 50
-13.932 9.7749996 -0.90499997 168 111 58
-13.929 9.7930002 -0.91600001 108 77 48
-13.923 9.7880001 -0.89399999 106 79 49
-13.939 9.7480001 -0.93599999 110 73 54
-13.944 9.7489996 -0.95200002 104 67 49
-13.919 9.7019997 -1.071 166 105 50
-13.951 9.7390003 -0.89899999 142 96 63
-13.93 9.7880001 -0.96200001 199 97 0
-13.939 9.7779999 -0.926 188 119 62
-13.932 9.7889996 -0.93800002 77 49 35
-13.93 9.7910004 -0.94099998 167 78 22
-13.962 9.7749996 -0.963 171 116 62
-13.96 9.783 -0.94999999 130 72 34
-13.96 9.7889996 -0.95899999 124 58 10
-13.939 9.7799997 -0.86400002 125 80 51
-13.948 9.7819996 -0.86000001 175 83 8
-13.955 9.7910004 -0.85600001 110 94 81
-13.945 9.7910004 -0.85100001 214 132 56
-13.938 9.7670002 -0.87900001 108 59 19
-13.963 9.7299995 -0.87599999 132 69 18
-13.988 9.7559996 -1.003 105 73 35
-13.969 9.7639999 -0.99699998 213 150 107
-13.958 9.7840004 -1.005 133 72 25
-13.995 9.7609997 -1 210 116 42
-13.987 9.7709999 -0.99199998 234 157 85
-13.984 9.7720003 -0.995 171 99 41
-13.98 9.7580004 -0.99400002 124 77 33
-13.97 9.7650003 -0.96700001 102 60 18
-13.979 9.7480001 -0.96799999 199 122 50
-13.98 9.7749996 -0.99299997 153 89 25
-13.914 9.7740002 -0.98400003 185 127 77
-13.933 9.7700005 -0.97299999 164 102 55
-13.94 9.7659998 -0.96399999 82 47 19
-13.934 9.7799997 -0.96399999 84 28 0
-13.897 9.7530003 -1.09 123 59 11
-13.923 9.71 -1.048 248 180 107
-13.892 9.7770004 -1.081 108 47 3
-13.89 9.8039999 -1.0930001 87 46 14
-13.882 9.8129997 -1.094 132 62 13
-13.904 9.7659998 -1.082 107 50 20
-13.929 9.7390003 -1.082 104 36 1
-13.931 9.7399998 -1.0700001 205 132 91
-13.932 9.7329998 -1.084 76 20 0
-13.93 9.7329998 -1.0650001 245 179 127
-13.935 9.743 -1.046 177 102 47
-13.923 9.7930002 -1.072 113 59 33
-13.921 9.7910004 -1.0599999 129 69 41
-13.892 9.8000002 -1.098 118 52 2
-13.881 9.8100004 -1.0930001 136 91 58
-13.933 9.8030005 -0.94700003 197 144 104
-13.931 9.8009996 -0.94400001 142 65 21
-13.926 9.7959995 -0.94999999 142 76 18
-13.951 9.8000002 -0.93699998 157 92 50
-13.947 9.8059998 -0.95099998 104 55 25
-13.919 9.7880001 -0.875 190 115 47
-13.922 9.7849998 -0.88800001 90 58 43
-13.906 9.8109999 -0.86199999 172 126 93
-13.966 9.7460003 -0.88499999 154 78 28
-13.962 9.75 -0.89099997 160 89 43
-13.97 9.7539997 -0.93599999 132 67 11
-13.972 9.7539997 -0.94099998 181 114 69
-13.967 9.7580004 -0.97600001 180 113 61
-13.94 9.7799997 -0.95700002 240 223 195
-13.935 9.8039999 -0.986 148 95 45
-13.933 9.7559996 -0.97899997 146 86 34
-13.948 9.7600002 -0.99699998 143 62 15
-13.929 9.7819996 -1.035 171 98 57
-13.942 9.7810001 -1.072 130 38 0
-13.945 9.7320004 -1.033 235 153 80
-13.949 9.7329998 -1.026 88 49 10
-13.95 9.7220001 -1.039 154 88 36
-13.975 9.7819996 -1.077 97 40 0
-13.949 9.7849998 -1.058 167 67 8
-13.925 9.7709999 -1.039 166 102 54
-13.93 9.6820002 -1.079 167 97 46
-13.929 9.6960001 -1.0880001 187 104 38
-13.937 9.7299995 -1.021 190 119 75
-13.936 9.7119999 -1.038 184 111 42
-13.937 9.8260002 -1.039 141 58 8
-13.935 9.823 -1.035 169 79 19
-13.937 9.8459997 -1.027 206 136 85
-13.93 9.8059998 -0.93000001 113 62 33
-13.933 9.8070002 -0.93900001 107 56 27
-13.921 9.8000002 -1.013 92 37 0
-13.916 9.7950001 -1.013 238 140 79
-13.943 9.776 -1.036 169 95 50
-13.936 9.7729998 -1.0319999 139 49 0
-13.955 9.7840004 -1.0549999 226 138 64
-13.984 9.7889996 -1.0470001 228 122 46
-13.981 9.7860003 -1.052 224 148 98
-13.983 9.7919998 -1.0470001 206 139 87
-13.952 9.783 -0.98799998 102 45 2
-13.937 9.7950001 -1 224 126 63
-13.955 9.7889996 -1.0039999 145 83 36
-13.938 9.7869997 -0.98100001 121 70 25
-13.945 9.8030005 -0.97799999 139 87 39
-13.943 9.7919998 -0.97399998 112 52 0
-13.943 9.8269997 -1.006 140 94 45
-13.951 9.816 -0.99400002 122 73 30
-13.96 9.7919998 -0.958 136 47 0
-13.92 9.8450003 -1.04 91 32 0
-13.901 9.8479996 -1.079 195 102 33
-13.941 9.8190002 -1.008 192 131 68
-13.926 9.8450003 -1.015 251 166 83
-13.916 9.8450003 -1.027 166 115 68
-13.916 9.802 -1.013 126 38 2
-13.934 9.7609997 -0.89600003 241 143 68
-13.944 9.7609997 -0.91000003 232 180 123
-13.942 9.7709999 -0.91399997 200 124 66
-13.933 9.7729998 -0.88300002 211 128 50
-13.975 9.7600002 -0.94499999 164 96 47
-13.944 9.7469997 -0.92400002 165 103 64
-13.958 9.7449999 -0.94999999 211 133 58
-13.915 9.7229996 -1.09 105 47 0
-13.918 9.7150002 -1.0880001 131 58 5
-13.901 9.7360001 -1.09 115 59 12
-13.915 9.7200003 -1.085 113 72 54
-13.896 9.7370005 -1.089 103 39 0
-13.932 9.691 -1.081 204 106 31
-13.947 9.7419996 -0.903 143 82 35
-13.957 9.7340002 -0.88599998 227 127 52
-13.946 9.7799997 -0.93800002 78 49 7
-13.928 9.7550001 -1.012 167 63 0
-13.933 9.7869997 -0.86400002 165 114 67
-13.949 9.7659998 -0.88700002 135 77 29
-13.942 9.7670002 -0.884 188 123 65
-13.951 9.7889996 -0.85600001 194 103 24
-13.935 9.7629995 -0.88099998 184 107 55
-13.965 9.7329998 -0.90200001 149 86 33
-13.969 9.7320004 -0.89099997 120 74 38
-13.971 9.7489996 -0.89300001 166 90 40
-13.97 9.75 -0.89600003 167 102 44
-13.969 9.7700005 -0.89999998 216 136 65
-13.969 9.7539997 -0.89399999 183 120 67
-13.971 9.7480001 -0.89399999 116 62 28
-13.916 9.7659998 -1.028 160 90 38
-13.926 9.757 -1.029 124 83 61
-13.912 9.7629995 -1.026 197 93 20
-13.903 9.7799997 -1.0089999 207 145 94
-13.986 9.7559996 -1.0039999 181 129 82
-13.972 9.7609997 -0.99599999 237 181 122
-13.919 9.7700005 -0.98000002 221 123 48
-13.879 9.8109999 -1.0880001 171 132 93
-13.916 9.7720003 -1.0829999 123 62 15
-13.909 9.7620001 -1.084 115 65 28
-13.907 9.7749996 -1.079 167 104 61
-13.933 9.7250004 -1.069 251 150 78
-13.929 9.7150002 -1.0470001 182 85 17
-13.919 9.7159996 -1.046 252 162 76
-13.948 9.8050003 -0.94999999 118 67 40
-13.938 9.7969999 -0.90899998 111 68 26
-13.93 9.8009996 -0.90100002 158 104 66
-13.934 9.7969999 -0.90100002 144 92 55
-13.921 9.7950001 -0.87800002 202 109 31
-13.934 9.7969999 -0.87400001 156 97 55
-13.973 9.7460003 -0.88099998 245 147 76
-13.946 9.7709999 -0.935 145 95 46
-13.969 9.7810001 -0.91399997 200 106 42
-13.97 9.7770004 -0.92199999 176 114 63
-13.968 9.776 -0.90600002 199 138 94
-13.957 9.783 -0.90799999 188 125 74
-13.952 9.79 -0.889 171 123 85
-13.91 9.7810001 -1.0190001 245 153 78
-13.91 9.7919998 -1.013 114 62 22
-13.95 9.757 -0.97799999 145 67 19
-13.945 9.7609997 -0.98500001 236 169 114
-13.974 9.7679996 -0.98799998 124 79 37
-13.946 9.8079996 -0.98199999 119 66 22
-13.917 9.7770004 -0.98199999 230 144 57
-13.916 9.7709999 -0.98900002 187 138 80
-13.922 9.7860003 -1.006 203 114 56
-13.92 9.7770004 -1.005 180 119 64
-13.925 9.7720003 -1.006 187 111 53
-13.933 9.7969999 -0.98500001 176 120 69
-13.925 9.7959995 -0.98799998 136 73 29
-13.922 9.8030005 -0.99900001 176 82 20
-13.93 9.7969999 -0.98699999 153 88 48
-13.932 9.7950001 -0.98000002 107 82 41
-13.901 9.8079996 -0.84899998 186 137 104
-13.936 9.7600002 -0.98400003 215 118 41
-13.935 9.7709999 -1.023 136 60 10
-13.942 9.7790003 -1.01 121 46 4
-13.933 9.7860003 -1.069 78 31 1
-13.946 9.7299995 -1.03 151 85 33
-13.944 9.7200003 -1.041 190 124 50
-13.929 9.757 -1.034 164 84 15
-13.906 9.7559996 -1.027 157 61 13
-13.946 9.7849998 -1.057 120 62 14
-13.929 9.7110004 -1.045 170 104 46
-13.93 9.7119999 -1.0470001 226 135 52
-13.933 9.7080002 -1.039 189 89 14
-13.925 9.691 -1.067 170 103 32
-13.923 9.8240004 -1.0140001 113 58 17
-13.931 9.8210001 -1.003 187 131 82
-13.922 9.8070002 -1.011 178 111 68
-13.925 9.7930002 -0.93800002 82 31 2
-13.948 9.7849998 -0.97100002 163 71 6
-13.94 9.8070002 -0.97000003 128 76 26
-13.929 9.8190002 -1.023 143 61 3
-13.95 9.7770004 -1.003 135 73 24
-13.977 9.7840004 -1.077 111 37 2
-13.955 9.8100004 -0.96700001 165 59 0
-13.933 9.8470001 -1.036 217 123 59
-13.909 9.8470001 -1.08 165 119 86
-13.932 9.8660002 -1.049 237 159 95
-13.918 9.8520002 -1.025 239 160 83
-13.918 9.8000002 -1.002 197 134 81
-13.952 9.7860003 -0.91100001 177 85 20
-13.953 9.7930002 -0.93000001 163 82 19
-13.962 9.7860003 -0.92900002 159 106 56
-13.971 9.7609997 -0.94999999 140 58 8
-13.95 9.7370005 -0.90700001 190 96 34
-13.952 9.7390003 -0.90499997 154 87 44
-13.94 9.7519999 -0.90499997 94 48 58
-13.942 9.7559996 -0.91399997 97 62 24
-13.918 9.7180004 -1.076 249 175 110
-13.9 9.7370005 -1.09 144 95 62
-13.937 9.783 -0.92799997 152 101 58
-13.905 9.7639999 -1.011 156 107 67
-13.901 9.757 -1.016 210 116 42
-13.91 9.7609997 -1.011 219 117 43
-13.912 9.7620001 -1 141 79 30
-13.933 9.757 -1.021 127 61 9
-13.933 9.7250004 -1.025 197 94 27
-13.918 9.724 -1.031 174 92 19
-13.925 9.7360001 -1.02 185 108 64
-13.931 9.7220001 -1.0369999 175 109 51
-13.934 9.7930002 -0.87 117 72 33
-13.959 9.7620001 -0.89700001 210 140 81
-13.956 9.7770004 -0.89499998 214 144 84
-13.945 9.7799997 -0.87 158 93 55
-13.931 9.7650003 -0.884 201 147 101
-13.959 9.757 -0.92400002 172 109 55
-13.962 9.7690001 -0.912 246 176 117
-13.966 9.7729998 -0.92199999 119 60 20
-13.858 9.7969999 -1.098 156 108 72
-13.857 9.802 -1.102 199 125 64
-13.9 9.7679996 -1.017 220 151 96
-13.868 9.816 -1.097 169 72 4
-13.909 9.7980003 -1.013 250 188 127
-13.873 9.8190002 -1.0930001 203 109 39
-13.906 9.7589998 -1.0829999 133 49 3
-13.927 9.7379999 -1.0829999 163 77 16
-13.904 9.7749996 -1.082 111 50 5
-13.934 9.7119999 -1.0470001 162 117 98
-13.921 9.7180004 -1.0779999 152 72 13
-13.927 9.6949997 -1.08 183 111 63
-13.92 9.717 -1.038 188 85 6
-13.948 9.7910004 -0.90100002 166 86 33
-13.921 9.7939997 -0.88200003 183 116 71
-13.948 9.7609997 -0.94499999 222 156 98
-13.971 9.7819996 -0.92900002 158 98 48
-13.963 9.7720003 -0.93300003 170 94 45
-13.955 9.79 -0.94599998 168 87 40
-13.913 9.7700005 -1.029 215 121 47
-13.903 9.7709999 -1.0190001 230 148 88
-13.959 9.7629995 -0.99199998 120 82 61
-13.958 9.7860003 -0.95099998 122 57 19
-13.948 9.809 -0.99900001 155 59 9
-13.93 9.8260002 -1.006 155 110 81
-13.931 9.7679996 -1.0140001 161 74 20
-13.93 9.7950001 -1.0039999 148 88 38
-13.939 9.79 -1.003 178 110 63
-13.929 9.7919998 -1.069 162 76 17
-13.944 9.7270002 -1.038 240 149 66
-13.931 9.743 -1.038 158 89 34
-13.919 9.7299995 -1.038 150 74 16
-13.931 9.743 -1.029 148 78 26
-13.928 9.7329998 -1.028 155 113 91
-13.903 9.7650003 -1.02 231 157 110
-13.905 9.7620001 -1.028 107 66 46
-13.926 9.7530003 -1.029 239 145 71
-13.921 9.7290001 -1.039 176 110 34
-13.939 9.7349997 -1.022 147 80 37
-13.927 9.7390003 -1.017 177 90 21
-13.933 9.8219995 -1.001 141 91 56
-13.931 9.8149996 -1.023 161 94 41
-13.949 9.7770004 -1.011 161 76 12
-13.953 9.7819996 -1.001 176 96 27
-13.952 9.7910004 -1.0039999 125 69 22
-13.93 9.8520002 -1.033 174 92 32
-13.928 9.8540001 -1.039 253 177 128
-13.924 9.8540001 -1.04 186 113 58
-13.921 9.8540001 -1.025 204 159 128
-13.932 9.8319998 -1.016 161 88 35
-13.931 9.7620001 -0.89399999 140 98 84
-13.961 9.7659998 -0.91900003 150 68 8
-13.932 9.7959995 -0.89200002 150 98 61
-13.972 9.7600002 -0.93699998 233 175 127
-13.959 9.7449999 -0.92799997 142 64 15
-13.942 9.7440004 -0.90700001 158 104 60
-13.922 9.7010002 -1.0650001 175 132 115
-13.939 9.8070002 -0.949 166 59 3
-13.93 9.7989998 -0.94700003 128 75 43
-13.909 9.7679996 -0.995 196 105 32
-13.951 9.7849998 -0.903 179 108 62
-13.944 9.7770004 -0.87699997 179 86 9
-13.935 9.7720003 -0.875 190 134 97
-13.965 9.7460003 -0.90399998 119 57 6
-13.965 9.7399998 -0.89899999 189 113 61
-13.958 9.7559996 -0.90399998 214 150 89
-13.968 9.7340002 -0.89600003 166 81 17
-13.862 9.7980003 -1.101 142 59 0
-13.874 9.8199997 -1.094 138 77 33
-13.919 9.724 -1.046 159 116 97
-13.93 9.7320004 -1.075 183 124 84
-13.924 9.7069998 -1.068 199 126 75
-13.916 9.7139997 -1.044 213 147 86
-13.925 9.717 -1.04 225 161 90
-13.94 9.7539997 -0.94800001 151 79 21
-13.904 9.7709999 -1.008 199 144 87
-13.909 9.7749996 -1.022 182 117 53
-13.942 9.8219995 -0.99699998 141 95 69
-13.934 9.8280001 -1.005 109 60 28
-13.915 9.7910004 -1.001 131 73 23
-13.913 9.7849998 -0.99800003 185 96 14
-13.935 9.7639999 -0.99900001 96 34 0
-13.923 9.7810001 -1.03 175 109 59
-13.916 9.7709999 -1.023 175 82 23
-13.938 9.7629995 -1.022 97 33 0
-13.925 9.724 -1.045 117 52 10
-13.934 9.7370005 -1.044 161 83 21
-13.921 9.7480001 -1.02 175 96 55
-13.919 9.7480001 -1.018 115 44 0
-13.919 9.7460003 -1.017 149 60 0
-13.941 9.7939997 -1.003 163 101 52
-13.92 9.8529997 -1.036 221 142 76
-13.935 9.8540001 -1.049 120 45 0
-13.964 9.7840004 -0.917 192 111 46
-13.934 9.7959995 -0.89700001 207 108 27
-13.96 9.7720003 -0.94400001 121 65 18
-13.962 9.7679996 -0.94199997 146 76 27
-13.943 9.7510004 -0.93699998 96 64 25
-13.925 9.6940002 -1.067 164 92 42
-13.936 9.7939997 -0.88 135 99 63
-13.942 9.7889996 -0.87699997 146 62 0
-13.944 9.7910004 -0.889 148 89 49
-13.963 9.7679996 -0.90700001 176 110 58
-13.96 9.7670002 -0.91299999 176 103 52
-13.929 9.7309999 -1.072 203 140 89
-13.928 9.7220001 -1.0829999 184 88 28
-13.918 9.7180004 -1.043 204 131 76
-13.944 9.79 -0.90799999 147 84 40
-13.906 9.7670002 -1.03 206 117 59
-13.954 9.7939997 -0.94400001 154 72 25
-13.936 9.816 -1.001 164 100 56
-13.943 9.7709999 -1.007 144 68 10
-13.927 9.7690001 -1.0089999 173 82 12
-13.922 9.7379999 -1.018 106 38 0
-13.926 9.7510004 -1.016 156 91 33
-13.917 9.7580004 -1.008 204 150 90
-13.918 9.7600002 -1 65 41 15
-13.918 9.7589998 -0.99199998 251 196 132
-13.934 9.8549995 -1.048 217 135 85
-13.941 9.7939997 -0.89399999 126 67 33
-13.949 9.7559996 -0.921 163 87 37
-13.929 9.6899996 -1.072 187 124 73
-13.933 9.7889996 -0.86699998 189 101 29
-13.962 9.7650003 -0.90499997 202 136 78
-13.928 9.724 -1.081 141 72 33
-13.943 9.8059998 -1.001 125 69 22
-13.941 9.809 -1.003 132 84 100
-13.938 9.809 -1.005 99 45 11
-13.914 9.7659998 -0.99400002 163 73 13
-13.946 9.7589998 -0.91600001 201 116 52
-13.95 9.7600002 -0.93300003 228 139 79
-13.951 9.7810001 -0.88300002 195 121 58
-13.95 9.7889996 -0.86900002 196 150 114
-13.936 9.7950001 -0.889 122 74 34
-13.944 9.7919998 -0.89300001 131 73 33
-13.939 9.8100004 -1.006 92 38 0
-13.945 9.75 -0.93300003 104 67 49
-13.948 9.7629995 -0.93800002 252 208 159
0 0 0 1 0 0 0 1 0 0 0 1 0 0 0 0 0 765 1 0 0
