ply
format ascii 1.0
comment PCL generated
element vertex 1191
property float x
property float y
property float z
property uchar red
property uchar green
property uchar blue
element camera 0
property float view_px
property float view_py
property float view_pz
property float x_axisx
property float x_axisy
property float x_axisz
property float y_axisx
property float y_axisy
property float y_axisz
property float z_axisx
property float z_axisy
property float z_axisz
property float focal
property float scalex
property float scaley
property float centerx
property float centery
property int viewportx
property int viewporty
property float k1
property float k2
end_header
0.119 8.0710001 -0.80900002 197 155 105
0.14 8.0760002 -0.75700003 152 81 17
0.079999998 8.1230001 -0.72799999 118 79 46
0.085000001 8.1210003 -0.71100003 92 52 16
0.059999999 8.1140003 -0.72399998 218 166 142
0.082999997 8.1160002 -0.72000003 240 187 111
0.085000001 8.118 -0.71700001 133 88 33
0.057 8.1110001 -0.72299999 95 40 19
0.055 8.1090002 -0.72000003 112 59 27
0.056000002 8.1040001 -0.72899997 92 38 4
0.057999998 8.1099997 -0.72500002 97 39 15
0.141 8.1059999 -0.70999998 191 131 94
0.132 8.1110001 -0.713 159 94 62
0.133 8.1099997 -0.71499997 101 77 75
0.127 8.1110001 -0.71600002 151 85 59
0.132 8.1099997 -0.704 113 48 18
0.124 8.0950003 -0.77200001 136 39 0
0.12800001 8.1029997 -0.78399998 112 55 12
0.123 8.0959997 -0.77899998 106 24 0
0.12899999 8.1009998 -0.78899997 143 84 44
0.123 8.0869999 -0.78600001 130 119 125
0.123 8.0900002 -0.76999998 126 82 47
0.07 8.1459999 -0.55599999 66 44 33
0.011 8.0290003 -0.96799999 170 100 51
0.013 8.0340004 -0.958 126 66 32
0.021 8.0340004 -0.95499998 199 150 83
0.02 8.0699997 -0.991 81 31 6
0.098999999 8.1079998 -0.954 67 19 5
0.106 8.1120005 -0.95300001 149 112 93
0.109 8.1029997 -0.96799999 155 122 103
0.102 8.1359997 -0.93699998 75 34 16
0.119 8.1689997 -0.89899999 163 107 60
0.121 8.1590004 -0.89899999 124 72 22
0.117 8.1739998 -0.903 172 122 59
0.022 8.0629997 -0.995 93 38 0
0.12899999 8.0970001 -1.003 152 107 86
0.109 8.0889997 -1.0039999 100 40 6
0.134 8.0959997 -1.0039999 135 99 75
0.107 8.092 -0.99299997 70 19 0
0.093000002 8.0869999 -0.99299997 76 32 19
0.11 8.1280003 -0.55199999 203 157 107
0.048 8.1350002 -0.57300001 169 112 82
0.050999999 8.1260004 -0.57099998 116 76 40
0.108 8.1540003 -0.91299999 221 161 89
0.12899999 8.1040001 -0.875 102 40 0
0.131 8.1029997 -0.87699997 108 31 1
0.127 8.1160002 -0.89200002 170 153 146
0.085000001 8.1210003 -0.88099998 31 3 0
-0.0089999996 8.0889997 -0.86400002 148 87 42
-0.0060000001 8.0979996 -0.85699999 50 26 0
0.0070000002 8.0909996 -0.85299999 212 120 43
-0.001 8.092 -0.85600001 111 37 2
-0.0060000001 8.0880003 -0.84600002 86 43 1
0.119 8.1560001 -0.91100001 68 22 0
0.125 8.1450005 -0.91000003 108 33 0
0.117 8.158 -0.92000002 236 185 119
0.122 8.1619997 -0.91000003 180 128 78
0.12 8.1540003 -0.89600003 186 177 172
0.124 8.1429996 -0.912 145 53 14
0.123 8.1230001 -0.92199999 156 118 73
0.122 8.1149998 -0.91799998 99 47 0
0.124 8.1260004 -0.912 125 66 32
0.123 8.1230001 -0.92500001 119 86 45
0.127 8.1420002 -0.90499997 85 24 0
0.13 8.1450005 -0.89899999 175 111 50
0.126 8.1470003 -0.90499997 99 50 18
0.123 8.1619997 -0.90700001 190 134 77
0.126 8.1490002 -0.898 146 141 147
0.061000001 8.0170002 -0.99699998 171 138 69
0.043000001 8.0299997 -1.008 171 127 90
0.064000003 8.026 -1.0039999 79 32 16
0.066 8.0190001 -1.003 149 132 140
0.097000003 8.0550003 -0.977 114 64 27
0.098999999 8.0570002 -0.97799999 114 40 1
0.075999998 8.0780001 -0.898 81 22 6
0.12899999 8.1169996 -0.89600003 97 48 5
0.13 8.1029997 -0.89700001 211 159 73
0.13600001 8.1009998 -0.89300001 82 40 15
0.121 8.1190004 -0.91500002 104 41 0
0.126 8.1000004 -0.90499997 225 186 107
0.13699999 8.1149998 -0.81199998 187 120 33
0.13600001 8.1059999 -0.80400002 255 197 83
0.134 8.1199999 -0.80199999 63 19 0
0.134 8.1049995 -0.80800003 251 195 60
0.13600001 8.1160002 -0.81300002 160 91 24
0.13600001 8.1160002 -0.81099999 159 86 18
0.134 8.1210003 -0.80400002 117 76 48
0.134 8.1190004 -0.80299997 210 163 135
0.131 8.0959997 -0.79799998 152 56 0
0.133 8.1090002 -0.792 110 49 4
0.113 8.0719995 -0.96600002 93 74 67
0.122 8.092 -0.92299998 235 197 122
0.121 8.0909996 -0.92000002 244 208 134
0.082999997 8.1079998 -0.55500001 191 118 13
0.138 8.1099997 -0.69099998 246 151 83
0.101 8.099 -0.56400001 61 9 0
0.097000003 8.0979996 -0.56699997 206 155 90
0.107 8.1029997 -0.56300002 114 49 17
0.141 8.1009998 -0.685 118 34 0
0.141 8.1029997 -0.685 195 109 58
0.142 8.0970001 -0.68699998 148 79 14
0.138 8.1009998 -0.68199998 129 67 6
0.13500001 8.0830002 -0.69199997 184 93 40
0.041999999 8.1160002 -0.80500001 51 3 0
0.050000001 8.1239996 -0.81099999 107 68 53
0.048 8.118 -0.81 128 58 32
0.041999999 8.1160002 -0.801 89 31 9
0.061000001 8.1169996 -0.80699998 236 176 124
0.045000002 8.1120005 -0.80000001 221 154 102
0.0040000002 8.0740004 -0.83600003 129 83 60
0.011 8.0819998 -0.83999997 235 159 83
0.0020000001 8.0389996 -0.90899998 85 36 6
0.003 8.0240002 -0.90899998 51 17 5
0.017000001 8.0290003 -0.97299999 204 167 114
0.021 8.0319996 -0.97299999 199 172 161
0.0060000001 8.0249996 -0.98299998 106 64 39
0.052999999 8.0170002 -0.99199998 229 195 106
0.026000001 8.0360003 -0.95300001 89 37 0
0.035999998 8.0360003 -0.96899998 205 128 82
0.022 8.033 -0.93699998 119 64 33
0.037999999 8.0410004 -0.93199998 113 40 0
0.021 8.033 -0.93199998 111 55 22
0.021 8.0340004 -0.92900002 157 93 49
0.115 8.0559998 -0.86299998 255 192 125
0.121 8.0550003 -0.86000001 149 107 33
0.106 8.0640001 -0.86199999 167 96 40
0.054000001 8.0679998 -0.88499999 83 26 0
0.041999999 8.0579996 -0.87099999 50 17 0
0.041999999 8.0629997 -0.88 122 57 3
0.088 8.0670004 -0.875 138 56 16
0.092 8.059 -0.87 134 134 126
0.102 8.0439997 -0.87800002 190 128 87
0.102 8.0290003 -0.87800002 85 32 0
0.105 8.0360003 -0.87199998 109 27 0
0.101 8.0270004 -0.86500001 80 45 26
0.068000004 8.0810003 -0.86000001 84 84 86
0.074000001 8.0749998 -0.86500001 198 100 71
0.068000004 8.0799999 -0.85600001 153 152 157
0.102 8.0340004 -0.86000001 154 76 37
0.105 8.0349998 -0.86400002 132 51 8
0.114 8.0780001 -0.86500001 90 78 64
0.098999999 8.125 -0.88599998 84 33 6
0.1 8.1110001 -0.87099999 122 70 20
0.048 8.1110001 -0.82599998 131 81 56
0.052999999 8.1210003 -0.81800002 97 61 37
0.067000002 8.1049995 -0.86799997 57 28 12
0.050999999 8.0939999 -0.87900001 134 50 3
0.054000001 8.0939999 -0.88 147 58 18
0.134 8.1169996 -0.81400001 111 44 0
0.124 8.1129999 -0.83700001 166 92 5
0.097000003 8.1210003 -0.85500002 73 39 14
0.094999999 8.1239996 -0.87 34 5 1
0.122 8.1199999 -0.82999998 243 200 131
0.114 8.1199999 -0.83600003 148 122 105
0.116 8.1079998 -0.87400001 170 126 89
0.124 8.1099997 -0.85000002 146 82 46
0.113 8.0710001 -0.81599998 189 141 92
0.117 8.0889997 -0.83399999 42 13 5
0.117 8.0860004 -0.829 255 202 98
0.115 8.0880003 -0.84200001 245 189 78
0.097000003 8.0769997 -0.84200001 227 155 55
0.11 8.085 -0.847 177 107 21
0.103 8.0799999 -0.83600003 229 148 43
0.104 8.0810003 -0.85799998 103 51 12
0.090999998 8.0640001 -0.86000001 217 151 99
0.098999999 8.0769997 -0.83399999 143 72 30
0.11 8.0819998 -0.833 210 137 24
0.145 8.1000004 -0.69599998 255 180 102
0.141 8.1040001 -0.69700003 234 137 60
0.146 8.0939999 -0.70599997 202 103 0
0.086000003 8.1280003 -0.69400001 70 30 4
0.088 8.1309996 -0.63599998 30 6 0
0.093999997 8.1269999 -0.625 89 44 15
0.093999997 8.125 -0.64099997 107 54 22
0.059 8.0769997 -0.722 252 182 120
0.115 8.118 -0.57800001 155 80 40
0.090999998 8.0950003 -0.57300001 176 113 60
0.101 8.1029997 -0.58399999 183 93 30
0.086999997 8.092 -0.57999998 87 43 8
0.059999999 8.0690002 -0.56800002 246 179 98
0.043000001 8.0719995 -0.59100002 112 75 48
0.027000001 8.0690002 -0.59299999 138 70 33
0.063000001 8.0740004 -0.59799999 147 55 0
0.050999999 8.0699997 -0.588 188 119 62
0.044 8.0690002 -0.56699997 204 164 76
0.056000002 8.0620003 -0.58499998 100 74 61
0.024 8.1040001 -0.58600003 191 128 87
0.021 8.1000004 -0.58600003 150 129 124
0.030999999 8.0979996 -0.597 87 28 0
0.035999998 8.1040001 -0.60299999 46 18 17
0.052999999 8.0909996 -0.708 189 136 96
0.050000001 8.0830002 -0.63800001 73 34 3
0.048 8.0830002 -0.63599998 70 24 0
0.035 8.0889997 -0.62300003 78 16 0
0.037999999 8.085 -0.63200003 164 106 56
0.024 8.085 -0.56999999 149 106 72
0.021 8.092 -0.56999999 242 200 248
0.015 8.0939999 -0.57999998 120 50 16
0.059 8.1110001 -0.55400002 179 89 26
0.027000001 8.1040001 -0.55900002 114 81 62
0.027000001 8.0930004 -0.56800002 179 117 66
0.032000002 8.0979996 -0.56 117 69 23
0.072999999 8.1090002 -0.55500001 236 186 137
0.063000001 8.0939999 -0.56199998 249 198 133
0.071000002 8.1120005 -0.551 129 49 0
0.064000003 8.1120005 -0.55299997 139 55 0
0.059999999 8.1049995 -0.55900002 92 50 0
0.056000002 8.0830002 -0.55500001 176 101 36
0.013 8.0670004 -0.90700001 193 107 50
0.0060000001 8.0699997 -0.89600003 167 111 76
0.0089999996 8.0559998 -0.926 162 142 141
0.022 8.0349998 -0.93099999 129 65 21
0.017999999 8.0299997 -0.935 107 57 34
0.067000002 8.1070004 -0.91399997 167 139 127
0.0099999998 8.0579996 -0.92699999 114 50 22
0.012 8.0600004 -0.92000002 89 25 0
0.0080000004 8.0609999 -0.91399997 144 91 59
0.0099999998 8.0579996 -0.91900003 205 142 99
0.0060000001 8.0760002 -0.89099997 109 32 0
0.050999999 8.0939999 -0.88099998 134 42 0
0.044 8.0719995 -0.565 164 125 30
0.035 8.0740004 -0.56699997 95 37 15
-0.0060000001 8.0790005 -0.847 170 87 9
0.001 8.0290003 -0.90100002 108 71 42
0.0070000002 8.0319996 -0.90399998 68 35 20
0.015 8.0340004 -0.89999998 183 140 121
0.0089999996 8.0290003 -0.903 61 25 3
-0.0040000002 8.0570002 -0.87199998 225 155 85
0.093000002 8.0699997 -0.81300002 98 27 0
0.048 8.1009998 -0.80900002 137 88 58
0.043000001 8.1000004 -0.80299997 193 123 71
0.018999999 8.0790005 -0.88599998 117 72 41
0.017000001 8.085 -0.87599999 207 123 35
-0.0020000001 8.033 -0.97100002 156 79 7
-0.0020000001 8.0319996 -0.97100002 188 120 59
0.0049999999 8.0430002 -0.95700002 164 83 18
-0.0070000002 8.0430002 -0.98000002 74 27 0
0.093000002 8.1420002 -0.54900002 233 177 92
0.098999999 8.1490002 -0.56800002 89 33 8
0.097000003 8.1459999 -0.57800001 127 92 86
0.096000001 8.1429996 -0.55199999 253 222 132
0.071000002 8.1140003 -0.76499999 167 92 25
0.077 8.1140003 -0.75300002 110 36 1
0.075000003 8.1129999 -0.75 123 44 3
0.117 8.1260004 -0.77600002 122 71 44
0.112 8.1289997 -0.77499998 126 112 101
0.115 8.1280003 -0.77200001 90 38 16
0.133 8.1239996 -0.80000001 117 80 53
0.13699999 8.0760002 -0.755 233 150 82
0.121 8.0710001 -0.74900001 208 158 109
0.126 8.0780001 -0.75199997 135 85 50
0.086999997 8.0780001 -0.76800001 230 146 73
0.075000003 8.0749998 -0.75199997 107 44 0
0.077 8.0799999 -0.75999999 134 81 50
0.085000001 8.0810003 -0.77700001 101 68 51
0.079000004 8.0839996 -0.76300001 119 73 37
0.11 8.085 -0.77899998 189 114 83
0.107 8.0780001 -0.78600001 158 95 60
0.115 8.073 -0.80500001 170 124 62
0.115 8.0799999 -0.76499999 81 39 14
0.104 8.0810003 -0.76800001 135 65 14
0.104 8.0810003 -0.76599997 191 123 62
0.12 8.0780001 -0.75199997 91 33 0
0.134 8.0790005 -0.755 247 165 83
0.094999999 8.1280003 -0.72299999 116 66 31
0.061000001 8.1120005 -0.72899997 192 144 122
0.079999998 8.1190004 -0.73199999 106 62 37
0.071000002 8.1070004 -0.74400002 126 61 23
0.081 8.1140003 -0.72299999 126 65 20
0.086999997 8.1309996 -0.73000002 111 47 19
0.133 8.0780001 -0.699 127 33 0
0.122 8.1190004 -0.736 137 77 43
0.114 8.1219997 -0.71899998 137 89 67
0.139 8.1079998 -0.704 100 40 0
0.093999997 8.1459999 -0.57499999 58 17 0
0.086999997 8.1479998 -0.58099997 118 84 57
0.082000002 8.1440001 -0.59399998 47 8 1
0.068000004 8.1450005 -0.55800003 47 19 8
0.064999998 8.1389999 -0.55800003 224 128 26
0.089000002 8.1479998 -0.56699997 53 11 0
0.117 8.0950003 -0.99299997 114 88 73
0.125 8.1009998 -0.99599999 147 100 70
0.1 8.1370001 -0.93300003 70 27 8
0.103 8.0970001 -0.97500002 79 23 8
0.075000003 8.0799999 -0.99299997 145 135 133
0.081 8.0810003 -0.99699998 168 158 156
0.077 8.0769997 -1.002 152 113 84
0.108 8.1049995 -0.96200001 156 127 109
0.107 8.1059999 -0.958 52 21 3
0.115 8.0979996 -0.96600002 134 84 49
0.109 8.1459999 -0.92199999 62 25 9
0.113 8.1420002 -0.92199999 89 38 7
0.109 8.1370001 -0.93199998 191 112 55
0.119 8.1359997 -0.91799998 119 35 0
0.113 8.132 -0.94099998 166 84 34
0.104 8.1400003 -0.93199998 114 45 6
0.109 8.1359997 -0.93300003 226 148 86
0.105 8.1379995 -0.93699998 114 51 16
0.103 8.1420002 -0.92699999 115 43 3
0.024 8.0699997 -0.99199998 76 25 0
0.021 8.0710001 -0.99000001 84 34 9
0.017000001 8.0640001 -0.991 156 130 113
0.083999999 8.0799999 -0.99800003 169 161 158
0.106 8.0860004 -1.003 129 86 54
0.078000002 8.1169996 -0.54799998 198 140 94
0.075000003 8.1420002 -0.55299997 131 95 59
0.068000004 8.1440001 -0.56599998 117 80 71
0.074000001 8.1479998 -0.56400001 164 81 13
0.115 8.1339998 -0.56199998 147 85 38
0.11 8.1400003 -0.56699997 151 104 62
0.101 8.1379995 -0.588 87 50 21
0.098999999 8.1389999 -0.58499998 58 23 1
0.081 8.1470003 -0.58399999 47 7 0
0.078000002 8.1450005 -0.58099997 111 74 48
0.14399999 8.0609999 -0.86400002 127 73 37
0.15099999 8.0539999 -0.86799997 209 168 140
0.154 8.0530005 -0.86299998 106 60 34
0.13500001 8.1020002 -0.88200003 232 143 83
0.116 8.0760002 -0.99800003 166 144 131
0.111 8.1529999 -0.92000002 65 24 0
0.119 8.0889997 -0.87199998 98 33 1
0.119 8.0710001 -0.87300003 95 36 4
0.127 8.1049995 -0.87300003 197 125 67
0.12800001 8.1049995 -0.87800002 155 94 37
0.105 8.1199999 -0.89999998 88 53 33
0.074000001 8.1099997 -0.89899999 85 34 5
0.075000003 8.1099997 -0.889 98 45 14
0.098999999 8.1420002 -0.92400002 75 20 0
0.097999997 8.1409998 -0.92199999 125 69 36
0.097999997 8.1370001 -0.917 75 23 0
0.098999999 8.1400003 -0.92000002 130 68 29
0.108 8.1540003 -0.91500002 182 126 67
0.078000002 8.1190004 -0.87800002 65 30 2
0.088 8.1199999 -0.87400001 46 19 2
0.112 8.1569996 -0.91799998 157 112 81
-0.0089999996 8.0930004 -0.86000001 68 44 20
0.078000002 8.1149998 -0.921 93 41 17
0.092 8.1239996 -0.92699999 60 17 0
0.111 8.1630001 -0.90799999 79 29 0
0.123 8.1639996 -0.90899998 193 140 74
0.124 8.1700001 -0.90799999 155 93 36
0.117 8.1709995 -0.898 105 61 14
0.13 8.099 -0.99800003 93 46 20
0.125 8.1549997 -0.89700001 167 114 60
0.111 8.1630001 -0.90600002 87 28 0
0.123 8.0810003 -0.889 222 168 121
0.123 8.0769997 -0.88499999 226 173 131
0.122 8.0760002 -0.89700001 88 43 20
0.107 8.059 -0.889 188 125 71
0.121 8.0500002 -0.88099998 167 122 83
0.125 8.052 -0.88099998 135 88 60
0.116 8.0430002 -0.88599998 132 98 71
0.057999998 8.0170002 -1.001 254 233 186
0.056000002 8.0179996 -0.99199998 196 161 67
0.057999998 8.0209999 -0.991 245 207 100
0.039000001 8.0290003 -0.977 253 219 155
0.059 8.04 -0.99599999 136 48 0
0.039999999 8.0430002 -0.98500001 185 111 48
0.041999999 8.0539999 -0.98799998 78 21 4
0.050000001 8.0380001 -0.99400002 99 79 81
0.063000001 8.0389996 -0.99400002 232 152 103
0.075999998 8.0200005 -1.0039999 164 92 33
0.052999999 8.0319996 -1.0039999 95 49 25
0.077 8.0550003 -0.99900001 133 51 3
0.068999998 8.0360003 -1.006 185 94 24
0.071999997 8.0480003 -1 126 87 56
0.081 8.0500002 -0.99800003 117 35 0
0.079000004 8.033 -1 153 85 22
0.064000003 8.073 -0.89700001 135 53 13
0.071000002 8.0819998 -0.89600003 216 144 72
0.074000001 8.0900002 -0.90200001 72 36 22
0.074000001 8.0930004 -0.89899999 97 54 37
0.057999998 8.092 -0.88200003 126 38 0
0.074000001 8.092 -0.89399999 73 27 3
0.090999998 8.0710001 -0.89099997 155 89 39
0.083999999 8.085 -0.92000002 196 139 94
0.082000002 8.0839996 -0.91000003 175 115 79
0.097999997 8.0909996 -0.71700001 174 100 29
0.113 8.0900002 -0.71799999 107 34 0
0.116 8.085 -0.713 91 73 73
0.112 8.0869999 -0.704 153 95 75
0.133 8.0740004 -0.704 145 98 44
0.124 8.1389999 -0.903 145 76 1
0.13 8.1009998 -0.898 251 196 114
0.123 8.099 -0.89899999 255 168 90
0.14399999 8.0489998 -0.86199999 219 168 121
0.13500001 8.052 -0.85900003 123 64 34
0.147 8.0430002 -0.87099999 98 75 67
0.126 8.0349998 -0.86199999 137 131 135
0.12899999 8.0439997 -0.85799998 97 48 18
0.13699999 8.0500002 -0.87 186 113 80
0.14399999 8.052 -0.87099999 112 59 25
0.12899999 8.0959997 -0.80199999 185 97 25
0.134 8.1110001 -0.80000001 198 159 120
0.090000004 8.0769997 -0.796 255 195 123
0.085000001 8.0810003 -0.79000002 155 85 23
0.132 8.0780001 -1.002 106 58 22
0.139 8.059 -0.87099999 47 10 2
0.146 8.0539999 -0.86900002 131 75 48
0.122 8.0609999 -0.87199998 101 51 24
0.122 8.0790005 -0.88200003 67 17 0
0.103 8.066 -0.95999998 174 126 54
0.15000001 8.052 -0.86900002 89 52 26
0.118 8.0869999 -0.92299998 255 222 145
0.106 8.0769997 -0.91399997 161 133 109
0.105 8.0780001 -0.93599999 151 129 108
0.114 8.0860004 -0.92799997 209 146 53
0.12899999 8.0620003 -0.99000001 93 55 19
0.13 8.0769997 -0.98799998 176 156 121
0.127 8.066 -0.99599999 217 146 84
0.131 8.0749998 -0.99699998 95 67 55
0.117 8.0690002 -0.995 240 160 97
0.12800001 8.0780001 -0.986 90 62 51
0.079999998 8.0869999 -0.91299999 76 30 7
0.101 8.0740004 -0.94700003 80 29 2
0.1 8.073 -0.94800001 132 85 55
0.11 8.0749998 -0.95700002 150 130 123
0.106 8.0799999 -0.94499999 55 36 40
0.117 8.1309996 -0.56699997 145 94 47
0.086999997 8.1070004 -0.55500001 157 98 32
0.11 8.1020002 -0.56999999 116 53 2
0.106 8.1040001 -0.56199998 158 88 52
0.14300001 8.0970001 -0.69199997 213 124 58
0.14300001 8.1009998 -0.69400001 173 87 4
0.14300001 8.0930004 -0.68300003 151 81 45
0.131 8.0900002 -0.685 182 105 49
0.067000002 8.1070004 -0.74699998 121 90 72
0.063000001 8.1020002 -0.74900001 206 135 79
0.064999998 8.1020002 -0.75199997 208 144 70
0.056000002 8.1029997 -0.73400003 95 43 4
0.0080000004 8.0299997 -0.93900001 141 89 50
0.0070000002 8.0410004 -0.92500001 131 65 17
0.0089999996 8.0299997 -0.93099999 181 162 155
0.016000001 8.0310001 -0.92900002 215 170 103
0.0060000001 8.0270004 -0.90600002 75 40 21
0.050999999 8.0220003 -0.99000001 252 208 101
0.111 8.0360003 -0.87699997 159 141 131
0.122 8.04 -0.87400001 201 152 109
0.112 8.0389996 -0.87199998 152 65 20
0.109 8.0550003 -0.86400002 179 87 24
0.114 8.0450001 -0.86400002 99 22 2
0.046 8.0679998 -0.87300003 136 61 6
0.048 8.0690002 -0.87800002 116 45 0
0.044 8.0609999 -0.89099997 182 120 37
0.039000001 8.0579996 -0.88999999 183 95 55
0.041000001 8.0550003 -0.89499998 155 78 50
0.057 8.0719995 -0.89399999 161 98 44
0.089000002 8.0699997 -0.87900001 161 91 55
0.061999999 8.0699997 -0.88999999 67 9 0
0.041000001 8.0550003 -0.89700001 156 74 27
0.034000002 8.0559998 -0.89899999 108 42 0
0.037 8.0570002 -0.89499998 121 43 4
0.039999999 8.0539999 -0.89999998 148 74 25
0.102 8.0450001 -0.88700002 151 115 91
0.072999999 8.0769997 -0.85699999 168 79 49
0.074000001 8.0760002 -0.85399997 177 177 179
0.072999999 8.0780001 -0.85000002 161 157 158
0.094999999 8.0670004 -0.81800002 200 132 83
0.109 8.0369997 -0.86199999 119 45 10
0.116 8.0410004 -0.86199999 120 58 9
0.121 8.0439997 -0.86199999 247 196 131
0.081 8.073 -0.852 255 193 106
0.089000002 8.073 -0.82099998 161 129 108
0.057 8.1210003 -0.81199998 61 15 0
0.012 8.0900002 -0.85399997 221 116 24
0.0089999996 8.092 -0.85699999 155 78 0
0.017000001 8.0880003 -0.85699999 129 102 83
0.050000001 8.1190004 -0.81599998 81 31 8
0.044 8.1090002 -0.81699997 79 49 25
0.048999999 8.1120005 -0.82300001 89 39 16
0.0089999996 8.092 -0.85500002 255 185 94
0.011 8.0900002 -0.85100001 235 127 36
0.12 8.1099997 -0.85100001 169 94 55
0.119 8.1169996 -0.83600003 135 59 9
0.122 8.1190004 -0.829 154 107 37
0.122 8.1090002 -0.85900003 149 71 25
0.115 8.1059999 -0.86699998 136 59 13
0.116 8.1059999 -0.86900002 150 69 26
0.107 8.1070004 -0.88099998 138 96 71
0.12899999 8.1009998 -0.87300003 113 46 1
0.12800001 8.099 -0.87300003 217 115 43
0.117 8.0900002 -0.81699997 98 41 21
0.114 8.073 -0.81300002 220 167 117
0.117 8.0889997 -0.84500003 248 185 71
0.103 8.0690002 -0.81400001 116 54 13
0.111 8.0690002 -0.81900001 132 87 32
0.147 8.0860004 -0.704 125 95 71
0.059 8.1020002 -0.71100003 253 218 186
0.068000004 8.0979996 -0.71499997 107 33 0
0.059 8.1000004 -0.71100003 115 74 46
0.071999997 8.0979996 -0.708 96 45 24
0.086999997 8.1260004 -0.68900001 59 28 0
0.083999999 8.1309996 -0.68199998 40 10 0
0.085000001 8.1260004 -0.69499999 39 0 0
0.086999997 8.1300001 -0.67799997 50 20 9
0.082999997 8.1339998 -0.676 52 24 12
0.086999997 8.1300001 -0.67500001 46 17 0
0.1 8.1210003 -0.67799997 208 137 59
0.093000002 8.125 -0.63499999 55 16 1
0.088 8.1309996 -0.634 33 10 2
0.085000001 8.099 -0.685 114 59 5
0.082999997 8.099 -0.69700003 67 54 48
0.098999999 8.0930004 -0.69099998 178 126 76
0.074000001 8.085 -0.68400002 95 45 10
0.094999999 8.1000004 -0.68599999 144 102 62
0.082000002 8.0970001 -0.67799997 137 104 85
0.072999999 8.085 -0.66799998 225 160 96
0.067000002 8.0830002 -0.67000002 191 118 49
0.064999998 8.0790005 -0.66600001 246 176 117
0.066 8.0810003 -0.66900003 148 73 8
0.057 8.0760002 -0.70999998 111 36 5
0.067000002 8.0749998 -0.70499998 179 102 56
0.057 8.0780001 -0.708 111 36 7
0.085000001 8.099 -0.59200001 168 76 11
0.097000003 8.1020002 -0.583 174 87 16
0.082000002 8.085 -0.58099997 76 14 0
0.097000003 8.1169996 -0.60299999 69 16 0
0.092 8.1280003 -0.616 78 28 0
0.092 8.1280003 -0.61000001 96 47 15
0.092 8.1260004 -0.62400001 104 59 26
0.050999999 8.0620003 -0.574 85 35 10
0.022 8.0860004 -0.60399997 86 27 0
0.032000002 8.0869999 -0.61199999 99 36 5
0.035999998 8.0959997 -0.64999998 149 134 115
0.037999999 8.0869999 -0.64300001 200 127 92
0.039000001 8.085 -0.66100001 114 62 38
0.022 8.0860004 -0.602 164 106 68
0.068999998 8.0769997 -0.59299999 118 62 1
0.071999997 8.0819998 -0.588 93 47 14
0.050999999 8.0780001 -0.59299999 210 168 118
0.052000001 8.0710001 -0.56599998 250 190 118
0.059 8.0760002 -0.56400001 174 103 23
0.067000002 8.073 -0.574 32 14 4
0.041999999 8.0810003 -0.63599998 75 42 25
0.039999999 8.0819998 -0.67000002 74 9 0
0.037 8.0869999 -0.67199999 87 37 12
0.046999998 8.0760002 -0.676 149 100 68
0.071000002 8.0869999 -0.59299999 65 19 3
0.07 8.0769997 -0.59600002 255 198 158
0.052999999 8.0909996 -0.60500002 66 38 27
0.039000001 8.1000004 -0.60699999 109 50 18
0.039999999 8.1079998 -0.60299999 148 84 57
0.032000002 8.0900002 -0.61199999 111 86 79
0.041999999 8.092 -0.62 88 27 0
0.050999999 8.1020002 -0.60299999 43 13 3
0.082999997 8.1409998 -0.59500003 51 10 4
0.046999998 8.0939999 -0.55800003 235 161 86
0.046999998 8.0869999 -0.55900002 198 144 58
0.021 8.099 -0.56999999 55 36 32
0.045000002 8.0959997 -0.55900002 201 156 117
0.037 8.0880003 -0.56199998 255 207 141
0.068000004 8.1280003 -0.55500001 213 146 75
0.043000001 8.0799999 -0.56 184 106 44
0.035 8.0609999 -0.88099998 166 103 32
0.013 8.059 -0.87800002 135 115 106
-0.0099999998 8.0299997 -0.991 78 42 16
0.0080000004 8.0500002 -0.92699999 104 86 74
0.0080000004 8.0500002 -0.92299998 113 94 87
0.014 8.0670004 -0.94199997 91 35 0
0.0040000002 8.052 -0.94499999 56 34 20
0.077 8.1000004 -0.93300003 76 38 15
0.077 8.1020002 -0.93099999 77 35 13
0.090000004 8.1040001 -0.94999999 143 124 107
0.012 8.0570002 -0.90600002 179 107 67
0.057 8.0930004 -0.88200003 118 26 0
0.0080000004 8.0240002 -0.97799999 255 199 154
0.0089999996 8.0249996 -0.97500002 230 169 125
-0.0040000002 8.052 -0.86699998 124 75 35
0.015 8.0579996 -0.87 118 65 34
0.022 8.0530005 -0.86699998 110 48 25
-0.0040000002 8.0539999 -0.87400001 255 204 130
-0.0089999996 8.0539999 -0.86000001 191 149 109
-0.003 8.0559998 -0.85699999 126 82 37
0.083999999 8.0819998 -0.82099998 143 82 28
0.086000003 8.0769997 -0.82599998 246 195 77
0.054000001 8.0979996 -0.82499999 203 140 97
0.045000002 8.1070004 -0.79900002 85 49 27
0.044 8.1059999 -0.80199999 114 79 60
0.014 8.0819998 -0.84799999 202 95 23
0.014 8.0860004 -0.85299999 238 129 36
-0.0020000001 8.0939999 -0.86199999 159 119 94
0.059999999 8.0819998 -0.85100001 88 53 34
0.046 8.0830002 -0.87099999 202 122 69
0.045000002 8.0760002 -0.86799997 116 40 0
0.039999999 8.0769997 -0.86500001 243 167 109
0.061999999 8.0869999 -0.85399997 90 37 6
0.0049999999 8.0790005 -0.88499999 125 51 12
0.0089999996 8.0699997 -0.89899999 168 88 37
0.035 8.0439997 -1.001 210 144 66
0.037999999 8.059 -0.995 59 8 0
0.017000001 8.0270004 -0.98900002 53 21 0
0.032000002 8.0290003 -0.991 244 220 160
0.092 8.1429996 -0.54900002 179 112 31
0.057999998 8.0970001 -0.72399998 245 204 138
0.059 8.0790005 -0.73500001 148 59 3
0.064000003 8.0819998 -0.74000001 154 60 8
0.105 8.1190004 -0.84399998 170 135 107
0.133 8.1169996 -0.79799998 49 16 1
0.093999997 8.0790005 -0.77100003 235 166 101
0.097000003 8.0799999 -0.77100003 151 80 0
0.097000003 8.0690002 -0.80800003 199 124 82
0.126 8.1090002 -0.78299999 108 72 48
0.1 8.1219997 -0.81599998 71 38 21
0.097999997 8.1210003 -0.81999999 106 70 54
0.112 8.1169996 -0.824 144 93 48
0.105 8.0719995 -0.80400002 160 81 22
0.107 8.0760002 -0.801 182 178 179
0.102 8.0819998 -0.77200001 159 80 14
0.119 8.1090002 -0.70899999 74 25 0
0.11 8.1239996 -0.71899998 61 13 0
0.079000004 8.0790005 -0.71499997 181 119 62
0.089000002 8.0900002 -0.71700001 184 119 63
0.083999999 8.0889997 -0.72299999 213 144 87
0.082999997 8.0889997 -0.73000002 175 97 49
0.081 8.0900002 -0.74599999 154 90 19
0.079999998 8.0860004 -0.74800003 108 43 3
0.077 8.1140003 -0.74900001 177 89 39
0.090000004 8.1269999 -0.745 98 20 0
0.093000002 8.1280003 -0.74900001 108 24 0
0.07 8.1059999 -0.741 228 132 48
0.13500001 8.0799999 -0.69700003 173 71 22
0.133 8.1099997 -0.71200001 126 66 38
0.14 8.1070004 -0.70599997 254 212 128
0.141 8.1029997 -0.70700002 106 38 1
0.142 8.099 -0.72100002 123 47 21
0.13600001 8.1000004 -0.722 146 73 38
0.116 8.0889997 -0.77600002 120 47 14
0.090000004 8.1239996 -0.75400001 131 40 0
0.089000002 8.1230001 -0.75099999 150 62 16
0.074000001 8.1479998 -0.56199998 184 93 4
0.078000002 8.1540003 -0.57300001 77 35 10
0.001 8.0290003 -0.96899998 170 95 40
0.0020000001 8.0480003 -0.97899997 151 130 113
0.0089999996 8.0489998 -0.97799999 139 104 84
0.103 8.1429996 -0.917 167 115 42
0.121 8.1370001 -0.91399997 180 75 18
0.113 8.0950003 -0.991 135 112 98
0.097999997 8.1049995 -0.95700002 84 23 4
0.039000001 8.0719995 -0.99199998 127 98 90
0.078000002 8.0790005 -0.99800003 175 164 160
0.094999999 8.1149998 -0.94400001 85 29 16
0.109 8.1350002 -0.93199998 230 160 101
0.11 8.1230001 -0.94300002 233 167 107
0.111 8.1280003 -0.93699998 150 89 42
0.068000004 8.1379995 -0.55400002 90 67 49
0.064999998 8.1389999 -0.57099998 96 30 0
0.082000002 8.1450005 -0.58700001 45 6 0
0.094999999 8.1409998 -0.55000001 225 186 81
0.030999999 8.1110001 -0.57800001 255 196 99
0.13 8.1040001 -0.88300002 99 46 6
0.108 8.0900002 -0.99800003 82 26 1
0.12899999 8.1040001 -0.87599999 117 42 10
0.126 8.1049995 -0.875 157 81 32
0.101 8.1289997 -0.89899999 144 95 65
0.101 8.1289997 -0.90700001 169 111 47
0.075999998 8.1169996 -0.88099998 63 27 1
0.079000004 8.1190004 -0.87800002 74 35 6
-0.013 8.0860004 -0.85600001 108 54 16
0.111 8.1619997 -0.912 92 45 15
0.126 8.0930004 -0.99199998 171 117 19
0.122 8.1190004 -0.91799998 110 42 0
0.12 8.0780001 -0.89600003 110 64 28
0.081 8.0200005 -1.001 157 110 64
0.054000001 8.0190001 -0.991 255 220 116
0.035999998 8.0340004 -0.972 155 74 27
0.064000003 8.0579996 -0.99599999 110 38 0
0.054000001 8.0389996 -0.99800003 201 187 178
0.090000004 8.0600004 -0.99900001 154 96 58
0.071999997 8.0229998 -1.0039999 225 183 101
0.096000001 8.0539999 -0.99400002 206 153 119
0.071999997 8.1029997 -0.89999998 171 94 42
0.071000002 8.1000004 -0.88599998 201 123 77
0.072999999 8.1040001 -0.88999999 198 119 60
0.07 8.0740004 -0.88999999 162 82 29
0.117 8.0889997 -0.69499999 120 62 22
0.115 8.0930004 -0.68800002 117 59 21
0.125 8.0839996 -0.68800002 110 59 32
0.12800001 8.0690002 -0.70999998 138 71 28
0.121 8.0760002 -0.71899998 151 112 73
0.12899999 8.0790005 -0.71700001 228 157 103
0.071000002 8.0810003 -0.69800001 171 101 52
0.07 8.0839996 -0.69 110 59 30
0.078000002 8.0839996 -0.70599997 88 21 0
0.066 8.0939999 -0.68400002 46 17 9
0.063000001 8.099 -0.67799997 89 13 0
0.061999999 8.092 -0.69400001 103 37 5
0.074000001 8.1079998 -0.685 98 22 0
0.085000001 8.1120005 -0.69300002 103 58 27
0.083999999 8.1140003 -0.68699998 152 69 25
0.127 8.1420002 -0.903 74 19 0
0.122 8.1289997 -0.90899998 241 205 109
0.132 8.1029997 -0.89099997 215 130 49
0.12899999 8.1009998 -0.89700001 227 156 74
0.127 8.04 -0.87 128 84 49
0.13600001 8.0459995 -0.866 147 98 42
0.132 8.0480003 -0.87 205 135 76
0.125 8.04 -0.87400001 181 139 99
0.125 8.0909996 -0.796 75 51 39
0.134 8.1120005 -0.801 65 31 4
0.12899999 8.1029997 -0.78899997 218 195 179
0.131 8.0970001 -0.79799998 196 99 31
0.13500001 8.1070004 -0.80199999 203 120 40
0.131 8.1009998 -0.79900002 173 73 21
0.131 8.1029997 -0.81 240 181 43
0.111 8.1199999 -0.81400001 205 160 103
0.097999997 8.1260004 -0.79799998 104 66 29
0.117 8.0939999 -0.82700002 146 72 33
0.12899999 8.0550003 -0.87199998 84 38 15
0.127 8.0570002 -0.87099999 151 103 55
0.093000002 8.0620003 -0.96899998 106 43 0
0.11 8.085 -0.92400002 205 140 40
0.092 8.0799999 -0.92500001 98 46 9
0.094999999 8.0819998 -0.91100001 139 69 35
0.116 8.0830002 -0.95999998 91 67 57
0.114 8.0830002 -0.96799999 171 147 123
0.116 8.0799999 -0.95899999 115 95 84
0.113 8.0749998 -0.95899999 153 130 116
0.109 8.0880003 -0.949 142 50 3
0.103 8.0950003 -0.94599998 204 138 60
0.108 8.0889997 -0.95300001 118 35 1
0.12 8.0889997 -0.92000002 235 198 127
0.118 8.0889997 -0.926 237 172 68
0.12 8.1009998 -0.926 133 71 20
0.122 8.0959997 -0.93000001 133 80 36
0.131 8.0769997 -1.001 159 132 121
0.125 8.0860004 -0.98400003 247 208 105
0.114 8.0860004 -0.97000003 164 85 42
0.112 8.0869999 -0.94499999 164 66 1
0.112 8.0780001 -0.95700002 251 234 118
0.107 8.0740004 -0.95700002 255 249 116
0.107 8.0710001 -0.95899999 139 121 117
0.104 8.1339998 -0.59200001 146 107 78
0.1 8.099 -0.56400001 60 11 0
0.114 8.1120005 -0.565 212 168 129
0.059999999 8.1070004 -0.74000001 154 118 86
0.071999997 8.0880003 -0.76200002 119 72 46
0.068000004 8.0860004 -0.75700003 83 35 0
0.071000002 8.0880003 -0.78500003 141 114 103
0.064000003 8.0950003 -0.78100002 204 136 89
0.064000003 8.0889997 -0.79299998 226 205 188
0.082999997 8.1219997 -0.773 175 143 66
0.064999998 8.1199999 -0.78500003 74 27 0
0.066 8.1269999 -0.79000002 128 95 76
0.0060000001 8.0450001 -0.92400002 81 54 27
0.0070000002 8.0459995 -0.92000002 112 63 30
0.052000001 8.0200005 -0.99000001 249 207 97
0.024 8.0349998 -0.93699998 122 59 16
0.026000001 8.0360003 -0.94499999 254 181 112
0.072999999 8.0790005 -0.95899999 171 99 51
0.056000002 8.0690002 -0.96899998 158 80 6
0.078000002 8.0790005 -0.97000003 127 83 46
0.07 8.073 -0.95499998 134 53 0
0.082000002 8.0900002 -0.94199997 75 34 12
0.075000003 8.0900002 -0.926 56 24 0
0.082999997 8.0889997 -0.95300001 124 57 12
0.081 8.0959997 -0.93900001 76 30 4
0.116 8.0600004 -0.86400002 218 159 93
0.11 8.0509996 -0.866 131 42 0
0.056000002 8.0889997 -0.91799998 183 124 84
0.054000001 8.0900002 -0.92000002 93 55 18
0.0080000004 8.0600004 -0.91000003 157 110 82
0.090999998 8.0749998 -0.83200002 154 105 108
0.086999997 8.073 -0.85000002 232 174 90
0.105 8.0839996 -0.85299999 44 7 0
0.108 8.0780001 -0.861 121 90 72
0.118 8.0649996 -0.88300002 83 69 58
0.078000002 8.1190004 -0.88599998 68 30 9
0.081 8.1160002 -0.89399999 65 23 0
0.086000003 8.1169996 -0.89099997 49 5 0
0.057 8.118 -0.81800002 39 2 0
0.055 8.099 -0.83999997 92 36 9
0.044 8.1140003 -0.80800003 165 110 80
0.045000002 8.1099997 -0.81300002 55 23 0
0.12 8.1140003 -0.83999997 146 64 14
0.125 8.1099997 -0.82300001 183 120 17
0.123 8.1059999 -0.87 112 33 2
0.124 8.1059999 -0.85799998 176 89 12
0.125 8.1059999 -0.86199999 104 39 1
0.125 8.1079998 -0.85699999 166 108 70
0.124 8.0930004 -0.85600001 147 64 10
0.13 8.1020002 -0.875 126 73 31
0.127 8.1000004 -0.87099999 166 62 1
0.122 8.0959997 -0.866 212 123 81
0.123 8.0959997 -0.87 123 30 0
0.111 8.0749998 -0.80299997 233 181 98
0.114 8.0710001 -0.81099999 135 85 32
0.115 8.0880003 -0.84399998 246 189 73
0.098999999 8.0710001 -0.81999999 215 153 92
0.088 8.1239996 -0.69599998 70 33 4
0.086000003 8.1230001 -0.69999999 59 17 1
0.086999997 8.1199999 -0.70499998 47 2 0
0.097000003 8.1219997 -0.68099999 85 26 0
0.102 8.1199999 -0.68000001 172 94 22
0.082999997 8.132 -0.67900002 39 11 0
0.083999999 8.1070004 -0.70200002 61 0 0
0.089000002 8.1300001 -0.64899999 163 103 66
0.093999997 8.1239996 -0.65200001 88 33 3
0.086999997 8.132 -0.62199998 39 11 0
0.092 8.1000004 -0.69599998 69 41 30
0.07 8.085 -0.685 89 41 21
0.066 8.0839996 -0.68400002 51 21 13
0.064999998 8.0830002 -0.69499999 158 101 72
0.057999998 8.092 -0.70499998 98 42 17
0.054000001 8.0909996 -0.69300002 146 93 49
0.059999999 8.0909996 -0.699 87 33 5
0.055 8.0790005 -0.70700002 102 23 0
0.057 8.0839996 -0.69700003 96 52 27
0.052999999 8.0860004 -0.70300001 246 196 125
0.052999999 8.0860004 -0.69999999 197 138 62
0.074000001 8.0769997 -0.72299999 222 166 115
0.068999998 8.0830002 -0.73799998 161 76 21
0.07 8.0830002 -0.73100001 154 145 150
0.064000003 8.0860004 -0.75199997 168 118 91
0.064000003 8.0930004 -0.755 151 82 17
0.057999998 8.0959997 -0.74800003 181 121 35
0.083999999 8.0880003 -0.579 150 80 20
0.079999998 8.0860004 -0.57700002 46 8 5
0.1 8.1160002 -0.58200002 164 120 83
0.098999999 8.1219997 -0.59600002 69 23 0
0.097000003 8.1149998 -0.58099997 199 150 109
0.086000003 8.125 -0.59100002 167 90 38
0.086999997 8.1009998 -0.59799999 151 90 46
0.092 8.1070004 -0.579 251 170 79
0.082000002 8.1000004 -0.59100002 114 63 10
0.072999999 8.1120005 -0.59500003 110 35 0
0.093000002 8.1239996 -0.60100001 65 24 6
0.13600001 8.0930004 -0.68400002 236 184 126
0.13 8.0909996 -0.685 157 68 8
0.088 8.0979996 -0.56900001 186 103 11
0.082999997 8.1049995 -0.56 120 48 8
0.017999999 8.0769997 -0.588 255 204 129
0.032000002 8.0880003 -0.61699998 78 22 0
0.07 8.0760002 -0.59600002 207 141 81
0.045000002 8.0719995 -0.565 219 175 104
0.037999999 8.0889997 -0.63099998 93 25 2
0.037999999 8.0889997 -0.63499999 78 6 0
0.028999999 8.0819998 -0.56599998 190 137 59
0.023 8.085 -0.579 166 122 87
0.057 8.092 -0.61500001 137 63 18
0.057999998 8.092 -0.616 137 68 26
0.056000002 8.0900002 -0.63 122 57 27
0.057999998 8.0889997 -0.63300002 125 57 34
0.059 8.0909996 -0.63 81 18 0
0.068000004 8.0819998 -0.66100001 139 63 11
0.066 8.1040001 -0.60000002 162 152 153
0.090999998 8.1280003 -0.60900003 121 72 42
0.090000004 8.1269999 -0.61500001 107 56 27
0.089000002 8.1289997 -0.61500001 35 12 4
0.094999999 8.1300001 -0.59399998 134 70 32
0.052000001 8.1000004 -0.55900002 117 86 55
0.072999999 8.1049995 -0.56 252 175 57
0.067000002 8.099 -0.56300002 252 193 63
0.081 8.1070004 -0.55800003 203 122 4
0.071999997 8.1059999 -0.55900002 237 153 54
0.056000002 8.1260004 -0.56199998 143 112 83
0.064000003 8.0839996 -0.56599998 75 30 0
0.027000001 8.0979996 -0.59100002 68 6 0
0.041999999 8.0760002 -0.56300002 182 122 68
0.041999999 8.085 -0.56099999 177 123 76
0.037999999 8.0869999 -0.56199998 182 130 55
0.054000001 8.1149998 -0.56 108 60 14
0.013 8.0860004 -0.86500001 181 112 43
0.001 8.0880003 -0.86799997 86 25 0
0.023 8.0690002 -0.98100001 182 161 140
0.013 8.059 -0.95099998 133 104 100
0.0070000002 8.0500002 -0.95200002 183 105 59
0.032000002 8.0410004 -0.93699998 247 171 111
0.013 8.0600004 -0.90100002 162 96 48
-0.003 8.0790005 -0.84399998 250 190 68
-0.0060000001 8.073 -0.84299999 238 198 102
-0.0060000001 8.0609999 -0.852 138 99 66
0.023 8.0530005 -0.86799997 120 51 18
0 8.0570002 -0.86900002 93 55 42
0.0040000002 8.0600004 -0.86000001 107 51 14
0.017000001 8.0600004 -0.86000001 88 34 8
0.057 8.0900002 -0.80199999 188 166 153
0.068999998 8.085 -0.80699998 69 42 21
0.071999997 8.085 -0.80800003 173 114 116
0.071000002 8.0880003 -0.81199998 176 145 127
0.048 8.099 -0.81999999 147 105 80
0.013 8.0799999 -0.84100002 137 66 22
0.0040000002 8.0839996 -0.84399998 152 114 69
0.027000001 8.0819998 -0.87099999 254 172 96
0.039000001 8.0810003 -0.87199998 197 101 40
0.045000002 8.0950003 -0.875 146 93 59
0.013 8.066 -0.889 119 75 46
-0.0040000002 8.0340004 -0.97299999 143 59 0
0.039999999 8.0439997 -0.98699999 169 99 30
0.090000004 8.151 -0.55699998 214 112 38
0.056000002 8.0810003 -0.71499997 139 77 26
0.102 8.118 -0.83200002 147 111 89
0.117 8.1129999 -0.84299999 101 34 5
0.121 8.1120005 -0.77700001 152 93 33
0.119 8.1149998 -0.773 192 144 68
0.133 8.1129999 -0.79799998 139 100 69
0.105 8.0810003 -0.76300001 223 154 79
0.117 8.0900002 -0.80900002 179 84 18
0.118 8.1219997 -0.787 84 43 21
0.117 8.0749998 -0.801 237 190 122
0.108 8.1230001 -0.71399999 63 20 1
0.098999999 8.1169996 -0.69300002 67 40 29
0.094999999 8.0909996 -0.722 221 140 74
0.075999998 8.0799999 -0.74800003 72 23 0
0.082999997 8.0830002 -0.75300002 181 115 55
0.079999998 8.0880003 -0.72799999 212 141 87
0.108 8.099 -0.70300001 146 135 131
0.079999998 8.1110001 -0.722 153 96 27
0.081 8.1070004 -0.72000003 128 51 5
0.085000001 8.1260004 -0.736 108 34 5
0.113 8.0900002 -0.71899998 255 208 165
0.115 8.0889997 -0.72299999 253 223 173
0.124 8.1049995 -0.72100002 122 65 36
0.119 8.0889997 -0.73900002 149 79 7
0.119 8.0900002 -0.72600001 233 170 119
0.124 8.0900002 -0.73400003 147 97 48
0.132 8.0869999 -0.73199999 141 62 32
0.12899999 8.0880003 -0.73400003 136 52 8
0.15099999 8.0860004 -0.71700001 131 57 18
0.145 8.0860004 -0.72100002 185 105 56
0.15099999 8.1009998 -0.72299999 185 101 41
0.098999999 8.0810003 -0.77200001 183 108 41
0.12 8.1020002 -0.76800001 114 80 42
0.077 8.1529999 -0.56599998 170 88 12
0.0070000002 8.0290003 -0.96899998 162 81 25
0.011 8.033 -0.963 172 96 47
-0.001 8.0360003 -0.97100002 204 124 39
0.0060000001 8.0410004 -0.96200001 157 73 3
0.0099999998 8.0360003 -0.95499998 112 44 5
0.011 8.0340004 -0.95899999 183 121 82
0.023 8.033 -0.94599998 88 27 0
0.101 8.1400003 -0.91399997 155 110 71
0.109 8.0930004 -0.991 61 19 3
0.111 8.0950003 -0.98500001 57 26 8
0.109 8.0930004 -0.98799998 57 16 0
0.11 8.092 -0.99599999 54 12 0
0.114 8.0970001 -0.98299998 141 115 100
0.1 8.1420002 -0.92500001 77 21 0
0.088 8.0839996 -0.99299997 125 76 59
0.093000002 8.1190004 -0.93599999 78 25 9
0.093999997 8.1190004 -0.93699998 61 13 0
0.094999999 8.1149998 -0.93900001 68 17 0
0.1 8.1280003 -0.93400002 90 48 24
0.074000001 8.0790005 -0.954 106 32 0
0.026000001 8.0539999 -0.995 254 240 175
0.107 8.0640001 -0.98699999 161 117 88
0.086999997 8.0530005 -0.99299997 163 105 68
0.1 8.0699997 -0.99900001 228 130 59
0.075999998 8.0740004 -0.98900002 162 152 151
0.079999998 8.0810003 -0.97500002 123 92 72
0.07 8.1160002 -0.55199999 91 52 13
0.059 8.1379995 -0.57300001 159 110 80
0.048 8.1149998 -0.59299999 191 126 98
0.048 8.1070004 -0.59899998 53 16 0
0.048999999 8.1090002 -0.59600002 43 11 0
0.026000001 8.1059999 -0.58600003 154 74 23
0.045000002 8.1190004 -0.57999998 178 108 49
0.050999999 8.1230001 -0.579 86 33 85
0.039999999 8.1120005 -0.56599998 202 121 40
0.106 8.0869999 -0.99900001 114 69 38
0.134 8.0640001 -0.86000001 104 86 74
0.075000003 8.1129999 -0.90100002 187 106 53
0.077 8.1149998 -0.917 115 42 9
0.079999998 8.118 -0.86799997 80 29 0
0.078000002 8.1169996 -0.866 177 109 72
0.079999998 8.118 -0.87 82 33 1
0.075999998 8.1169996 -0.87900001 59 27 2
0.117 8.1110001 -0.92500001 235 201 111
0.121 8.1660004 -0.91100001 216 165 76
0.111 8.165 -0.90600002 83 30 0
0.117 8.1359997 -0.90100002 248 171 103
0.122 8.151 -0.90700001 113 63 36
0.063000001 8.0200005 -0.99699998 174 139 57
0.061999999 8.0240002 -0.99299997 254 207 165
0.07 8.0319996 -0.99199998 84 59 62
0.059999999 8.0270004 -0.991 200 147 93
0.067000002 8.026 -0.995 187 111 35
0.071000002 8.0240002 -0.99800003 216 143 38
0.056000002 8.0220003 -0.99000001 255 220 103
0.029999999 8.0279999 -0.97799999 120 109 103
0.066 8.059 -0.99900001 140 67 14
0.079000004 8.0249996 -0.99699998 255 207 144
0.035 8.0389996 -0.96200001 172 99 48
0.041000001 8.0469999 -0.95999998 215 159 98
0.057999998 8.033 -0.99299997 105 28 0
0.050999999 8.0290003 -0.99299997 102 52 17
0.052999999 8.0270004 -0.99199998 94 46 23
0.041000001 8.0349998 -0.98799998 174 103 49
0.039999999 8.0380001 -0.986 127 55 0
0.086000003 8.0550003 -0.99800003 185 107 61
0.094999999 8.0600004 -0.99800003 62 30 15
0.077 8.026 -1.002 121 48 5
0.105 8.0579996 -1.002 177 153 153
0.074000001 8.0939999 -0.89200002 81 30 1
0.088 8.0719995 -0.87900001 127 58 25
0.074000001 8.092 -0.89700001 72 27 6
0.114 8.0930004 -0.69199997 152 98 70
0.117 8.0719995 -0.71499997 121 24 0
0.12 8.0819998 -0.70899999 171 128 86
0.126 8.0749998 -0.704 113 29 0
0.077 8.1000004 -0.70499998 86 25 0
0.089000002 8.0900002 -0.71499997 139 76 33
0.086000003 8.1009998 -0.70200002 120 52 13
0.126 8.0780001 -0.70099998 151 53 6
0.122 8.0819998 -0.69999999 255 205 155
0.12899999 8.0799999 -0.69400001 250 184 132
0.134 8.0819998 -0.69400001 216 122 60
0.122 8.1300001 -0.90899998 232 182 123
0.133 8.0979996 -0.88499999 140 78 31
0.123 8.0799999 -0.88599998 132 75 22
0.125 8.0950003 -0.88099998 232 154 69
0.12800001 8.0979996 -0.87800002 221 137 47
0.121 8.0839996 -0.88200003 172 131 103
0.133 8.1020002 -0.88800001 74 24 0
0.113 8.0679998 -0.889 106 48 10
0.134 8.1009998 -0.89300001 85 39 15
0.123 8.0509996 -0.86000001 180 138 66
0.12800001 8.1009998 -0.78799999 108 48 0
0.131 8.099 -0.80000001 154 62 0
0.118 8.1199999 -0.81800002 255 219 167
0.121 8.1000004 -0.82099998 249 204 51
0.079999998 8.0579996 -0.99000001 181 113 38
0.072999999 8.04 -0.995 175 145 134
0.092 8.0629997 -0.98100001 144 85 0
0.113 8.0860004 -0.926 255 205 115
0.097000003 8.0799999 -0.94 131 81 46
0.046 8.0679998 -0.91900003 130 90 54
0.117 8.0900002 -0.89399999 137 88 48
0.119 8.0930004 -0.90899998 105 63 25
0.111 8.0810003 -0.89999998 76 53 45
0.122 8.1009998 -0.91000003 223 169 81
0.12 8.0959997 -0.91900003 245 212 133
0.11 8.085 -0.93599999 189 102 22
0.111 8.0839996 -0.94599998 234 156 58
0.112 8.0869999 -0.95499998 151 66 1
0.112 8.0900002 -0.96200001 143 100 93
0.119 8.0880003 -0.92000002 214 172 100
0.115 8.092 -0.91100001 60 38 25
0.134 8.0889997 -0.99400002 108 71 65
0.134 8.0889997 -0.99199998 124 97 78
0.121 8.0790005 -0.98299998 71 42 44
0.12800001 8.0699997 -0.99400002 160 66 0
0.114 8.0860004 -0.96700001 98 21 1
0.106 8.0670004 -0.95999998 255 215 118
0.088 8.0909996 -0.95899999 252 203 111
0.086999997 8.0889997 -0.95999998 69 39 28
0.14399999 8.0959997 -0.70099998 215 132 36
0.126 8.1020002 -0.69700003 200 116 56
0.106 8.1049995 -0.68900001 255 208 126
0.105 8.1129999 -0.68900001 162 84 18
0.113 8.0959997 -0.68699998 211 157 121
0.102 8.1020002 -0.685 143 72 6
0.064000003 8.0959997 -0.755 175 113 36
0.072999999 8.0880003 -0.78399998 159 139 128
0.057 8.0959997 -0.79299998 220 174 78
0.057999998 8.1009998 -0.77999997 214 136 53
0.059 8.099 -0.78500003 239 174 84
0.061999999 8.0959997 -0.78299999 234 167 89
0.057999998 8.1120005 -0.78399998 150 89 60
0.011 8.0310001 -0.92500001 53 11 0
0.014 8.0319996 -0.92699999 127 75 38
0.035999998 8.0439997 -0.92900002 146 90 33
0.029999999 8.0450001 -0.92900002 254 193 138
0.017999999 8.0430002 -0.91100001 199 127 69
0.035 8.0530005 -0.90600002 227 144 76
0.035 8.0530005 -0.917 104 51 9
0.034000002 8.0489998 -0.92500001 215 154 91
0.041999999 8.0609999 -0.99000001 73 35 14
0.0049999999 8.0459995 -0.95300001 171 86 21
0.088 8.0900002 -0.96200001 148 88 2
0.089000002 8.0909996 -0.96200001 232 183 88
0.090999998 8.0819998 -0.92500001 141 78 45
0.088 8.0889997 -0.93800002 84 34 0
0.081 8.0830002 -0.95899999 73 17 0
0.075999998 8.092 -0.93900001 75 43 30
0.093000002 8.0819998 -0.94700003 116 72 35
0.111 8.04 -0.87900001 209 171 150
0.112 8.0570002 -0.86400002 168 89 22
0.029999999 8.052 -0.91799998 214 137 67
0.022 8.0480003 -0.91500002 235 158 90
0.090000004 8.0769997 -0.84399998 188 118 22
0.108 8.0389996 -0.86500001 162 80 40
0.086000003 8.0749998 -0.84600002 120 107 101
0.056000002 8.0950003 -0.84100002 109 64 25
0.059 8.0939999 -0.838 154 99 43
0.016000001 8.0830002 -0.85399997 240 130 45
0.077 8.0830002 -0.83700001 108 55 3
0.119 8.1020002 -0.83200002 113 71 31
0.075999998 8.1160002 -0.86199999 150 73 29
0.083999999 8.118 -0.86500001 93 39 3
0.090000004 8.118 -0.86199999 75 31 6
0.086999997 8.1169996 -0.85500002 151 84 32
0.088 8.1169996 -0.85600001 82 36 3
0.088 8.1169996 -0.85500002 87 38 8
0.082999997 8.1280003 -0.83600003 104 104 102
0.082000002 8.1219997 -0.82200003 53 11 0
0.086000003 8.1219997 -0.824 111 65 32
0.082999997 8.1219997 -0.81999999 47 9 0
0.090000004 8.1239996 -0.81400001 44 7 0
0.090999998 8.1199999 -0.82800001 54 16 5
0.059 8.1160002 -0.82999998 130 79 34
0.063000001 8.1149998 -0.847 48 15 0
0.127 8.1049995 -0.87099999 207 138 81
0.123 8.1059999 -0.86500001 137 54 10
0.092 8.1210003 -0.88999999 52 1 0
0.13 8.1009998 -0.87599999 128 41 0
0.116 8.0889997 -0.84799999 233 162 56
0.096000001 8.1149998 -0.70099998 103 75 63
0.088 8.1239996 -0.68900001 150 118 97
0.097999997 8.1210003 -0.68300003 87 22 0
0.083999999 8.1070004 -0.70499998 108 42 28
0.052999999 8.092 -0.69099998 135 86 54
0.054000001 8.0939999 -0.68000001 69 16 0
0.041999999 8.085 -0.66000003 254 177 123
0.089000002 8.1289997 -0.653 129 60 31
0.088 8.1280003 -0.65700001 88 22 0
0.090999998 8.125 -0.66100001 155 93 54
0.089000002 8.1300001 -0.64700001 143 87 52
0.086999997 8.1309996 -0.64200002 55 12 6
0.088 8.1309996 -0.616 42 15 4
0.068000004 8.0950003 -0.69800001 88 22 0
0.061999999 8.0810003 -0.70300001 84 28 0
0.064000003 8.0819998 -0.69800001 169 106 75
0.063000001 8.0819998 -0.69999999 122 58 23
0.056000002 8.0780001 -0.71399999 93 15 0
0.054000001 8.0810003 -0.70700002 166 86 53
0.054000001 8.0830002 -0.70300001 246 192 120
0.075000003 8.0769997 -0.72000003 255 202 148
0.07 8.0760002 -0.71200001 175 86 26
0.071999997 8.0749998 -0.70899999 135 48 0
0.071000002 8.099 -0.71899998 107 31 0
0.050000001 8.0959997 -0.66500002 97 36 8
0.063000001 8.099 -0.67400002 202 127 62
0.055 8.099 -0.65899998 123 52 24
0.044 8.1020002 -0.65899998 58 22 8
0.035999998 8.099 -0.63999999 53 40 21
0.102 8.1269999 -0.588 182 111 67
0.092 8.1260004 -0.63 63 25 2
0.111 8.1099997 -0.574 200 108 41
0.092 8.1280003 -0.61199999 112 61 30
0.067000002 8.0939999 -0.60299999 101 62 47
0.075000003 8.1029997 -0.59399998 175 112 69
0.090999998 8.1239996 -0.62900001 41 13 1
0.090999998 8.125 -0.62699997 42 14 0
0.083999999 8.1260004 -0.62699997 83 38 5
0.072999999 8.1140003 -0.64399999 193 121 83
0.089000002 8.118 -0.64700001 105 74 46
0.089000002 8.1040001 -0.56199998 251 203 92
0.096000001 8.1040001 -0.56199998 222 163 93
0.041000001 8.0679998 -0.588 158 83 41
0.029999999 8.0690002 -0.57599998 65 23 0
0.041999999 8.0869999 -0.62300003 98 42 17
0.052000001 8.0889997 -0.62400001 113 52 21
0.037999999 8.0869999 -0.639 76 8 0
0.037999999 8.0869999 -0.63599998 132 66 44
0.032000002 8.0880003 -0.56300002 192 148 109
0.052999999 8.0869999 -0.63200003 128 57 25
0.079000004 8.1330004 -0.648 250 190 118
0.057 8.0880003 -0.63800001 103 46 16
0.056000002 8.0880003 -0.63200003 73 2 0
0.059999999 8.0889997 -0.634 113 52 24
0.064999998 8.0869999 -0.66000003 77 12 0
0.07 8.1099997 -0.597 154 144 145
0.064000003 8.1049995 -0.59899998 142 84 44
0.090999998 8.1289997 -0.60000002 82 25 0
0.075000003 8.132 -0.57800001 148 114 104
0.083999999 8.1350002 -0.58499998 129 112 102
0.057999998 8.0819998 -0.55599999 193 115 49
0.057 8.1120005 -0.58999997 139 99 87
0.056000002 8.1219997 -0.58200002 173 114 84
0.061000001 8.1280003 -0.57999998 112 70 46
0.039999999 8.0799999 -0.56 193 140 90
0.048 8.1070004 -0.55800003 180 86 12
0.025 8.0640001 -0.89099997 102 33 0
0.023 8.0649996 -0.89099997 125 64 9
0.021 8.0690002 -0.90600002 194 166 154
0.037 8.0690002 -0.912 108 43 3
0.026000001 8.0670004 -0.91900003 158 97 52
0.018999999 8.0670004 -0.91100001 151 44 0
0.035 8.0579996 -0.89600003 100 36 0
0.032000002 8.0600004 -0.87699997 185 116 38
0.016000001 8.0830002 -0.86699998 192 119 50
-0.003 8.0860004 -0.86699998 189 106 56
0.022 8.066 -0.92799997 226 178 129
0.028999999 8.066 -0.95700002 110 85 80
0.023 8.0570002 -0.96100003 118 82 58
0.032000002 8.0640001 -0.972 152 65 0
0.033 8.0389996 -0.95300001 132 68 4
0.079000004 8.1160002 -0.91000003 65 14 0
0.0070000002 8.0760002 -0.83700001 216 165 122
0.011 8.0769997 -0.84200001 160 95 57
0.0049999999 8.0740004 -0.83600003 60 12 0
