ply
format ascii 1.0
comment PCL generated
element vertex 140
property float x
property float y
property float z
property uchar red
property uchar green
property uchar blue
element camera 1
property float view_px
property float view_py
property float view_pz
property float x_axisx
property float x_axisy
property float x_axisz
property float y_axisx
property float y_axisy
property float y_axisz
property float z_axisx
property float z_axisy
property float z_axisz
property float focal
property float scalex
property float scaley
property float centerx
property float centery
property int viewportx
property int viewporty
property float k1
property float k2
end_header
-13.134 1.974 -1 175 112 61
-13.119 1.965 -1.018 175 124 69
-13.117 1.9630001 -1.005 230 134 58
-13.129 1.976 -1.0089999 156 95 48
-13.115 1.994 -1.062 162 102 39
-13.115 1.9910001 -1.0549999 211 143 78
-13.113 1.988 -1.068 230 175 121
-13.105 1.97 -1.006 185 139 87
-13.111 1.97 -1.028 200 130 44
-13.095 2.006 -1.084 149 130 123
-13.095 1.997 -1.079 191 98 37
-13.093 2.0050001 -1.0829999 75 45 17
-13.094 2.0050001 -1.077 154 83 31
-13.101 1.974 -1.0089999 180 137 86
-13.11 1.989 -1.007 115 78 26
-13.103 1.974 -1.005 208 165 114
-13.111 1.974 -1.02 121 84 42
-13.059 2.052 -1.068 155 107 69
-13.065 2.05 -1.074 204 120 58
-13.057 2.0510001 -1.066 128 81 37
-13.073 2.0569999 -1.077 134 74 20
-13.07 2.0580001 -1.069 193 132 75
-13.059 2.0480001 -1.067 153 102 55
-13.085 2.0450001 -1.0700001 165 104 49
-13.081 2.0450001 -1.071 138 87 40
-13.073 2.039 -1.066 241 144 67
-13.082 2.043 -1.062 142 84 34
-13.089 2.046 -1.071 225 134 61
-13.104 1.998 -1.079 122 62 8
-13.093 2.05 -1.068 235 139 52
-13.098 2.049 -1.059 141 89 50
-13.089 2.0510001 -1.087 165 109 48
-13.112 1.983 -1.062 166 120 71
-13.134 1.979 -1.003 235 189 127
-13.096 1.997 -1.036 167 100 47
-13.085 1.99 -1.054 151 91 31
-13.098 2.0050001 -1.05 237 133 46
-13.099 1.9960001 -1.05 160 81 6
-13.104 2.0039999 -1.034 198 162 126
-13.108 2 -1.033 255 155 70
-13.096 1.997 -1.027 86 51 13
-13.112 1.985 -1.0039999 225 182 127
-13.123 1.972 -0.99599999 239 146 79
-13.103 2.0250001 -1.036 153 97 48
-13.108 2.0250001 -1.044 168 106 49
-13.111 1.974 -1.016 141 99 51
-13.068 2.0409999 -1.067 181 104 36
-13.08 2.0469999 -1.073 209 149 86
-13.092 2.052 -1.0650001 176 99 31
-13.084 2.0450001 -1.067 193 141 83
-13.085 2.053 -1.084 181 120 65
-13.087 2.053 -1.09 134 77 22
-13.084 2.049 -1.086 194 105 39
-13.082 2.0510001 -1.09 153 92 38
-13.089 2.0469999 -1.0599999 181 124 81
-13.107 1.997 -1.074 156 103 53
-13.109 1.998 -1.068 139 85 39
-13.107 2 -1.0470001 75 32 0
-13.107 2.0250001 -1.051 139 77 18
-13.102 2.0020001 -1.074 155 96 36
-13.095 2.0009999 -1.068 82 48 21
-13.092 1.997 -1.067 88 49 16
-13.102 2 -1.062 99 63 29
-13.101 2.023 -1.053 174 109 51
-13.101 2 -1.066 100 65 35
-13.09 1.994 -1.062 108 63 24
-13.087 1.99 -1.061 197 152 110
-13.105 1.9960001 -1.033 170 116 78
-13.125 1.979 -0.99699998 180 133 89
-13.095 2.052 -1.052 152 104 56
-13.079 2.0550001 -1.098 121 61 11
-13.097 2.03 -1.031 238 179 121
-13.095 2.052 -1.03 242 157 77
-13.09 2.0510001 -1.029 215 164 111
-13.097 2.0280001 -1.034 198 140 94
-13.099 2.0280001 -1.036 217 147 95
-13.093 2.0320001 -1.038 195 126 59
-13.101 2.0339999 -1.036 160 110 51
-13.079 2.0539999 -1.0930001 161 96 32
-13.083 2.052 -1.097 127 70 15
-13.078 2.0539999 -1.09 115 79 47
-13.104 1.9960001 -1.072 147 87 35
-13.11 1.999 -1.041 199 147 97
-13.103 2 -1.054 134 91 56
-13.105 2.026 -1.054 144 89 50
-13.105 1.999 -1.064 153 72 17
-13.087 1.987 -1.066 159 116 73
-13.092 1.9859999 -1.063 146 103 60
-13.11 1.977 -1.028 60 26 0
-13.116 1.988 -1.005 212 169 116
-13.134 1.9809999 -1.002 199 111 37
-13.127 1.976 -0.99599999 185 116 57
-13.09 2.05 -1.0599999 157 84 15
-13.087 2.0309999 -1.048 196 154 114
-13.079 2.0450001 -1.061 164 112 75
-13.09 2.046 -1.041 221 127 53
-13.119 1.969 -1.007 135 88 32
-13.106 1.978 -1.006 185 145 93
-13.112 1.97 -1.017 221 175 125
-13.08 2.0539999 -1.0700001 127 82 41
-13.084 2.053 -1.0829999 136 101 69
-13.086 2.0510001 -1.072 180 86 24
-13.083 2.053 -1.087 96 61 29
-13.075 2.0539999 -1.076 113 77 41
-13.107 2 -1.039 115 79 45
-13.11 1.997 -1.04 163 107 50
-13.105 2 -1.051 112 69 34
-13.095 1.997 -1.079 191 98 37
-13.094 2.0009999 -1.075 100 68 45
-13.092 1.9910001 -1.057 196 105 24
-13.092 1.9859999 -1.068 179 116 49
-13.108 1.99 -1.066 170 108 49
-13.129 1.983 -1.005 157 117 58
-13.13 1.987 -1.005 174 125 69
-13.078 2.0480001 -1.059 205 134 70
-13.077 2.049 -1.063 189 119 67
-13.079 2.05 -1.061 169 121 81
-13.088 2.052 -1.044 207 157 104
-13.101 2.027 -1.044 167 108 66
-13.088 2.053 -1.036 154 111 60
-13.093 2.0510001 -1.033 215 141 78
-13.108 1.972 -1.017 189 126 75
-13.083 2.053 -1.067 162 114 74
-13.072 2.046 -1.066 233 171 112
-13.113 1.988 -1.061 136 89 43
-13.105 1.994 -1.0470001 215 150 96
-13.107 2 -1.043 78 38 3
-13.128 1.983 -1.001 143 97 38
-13.109 1.992 -1.039 197 118 49
-13.09 2.033 -1.048 195 118 48
-13.089 2.053 -1.0319999 155 106 50
-13.098 2.0339999 -1.039 97 50 0
-13.091 2.053 -1.045 85 42 0
-13.102 1.994 -1.035 173 117 68
-13.094 1.992 -1.069 187 99 12
-13.099 1.989 -1.061 139 92 48
-13.11 1.9960001 -1.0470001 226 137 55
-13.091 2.0309999 -1.045 205 160 118
-13.088 2.053 -1.04 114 71 26
-13.09 2.053 -1.048 131 87 48
0 0 0 1 0 0 0 1 0 0 0 1 0 0 0 0 0 140 1 0 0
