ply
format ascii 1.0
comment PCL generated
element vertex 1255
property float x
property float y
property float z
property uchar red
property uchar green
property uchar blue
element camera 0
property float view_px
property float view_py
property float view_pz
property float x_axisx
property float x_axisy
property float x_axisz
property float y_axisx
property float y_axisy
property float y_axisz
property float z_axisx
property float z_axisy
property float z_axisz
property float focal
property float scalex
property float scaley
property float centerx
property float centery
property int viewportx
property int viewporty
property float k1
property float k2
end_header
-2.2090001 6.3060002 -0.97299999 18 0 0
-2.0869999 6.3779998 -1.008 7 3 2
-2.095 6.381 -1.015 173 139 112
-2.2049999 6.375 -0.95700002 115 79 67
-2.1919999 6.3520002 -0.92699999 117 90 63
-2.188 6.3559999 -0.92699999 62 41 20
-2.198 6.362 -0.94099998 57 37 28
-2.198 6.3590002 -0.93699998 39 13 0
-2.2160001 6.3000002 -1.011 96 60 26
-2.1930001 6.2969999 -0.98199999 51 7 0
-2.204 6.3200002 -1.001 142 99 83
-2.197 6.2950001 -0.90700001 51 2 0
-2.224 6.2979999 -0.93800002 74 38 26
-2.2179999 6.2820001 -0.903 55 16 0
-2.1889999 6.3099999 -0.94300002 115 64 37
-2.2449999 6.3309999 -0.93400002 99 94 98
-2.256 6.3340001 -0.93300003 182 137 108
-2.2460001 6.3210001 -0.926 101 96 102
-2.234 6.3210001 -0.991 71 39 28
-2.3210001 6.3369999 -0.92799997 116 94 73
-2.329 6.3429999 -0.91399997 156 94 71
-2.332 6.3460002 -0.91000003 67 5 0
-2.3080001 6.3379998 -0.97000003 40 15 0
-2.237 6.3150001 -0.95499998 150 131 124
-2.243 6.3280001 -0.95499998 54 24 14
-2.177 6.3600001 -1.073 118 66 42
-2.168 6.3520002 -1.071 123 114 117
-2.1760001 6.3660002 -1.076 129 82 62
-2.174 6.3499999 -1.071 206 149 104
-2.214 6.4070001 -1.073 52 29 23
-2.2639999 6.3800001 -1.025 41 18 4
-2.2550001 6.3899999 -1.016 62 25 9
-2.27 6.3899999 -1.0190001 55 22 7
-2.27 6.3769999 -1.028 107 55 31
-2.2609999 6.3740001 -1.031 28 0 0
-2.2360001 6.3720002 -1.029 75 23 2
-2.224 6.382 -1.011 71 32 17
-2.2079999 6.3829999 -1.0779999 37 8 4
-2.2130001 6.395 -1.063 24 3 0
-2.1860001 6.3249998 -1.079 74 33 11
-2.243 6.3629999 -1.0650001 33 6 0
-2.237 6.3870001 -1.082 70 22 0
-2.223 6.3010001 -1.0140001 176 135 105
-2.286 6.3249998 -1.0420001 61 28 11
-2.28 6.3299999 -1.041 142 83 39
-2.277 6.3319998 -1.0369999 85 30 0
-2.2420001 6.3600001 -1.056 67 35 10
-2.214 6.3569999 -1.063 111 106 103
-2.247 6.3509998 -1.0829999 11 1 0
-2.073 6.4419999 -0.74900001 86 20 0
-2.0480001 6.4510002 -0.69499999 135 68 15
-2.053 6.4349999 -0.68599999 46 26 15
-2.04 6.4460001 -0.68900001 113 60 42
-2.079 6.4349999 -0.755 42 14 2
-2.062 6.4260001 -0.73199999 46 16 5
-2.0650001 6.3909998 -0.66100001 94 37 7
-2.043 6.3870001 -0.74599999 226 161 69
-2.0439999 6.3889999 -0.74400002 97 43 5
-2.0409999 6.3899999 -0.74599999 255 197 100
-2.049 6.3940001 -0.69999999 50 28 7
-2.052 6.395 -0.69400001 72 37 17
-2.059 6.4180002 -0.68699998 49 2 0
-2.0580001 6.415 -0.69400001 53 1 0
-2.062 6.4060001 -0.76800001 138 102 76
-2.0610001 6.4089999 -0.76700002 117 77 41
-2.062 6.427 -0.76800001 188 143 110
-2.053 6.4429998 -0.759 31 22 23
-2.0710001 6.4109998 -0.74599999 170 133 106
-2.069 6.4130001 -0.73799998 153 128 106
-2.0799999 6.4780002 -0.71899998 87 55 34
-2.194 6.4219999 -0.82800001 96 39 20
-2.2019999 6.4289999 -0.80299997 150 56 18
-2.1110001 6.493 -0.80199999 34 5 0
-2.098 6.473 -0.77200001 71 44 35
-2.073 6.4819999 -0.78299999 111 85 62
-2.063 6.4840002 -0.773 37 14 8
-2.0669999 6.4759998 -0.78600001 111 105 107
-2.079 6.4980001 -0.80800003 114 63 34
-2.1029999 6.4770002 -0.72100002 121 79 37
-2.0569999 6.3769999 -0.65600002 206 119 50
-2.033 6.4089999 -0.65499997 252 228 254
-2.0539999 6.3979998 -0.70599997 65 35 24
-2.059 6.428 -0.68599999 52 12 2
-2.0580001 6.4260001 -0.68400002 94 31 0
-2.0320001 6.4250002 -0.68199998 104 62 24
-2.323 6.381 -0.78600001 123 75 39
-2.323 6.3779998 -0.76499999 96 48 10
-2.3210001 6.3779998 -0.76099998 160 113 69
-2.296 6.3639998 -0.79699999 57 22 3
-2.2479999 6.3179998 -0.98400003 20 4 4
-2.277 6.3249998 -0.97600001 73 26 0
-2.276 6.329 -0.96799999 65 25 0
-2.1830001 6.277 -0.87400001 47 11 0
-2.1860001 6.2800002 -0.87400001 14 3 1
-2.1860001 6.2789998 -0.87 60 13 0
-2.1760001 6.2740002 -0.88200003 95 57 36
-2.178 6.27 -0.88300002 35 6 0
-2.1889999 6.2639999 -0.917 5 1 0
-2.207 6.2649999 -0.90600002 76 26 0
-2.201 6.3099999 -0.87900001 33 4 0
-2.187 6.2950001 -0.86000001 7 1 1
-2.1849999 6.2909999 -0.85399997 8 0 0
-2.188 6.2839999 -0.92000002 7 5 8
-2.194 6.2870002 -0.90899998 60 37 23
-2.2420001 6.3400002 -0.85699999 59 37 24
-2.2750001 6.3590002 -0.889 102 69 50
-2.28 6.3610001 -0.88599998 46 13 0
-2.2690001 6.355 -0.88300002 89 44 11
-2.2079999 6.3400002 -0.87400001 1 0 0
-2.21 6.3340001 -0.875 6 0 0
-2.1860001 6.2870002 -0.82099998 167 85 38
-2.2049999 6.2989998 -0.81900001 115 30 0
-2.2079999 6.2870002 -0.81199998 100 55 26
-2.2060001 6.2800002 -0.80800003 15 6 7
-2.2090001 6.2820001 -0.81 95 33 0
-2.082 6.5040002 -0.76200002 23 0 0
-2.072 6.4920001 -0.80000001 120 104 105
-2.0699999 6.4980001 -0.80000001 93 87 99
-2.1029999 6.4640002 -0.787 85 60 55
-2.085 6.4949999 -0.81099999 74 31 14
-2.217 6.4039998 -0.90899998 80 75 79
-2.2160001 6.4029999 -0.903 81 78 85
-2.217 6.4029999 -0.90899998 64 30 20
-2.217 6.4089999 -0.90799999 86 41 22
-2.211 6.263 -0.90899998 7 1 3
-2.207 6.2740002 -0.917 32 3 0
-2.217 6.2800002 -0.89300001 3 1 2
-2.2219999 6.2979999 -0.91000003 31 0 0
-2.3369999 6.3109999 -0.85900003 161 114 72
-2.339 6.3369999 -0.86699998 206 109 15
-2.227 6.2589998 -0.77399999 51 18 1
-2.2379999 6.2690001 -0.76899999 68 27 0
-2.2349999 6.283 -0.82499999 42 3 0
-2.2349999 6.2789998 -0.82999998 84 37 19
-2.2190001 6.2979999 -0.81699997 45 19 4
-2.2409999 6.2459998 -0.83200002 116 93 77
-2.24 6.2459998 -0.82700002 112 77 58
-2.2409999 6.2480001 -0.83099997 145 118 101
-2.233 6.2459998 -0.833 64 12 0
-2.2409999 6.2610002 -0.81400001 83 26 0
-2.2390001 6.256 -0.80699998 84 47 28
-2.2390001 6.27 -0.79799998 77 11 0
-2.2509999 6.2490001 -0.79100001 88 60 38
-2.2390001 6.2719998 -0.79799998 34 12 1
-2.24 6.2490001 -0.81599998 69 37 22
-2.237 6.2750001 -0.80199999 81 14 0
-2.2349999 6.2779999 -0.86400002 63 43 36
-2.2360001 6.27 -0.82499999 31 11 2
-2.207 6.2550001 -0.815 11 3 1
-2.2060001 6.2589998 -0.81199998 145 46 0
-2.2349999 6.29 -0.85000002 112 69 35
-2.2980001 6.3449998 -0.87300003 218 172 159
-2.3310001 6.3569999 -0.824 138 90 50
-2.286 6.3629999 -0.88200003 56 27 11
-2.2920001 6.3610001 -0.86400002 30 10 1
-2.2750001 6.3660002 -0.903 131 72 30
-2.2939999 6.3629999 -0.83099997 39 6 0
-2.2309999 6.388 -0.78399998 78 58 33
-2.233 6.4229999 -0.79299998 174 132 118
-2.2449999 6.4219999 -0.796 44 2 3
-2.237 6.4250002 -0.79900002 73 41 26
-2.2260001 6.3850002 -0.80500001 148 80 43
-2.2130001 6.388 -0.80900002 123 62 17
-2.2190001 6.375 -0.84899998 55 32 16
-2.2119999 6.3850002 -0.83999997 17 2 0
-2.2750001 6.3860002 -0.86900002 158 78 29
-2.326 6.3779998 -0.83600003 61 18 1
-2.3139999 6.3870001 -0.852 166 89 47
-2.3210001 6.3889999 -0.801 37 6 3
-2.303 6.3639998 -0.75199997 136 71 7
-2.2049999 6.349 -0.84399998 19 8 2
-2.2030001 6.3530002 -0.847 56 23 8
-2.1919999 6.3569999 -0.83499998 137 71 49
-2.188 6.362 -0.83899999 92 44 21
-2.2060001 6.3460002 -0.833 115 85 61
-2.221 6.3790002 -0.80900002 177 113 75
-2.184 6.3000002 -0.85399997 27 19 17
-2.184 6.302 -0.82200003 117 107 105
-2.188 6.3010001 -0.81900001 214 156 118
-2.181 6.2969999 -0.84399998 222 152 93
-2.201 6.3610001 -0.86000001 151 115 93
-2.204 6.342 -0.82800001 120 71 41
-2.1960001 6.3649998 -0.833 50 0 0
-2.2090001 6.3610001 -0.84399998 81 60 43
-2.2160001 6.3909998 -0.84500003 14 0 0
-2.217 6.3860002 -0.84799999 93 60 43
-2.2030001 6.408 -0.82700002 16 1 0
-2.2149999 6.4029999 -0.84600002 74 65 66
-2.21 6.4070001 -0.852 91 71 64
-2.2079999 6.401 -0.86500001 20 10 9
-2.2160001 6.3790002 -0.87800002 14 8 8
-2.217 6.3860002 -0.87199998 106 86 77
-2.2079999 6.402 -0.87 18 8 9
-2.22 6.3930001 -0.87400001 147 89 39
-2.221 6.401 -0.87900001 40 22 20
-2.221 6.401 -0.88700002 25 10 7
-2.201 6.4390001 -0.82200003 139 133 135
-2.21 6.402 -0.829 73 37 21
-2.2060001 6.408 -0.82800001 13 5 3
-2.2060001 6.2610002 -0.81 85 48 30
-2.2060001 6.2620001 -0.81 144 50 0
-2.207 6.2690001 -0.80900002 126 43 3
-2.24 6.2690001 -0.778 113 53 16
-2.2349999 6.2600002 -0.78299999 103 35 14
-2.3239999 6.382 -0.79500002 114 57 14
-2.3150001 6.3639998 -0.79299998 46 17 11
-2.313 6.3670001 -0.79799998 110 69 39
-2.3199999 6.3610001 -0.81900001 108 41 0
-2.2219999 6.2189999 -0.77999997 120 62 25
-2.2409999 6.2350001 -0.78100002 59 24 2
-2.244 6.2420001 -0.77700001 108 70 51
-2.2420001 6.2459998 -0.73000002 157 69 0
-2.2520001 6.2529998 -0.73100001 82 35 9
-2.2460001 6.2509999 -0.72899997 196 143 91
-2.312 6.3759999 -0.86500001 28 3 0
-2.3110001 6.3709998 -0.87 84 39 8
-2.2950001 6.3759999 -0.87199998 56 12 3
-2.2690001 6.3709998 -0.93099999 138 111 102
-2.2609999 6.3839998 -0.93099999 60 29 9
-2.2679999 6.3520002 -0.88800001 195 122 54
-2.233 6.4349999 -0.94099998 33 7 6
-2.243 6.4390001 -0.93599999 64 42 28
-2.237 6.4349999 -0.93000001 168 140 129
-2.2420001 6.4229999 -0.94400001 53 17 1
-2.243 6.4250002 -0.93800002 93 43 16
-2.273 6.3990002 -0.97399998 99 54 23
-2.279 6.3959999 -0.97399998 187 124 81
-2.326 6.368 -0.86199999 89 41 5
-2.3239999 6.369 -0.86699998 97 39 0
-2.3050001 6.3759999 -0.90799999 139 102 86
-2.3299999 6.3559999 -0.91500002 25 4 3
-2.2780001 6.3319998 -1.0089999 19 1 0
-2.2869999 6.3309999 -1 42 4 1
-2.283 6.3439999 -1.029 233 194 153
-2.2969999 6.3720002 -0.97500002 19 0 0
-2.29 6.3699999 -0.98699999 125 65 28
-2.2880001 6.3720002 -0.98699999 123 95 81
-2.2869999 6.3699999 -0.99199998 20 2 2
-2.2360001 6.4229999 -0.90799999 37 18 12
-2.253 6.4169998 -0.90899998 54 31 25
-2.2479999 6.4180002 -0.88200003 161 99 52
-2.2590001 6.408 -0.875 128 90 51
-2.23 6.4380002 -0.93000001 28 4 2
-2.2920001 6.3579998 -0.917 62 26 4
-2.2980001 6.3660002 -0.97299999 28 7 4
-2.0810001 6.441 -0.99000001 45 1 0
-2.086 6.4369998 -0.99000001 208 132 96
-2.1210001 6.4219999 -0.98799998 73 31 9
-2.1040001 6.4299998 -1 46 8 0
-2.0940001 6.4330001 -1.013 197 124 83
-2.119 6.4250002 -0.99800003 11 5 7
-2.1930001 6.4060001 -0.96399999 140 109 80
-2.092 6.4650002 -0.92699999 61 27 18
-2.207 6.3940001 -0.98400003 9 5 6
-2.201 6.3990002 -0.98000002 109 50 16
-2.1830001 6.3850002 -1.026 99 89 90
-2.177 6.4089999 -1.048 77 41 27
-2.175 6.408 -1.057 144 129 126
-2.276 6.3769999 -0.99400002 20 5 2
-2.197 6.3969998 -1.033 64 33 28
-2.2590001 6.3740001 -1.008 111 93 81
-2.256 6.3779998 -0.99400002 62 31 13
-2.2620001 6.3670001 -0.98900002 96 48 25
-2.2639999 6.3639998 -1.002 45 24 23
-2.257 6.3870001 -1.013 158 121 92
-2.2579999 6.3959999 -0.991 18 3 0
-2.0250001 6.5079999 -0.79699999 74 24 0
-1.984 6.4330001 -0.82599998 204 139 71
-1.988 6.4289999 -0.82800001 147 66 10
-1.9859999 6.434 -0.82700002 131 79 19
-2.0009999 6.4569998 -0.80199999 115 81 54
-2.0139999 6.467 -0.84100002 186 131 150
-2.0039999 6.448 -0.76300001 174 137 108
-2.0250001 6.4400001 -0.80000001 221 177 138
-1.998 6.4180002 -0.81300002 81 25 0
-1.998 6.4239998 -0.80299997 167 113 79
-2.0179999 6.415 -0.80000001 76 41 21
-2.043 6.3829999 -0.78500003 111 73 52
-2.072 6.4390001 -0.87099999 180 128 78
-2.0550001 6.3850002 -1.008 126 83 49
-2.0840001 6.415 -0.95700002 226 147 90
-2.092 6.4039998 -0.95300001 142 110 89
-2.099 6.4050002 -0.95999998 171 150 133
-2.0869999 6.4239998 -0.93699998 69 32 14
-2.039 6.4120002 -0.884 162 92 56
-2.027 6.4699998 -0.87400001 142 111 108
-2.0050001 6.441 -0.89200002 154 132 119
-2.01 6.4400001 -0.95599997 157 74 22
-2.0090001 6.4349999 -0.95700002 112 102 103
-2.0569999 6.3720002 -1.026 144 94 59
-2.056 6.4359999 -0.83899999 97 63 38
-2.052 6.4299998 -0.84399998 93 74 59
-2.05 6.4239998 -0.935 134 88 55
-2.0480001 6.3969998 -1.0089999 248 170 95
-2.0469999 6.3920002 -1.0190001 193 144 52
-2.0539999 6.3699999 -1.052 143 74 19
-2.0639999 6.369 -1.045 153 77 19
-2.0639999 6.3699999 -1.051 193 117 57
-2.05 6.3699999 -1.054 173 90 38
-2.0250001 6.4499998 -0.77499998 99 30 1
-2.059 6.4520001 -0.78899997 69 34 12
-2.072 6.4499998 -0.76800001 112 112 104
-2.0669999 6.454 -0.76800001 83 38 32
-2.056 6.4549999 -0.76599997 79 42 15
-2.007 6.4549999 -0.75199997 138 115 99
-2.27 6.4060001 -0.81300002 110 71 64
-2.0940001 6.5170002 -0.74900001 76 48 37
-2.0710001 6.5009999 -0.79900002 247 178 119
-2.085 6.4990001 -0.76899999 38 11 4
-2.0899999 6.4949999 -0.78500003 20 0 1
-2.0910001 6.52 -0.74400002 53 16 8
-2.0840001 6.5180001 -0.73900002 58 21 2
-2.096 6.473 -0.80699998 126 70 45
-2.098 6.4780002 -0.81599998 66 8 0
-2.224 6.4330001 -0.833 123 73 50
-2.108 6.5120001 -0.73799998 70 24 9
-2.0899999 6.5149999 -0.72600001 132 79 48
-2.0929999 6.5139999 -0.72299999 117 85 72
-2.0810001 6.5149999 -0.73900002 58 17 0
-2.1029999 6.5079999 -0.722 218 155 62
-2.115 6.5040002 -0.73199999 216 122 35
-2.099 6.4879999 -0.78600001 108 51 24
-2.115 6.4829998 -0.79799998 161 124 105
-2.2379999 6.4130001 -0.77999997 127 88 57
-2.3150001 6.3899999 -0.81900001 84 42 20
-2.306 6.3959999 -0.83099997 68 21 1
-2.29 6.3940001 -0.81 34 6 2
-2.2739999 6.402 -0.80400002 137 58 27
-2.27 6.4039998 -0.79699999 113 18 0
-2.266 6.3839998 -0.79400003 233 149 102
-2.2579999 6.4200001 -0.80000001 139 88 57
-2.26 6.415 -0.78399998 55 17 0
-2.3139999 6.3889999 -0.84899998 166 86 37
-2.3139999 6.3759999 -0.89700001 190 104 31
-2.2509999 6.4099998 -0.78200001 234 183 120
-2.273 6.3769999 -0.773 230 143 66
-2.29 6.3629999 -0.74599999 167 135 114
-2.2950001 6.348 -0.76599997 53 30 14
-2.234 6.3010001 -0.77899998 102 71 50
-2.234 6.2979999 -0.778 110 78 57
-2.243 6.3119998 -0.77999997 216 185 157
-2.2460001 6.316 -0.78600001 181 145 121
-2.23 6.2849998 -0.76899999 69 40 26
-2.233 6.2940001 -0.77499998 85 52 33
-2.1889999 6.2800002 -0.82200003 126 109 101
-2.217 6.237 -0.79000002 124 69 38
-2.223 6.2420001 -0.80000001 87 60 43
-2.214 6.4239998 -0.88200003 121 118 125
-2.23 6.4239998 -0.85799998 40 9 6
-2.2290001 6.4229999 -0.85399997 33 2 0
-2.2249999 6.4239998 -0.85600001 27 2 0
-2.2290001 6.4250002 -0.86000001 27 2 0
-2.2390001 6.4250002 -0.838 38 3 0
-2.244 6.4229999 -0.83700001 163 100 69
-2.257 6.4159999 -0.81 20 0 0
-2.247 6.4190001 -0.81 58 13 0
-2.256 6.4180002 -0.80699998 126 64 27
-2.2379999 6.4260001 -0.82800001 106 43 25
-2.2409999 6.4219999 -0.81400001 106 45 17
-2.2149999 6.427 -0.847 48 11 2
-2.224 6.427 -0.88300002 41 3 0
-2.013 6.473 -0.70300001 167 93 46
-2.036 6.487 -0.722 131 103 89
-2.0450001 6.4860001 -0.80299997 118 85 68
-2.039 6.493 -0.80299997 46 5 1
-2.1900001 6.3249998 -0.94700003 8 3 7
-2.1900001 6.335 -0.94099998 113 97 82
-2.1900001 6.3390002 -0.94300002 89 75 72
-2.257 6.3779998 -0.95899999 122 94 90
-2.28 6.3990002 -0.91399997 43 11 0
-2.1960001 6.2969999 -0.898 122 63 33
-2.1889999 6.29 -0.89499998 2 0 6
-2.204 6.3499999 -0.875 69 41 19
-2.21 6.355 -0.88300002 5 0 0
-2.197 6.3790002 -0.99800003 24 5 0
-2.184 6.3639998 -1.008 128 113 108
-2.191 6.3850002 -0.98400003 88 62 47
-2.1240001 6.4109998 -0.97299999 129 58 6
-2.1900001 6.3720002 -0.97500002 158 112 86
-2.2119999 6.3049998 -0.97000003 38 11 4
-2.2030001 6.3639998 -0.97500002 125 92 77
-2.2049999 6.3540001 -0.97100002 110 93 101
-2.197 6.362 -0.98699999 33 8 3
-2.1900001 6.3239999 -0.95200002 105 55 22
-2.188 6.3130002 -0.95200002 62 14 0
-2.0940001 6.4320002 -0.94800001 9 3 5
-2.223 6.3969998 -0.93900001 61 42 27
-2.2119999 6.3850002 -0.94700003 4 0 3
-2.21 6.3800001 -0.94999999 10 6 7
-2.2060001 6.3850002 -0.94999999 46 7 0
-2.214 6.3520002 -0.89499998 32 5 0
-2.244 6.368 -0.87800002 69 40 22
-2.247 6.3709998 -0.88200003 60 28 15
-2.0369999 6.4749999 -0.89700001 20 0 0
-2.0320001 6.4790001 -0.89399999 27 3 1
-2.036 6.4689999 -0.90700001 58 13 7
-2.043 6.4850001 -0.83399999 150 116 106
-2.076 6.46 -0.87400001 45 16 2
-2.0780001 6.4640002 -0.86299998 143 129 118
-2.0769999 6.4590001 -0.861 104 45 15
-2.096 6.473 -0.82499999 80 43 16
-2.0829999 6.4530001 -0.82999998 122 97 77
-2.0840001 6.4879999 -0.838 25 5 4
-2.0829999 6.493 -0.83499998 23 2 0
-2.072 6.474 -0.86299998 164 145 128
-2.076 6.4720001 -0.861 16 1 0
-2.079 6.474 -0.85399997 30 7 1
-2.0840001 6.4650002 -0.85299999 169 149 125
-2.0569999 6.434 -0.80400002 86 62 52
-2.0599999 6.4289999 -0.82499999 70 42 28
-2.023 6.4390001 -0.898 40 0 0
-2.0480001 6.454 -0.92199999 62 5 0
-2.0420001 6.4629998 -0.90899998 33 0 0
-2.075 6.4699998 -0.91100001 31 11 2
-2.066 6.473 -0.91799998 151 125 110
-2.0469999 6.4499998 -0.94800001 145 133 121
-2.2019999 6.2509999 -0.85000002 5 1 2
-2.22 6.2600002 -0.85799998 9 5 4
-2.2179999 6.302 -0.93400002 46 8 0
-2.217 6.3379998 -0.88999999 105 78 61
-2.201 6.323 -0.926 44 27 20
-2.197 6.323 -0.93300003 5 1 2
-2.1919999 6.336 -0.93400002 5 3 6
-2.2 6.3169999 -0.88 153 76 22
-2.2149999 6.2740002 -0.91799998 7 1 3
-2.319 6.3260002 -0.91900003 97 33 0
-2.279 6.329 -0.92699999 116 87 73
-2.2909999 6.3379998 -0.91600001 51 16 0
-2.25 6.3319998 -0.94800001 7 1 3
-2.2550001 6.3330002 -0.94999999 77 36 8
-2.2449999 6.3189998 -0.90700001 54 20 10
-2.283 6.3130002 -0.94300002 105 76 62
-2.2750001 6.3210001 -0.94400001 21 0 0
-2.2739999 6.336 -0.89600003 88 79 82
-2.2839999 6.3330002 -0.903 119 67 27
-2.2820001 6.3369999 -0.90700001 82 30 6
-2.2939999 6.3309999 -0.91000003 42 14 10
-2.303 6.3309999 -0.92799997 52 32 23
-2.286 6.3330002 -0.94499999 93 79 76
-2.313 6.349 -0.93099999 152 102 77
-2.3180001 6.336 -0.935 56 18 0
-2.306 6.3439999 -0.92799997 36 11 4
-2.2969999 6.335 -0.94800001 33 13 4
-2.2160001 6.3470001 -0.903 86 58 47
-2.2149999 6.3509998 -0.89999998 29 4 0
-2.2030001 6.2610002 -0.87699997 2 0 1
-2.266 6.3979998 -0.84200001 36 1 0
-2.237 6.3909998 -0.83899999 93 78 75
-2.237 6.3909998 -0.83700001 131 116 111
-2.2360001 6.3889999 -0.83999997 100 85 82
-2.2260001 6.3299999 -0.82300001 84 22 1
-2.2320001 6.3150001 -0.81699997 98 63 41
-2.2309999 6.335 -0.82300001 125 103 89
-2.2360001 6.3439999 -0.81800002 127 109 105
-2.277 6.395 -0.90399998 57 24 5
-2.2750001 6.401 -0.91000003 83 48 28
-2.244 6.349 -0.82700002 115 35 0
-2.2479999 6.4180002 -0.78299999 209 177 120
-2.2420001 6.3899999 -0.80500001 122 98 94
-2.033 6.3920002 -0.76300001 255 224 138
-2.0439999 6.381 -0.75300002 227 169 87
-2.059 6.4169998 -0.67699999 60 12 0
-2.0610001 6.3860002 -0.67799997 128 72 21
-2.056 6.4120002 -0.68699998 83 36 8
-2.0569999 6.415 -0.68699998 106 50 23
-2.053 6.4089999 -0.68000001 116 59 29
-1.992 6.4400001 -0.79799998 234 178 103
-2.05 6.3969998 -0.70599997 48 20 6
-2.0439999 6.408 -0.72100002 107 39 0
-2.023 6.46 -0.73299998 114 66 28
-2.0190001 6.4530001 -0.74800003 89 30 0
-2.0250001 6.4580002 -0.72600001 123 76 46
-2.046 6.3850002 -0.74599999 111 59 22
-2.0339999 6.3979998 -0.78799999 72 24 2
-2.027 6.4180002 -0.81599998 169 131 108
-2.0539999 6.4200001 -0.78299999 166 112 86
-2.0539999 6.4260001 -0.78600001 80 45 23
-2.0280001 6.402 -0.662 245 212 158
-2.02 6.4460001 -0.75300002 68 9 0
-2.0380001 6.4809999 -0.73000002 131 82 68
-2.0239999 6.4899998 -0.722 42 5 0
-2.039 6.4130001 -0.70999998 50 3 0
-2.043 6.4099998 -0.71600002 111 46 8
-2.063 6.4330001 -0.71499997 123 87 61
-2.049 6.4380002 -0.76099998 130 77 33
-2.0810001 6.4970002 -0.764 41 12 4
-2.0179999 6.4990001 -0.75099999 124 81 36
-2.02 6.4949999 -0.741 85 17 0
-2.029 6.4959998 -0.755 144 81 40
-2.0350001 6.506 -0.76200002 135 74 30
-2.0309999 6.4860001 -0.73299998 123 66 11
-2.026 6.4910002 -0.736 90 23 0
-2.056 6.4159999 -0.79000002 215 184 138
-2.04 6.4099998 -0.87800002 182 120 81
-2.0020001 6.4229999 -0.85000002 131 110 91
-2.006 6.421 -0.82999998 57 10 0
-2.0220001 6.4219999 -0.82599998 98 54 9
-2.0190001 6.4260001 -0.83200002 224 150 105
-2.0050001 6.4229999 -0.83499998 128 96 71
-2.039 6.4109998 -0.87800002 127 118 119
-2.0339999 6.414 -0.87800002 134 70 35
-2.05 6.382 -1.027 252 216 119
-2.062 6.3850002 -1.003 180 96 50
-2.075 6.3800001 -0.99900001 211 166 124
-2.1010001 6.4000001 -0.991 97 78 74
-2.1140001 6.4029999 -0.98699999 172 141 123
-2.0999999 6.4070001 -0.972 49 1 0
-2.109 6.4070001 -0.96499997 212 148 87
-2.085 6.4130001 -0.98000002 146 78 33
-2.2 6.3800001 -1.011 43 8 2
-2.1489999 6.3390002 -1.081 134 54 19
-2.105 6.3790002 -1.081 216 170 134
-2.105 6.3860002 -1.0779999 206 140 90
-2.1029999 6.3800001 -1.077 201 135 85
-2.0910001 6.3800001 -1.082 117 72 39
-2.0799999 6.3280001 -1.075 160 106 72
-2.1949999 6.3130002 -1.066 93 47 21
-2.1830001 6.3270001 -1.068 98 61 34
-2.1819999 6.2909999 -0.95899999 116 84 63
-2.184 6.289 -0.95200002 138 91 61
-2.1849999 6.2839999 -0.94800001 99 49 24
-2.1930001 6.276 -0.93599999 247 196 151
-2.1960001 6.2729998 -0.93400002 1 1 3
-2.191 6.2740002 -0.94599998 45 7 0
-2.1960001 6.27 -0.92900002 2 0 1
-2.1900001 6.2729998 -0.949 43 10 3
-2.21 6.2789998 -0.94599998 161 146 139
-2.2119999 6.2820001 -0.94999999 46 4 0
-2.029 6.395 -0.66900003 144 126 116
-2.244 6.3080001 -0.86799997 115 103 103
-2.2409999 6.3049998 -0.86199999 35 25 24
-2.247 6.3249998 -0.83399999 58 16 2
-2.197 6.3000002 -0.84299999 39 16 0
-2.2 6.3039999 -0.833 9 5 4
-2.2279999 6.3049998 -0.82700002 61 34 17
-2.2309999 6.2849998 -0.81400001 56 24 13
-2.3210001 6.3330002 -0.92799997 101 76 56
-2.3199999 6.3309999 -0.92900002 58 35 17
-2.335 6.3390002 -0.87800002 118 44 7
-2.323 6.3150001 -0.86299998 121 90 69
-2.3199999 6.3189998 -0.86299998 171 143 121
-2.312 6.3179998 -0.86699998 111 67 22
-2.082 6.381 -0.99900001 106 61 30
-2.086 6.3899999 -0.99599999 150 71 15
-2.0999999 6.3899999 -1.017 167 150 142
-2.1229999 6.4039998 -0.986 170 137 104
-2.118 6.4050002 -0.98500001 7 3 2
-2.1930001 6.355 -0.94 95 54 32
-2.128 6.4050002 -0.98500001 164 117 91
-2.075 6.421 -0.96200001 11 3 0
-2.0480001 6.4060001 -0.91000003 10 1 2
-2.0469999 6.4089999 -0.90100002 12 4 2
-2.059 6.415 -0.88499999 14 5 6
-2.096 6.4229999 -0.95099998 10 5 9
-2.1099999 6.415 -0.95599997 137 115 94
-2.191 6.3140001 -1.052 79 51 39
-2.049 6.382 -1.067 139 58 0
-2.05 6.381 -1.0650001 122 66 9
-2.059 6.3629999 -1.073 131 73 23
-2.066 6.375 -1.073 97 52 11
-2.0539999 6.401 -1.074 156 131 111
-2.075 6.3699999 -1.073 89 45 10
-2.082 6.3639998 -1.079 56 9 0
-2.082 6.3759999 -1.08 75 19 0
-2.075 6.421 -1.068 96 49 7
-2.053 6.3720002 -1.061 154 136 124
-2.053 6.3720002 -1.0650001 250 196 136
-2.05 6.381 -1.067 189 138 95
-2.069 6.3730001 -1.051 161 90 28
-2.0650001 6.369 -1.0599999 80 34 0
-2.072 6.3709998 -1.045 192 146 112
-2.214 6.4120002 -1.0599999 47 35 23
-2.25 6.3839998 -1.021 44 17 8
-2.237 6.3709998 -1.016 155 113 88
-2.256 6.3839998 -1.018 21 0 0
-2.2539999 6.3759999 -1.029 89 48 30
-2.023 6.474 -0.83999997 89 39 14
-2.03 6.4780002 -0.82300001 72 20 0
-2.0309999 6.48 -0.83600003 255 197 138
-2.0179999 6.46 -0.81599998 114 49 19
-2.039 6.4850001 -0.87400001 31 12 8
-2.0320001 6.4850001 -0.87599999 92 38 4
-2.0350001 6.4850001 -0.87 24 3 0
-2.0450001 6.48 -0.88 22 1 0
-2.026 6.4850001 -0.86699998 159 153 155
-2.0309999 6.4850001 -0.87 15 0 2
-2.0239999 6.4840002 -0.861 155 149 151
-2.027 6.4850001 -0.86699998 27 0 0
-2.0409999 6.4850001 -0.86000001 22 3 0
-2.0109999 6.4510002 -0.89499998 72 56 57
-2.0190001 6.4829998 -0.86199999 28 0 0
-2.0239999 6.4819999 -0.86699998 35 6 0
-2.029 6.4809999 -0.89399999 55 25 17
-2.1010001 6.447 -1.039 40 6 0
-2.1040001 6.4489999 -1.045 38 9 1
-2.095 6.4549999 -1.056 135 118 110
-2.0910001 6.4530001 -1.0369999 45 13 2
-2.1289999 6.4070001 -1.026 2 1 0
-2.1240001 6.4050002 -1.015 96 43 12
-2.125 6.4060001 -1.031 4 0 1
-2.128 6.4099998 -1.025 4 0 0
-2.1099999 6.4169998 -1.038 69 24 0
-2.108 6.4320002 -1.04 31 3 0
-2.1059999 6.4400001 -1.04 50 8 0
-2.0969999 6.4159999 -1.067 96 51 9
-2.099 6.4219999 -1.063 35 2 0
-2.026 6.454 -0.89099997 47 8 3
-2.0320001 6.4710002 -0.889 28 3 0
-2.0250001 6.4460001 -1.02 160 154 158
-2.0350001 6.4530001 -0.96899998 160 144 131
-2.0109999 6.4499998 -0.96499997 161 83 37
-2.053 6.4530001 -0.99299997 126 49 3
-2.029 6.4559999 -0.96200001 150 126 122
-2.063 6.4629998 -1.011 41 18 10
-2.0699999 6.46 -1.04 38 9 1
-2.069 6.4569998 -1.041 166 111 70
-2.0840001 6.4369998 -1.007 42 4 1
-2.092 6.434 -1.017 68 18 0
-2.0580001 6.4489999 -0.98699999 227 157 72
-2.056 6.447 -0.98500001 246 207 88
-2.0710001 6.4439998 -0.96600002 106 62 33
-2.0769999 6.4720001 -0.94700003 37 10 3
-2.086 6.4679999 -0.949 32 7 3
-2.0639999 6.4520001 -0.954 206 169 142
-2.0550001 6.4460001 -0.94300002 152 120 121
-2.059 6.4460001 -0.94300002 112 70 58
-2.066 6.4520001 -0.93800002 136 86 59
-2.0699999 6.4559999 -0.94400001 117 66 39
-2.0699999 6.4759998 -0.93800002 42 9 2
-2.1229999 6.4109998 -0.986 2 1 0
-2.1270001 6.4029999 -0.99400002 7 3 2
-2.1329999 6.4109998 -1.005 160 111 96
-2.125 6.4120002 -1.015 5 0 4
-2.119 6.4169998 -1.007 8 2 4
-2.1240001 6.3940001 -1.0190001 10 4 6
-2.1159999 6.395 -1.018 8 2 4
-2.095 6.3790002 -1.072 197 143 97
-2.076 6.3709998 -1.0650001 176 95 39
-2.2179999 6.4239998 -0.92199999 44 25 19
-2.0929999 6.4450002 -0.94400001 123 91 66
-2.0880001 6.4299998 -0.93800002 53 16 8
-2.085 6.4689999 -0.95099998 24 0 0
-2.052 6.3740001 -1.057 132 82 49
-2.0409999 6.441 -0.972 9 0 1
-2.0469999 6.46 -1.039 77 3 0
-2.046 6.4200001 -1.053 50 24 9
-2.039 6.408 -1.064 192 155 85
-2.0469999 6.4359999 -1.0599999 146 134 136
-2.0350001 6.4520001 -1.0319999 115 49 23
-2.04 6.4419999 -1.046 9 0 3
-2.056 6.4640002 -1.018 20 0 0
-2.0480001 6.4590001 -1.023 137 131 133
-2.027 6.5019999 -0.78500003 61 14 0
-2.023 6.5019999 -0.78399998 32 0 0
-2.1930001 6.3709998 -1.0779999 136 74 33
-2.1930001 6.3769999 -1.072 137 65 7
-2.1819999 6.3410001 -1.082 131 107 95
-2.178 6.3520002 -1.071 121 62 28
-2.0829999 6.447 -1.0420001 154 148 150
-2.073 6.4450002 -1.044 41 11 1
-2.0639999 6.4380002 -1.056 120 62 12
-2.0580001 6.4520001 -1.0470001 37 8 0
-2.095 6.4510002 -1.057 81 44 26
-2.1040001 6.4289999 -1.052 87 49 28
-2.217 6.244 -0.83700001 2 1 0
-2.204 6.25 -0.84500003 5 1 2
-2.207 6.2519999 -0.84799999 6 2 3
-2.2360001 6.2540002 -0.83200002 136 111 91
-2.2219999 6.243 -0.829 120 105 102
-2.1949999 6.2589998 -0.88599998 125 99 84
-2.1930001 6.257 -0.84600002 120 109 107
-2.1830001 6.2649999 -0.87099999 71 14 0
-2.1860001 6.2789998 -0.83999997 181 136 103
-2.1830001 6.2810001 -0.84200001 93 48 25
-2.1889999 6.2670002 -0.84799999 2 0 1
-2.1889999 6.2670002 -0.85600001 151 88 45
-2.187 6.2639999 -0.86699998 26 11 8
-2.217 6.2600002 -0.80000001 67 22 1
-2.2149999 6.2690001 -0.80699998 51 12 5
-2.1989999 6.2519999 -0.824 162 110 70
-2.197 6.2519999 -0.833 39 16 8
-2.198 6.3010001 -1.036 129 102 91
-2.2349999 6.329 -1.0549999 50 14 0
-2.2179999 6.3249998 -1.054 106 71 43
-2.2060001 6.3109999 -1.011 189 139 114
-2.2079999 6.3049998 -1.066 95 61 36
-2.2030001 6.3169999 -1.0829999 51 24 13
-2.204 6.309 -1.072 65 28 10
-2.171 6.3379998 -1.081 86 36 3
-2.1229999 6.401 -0.991 6 2 1
-2.164 6.3530002 -1.069 152 76 24
-2.1600001 6.3449998 -1.076 156 97 67
-2.152 6.342 -1.077 76 7 0
-2.2349999 6.3629999 -1.005 56 17 2
-2.2349999 6.3639998 -0.99199998 59 17 5
-2.2509999 6.335 -1.0319999 96 48 12
-2.253 6.3299999 -1.024 38 9 5
-2.2720001 6.329 -1.025 34 10 6
-2.2690001 6.335 -1.028 46 3 0
-2.26 6.3319998 -1.022 19 0 0
-2.263 6.362 -1.0319999 200 149 120
-2.257 6.369 -1.031 114 59 29
-2.233 6.323 -1.0140001 108 103 107
-2.2260001 6.3130002 -1.007 109 65 38
-2.2119999 6.309 -0.97500002 20 1 0
-2.2019999 6.3639998 -0.94800001 48 22 9
-2.198 6.3889999 -0.94800001 112 107 113
-2.1919999 6.3540001 -0.92699999 85 57 33
-2.201 6.348 -0.921 130 94 78
-2.2030001 6.3530002 -0.92199999 39 0 0
-2.221 6.3070002 -1.008 45 18 0
-2.21 6.3119998 -0.98000002 18 0 0
-2.1800001 6.303 -0.95200002 125 86 43
-2.204 6.335 -0.972 111 77 50
-2.253 6.375 -0.94700003 38 3 0
-2.2309999 6.3200002 -0.94199997 45 16 2
-2.2160001 6.3109999 -0.93900001 94 60 35
-2.2490001 6.3249998 -0.92400002 85 80 87
-2.27 6.362 -0.958 145 117 105
-2.2160001 6.3720002 -0.89200002 5 0 0
-2.2060001 6.3720002 -0.912 108 75 58
-2.332 6.3499999 -0.90600002 76 40 14
-2.3329999 6.355 -0.90799999 44 3 0
-2.319 6.3299999 -0.92199999 81 59 45
-2.3329999 6.355 -0.912 45 4 0
-2.3210001 6.3379998 -0.92400002 126 106 99
-2.299 6.3410001 -0.96399999 134 93 63
-2.2980001 6.335 -0.95599997 29 9 0
-2.3080001 6.3330002 -0.97299999 91 45 12
-2.253 6.3340001 -0.95599997 211 184 167
-2.184 6.3369999 -1.031 113 87 72
-2.1849999 6.3429999 -1.0470001 38 17 0
-2.1919999 6.329 -1.045 35 21 20
-2.1719999 6.3340001 -1.068 139 123 124
-2.2030001 6.4130001 -1.069 19 1 0
-2.187 6.4120002 -1.059 43 15 1
-2.2449999 6.3779998 -1.028 139 97 75
-2.2130001 6.388 -0.98900002 102 56 32
-2.214 6.382 -0.99400002 96 66 42
-2.2149999 6.3850002 -1.011 44 26 22
-2.224 6.3860002 -1.0319999 60 37 19
-2.207 6.3909998 -1.076 21 0 0
-2.2309999 6.3850002 -1.082 63 20 4
-2.2090001 6.3579998 -1.081 61 23 2
-2.2190001 6.349 -1.079 5 1 0
-2.207 6.3779998 -1.0470001 23 4 0
-2.2049999 6.3930001 -1.057 41 11 1
-2.2060001 6.3850002 -1.0470001 33 13 12
-2.2090001 6.3150001 -1.081 24 0 0
-2.2079999 6.3130002 -1.089 7 3 0
-2.244 6.355 -1.053 27 2 0
-2.26 6.3759999 -1.031 43 13 2
-2.2850001 6.3270001 -1.045 81 45 21
-2.29 6.3210001 -1.0420001 117 80 51
-2.247 6.3410001 -1.084 67 30 14
-2.2479999 6.3499999 -1.073 10 0 0
-2.063 6.3940001 -0.66600001 72 17 0
-2.0699999 6.4070001 -0.74900001 121 76 37
-2.0510001 6.3930001 -0.68599999 93 58 39
-2.0480001 6.3920002 -0.69 164 127 101
-2.0639999 6.4190001 -0.764 116 72 35
-2.0569999 6.4070001 -0.72799999 158 101 82
-2.063 6.4190001 -0.73000002 115 72 40
-2.0899999 6.4759998 -0.73199999 85 36 29
-2.089 6.473 -0.72600001 164 140 116
-2.0769999 6.4720001 -0.722 80 45 25
-2.197 6.4320002 -0.83200002 156 124 111
-2.1059999 6.4949999 -0.79900002 31 1 0
-2.082 6.487 -0.79100001 125 99 74
-2.0840001 6.4829998 -0.78200001 119 101 91
-2.0969999 6.4949999 -0.79900002 81 44 35
-2.0550001 6.375 -0.65899998 192 148 103
-2.0439999 6.3730001 -0.64999998 208 128 55
-2.0539999 6.402 -0.67400002 132 74 36
-2.0610001 6.401 -0.708 90 51 34
-2.062 6.4250002 -0.69700003 36 0 0
-2.0350001 6.4000001 -0.68300003 94 31 0
-2.289 6.3590002 -0.773 54 24 0
-2.296 6.3909998 -0.79400003 136 91 62
-2.319 6.3699999 -0.76200002 82 34 0
-2.25 6.3189998 -0.98100001 2 1 0
-2.2279999 6.3169999 -0.99800003 171 150 145
-2.243 6.323 -1.002 123 89 64
-2.2279999 6.3169999 -1.003 173 139 127
-2.293 6.3400002 -0.995 36 19 3
-2.1889999 6.289 -0.93199998 0 0 0
-2.1860001 6.2789998 -0.91799998 6 4 5
-2.1849999 6.2870002 -0.93800002 139 85 38
-2.188 6.2849998 -0.93300003 215 164 119
-2.1889999 6.2859998 -0.92900002 3 2 0
-2.2 6.3060002 -0.92199999 90 45 22
-2.279 6.3400002 -0.89099997 150 75 17
-2.273 6.342 -0.89300001 79 74 70
-2.207 6.3239999 -0.86799997 33 29 30
-2.1919999 6.302 -0.81599998 212 149 95
-2.0829999 6.5029998 -0.76499999 25 1 0
-2.0869999 6.5009999 -0.76499999 27 1 0
-2.0899999 6.4990001 -0.76999998 31 5 4
-2.0880001 6.5009999 -0.764 27 2 0
-2.1029999 6.4689999 -0.78399998 120 63 43
-2.0999999 6.4689999 -0.77999997 96 76 69
-2.0869999 6.494 -0.81300002 130 116 107
-2.0880001 6.4920001 -0.815 63 22 2
-2.0940001 6.4879999 -0.81199998 63 26 10
-2.2149999 6.3860002 -0.90799999 104 65 36
-2.2179999 6.3769999 -0.90600002 92 61 41
-2.2090001 6.4190001 -0.91000003 43 13 5
-2.2179999 6.4180002 -0.89499998 32 7 2
-2.2219999 6.2870002 -0.89999998 6 4 5
-2.2019999 6.3049998 -0.90100002 25 0 0
-2.204 6.3130002 -0.88599998 32 13 6
-2.3410001 6.3200002 -0.866 154 103 60
-2.3440001 6.3249998 -0.87099999 147 97 48
-2.2130001 6.2410002 -0.78399998 147 90 45
-2.223 6.2589998 -0.76499999 130 68 19
-2.243 6.25 -0.77899998 74 47 28
-2.237 6.2779999 -0.81599998 67 30 1
-2.217 6.296 -0.81699997 96 59 32
-2.25 6.25 -0.78899997 51 20 0
-2.24 6.2529998 -0.79100001 79 32 6
-2.23 6.2690001 -0.84299999 62 17 0
-2.2279999 6.27 -0.847 72 36 10
-2.2390001 6.244 -0.80599999 74 33 13
-2.2390001 6.2360001 -0.79699999 34 3 0
-2.2379999 6.2909999 -0.84200001 70 31 0
-2.233 6.2839999 -0.83600003 94 50 23
-2.2379999 6.3130002 -0.83399999 78 47 26
-2.2360001 6.3130002 -0.83899999 53 4 0
-2.2349999 6.3119998 -0.838 8 0 0
-2.3150001 6.3270001 -0.85699999 136 99 44
-2.2690001 6.375 -0.90799999 116 53 18
-2.2539999 6.3390002 -0.88800001 20 0 0
-2.2620001 6.362 -0.90899998 94 54 28
-2.2539999 6.369 -0.90100002 97 47 14
-2.2479999 6.3569999 -0.90600002 88 80 78
-2.256 6.3439999 -0.90799999 24 6 2
-2.2709999 6.3499999 -0.90499997 131 74 29
-2.28 6.3379998 -0.94300002 107 88 82
-2.2809999 6.3369999 -0.949 213 176 134
-2.233 6.427 -0.79500002 152 116 56
-2.2309999 6.4239998 -0.80500001 47 5 0
-2.223 6.4109998 -0.79799998 154 80 41
-2.2160001 6.3870001 -0.81400001 162 103 63
-2.221 6.3759999 -0.82999998 124 66 28
-2.237 6.3179998 -0.84399998 60 12 0
-2.2390001 6.3039999 -0.861 93 83 84
-2.2750001 6.3909998 -0.86699998 86 39 11
-2.25 6.414 -0.86000001 199 141 93
-2.256 6.3990002 -0.83200002 102 62 37
-2.2750001 6.3850002 -0.82200003 52 23 17
-2.2420001 6.414 -0.82599998 57 30 23
-2.2839999 6.3839998 -0.80699998 198 147 102
-2.2950001 6.3649998 -0.80199999 89 49 24
-2.299 6.3870001 -0.84299999 60 33 26
-2.302 6.3889999 -0.73799998 137 60 6
-2.299 6.388 -0.73900002 176 148 137
-2.296 6.3790002 -0.74400002 206 157 114
-2.303 6.3889999 -0.73799998 210 146 85
-2.3039999 6.395 -0.736 79 19 0
-2.2030001 6.3530002 -0.84200001 80 47 32
-2.25 6.2740002 -0.74199998 167 114 72
-2.184 6.296 -0.85500002 9 3 3
-2.1789999 6.2919998 -0.84200001 173 155 143
-2.2030001 6.3590002 -0.85699999 164 127 101
-2.198 6.3629999 -0.82700002 116 37 0
-2.2049999 6.3559999 -0.83099997 185 109 47
-2.2079999 6.401 -0.86500001 20 10 9
-2.2190001 6.3860002 -0.86500001 91 75 62
-2.217 6.381 -0.88200003 7 3 4
-2.2149999 6.421 -0.801 88 27 0
-2.2079999 6.427 -0.80400002 116 29 0
-2.194 6.4120002 -0.81599998 166 134 96
-2.2160001 6.402 -0.83499998 47 15 4
-2.2130001 6.3940001 -0.81999999 122 60 13
-2.326 6.3720002 -0.79799998 124 82 58
-2.3210001 6.3779998 -0.80400002 123 82 50
-2.313 6.3699999 -0.80800003 97 58 27
-2.2550001 6.2589998 -0.73400003 169 111 48
-2.2520001 6.2579999 -0.75599998 74 29 10
-2.257 6.243 -0.745 80 31 1
-2.2509999 6.2410002 -0.759 60 27 10
-2.28 6.3850002 -0.98400003 97 44 10
-2.28 6.395 -0.97799999 137 83 49
-2.2880001 6.3210001 -0.99400002 35 5 0
-2.2780001 6.3299999 -1.002 73 45 24
-2.2880001 6.3629999 -1.012 163 108 77
-2.2820001 6.348 -1.02 80 46 21
-2.28 6.3930001 -0.97299999 72 42 18
-2.2950001 6.3600001 -1.001 66 19 1
-2.243 6.4169998 -0.89200002 30 2 0
-2.2520001 6.4089999 -0.884 65 28 9
-2.24 6.4180002 -0.88999999 29 8 7
-2.2609999 6.4050002 -0.88 170 100 48
-2.2550001 6.4130001 -0.86699998 111 62 30
-2.26 6.4089999 -0.866 144 82 41
-2.237 6.4219999 -0.884 28 4 0
-2.2320001 6.4390001 -0.93300003 24 0 0
-2.227 6.4289999 -0.93300003 47 18 12
-2.313 6.368 -0.889 155 116 101
-2.096 6.4099998 -0.97299999 168 146 133
-2.089 6.434 -0.995 119 52 35
-2.115 6.4289999 -0.995 186 137 107
-2.1059999 6.4289999 -1.006 9 3 5
-2.243 6.3990002 -0.97399998 21 4 0
-2.2279999 6.388 -0.98199999 29 0 0
-2.2019999 6.3249998 -0.991 24 0 0
-2.1830001 6.3979998 -1.0319999 67 45 34
-2.1600001 6.3909998 -1.038 50 20 10
-2.181 6.388 -1.0319999 137 93 56
-2.1789999 6.3969998 -1.061 117 78 49
-2.1619999 6.3899999 -1.051 101 83 79
-2.1730001 6.4089999 -1.052 109 78 60
-2.1689999 6.395 -1.0470001 100 89 85
-2.161 6.3930001 -1.0420001 40 20 9
-2.181 6.4120002 -1.059 39 6 0
-2.2850001 6.3800001 -0.98799998 100 69 49
-2.1689999 6.3899999 -1.052 142 86 49
-2.191 6.401 -1.0420001 37 3 2
-2.25 6.3520002 -0.99699998 52 35 28
-2.244 6.355 -0.99400002 21 1 0
-2.2620001 6.3870001 -1.0089999 83 50 31
-2.0120001 6.4580002 -0.83600003 167 143 131
-2.0090001 6.4559999 -0.81800002 134 112 99
-1.984 6.428 -0.82200003 114 78 56
-2.01 6.4710002 -0.71200001 195 161 136
-2.013 6.4660001 -0.796 179 136 102
-2.0009999 6.4380002 -0.80000001 166 133 116
-2.023 6.4250002 -0.84200001 117 90 71
-1.998 6.4299998 -0.84500003 100 77 59
-1.998 6.4299998 -0.84299999 132 106 89
-2.0020001 6.4299998 -0.80000001 238 204 156
-2.0250001 6.4320002 -0.79500002 230 190 155
-2 6.4190001 -0.80900002 49 20 4
-2.0009999 6.4190001 -0.80800003 188 100 0
-2.0480001 6.3909998 -0.79000002 95 63 40
-2.066 6.434 -0.86199999 117 75 37
-2.066 6.4289999 -0.86900002 96 72 60
-2.0680001 6.4330001 -0.87400001 132 113 106
-2.0380001 6.421 -0.96799999 103 18 0
-2.039 6.4229999 -0.98000002 159 101 81
-2.0929999 6.428 -0.949 7 1 1
-2.0539999 6.4219999 -0.85000002 116 115 111
-2.0539999 6.4229999 -0.85500002 106 58 36
-2.026 6.48 -0.88 125 114 112
-2.0250001 6.4790001 -0.88800001 132 109 101
-2.0239999 6.454 -0.88599998 52 15 7
-2.0369999 6.4549999 -0.93300003 145 144 150
-2.026 6.4510002 -0.92699999 245 172 95
-2.023 6.4419999 -0.93199998 36 28 26
-2.0209999 6.4369998 -0.93000001 76 68 66
-2.0209999 6.4450002 -0.93699998 167 166 171
-2.0439999 6.4250002 -0.93900001 107 102 109
-2.0420001 6.421 -0.93699998 128 66 27
-2.033 6.421 -0.95099998 113 49 24
-2.0569999 6.3730001 -1.031 110 62 26
-2.053 6.428 -0.93900001 166 110 83
-2.0810001 6.4419999 -1.008 87 36 9
-2.0480001 6.3889999 -1.0190001 167 90 46
-2.046 6.395 -1.027 185 118 63
-2.0480001 6.4029999 -1.029 107 45 0
-2.0610001 6.4749999 -0.80000001 230 160 197
-2.0569999 6.4369998 -0.78799999 221 153 190
-2.0109999 6.467 -0.75300002 101 61 35
-2.0120001 6.473 -0.75700003 149 83 49
-2.006 6.4629998 -0.73100001 48 21 0
-2.007 6.4679999 -0.72399998 55 27 13
-2.0139999 6.4640002 -0.74000001 189 116 75
-2.102 6.4650002 -0.79100001 36 11 4
-2.098 6.48 -0.81999999 80 38 14
-2.227 6.4310002 -0.833 36 2 0
-2.082 6.5139999 -0.72899997 90 40 7
-2.076 6.5120001 -0.73799998 67 22 3
-2.098 6.506 -0.71799999 134 82 25
-2.108 6.5079999 -0.72600001 247 162 56
-2.1059999 6.493 -0.79699999 70 36 0
-2.1040001 6.494 -0.79699999 59 25 0
-2.092 6.494 -0.77700001 23 2 0
-2.0910001 6.52 -0.74199998 46 3 0
-2.2509999 6.421 -0.796 50 2 0
-2.2550001 6.4200001 -0.80500001 24 0 0
-2.3099999 6.3870001 -0.84500003 62 26 14
-2.2820001 6.3870001 -0.83099997 54 18 4
-2.29 6.3699999 -0.74299997 62 30 5
-2.2420001 6.2690001 -0.77200001 98 41 11
-2.22 6.2360001 -0.79699999 63 37 22
-2.214 6.4109998 -0.88200003 115 101 100
-2.2260001 6.4250002 -0.86000001 21 1 0
-2.2320001 6.4239998 -0.847 34 3 0
-2.2279999 6.4239998 -0.847 78 41 33
-2.22 6.4299998 -0.84299999 134 89 47
-2.2179999 6.4369998 -0.83099997 63 35 23
-2.2130001 6.4089999 -0.88300002 105 93 95
-2.22 6.4070001 -0.89300001 30 0 0
-2.05 6.4429998 -0.78500003 162 133 115
-2.29 6.3940001 -0.80500001 41 14 7
-2.2750001 6.3959999 -0.80599999 152 90 53
-2.2679999 6.3990002 -0.80900002 70 12 0
-2.283 6.3979998 -0.79699999 35 10 6
-2.2969999 6.388 -0.73799998 210 145 89
-2.201 6.3460002 -0.92199999 161 123 104
-2.1719999 6.3649998 -1.022 55 17 0
-2.1789999 6.3649998 -1.034 5 1 2
-2.089 6.3920002 -1.071 63 7 0
-2.0869999 6.3850002 -1.074 98 53 20
-2.276 6.3940001 -0.917 102 78 66
-2.2720001 6.3909998 -0.91900003 104 87 67
-2.2179999 6.4029999 -0.91399997 64 27 18
-2.0610001 6.388 -0.99900001 185 119 71
-2.0569999 6.388 -1.001 143 64 25
-2.181 6.2839999 -0.89899999 5 0 4
-2.2130001 6.362 -0.88200003 4 0 0
-2.187 6.3779998 -0.977 174 138 116
-2.1919999 6.3629999 -0.99400002 169 140 122
-2.1949999 6.3720002 -0.98699999 117 75 61
-2.1949999 6.3730001 -0.98799998 22 1 0
-2.198 6.3319998 -0.95899999 4 0 3
-2.191 6.3270001 -0.95099998 5 0 6
-2.092 6.447 -0.95899999 38 1 0
-2.095 6.4390001 -0.96100003 70 28 16
-2.2490001 6.3839998 -0.93099999 37 8 2
-2.217 6.3699999 -0.92799997 85 82 91
-2.22 6.381 -0.93699998 83 82 88
-2.2160001 6.3720002 -0.94099998 100 96 97
-2.039 6.4660001 -0.90799999 51 12 7
-2.039 6.4650002 -0.903 119 90 74
-2.0569999 6.487 -0.81900001 46 8 7
-2.0680001 6.4439998 -0.83999997 63 29 2
-2.0539999 6.4840002 -0.852 52 18 9
-2.086 6.494 -0.83399999 41 11 3
-2.073 6.4720001 -0.87 52 23 9
-2.0739999 6.474 -0.85600001 23 5 3
-2.0610001 6.428 -0.80699998 67 38 20
-2.0539999 6.447 -0.94 163 105 83
-2.2079999 6.256 -0.86199999 4 0 1
-2.201 6.2490001 -0.84600002 4 0 1
-2.1949999 6.27 -0.81999999 150 93 50
-2.214 6.3140001 -0.92699999 53 20 3
-2.2260001 6.3280001 -0.93199998 33 0 0
-2.198 6.3280001 -0.88800001 101 39 16
-2.2950001 6.3340001 -0.95200002 119 83 59
-2.286 6.3340001 -0.95300001 59 23 7
-2.29 6.3569999 -0.93000001 23 2 0
-2.2690001 6.3569999 -0.94099998 23 8 5
-2.283 6.309 -0.94400001 121 71 22
-2.2869999 6.3099999 -0.96200001 154 112 88
-2.256 6.329 -0.89899999 46 16 5
-2.25 6.323 -0.90200001 7 0 0
-2.2920001 6.3309999 -0.89999998 159 114 83
-2.2739999 6.3470001 -0.93400002 110 93 85
-2.207 6.3540001 -0.91799998 125 86 71
-2.2290001 6.3249998 -0.92000002 29 3 2
-2.316 6.3699999 -0.81599998 30 1 0
-2.266 6.4029999 -0.86299998 141 117 107
-2.207 6.3379998 -0.82999998 196 127 96
-2.237 6.349 -0.81999999 54 26 12
-2.24 6.3429999 -0.84299999 164 125 110
-2.24 6.3429999 -0.83999997 75 40 21
-2.2650001 6.3790002 -0.87 182 126 89
-2.2420001 6.3499999 -0.82499999 234 209 178
-2.2479999 6.421 -0.79400003 56 2 0
-2.25 6.4180002 -0.78399998 207 168 113
-2.25 6.4180002 -0.78799999 216 114 40
-2.244 6.4190001 -0.787 233 153 54
-2.237 6.395 -0.81300002 81 48 17
-2.257 6.4130001 -0.81099999 47 18 14
-2.2479999 6.4130001 -0.81199998 68 45 31
-2.033 6.3870001 -0.75 176 145 124
-2.027 6.3940001 -0.764 218 156 83
-2.023 6.4530001 -0.74900001 44 17 0
-2.0050001 6.4759998 -0.72899997 190 115 75
-2.0250001 6.4239998 -0.76300001 159 148 144
-2.0350001 6.4099998 -0.74900001 139 113 100
-2.0369999 6.4250002 -0.74800003 71 21 0
-2.069 6.421 -0.74599999 132 63 30
-2.0450001 6.4070001 -0.648 212 150 73
-2.0150001 6.4720001 -0.77100003 176 123 81
-2.043 6.4790001 -0.72799999 92 56 32
-2.0380001 6.4819999 -0.727 98 49 17
-2.039 6.4759998 -0.71499997 189 135 101
-2.039 6.4299998 -0.71100003 57 4 0
-2.0510001 6.4299998 -0.77899998 109 86 72
-2.0439999 6.4450002 -0.77999997 166 116 79
-2.05 6.4520001 -0.77899998 162 125 96
-2.0999999 6.4759998 -0.722 77 46 28
-2.0739999 6.4580002 -0.74599999 143 86 41
-2.0829999 6.5050001 -0.75800002 33 4 0
-2.0079999 6.4780002 -0.745 109 87 73
-2.0220001 6.506 -0.764 118 78 29
-2.0280001 6.507 -0.76499999 42 8 6
-2.026 6.5029998 -0.77399999 55 19 7
-2.027 6.5040002 -0.77200001 48 12 0
-2.029 6.5040002 -0.77100003 52 18 9
-2.056 6.4120002 -0.79799998 86 57 41
-2.053 6.4299998 -0.83399999 49 13 0
-1.994 6.421 -0.82999998 128 81 35
-2.0039999 6.4200001 -0.829 70 20 0
-2.082 6.4000001 -0.98900002 53 13 1
-2.0880001 6.4099998 -0.98900002 72 37 15
-2.0639999 6.3759999 -1.008 127 78 38
-2.145 6.3439999 -1.079 100 28 13
-2.0810001 6.3520002 -1.085 113 66 38
-2.085 6.3649998 -1.084 77 16 0
-2.0880001 6.3569999 -1.085 39 0 0
-2.086 6.3579998 -1.081 51 8 1
-2.0569999 6.428 -0.79900002 155 108 80
-2.198 6.2729998 -0.93400002 2 0 1
-2.194 6.276 -0.94999999 34 1 0
-2.2149999 6.289 -0.95599997 80 39 21
-2.2409999 6.3060002 -0.86500001 107 97 98
-2.244 6.3210001 -0.83200002 132 55 3
-2.2550001 6.323 -0.81400001 64 2 0
-2.3369999 6.3429999 -0.88700002 95 38 9
-2.3180001 6.3130002 -0.86799997 198 172 157
-2.0899999 6.4099998 -0.94999999 73 20 2
-2.0940001 6.4180002 -0.95099998 49 16 0
-2.119 6.4260001 -0.97399998 13 3 2
-2.075 6.4219999 -0.96499997 13 5 3
-2.0469999 6.408 -0.898 134 73 28
-2.102 6.4089999 -0.95499998 192 173 158
-2.267 6.3639998 -0.94099998 16 1 0
-2.197 6.3119998 -1.063 84 31 0
-2.1010001 6.3730001 -1.082 107 45 0
-2.096 6.3699999 -1.0829999 78 17 0
-2.0929999 6.3649998 -1.082 90 30 6
-2.1059999 6.3759999 -1.082 130 62 13
-2.0569999 6.3639998 -1.068 105 67 30
-2.076 6.3649998 -1.073 146 87 47
-2.0769999 6.3790002 -1.076 72 18 0
-2.0810001 6.3899999 -1.075 98 54 17
-2.086 6.381 -1.08 83 27 2
-2.079 6.382 -1.076 145 93 46
-2.0599999 6.3740001 -1.0700001 107 44 1
-2.0810001 6.3670001 -1.043 200 159 137
-2.043 6.414 -0.99599999 89 15 0
-2.214 6.3979998 -1.039 21 2 0
-2.029 6.4809999 -0.83899999 161 149 149
-2.017 6.4650002 -0.81 194 149 116
-2.0320001 6.4860001 -0.86699998 18 0 0
-2.02 6.4790001 -0.86500001 32 3 0
-2.0280001 6.48 -0.89399999 57 22 16
-2.0280001 6.4780002 -0.89300001 74 23 2
-2.029 6.4809999 -0.89200002 39 11 8
-2.03 6.4679999 -0.884 129 103 88
-2.0439999 6.4809999 -0.87699997 28 0 0
-2.102 6.4380002 -1.033 180 151 143
-2.0880001 6.4559999 -1.04 42 10 0
-2.1110001 6.408 -1.0369999 130 101 85
-2.1270001 6.3990002 -1.027 9 3 5
-2.105 6.4050002 -1.048 66 24 0
-2.1040001 6.4000001 -1.0369999 165 146 132
-2.108 6.4200001 -1.046 133 84 41
-2.096 6.4159999 -1.059 202 158 119
-2.115 6.4229999 -1.016 4 0 0
-2.039 6.4720001 -0.89700001 21 0 0
-2.0190001 6.4239998 -0.95200002 136 137 131
-2.0179999 6.4289999 -0.95099998 158 126 103
-2.0109999 6.4260001 -0.95700002 81 60 41
-2.033 6.4250002 -0.95899999 125 39 4
-2.023 6.4250002 -0.96799999 110 35 12
-2.053 6.4549999 -0.99599999 73 12 0
-2.0150001 6.4450002 -0.94599998 200 163 134
-2.013 6.4429998 -0.97100002 144 81 46
-2.0190001 6.4299998 -0.96700001 244 164 105
-2.0139999 6.4429998 -0.972 204 125 69
-2.0699999 6.4629998 -1.011 17 0 0
-2.0699999 6.461 -1.01 20 0 0
-2.0769999 6.4619999 -0.97600001 42 5 0
-2.066 6.448 -0.98699999 74 20 0
-2.0780001 6.4419999 -0.99000001 28 0 1
-2.076 6.4460001 -0.99900001 96 52 41
-2.0780001 6.4429998 -1.005 129 82 64
-2.109 6.4330001 -0.96899998 1 1 0
-2.0769999 6.4520001 -0.97600001 70 44 29
-2.062 6.4400001 -0.977 125 102 94
-2.062 6.447 -0.986 175 129 79
-2.073 6.4770002 -0.92699999 33 4 0
-2.1270001 6.4089999 -0.991 6 2 1
-2.175 6.3670001 -1.018 140 99 69
-2.1830001 6.3720002 -1.025 42 21 18
-2.1159999 6.3990002 -1.023 4 0 3
-2.052 6.4349999 -1.064 4 0 1
-2.046 6.395 -1.039 135 112 106
-2.0439999 6.3969998 -1.043 148 87 32
-2.046 6.4070001 -1.074 80 33 3
-2.0339999 6.447 -1.033 90 20 0
-2.0380001 6.4400001 -1.0420001 11 2 7
-2.043 6.448 -1.05 188 179 182
-2.069 6.46 -1.008 12 6 8
-2.0680001 6.4580002 -1.005 82 34 12
-2.0599999 6.461 -1.002 81 39 27
-2.0469999 6.4580002 -1.027 157 151 155
-2.0280001 6.5029998 -0.78799999 43 16 9
-2.0179999 6.4910002 -0.78899997 106 23 0
-2.0150001 6.4710002 -0.79500002 69 18 0
-2.086 6.4530001 -1.036 58 21 12
-2.227 6.2509999 -0.838 61 15 0
-2.2260001 6.2490001 -0.83600003 70 19 0
-2.22 6.25 -0.83999997 5 4 2
-2.2219999 6.2480001 -0.838 9 5 6
-2.2349999 6.2579999 -0.82999998 125 101 89
-2.2349999 6.2579999 -0.82599998 72 16 0
-2.233 6.2600002 -0.83099997 60 31 13
-2.1849999 6.2750001 -0.85399997 183 110 65
-2.1919999 6.2610002 -0.86799997 105 91 90
-2.2260001 6.2789998 -0.801 58 15 0
-2.2320001 6.2579999 -0.78399998 137 91 55
-2.2179999 6.3000002 -1.013 105 75 64
-2.2090001 6.3000002 -1.02 96 59 30
-2.211 6.3070002 -1.061 25 1 0
-2.211 6.316 -1.0700001 107 90 83
-2.207 6.3239999 -1.084 19 1 1
-2.2390001 6.336 -1.082 73 50 36
-2.2219999 6.3509998 -1.079 6 0 2
-2.1760001 6.329 -1.081 143 117 104
-2.1700001 6.3600001 -1.0700001 36 16 9
-2.247 6.3660002 -1.017 130 102 91
-2.266 6.329 -1.021 15 0 0
-2.2390001 6.335 -1.039 82 42 17
-2.244 6.3369999 -1.036 172 129 97
-2.244 6.3410001 -1.041 116 71 38
-2.2449999 6.348 -1.056 21 3 3
-2.2260001 6.3049998 -1.015 122 82 47
-2.2550001 6.322 -1.015 191 156 128
-2.2019999 6.3340001 -0.99699998 84 43 21
-2.2449999 6.329 -0.94800001 104 48 21
-2.204 6.3670001 -0.91299999 59 20 5
-2.2019999 6.3470001 -0.92000002 129 88 70
-2.2160001 6.3720002 -0.89600003 7 0 0
-2.3210001 6.3369999 -0.92699999 161 118 83
-2.279 6.355 -0.963 139 107 92
-2.3080001 6.3270001 -0.97100002 40 7 0
-2.2479999 6.3319998 -0.96200001 145 90 49
-2.2609999 6.3340001 -0.96399999 6 2 1
-2.26 6.3340001 -0.954 39 11 7
-2.1830001 6.3639998 -1.044 130 113 106
-2.184 6.369 -1.049 121 109 97
-2.184 6.3720002 -1.035 118 117 122
-2.188 6.323 -1.052 37 10 1
-2.2409999 6.3720002 -1.029 44 11 6
-2.221 6.3860002 -1.0140001 56 20 4
-2.223 6.3829999 -1.077 17 1 1
-2.21 6.3930001 -1.067 21 3 1
-2.21 6.3800001 -1.044 32 7 3
-2.1900001 6.3940001 -1.068 138 132 136
-2.1819999 6.3600001 -1.074 130 78 54
-2.2420001 6.3569999 -1.041 78 37 15
-2.25 6.3410001 -1.071 13 3 1
-2.2520001 6.3379998 -1.0779999 18 6 6
-2.243 6.335 -1.072 116 79 37
-2.25 6.3340001 -1.0779999 14 0 0
-2.28 6.3330002 -1.05 111 75 51
-2.293 6.336 -1.03 190 132 94
-2.283 6.3470001 -1.012 172 152 143
-2.2249999 6.3299999 -1.0470001 50 33 25
-2.2509999 6.3390002 -1.0829999 18 4 4
