ply
format ascii 1.0
comment PCL generated
element vertex 1351
property float x
property float y
property float z
property uchar red
property uchar green
property uchar blue
element camera 0
property float view_px
property float view_py
property float view_pz
property float x_axisx
property float x_axisy
property float x_axisz
property float y_axisx
property float y_axisy
property float y_axisz
property float z_axisx
property float z_axisy
property float z_axisz
property float focal
property float scalex
property float scaley
property float centerx
property float centery
property int viewportx
property int viewporty
property float k1
property float k2
end_header
4.1040001 1.353 -0.39199999 141 112 78
4.1079998 1.359 -0.396 26 12 3
4.131 1.376 -0.147 87 46 14
4.1360002 1.375 -0.141 90 43 15
4.1339998 1.374 -0.133 91 36 0
4.1360002 1.375 -0.14399999 97 53 24
4.1350002 1.375 -0.147 89 48 18
4.178 1.3430001 -0.163 110 69 47
4.1599998 1.349 -0.152 69 35 7
4.178 1.34 -0.163 124 81 49
4.2090001 1.309 -0.29800001 98 49 17
4.2179999 1.306 -0.29899999 58 20 0
4.2049999 1.308 -0.301 104 55 23
4.21 1.306 -0.30000001 108 64 37
4.2280002 1.309 -0.27500001 89 50 33
4.2210002 1.3099999 -0.266 198 157 113
4.2309999 1.3099999 -0.26899999 66 24 8
4.23 1.3150001 -0.237 119 76 41
4.2280002 1.3150001 -0.235 137 99 62
4.2350001 1.314 -0.23100001 161 125 91
4.2350001 1.314 -0.234 154 115 82
4.204 1.3099999 -0.26899999 142 99 54
4.204 1.3099999 -0.27500001 133 85 39
4.1919999 1.309 -0.266 158 123 95
4.1869998 1.308 -0.27000001 254 221 180
4.1880002 1.319 -0.27500001 242 200 114
4.1020002 1.28 -0.152 47 16 0
4.1059999 1.278 -0.149 90 58 33
4.105 1.286 -0.146 27 3 0
4.1030002 1.289 -0.149 30 11 7
4.1040001 1.347 -0.39500001 70 43 16
4.105 1.317 -0.37400001 151 101 52
4.105 1.306 -0.36300001 138 95 76
4.105 1.309 -0.37200001 243 191 151
4.105 1.3150001 -0.19400001 119 75 38
4.1170001 1.3150001 -0.20100001 204 160 97
4.1110001 1.313 -0.19599999 91 44 0
4.1040001 1.311 -0.192 89 40 7
4.132 1.377 -0.14399999 99 55 26
4.1339998 1.377 -0.133 118 61 6
4.1339998 1.377 -0.131 143 95 31
4.1350002 1.378 -0.13600001 149 91 43
4.1300001 1.374 -0.126 177 137 76
4.1339998 1.377 -0.12800001 212 167 102
4.1360002 1.375 -0.138 93 40 9
4.1630001 1.35 -0.162 72 37 17
4.1339998 1.377 -0.122 218 176 118
4.1329999 1.374 -0.12 184 142 92
4.132 1.374 -0.123 168 128 69
4.1329999 1.374 -0.131 113 68 13
4.1789999 1.346 -0.17900001 64 26 7
4.171 1.349 -0.19 158 110 64
4.1830001 1.345 -0.18799999 94 45 4
4.2199998 1.3200001 -0.19400001 225 177 139
4.2210002 1.318 -0.20200001 124 83 31
4.2220001 1.321 -0.19599999 213 166 122
4.1789999 1.295 -0.14300001 48 18 7
4.178 1.294 -0.141 46 17 3
4.177 1.294 -0.138 71 40 20
4.184 1.293 -0.14300001 79 55 53
4.131 1.288 -0.34999999 75 44 24
4.1329999 1.303 -0.35100001 35 8 0
4.1209998 1.285 -0.361 77 48 32
4.2119999 1.307 -0.29699999 75 33 8
4.2150002 1.308 -0.29100001 64 22 0
4.2210002 1.307 -0.29499999 54 18 0
4.2150002 1.308 -0.28799999 49 4 0
4.2189999 1.309 -0.27700001 92 46 23
4.2140002 1.308 -0.294 67 25 1
4.2220001 1.313 -0.26800001 78 28 0
4.2249999 1.314 -0.25400001 246 211 183
4.2290001 1.3150001 -0.248 67 29 20
4.2290001 1.312 -0.23 103 64 33
4.2350001 1.314 -0.236 123 82 52
4.2340002 1.314 -0.23899999 128 86 61
4.1100001 1.3430001 -0.39700001 109 76 57
4.1170001 1.331 -0.38699999 182 133 75
4.1209998 1.3329999 -0.38299999 243 188 124
4.21 1.309 -0.292 117 66 37
4.2129998 1.3099999 -0.289 122 71 40
4.1609998 1.346 -0.28999999 208 147 92
4.1589999 1.3430001 -0.29300001 199 137 80
4.1599998 1.346 -0.292 214 152 95
4.1939998 1.321 -0.26800001 164 124 72
4.1090002 1.2819999 -0.148 70 39 19
4.118 1.29 -0.149 75 48 37
4.1149998 1.281 -0.153 79 44 24
4.1129999 1.289 -0.148 35 10 5
4.1199999 1.2819999 -0.155 71 35 9
4.1240001 1.283 -0.15700001 88 52 20
4.1209998 1.285 -0.16 180 141 100
4.112 1.2970001 -0.175 174 127 85
4.0999999 1.293 -0.169 136 89 45
4.1090002 1.296 -0.17299999 148 104 59
4.1079998 1.2819999 -0.154 47 11 0
4.1059999 1.298 -0.36899999 94 53 35
4.1149998 1.2920001 -0.35299999 74 46 25
4.1069999 1.301 -0.366 119 81 68
4.1110001 1.302 -0.36199999 98 60 47
4.1110001 1.3049999 -0.35600001 47 18 2
4.1059999 1.339 -0.39500001 64 36 12
4.1329999 1.377 -0.142 89 42 12
4.2280002 1.309 -0.278 62 24 5
4.1339998 1.377 -0.125 161 115 53
4.1589999 1.346 -0.15800001 59 24 2
4.1570001 1.348 -0.15000001 114 75 44
4.1350002 1.375 -0.13600001 98 42 7
4.131 1.374 -0.12800001 189 148 86
4.21 1.3329999 -0.206 125 81 32
4.2090001 1.3329999 -0.20100001 219 183 151
4.2080002 1.336 -0.208 121 78 33
4.2069998 1.335 -0.20299999 222 184 139
4.2069998 1.3329999 -0.198 225 184 164
4.2049999 1.335 -0.20100001 216 180 144
4.132 1.2970001 -0.164 136 89 43
4.1220002 1.308 -0.17299999 144 101 59
4.1300001 1.296 -0.161 128 80 34
4.1329999 1.295 -0.15800001 170 126 81
4.1259999 1.284 -0.16 88 50 14
4.1300001 1.285 -0.162 81 41 6
4.2220001 1.321 -0.199 152 110 60
4.2220001 1.321 -0.20100001 200 160 109
4.2220001 1.321 -0.204 79 41 2
4.2220001 1.321 -0.207 61 25 0
4.223 1.319 -0.207 59 23 0
4.223 1.319 -0.20900001 92 56 30
4.1269999 1.2869999 -0.354 84 55 37
4.1209998 1.286 -0.35800001 73 46 29
4.125 1.284 -0.354 65 38 19
4.1279998 1.285 -0.35100001 68 39 23
4.2249999 1.308 -0.28600001 72 35 16
4.223 1.308 -0.289 73 36 18
4.217 1.309 -0.285 75 30 9
4.2249999 1.309 -0.28400001 75 38 19
4.2259998 1.309 -0.28099999 65 28 9
4.2179999 1.311 -0.27200001 87 37 2
4.2199998 1.3099999 -0.271 64 18 0
4.21 1.312 -0.26499999 148 111 69
4.211 1.312 -0.26199999 103 68 30
4.2259998 1.311 -0.25400001 244 207 178
4.2259998 1.311 -0.257 246 210 162
4.2319999 1.313 -0.242 100 57 38
4.2290001 1.312 -0.245 120 76 63
4.2270002 1.314 -0.25099999 214 178 162
4.2189999 1.312 -0.26100001 235 198 146
4.2189999 1.312 -0.25799999 244 207 165
4.132 1.3660001 -0.28600001 110 65 36
4.1329999 1.369 -0.28299999 132 88 53
4.132 1.3660001 -0.289 90 42 20
4.131 1.365 -0.292 69 18 0
4.1420002 1.374 -0.26699999 166 123 81
4.1329999 1.369 -0.27500001 152 101 56
4.1430001 1.374 -0.27500001 119 75 40
4.1430001 1.374 -0.273 162 117 76
4.2160001 1.314 -0.25 57 20 11
4.2290001 1.3150001 -0.245 66 23 7
4.1799998 1.295 -0.146 59 27 16
4.1830001 1.293 -0.146 60 38 40
4.1220002 1.2970001 -0.171 77 34 0
4.1160002 1.298 -0.177 166 119 77
4.1079998 1.345 -0.39700001 107 79 58
4.1459999 1.29 -0.33500001 134 106 85
4.1399999 1.308 -0.34299999 39 12 1
4.1479998 1.299 -0.32600001 83 47 11
4.1329999 1.286 -0.34400001 58 27 7
4.1420002 1.352 -0.34900001 139 96 64
4.1430001 1.352 -0.34599999 105 63 39
4.1459999 1.339 -0.34299999 93 45 9
4.1440001 1.352 -0.34299999 108 73 54
4.1469998 1.34 -0.34 83 38 7
4.1399999 1.321 -0.33399999 244 219 129
4.1479998 1.337 -0.329 108 65 10
4.1560001 1.353 -0.301 178 123 59
4.1529999 1.352 -0.30500001 184 129 65
4.1550002 1.35 -0.29899999 207 149 85
4.1479998 1.337 -0.30700001 199 135 64
4.1589999 1.354 -0.29800001 208 150 87
4.158 1.3559999 -0.301 185 127 64
4.1550002 1.355 -0.30399999 218 162 101
4.21 1.309 -0.29499999 120 71 41
4.2150002 1.311 -0.28 133 80 48
4.1900001 1.3200001 -0.271 255 216 144
4.1170001 1.29 -0.34999999 111 77 52
4.1209998 1.294 -0.34900001 89 59 31
4.1230001 1.295 -0.345 108 77 46
4.1409998 1.357 -0.31799999 73 29 0
4.1370001 1.34 -0.30899999 203 142 75
4.1350002 1.353 -0.30000001 227 167 104
4.105 1.2970001 -0.17299999 123 79 34
4.1059999 1.295 -0.17 160 116 71
4.1170001 1.284 -0.15800001 95 59 23
4.1110001 1.294 -0.164 188 140 94
4.112 1.3329999 -0.38800001 202 156 97
4.0999999 1.296 -0.171 115 71 26
4.0960002 1.295 -0.169 117 70 28
4.092 1.291 -0.167 103 54 13
4.1139998 1.2920001 -0.153 73 45 34
4.132 1.286 -0.164 92 51 19
4.1360002 1.2869999 -0.16599999 75 34 6
4.138 1.288 -0.169 66 24 0
4.132 1.289 -0.167 145 102 70
4.1370001 1.29 -0.171 97 56 26
4.1259999 1.295 -0.15899999 112 68 23
4.1230001 1.2920001 -0.152 59 27 12
4.125 1.2920001 -0.154 90 54 28
4.1389999 1.373 -0.29499999 235 190 151
4.1539998 1.3609999 -0.30399999 196 139 70
4.1409998 1.373 -0.28999999 133 89 62
4.1389999 1.37 -0.315 55 18 0
4.177 1.346 -0.17299999 67 27 2
4.1750002 1.345 -0.169 116 75 47
4.1719999 1.347 -0.17200001 79 38 10
4.165 1.35 -0.17 75 38 11
4.1729999 1.347 -0.17399999 96 54 29
4.178 1.346 -0.176 96 58 37
4.1459999 1.35 -0.167 59 24 0
4.1389999 1.351 -0.171 96 61 31
4.1440001 1.35 -0.16500001 71 33 10
4.1440001 1.35 -0.162 57 18 1
4.1069999 1.362 -0.192 120 74 41
4.0970001 1.346 -0.192 98 50 10
4.0949998 1.3559999 -0.20299999 75 27 0
4.1110001 1.36 -0.39199999 29 13 0
4.1129999 1.3609999 -0.389 71 49 26
4.2290001 1.3099999 -0.27200001 72 33 16
4.118 1.365 -0.37 173 139 101
4.118 1.362 -0.382 142 107 75
4.1240001 1.364 -0.37200001 177 134 89
4.145 1.3609999 -0.32499999 33 9 0
4.1560001 1.358 -0.30399999 207 150 83
4.1430001 1.363 -0.32800001 32 9 1
4.1389999 1.37 -0.32600001 83 52 34
4.1360002 1.367 -0.34400001 181 129 89
4.131 1.365 -0.359 255 222 173
4.1269999 1.367 -0.35699999 174 138 102
4.1329999 1.369 -0.34400001 176 135 103
4.1389999 1.37 -0.32300001 92 59 42
4.1339998 1.377 -0.139 121 67 29
4.1360002 1.375 -0.152 106 60 34
4.1360002 1.375 -0.155 107 63 34
4.1599998 1.349 -0.155 95 63 38
4.1389999 1.348 -0.15000001 73 32 2
4.1420002 1.349 -0.152 124 85 52
4.132 1.349 -0.156 94 55 24
4.1300001 1.349 -0.154 91 52 21
4.1420002 1.349 -0.155 95 58 29
4.1409998 1.349 -0.15700001 51 15 0
4.1799998 1.344 -0.17 89 49 24
4.178 1.3430001 -0.16500001 116 76 50
4.125 1.309 -0.175 119 72 30
4.1300001 1.294 -0.156 131 93 56
4.1220002 1.294 -0.15700001 92 56 20
4.1360002 1.295 -0.16 166 119 73
4.138 1.296 -0.163 142 95 51
4.1409998 1.2970001 -0.16500001 99 54 15
4.2189999 1.323 -0.197 223 183 148
4.223 1.319 -0.204 78 41 0
4.223 1.316 -0.21699999 164 121 86
4.223 1.318 -0.212 94 54 28
4.2220001 1.318 -0.215 168 129 96
4.224 1.316 -0.22499999 65 32 0
4.2140002 1.324 -0.219 90 56 28
4.2199998 1.318 -0.223 121 88 53
4.2220001 1.308 -0.292 54 17 0
4.2189999 1.309 -0.28200001 72 27 6
4.2199998 1.3099999 -0.27399999 71 25 1
4.2199998 1.3099999 -0.26899999 97 52 21
4.2010002 1.312 -0.259 86 48 37
4.1950002 1.313 -0.255 68 31 15
4.1999998 1.314 -0.25099999 56 21 2
4.2290001 1.312 -0.248 122 82 72
4.224 1.316 -0.228 74 47 20
4.223 1.316 -0.23100001 74 44 16
4.2160001 1.319 -0.226 54 25 7
4.2129998 1.321 -0.229 43 18 0
4.2020001 1.323 -0.25299999 110 74 52
4.2059999 1.321 -0.24699999 77 45 24
4.204 1.323 -0.24699999 61 26 4
4.204 1.321 -0.25 84 49 27
4.224 1.311 -0.25999999 253 217 157
4.211 1.312 -0.25400001 75 39 25
4.1810002 1.309 -0.26300001 104 64 54
4.1810002 1.295 -0.148 63 30 21
4.1830001 1.293 -0.148 39 16 24
4.2140002 1.319 -0.23199999 40 14 1
4.2160001 1.314 -0.23999999 116 78 42
4.099 1.307 -0.17900001 117 73 34
4.1170001 1.307 -0.171 83 44 5
4.1079998 1.312 -0.19400001 111 66 27
4.1370001 1.2869999 -0.34 71 40 20
4.1339998 1.303 -0.34799999 59 36 22
4.1389999 1.302 -0.34099999 87 60 31
4.1170001 1.307 -0.352 56 29 8
4.1090002 1.307 -0.359 55 18 0
4.1420002 1.322 -0.32800001 255 253 198
4.1440001 1.325 -0.32499999 255 254 199
4.1560001 1.3559999 -0.29800001 192 134 71
4.152 1.36 -0.30199999 186 127 61
4.1479998 1.345 -0.32800001 44 19 0
4.1479998 1.345 -0.32600001 54 24 0
4.1529999 1.355 -0.30700001 194 140 80
4.1479998 1.348 -0.322 103 67 31
4.1750002 1.331 -0.26300001 66 35 15
4.1609998 1.341 -0.27599999 118 72 36
4.1669998 1.329 -0.26699999 82 53 35
4.1690001 1.327 -0.26699999 50 18 3
4.171 1.3200001 -0.27500001 158 107 44
4.1810002 1.3200001 -0.27599999 244 192 109
4.1820002 1.317 -0.27900001 255 208 118
4.1539998 1.339 -0.289 167 109 61
4.158 1.327 -0.28299999 231 179 122
4.1589999 1.34 -0.285 152 98 51
4.1620002 1.344 -0.28400001 114 58 11
4.2140002 1.3099999 -0.28600001 130 80 47
4.2179999 1.312 -0.27399999 101 51 16
4.1880002 1.314 -0.259 54 15 0
4.1890001 1.311 -0.259 64 24 16
4.1939998 1.3150001 -0.255 71 36 16
4.1820002 1.307 -0.27399999 255 221 175
4.1760001 1.3150001 -0.28299999 186 134 51
4.1479998 1.34 -0.315 196 133 62
4.1490002 1.299 -0.31400001 157 101 50
4.158 1.2970001 -0.31 88 36 0
4.1479998 1.3099999 -0.31400001 216 146 77
4.1490002 1.308 -0.31099999 169 101 38
4.1420002 1.294 -0.324 129 89 53
4.1360002 1.301 -0.322 126 64 7
4.1360002 1.298 -0.32800001 106 64 24
4.112 1.341 -0.2 102 58 13
4.1020002 1.341 -0.20200001 91 47 10
4.1059999 1.339 -0.19599999 188 142 90
4.1129999 1.317 -0.199 122 77 22
4.0970001 1.337 -0.192 176 129 83
4.099 1.316 -0.182 162 118 89
4.1030002 1.314 -0.192 88 43 14
4.1030002 1.339 -0.19400001 197 149 100
4.1100001 1.3380001 -0.18700001 102 58 19
4.1090002 1.34 -0.18700001 124 79 38
4.0949998 1.309 -0.18799999 157 107 70
4.125 1.2920001 -0.345 125 90 60
4.1259999 1.295 -0.33899999 125 89 57
4.1069999 1.293 -0.162 126 81 39
4.1110001 1.28 -0.15099999 68 35 16
4.112 1.283 -0.156 62 26 0
4.092 1.2970001 -0.164 139 93 57
4.1090002 1.291 -0.15099999 42 21 16
4.119 1.293 -0.155 61 29 6
4.1279998 1.288 -0.16500001 136 92 55
4.1370001 1.372 -0.20299999 118 64 28
4.1399999 1.376 -0.20200001 147 95 58
4.1399999 1.376 -0.2 131 82 49
4.1409998 1.376 -0.208 185 130 91
4.1389999 1.376 -0.197 107 61 28
4.1339998 1.372 -0.19499999 128 80 44
4.1339998 1.358 -0.20999999 177 128 88
4.1409998 1.376 -0.213 159 106 62
4.1399999 1.376 -0.211 229 175 131
4.2090001 1.325 -0.23 92 64 42
4.2080002 1.325 -0.233 79 49 25
4.1389999 1.37 -0.30700001 171 118 66
4.1389999 1.37 -0.30899999 242 192 143
4.151 1.36 -0.30700001 201 147 85
4.1389999 1.37 -0.31200001 114 73 29
4.132 1.3660001 -0.28400001 148 103 62
4.1659999 1.348 -0.167 73 36 10
4.1630001 1.347 -0.16 43 10 0
4.132 1.349 -0.15899999 73 33 8
4.131 1.349 -0.162 86 45 25
4.1360002 1.375 -0.168 128 77 34
4.1279998 1.37 -0.169 122 77 44
4.1339998 1.35 -0.164 104 63 41
4.1100001 1.352 -0.189 99 53 17
4.1149998 1.353 -0.191 135 86 46
4.1269999 1.37 -0.17200001 141 92 59
4.1290002 1.37 -0.183 122 68 34
4.1350002 1.375 -0.182 126 72 36
4.1290002 1.376 -0.153 81 36 7
4.125 1.369 -0.167 124 81 49
4.1139998 1.364 -0.19599999 132 86 52
4.105 1.35 -0.18700001 97 54 19
4.1290002 1.368 -0.35100001 170 130 95
4.1290002 1.367 -0.354 156 117 84
4.1220002 1.3660001 -0.36399999 201 168 127
4.1199999 1.365 -0.36700001 179 146 105
4.1149998 1.323 -0.36500001 200 148 101
4.1220002 1.363 -0.375 143 100 58
4.1420002 1.363 -0.331 41 14 3
4.138 1.37 -0.329 59 27 12
4.1370001 1.367 -0.34099999 183 133 96
4.138 1.365 -0.34 208 156 119
4.1360002 1.369 -0.33500001 85 49 27
4.1279998 1.37 -0.317 71 41 15
4.1329999 1.369 -0.34099999 135 94 66
4.138 1.373 -0.29800001 237 190 146
4.1500001 1.346 -0.14300001 63 26 0
4.1430001 1.347 -0.138 96 64 41
4.152 1.347 -0.145 82 41 11
4.1459999 1.348 -0.14300001 95 55 29
4.145 1.347 -0.141 116 80 56
4.1479998 1.348 -0.146 70 31 0
4.1539998 1.347 -0.148 116 75 43
4.151 1.349 -0.153 82 46 20
4.1529999 1.35 -0.156 50 15 0
4.1269999 1.3430001 -0.192 185 138 86
4.131 1.341 -0.197 188 142 93
4.125 1.3559999 -0.2 112 69 35
4.1090002 1.316 -0.19599999 91 47 2
4.1139998 1.311 -0.18799999 109 60 20
4.1170001 1.312 -0.19 90 42 4
4.1209998 1.341 -0.183 113 70 36
4.1209998 1.311 -0.178 118 70 30
4.125 1.312 -0.183 104 52 13
4.2069998 1.316 -0.21799999 84 48 16
4.1339998 1.375 -0.149 97 53 26
4.1350002 1.375 -0.15700001 111 67 38
4.131 1.376 -0.15000001 87 43 14
4.1350002 1.375 -0.176 160 100 63
4.1849999 1.342 -0.18000001 72 31 3
4.1849999 1.342 -0.178 59 21 0
4.1810002 1.341 -0.16500001 116 73 41
4.1810002 1.341 -0.168 73 32 4
4.184 1.342 -0.175 106 68 47
4.1830001 1.339 -0.178 79 38 10
4.1810002 1.344 -0.17299999 65 27 4
4.1290002 1.34 -0.19499999 98 52 3
4.1329999 1.317 -0.204 228 178 141
4.1259999 1.34 -0.193 101 55 6
4.1469998 1.35 -0.17 89 54 24
4.151 1.349 -0.17200001 96 59 33
4.1539998 1.35 -0.169 79 44 16
4.1490002 1.351 -0.175 77 37 11
4.1360002 1.375 -0.171 194 140 96
4.1199999 1.316 -0.20299999 196 150 91
4.132 1.341 -0.2 163 119 74
4.1420002 1.341 -0.20900001 125 82 50
4.132 1.341 -0.20299999 130 87 45
4.1220002 1.302 -0.184 98 49 6
4.119 1.302 -0.182 126 74 34
4.125 1.303 -0.186 211 163 115
4.125 1.301 -0.184 95 46 13
4.1350002 1.298 -0.16599999 117 72 30
4.2189999 1.323 -0.20200001 167 131 83
4.223 1.316 -0.22 185 146 107
4.2119999 1.318 -0.219 103 67 31
4.145 1.293 -0.32699999 87 53 26
4.1440001 1.2920001 -0.33000001 54 26 4
4.1469998 1.293 -0.32300001 155 116 85
4.2270002 1.312 -0.25099999 241 202 185
4.2179999 1.322 -0.20999999 58 20 1
4.197 1.311 -0.26300001 129 92 73
4.2210002 1.313 -0.26300001 112 74 27
4.2119999 1.313 -0.259 133 96 67
4.1620002 1.354 -0.292 187 127 65
4.165 1.353 -0.28600001 200 139 82
4.158 1.351 -0.28400001 216 157 101
4.198 1.327 -0.25099999 99 59 33
4.1989999 1.3279999 -0.248 101 65 41
4.2140002 1.313 -0.25600001 242 205 186
4.204 1.313 -0.255 74 36 27
4.2069998 1.314 -0.252 57 21 9
4.2059999 1.322 -0.244 82 51 30
4.1810002 1.293 -0.154 34 14 23
4.1830001 1.293 -0.15099999 30 13 23
4.1810002 1.293 -0.15700001 47 22 26
4.1290002 1.3099999 -0.18000001 81 31 0
4.1300001 1.313 -0.185 122 74 28
4.1350002 1.312 -0.184 206 160 110
4.132 1.314 -0.18700001 109 62 16
4.1830001 1.296 -0.156 49 16 7
4.1830001 1.296 -0.15899999 52 18 6
4.1550002 1.293 -0.19 226 174 126
4.1459999 1.293 -0.18099999 89 48 28
4.1529999 1.2920001 -0.185 96 49 21
4.1490002 1.291 -0.18000001 85 44 24
4.23 1.3150001 -0.23999999 102 58 29
4.2199998 1.3150001 -0.236 138 102 66
4.2199998 1.3150001 -0.24699999 76 35 17
4.2069998 1.322 -0.241 71 43 22
4.2129998 1.316 -0.243 132 95 68
4.1149998 1.301 -0.18000001 211 160 117
4.1199999 1.299 -0.17900001 126 77 36
4.125 1.298 -0.17299999 96 51 10
4.1290002 1.299 -0.175 109 64 25
4.1339998 1.2920001 -0.34299999 111 75 49
4.1339998 1.35 -0.36199999 181 129 81
4.138 1.337 -0.35600001 183 128 74
4.132 1.336 -0.366 172 117 61
4.1350002 1.336 -0.36000001 167 112 58
4.1290002 1.348 -0.37200001 160 110 59
4.1290002 1.335 -0.373 204 145 87
4.1300001 1.335 -0.37 188 132 75
4.1290002 1.337 -0.37 185 129 70
4.1350002 1.3660001 -0.347 161 112 71
4.1230001 1.3329999 -0.38 250 190 128
4.1220002 1.316 -0.36700001 247 194 140
4.118 1.3150001 -0.37099999 189 137 80
4.1139998 1.317 -0.375 190 140 87
4.125 1.303 -0.35600001 89 59 49
4.1290002 1.304 -0.352 49 20 12
4.125 1.317 -0.361 173 124 81
4.112 1.327 -0.38299999 221 162 102
4.105 1.311 -0.38 173 127 77
4.145 1.337 -0.33500001 93 45 0
4.1399999 1.373 -0.292 168 124 89
4.1409998 1.373 -0.287 112 70 46
4.1339998 1.369 -0.28600001 104 60 35
4.197 1.321 -0.26499999 117 77 42
4.1880002 1.335 -0.255 62 28 1
4.198 1.322 -0.26199999 74 32 8
4.1919999 1.334 -0.25099999 84 49 21
4.1960001 1.324 -0.259 47 5 0
4.1469998 1.34 -0.33700001 79 38 6
4.1479998 1.345 -0.331 80 54 37
4.1589999 1.33 -0.27700001 95 50 17
4.1669998 1.324 -0.26499999 61 26 6
4.1739998 1.326 -0.26100001 83 48 26
4.1739998 1.323 -0.264 76 38 17
4.1739998 1.309 -0.26699999 225 188 170
4.1760001 1.318 -0.28 255 205 116
4.1690001 1.316 -0.28400001 255 210 126
4.177 1.321 -0.271 153 105 57
4.1810002 1.312 -0.26300001 72 32 20
4.1820002 1.325 -0.259 63 27 3
4.1659999 1.304 -0.28799999 94 41 0
4.1729999 1.298 -0.233 81 43 6
4.1830001 1.298 -0.23100001 92 52 16
4.1820002 1.295 -0.229 143 107 85
4.1539998 1.317 -0.27599999 146 97 57
4.145 1.326 -0.26899999 63 31 6
4.1490002 1.327 -0.266 124 90 62
4.132 1.336 -0.31 230 167 100
4.1339998 1.336 -0.30700001 232 169 102
4.1339998 1.3329999 -0.301 217 153 92
4.1479998 1.321 -0.31 191 132 74
4.1469998 1.337 -0.32100001 156 90 16
4.1479998 1.345 -0.30899999 194 137 70
4.151 1.308 -0.308 179 113 53
4.1609998 1.314 -0.289 139 80 10
4.1469998 1.334 -0.296 217 156 99
4.1490002 1.321 -0.30199999 183 127 66
4.1459999 1.334 -0.29899999 213 151 90
4.1529999 1.325 -0.287 200 146 86
4.1409998 1.325 -0.30899999 230 169 104
4.1459999 1.296 -0.315 137 85 37
4.1490002 1.294 -0.317 132 84 46
4.151 1.294 -0.31400001 86 37 0
4.1139998 1.314 -0.198 147 102 45
4.1139998 1.339 -0.189 182 135 91
4.0970001 1.3430001 -0.2 80 35 0
4.1009998 1.355 -0.199 102 54 16
4.098 1.34 -0.2 105 61 16
4.1529999 1.322 -0.28999999 168 111 44
4.1209998 1.308 -0.34799999 69 34 14
4.1279998 1.304 -0.338 81 36 3
4.131 1.286 -0.347 78 47 29
4.125 1.295 -0.34200001 126 91 59
4.119 1.345 -0.38600001 98 64 27
4.1149998 1.344 -0.389 78 48 20
4.112 1.344 -0.39300001 67 36 15
4.0949998 1.3 -0.161 128 82 46
4.0970001 1.304 -0.16599999 123 79 42
4.1020002 1.3049999 -0.168 102 59 24
4.1240001 1.2869999 -0.163 155 111 72
4.1609998 1.349 -0.28099999 202 142 90
4.1440001 1.342 -0.236 126 85 53
4.1479998 1.332 -0.241 66 31 1
4.1440001 1.336 -0.23100001 65 26 0
4.131 1.349 -0.23199999 151 105 72
4.1350002 1.372 -0.20100001 111 58 24
4.1370001 1.375 -0.192 131 86 53
4.1370001 1.375 -0.189 116 70 37
4.138 1.376 -0.19499999 111 68 34
4.1409998 1.376 -0.221 219 172 126
4.1370001 1.372 -0.219 210 154 103
4.1409998 1.376 -0.22400001 180 132 86
4.1939998 1.337 -0.23800001 54 23 2
4.1960001 1.335 -0.245 62 31 11
4.191 1.339 -0.235 113 79 52
4.2030001 1.337 -0.22 49 16 1
4.197 1.3380001 -0.226 89 55 28
4.1919999 1.339 -0.23199999 90 56 28
4.1960001 1.337 -0.229 143 108 80
4.1830001 1.344 -0.19599999 124 70 32
4.1810002 1.347 -0.20200001 129 79 44
4.1880002 1.34 -0.19599999 97 42 1
4.1760001 1.348 -0.211 148 99 66
4.1680002 1.348 -0.19599999 153 109 70
4.1719999 1.347 -0.214 165 116 73
4.1890001 1.341 -0.21699999 188 137 92
4.1849999 1.34 -0.226 79 40 9
4.1269999 1.367 -0.22400001 183 126 81
4.1350002 1.375 -0.236 185 138 92
4.1360002 1.372 -0.22499999 179 123 74
4.1279998 1.367 -0.227 171 114 69
4.1360002 1.372 -0.222 227 171 120
4.1430001 1.363 -0.317 86 43 8
4.145 1.3609999 -0.317 147 105 67
4.1810002 1.344 -0.176 99 63 39
4.1630001 1.35 -0.16500001 77 43 18
4.1550002 1.35 -0.16599999 80 44 18
4.132 1.3710001 -0.193 122 76 40
4.1350002 1.375 -0.184 109 59 24
4.1040001 1.353 -0.19 140 95 62
4.1399999 1.376 -0.205 163 109 71
4.118 1.365 -0.204 141 91 58
4.1350002 1.372 -0.20900001 173 116 73
4.1170001 1.365 -0.20100001 118 70 34
4.1370001 1.372 -0.214 162 103 59
4.118 1.354 -0.193 157 107 70
4.1149998 1.364 -0.199 161 113 77
4.1259999 1.331 -0.368 200 145 91
4.1240001 1.331 -0.37099999 192 137 81
4.1279998 1.332 -0.36500001 188 133 79
4.1279998 1.365 -0.36199999 214 171 120
4.1389999 1.365 -0.33500001 61 20 0
4.1350002 1.369 -0.338 104 64 39
4.138 1.37 -0.301 177 123 79
4.1329999 1.369 -0.28 146 101 60
4.1500001 1.349 -0.15099999 107 66 36
4.1459999 1.345 -0.141 55 19 0
4.1440001 1.35 -0.16 54 15 0
4.1539998 1.35 -0.15800001 53 17 1
4.1290002 1.37 -0.18000001 134 80 44
4.1240001 1.311 -0.18099999 158 109 69
4.1789999 1.335 -0.25099999 142 106 80
4.184 1.329 -0.25600001 126 92 65
4.21 1.3150001 -0.228 83 52 24
4.1820002 1.295 -0.223 55 18 9
4.1869998 1.3380001 -0.244 62 30 9
4.1880002 1.3380001 -0.241 60 28 7
4.1259999 1.37 -0.162 117 78 49
4.1350002 1.375 -0.17299999 178 120 80
4.1830001 1.344 -0.186 91 45 11
4.1849999 1.342 -0.18799999 147 97 48
4.178 1.346 -0.18099999 53 11 0
4.1820002 1.342 -0.17 57 16 0
4.177 1.345 -0.171 66 25 0
4.1360002 1.3150001 -0.192 112 70 20
4.1370001 1.3150001 -0.19499999 185 143 95
4.1399999 1.316 -0.197 178 135 92
4.1459999 1.35 -0.17299999 83 47 21
4.1199999 1.319 -0.2 156 110 50
4.118 1.3430001 -0.20200001 126 83 41
4.1459999 1.334 -0.228 178 134 87
4.138 1.34 -0.223 188 142 93
4.2189999 1.323 -0.199 211 174 129
4.2199998 1.318 -0.22 97 62 24
4.1469998 1.296 -0.32600001 81 46 16
4.1479998 1.293 -0.31999999 140 98 60
4.2069998 1.335 -0.214 60 20 0
4.2199998 1.3200001 -0.20999999 69 31 10
4.2119999 1.323 -0.206 84 45 6
4.1999998 1.323 -0.21600001 62 20 0
4.2179999 1.323 -0.207 69 31 8
4.1939998 1.323 -0.26199999 84 39 16
4.198 1.317 -0.25099999 79 44 24
4.2220001 1.313 -0.26499999 84 39 0
4.223 1.311 -0.26300001 232 196 138
4.138 1.37 -0.32100001 50 14 0
4.131 1.365 -0.30899999 155 94 37
4.131 1.365 -0.30599999 103 43 0
4.1339998 1.3660001 -0.31600001 99 56 14
4.1609998 1.354 -0.29499999 206 148 85
4.191 1.336 -0.249 133 99 74
4.1950002 1.334 -0.248 87 52 30
4.1849999 1.321 -0.27200001 218 169 100
4.1290002 1.316 -0.199 200 157 102
4.1620002 1.336 -0.219 136 75 30
4.1490002 1.335 -0.222 120 64 15
4.1570001 1.293 -0.192 223 172 117
4.1690001 1.294 -0.182 85 35 10
4.1430001 1.298 -0.167 68 24 0
4.1459999 1.298 -0.17 106 63 29
4.131 1.311 -0.182 108 59 18
4.1370001 1.35 -0.169 133 96 67
4.1420002 1.289 -0.17299999 108 69 38
4.1440001 1.2920001 -0.178 103 66 40
4.1300001 1.302 -0.18799999 131 87 42
4.1820002 1.296 -0.154 64 34 24
4.164 1.293 -0.17 124 87 58
4.2199998 1.3150001 -0.234 79 46 15
4.2189999 1.3150001 -0.244 83 41 17
4.1820002 1.296 -0.22 64 32 21
4.1789999 1.2970001 -0.22400001 63 24 9
4.1789999 1.2970001 -0.221 51 15 1
4.211 1.3150001 -0.24600001 86 48 25
4.1079998 1.298 -0.175 120 73 27
4.1069999 1.309 -0.183 138 86 47
4.1020002 1.311 -0.19 122 72 39
4.1100001 1.308 -0.17200001 71 31 0
4.1139998 1.309 -0.17399999 131 89 49
4.1100001 1.3099999 -0.186 126 74 35
4.1409998 1.294 -0.33899999 99 63 41
4.1339998 1.289 -0.34299999 69 34 14
4.1329999 1.3329999 -0.35499999 183 125 75
4.132 1.3329999 -0.35800001 186 129 76
4.1240001 1.325 -0.352 165 105 51
4.1269999 1.323 -0.34799999 207 148 82
4.1269999 1.326 -0.345 169 100 25
4.1149998 1.309 -0.35499999 60 25 6
4.1220002 1.325 -0.35499999 175 114 70
4.1389999 1.351 -0.35499999 160 111 68
4.1420002 1.3380001 -0.34999999 166 114 66
4.1269999 1.364 -0.366 211 168 117
4.131 1.346 -0.366 180 129 76
4.1329999 1.347 -0.36199999 147 95 45
4.1300001 1.351 -0.366 186 134 77
4.1279998 1.362 -0.36300001 187 138 82
4.1269999 1.3559999 -0.36300001 190 137 85
4.125 1.358 -0.366 188 136 79
4.132 1.3660001 -0.35299999 174 127 85
4.1329999 1.3660001 -0.34999999 192 143 102
4.1259999 1.334 -0.37599999 237 177 117
4.112 1.325 -0.37200001 185 134 81
4.1160002 1.326 -0.368 193 140 88
4.1199999 1.3380001 -0.37400001 188 134 74
4.1170001 1.337 -0.37799999 204 148 89
4.1160002 1.3279999 -0.37900001 241 182 124
4.1149998 1.336 -0.382 179 124 60
4.119 1.318 -0.37 232 179 125
4.1209998 1.33 -0.375 193 137 80
4.1259999 1.3150001 -0.35499999 102 59 40
4.1209998 1.2970001 -0.35699999 38 11 0
4.1240001 1.317 -0.36399999 207 155 107
4.1199999 1.302 -0.36000001 85 48 39
4.1079998 1.312 -0.37599999 185 136 80
4.1059999 1.3150001 -0.37900001 188 142 93
4.1389999 1.324 -0.33700001 244 204 108
4.1409998 1.335 -0.34099999 188 135 83
4.1279998 1.313 -0.34 135 84 19
4.1279998 1.324 -0.345 197 134 57
4.1290002 1.327 -0.34200001 190 125 43
4.1259999 1.309 -0.34400001 83 38 9
4.1170001 1.323 -0.36199999 174 117 74
4.1430001 1.322 -0.32499999 255 255 216
4.1430001 1.3200001 -0.32300001 247 247 219
4.1440001 1.339 -0.34599999 175 123 83
4.2179999 1.312 -0.27700001 125 75 42
4.1589999 1.3380001 -0.26899999 186 148 109
4.1459999 1.345 -0.26800001 84 43 15
4.1469998 1.3430001 -0.33700001 65 33 18
4.1479998 1.348 -0.32800001 42 21 2
4.1630001 1.323 -0.26899999 51 14 0
4.1609998 1.319 -0.27200001 180 134 108
4.1599998 1.327 -0.28 196 145 100
4.1729999 1.306 -0.26699999 215 177 164
4.1799998 1.298 -0.229 94 55 26
4.1719999 1.298 -0.228 93 49 20
4.1719999 1.298 -0.23 108 68 33
4.1719999 1.301 -0.219 75 38 11
4.1479998 1.296 -0.30899999 170 116 70
4.152 1.308 -0.21699999 225 182 139
4.1620002 1.306 -0.292 117 56 12
4.1630001 1.303 -0.292 94 36 0
4.1440001 1.331 -0.31299999 197 132 52
4.1459999 1.323 -0.31600001 255 233 192
4.1459999 1.342 -0.32300001 125 81 32
4.1430001 1.352 -0.32100001 143 102 58
4.1469998 1.299 -0.31999999 151 103 54
4.1500001 1.316 -0.30500001 224 154 94
4.1490002 1.319 -0.30500001 215 151 89
4.138 1.302 -0.31900001 135 71 10
4.1329999 1.308 -0.32300001 250 204 142
4.1409998 1.319 -0.32600001 255 252 217
4.131 1.308 -0.32600001 231 190 126
4.112 1.344 -0.206 99 59 23
4.1149998 1.345 -0.208 82 42 7
4.1020002 1.344 -0.20200001 86 41 8
4.098 1.312 -0.19 71 25 1
4.1420002 1.325 -0.27500001 73 38 16
4.1360002 1.326 -0.28999999 153 102 47
4.1459999 1.3150001 -0.289 184 122 47
4.1329999 1.331 -0.29100001 153 101 53
4.138 1.329 -0.28400001 133 84 43
4.1420002 1.3279999 -0.26699999 86 50 18
4.1430001 1.331 -0.28 120 72 34
4.1420002 1.3 -0.31 140 79 25
4.1420002 1.303 -0.31 187 122 66
4.1440001 1.301 -0.30399999 175 113 64
4.1589999 1.3049999 -0.28099999 255 225 152
4.1589999 1.3049999 -0.28400001 222 179 100
4.152 1.3 -0.30000001 160 101 59
4.1300001 1.3049999 -0.329 179 122 67
4.1409998 1.354 -0.32100001 120 81 38
4.1110001 1.346 -0.39300001 65 35 11
4.1009998 1.302 -0.163 136 90 54
4.1659999 1.345 -0.21799999 196 148 99
4.171 1.344 -0.21699999 204 152 104
4.165 1.35 -0.28299999 210 150 96
4.1820002 1.3329999 -0.259 85 53 30
4.1110001 1.347 -0.20900001 85 44 12
4.1020002 1.358 -0.207 75 29 0
4.1339998 1.372 -0.198 102 52 17
4.1399999 1.376 -0.219 196 148 100
4.2010002 1.331 -0.23899999 62 37 17
4.2010002 1.3329999 -0.228 44 13 0
4.197 1.335 -0.237 51 22 4
4.191 1.339 -0.23 78 42 10
4.197 1.3380001 -0.223 70 35 13
4.1830001 1.344 -0.19400001 182 129 87
4.177 1.348 -0.205 114 69 38
4.1799998 1.346 -0.208 115 63 26
4.1810002 1.346 -0.205 152 102 67
4.1760001 1.345 -0.214 186 132 86
4.1760001 1.348 -0.197 101 55 19
4.1700001 1.349 -0.193 133 86 44
4.177 1.348 -0.2 97 53 18
4.1750002 1.348 -0.19499999 83 35 0
4.21 1.325 -0.22499999 51 22 8
4.2119999 1.323 -0.22400001 54 25 7
4.2129998 1.324 -0.221 58 28 4
4.1479998 1.329 -0.255 83 43 17
4.1589999 1.33 -0.26100001 129 94 64
4.1869998 1.327 -0.25600001 100 64 40
4.1849999 1.332 -0.25799999 63 31 8
4.178 1.33 -0.26300001 59 28 8
4.184 1.323 -0.26699999 108 59 26
4.1880002 1.324 -0.264 111 67 40
4.1399999 1.341 -0.226 149 106 61
4.1209998 1.346 -0.212 78 35 1
4.1290002 1.346 -0.214 142 96 60
4.1240001 1.347 -0.215 92 48 13
4.1279998 1.348 -0.222 91 47 18
4.1360002 1.342 -0.21799999 142 93 60
4.138 1.34 -0.21799999 69 22 0
4.132 1.319 -0.20900001 123 75 39
4.1389999 1.34 -0.22 112 63 22
4.138 1.34 -0.215 73 26 0
4.1290002 1.351 -0.23 69 29 4
4.1300001 1.351 -0.233 78 37 9
4.131 1.349 -0.23 145 102 70
4.1269999 1.351 -0.22499999 50 7 0
4.1339998 1.352 -0.23999999 127 80 34
4.138 1.351 -0.242 183 130 76
4.1370001 1.35 -0.237 144 93 50
4.125 1.367 -0.219 180 126 79
4.138 1.375 -0.23 158 109 66
4.138 1.373 -0.23 167 114 64
4.138 1.359 -0.233 109 64 35
4.1399999 1.376 -0.227 162 114 68
4.1420002 1.374 -0.26499999 179 136 94
4.1430001 1.374 -0.27000001 139 94 53
4.145 1.35 -0.235 166 113 69
4.1469998 1.348 -0.23199999 123 71 32
4.1350002 1.369 -0.27200001 173 122 77
4.1370001 1.372 -0.236 217 166 111
4.145 1.3609999 -0.31099999 90 39 0
4.1339998 1.369 -0.294 185 136 104
4.1339998 1.369 -0.29100001 100 53 25
4.131 1.3660001 -0.29699999 148 94 60
4.1630001 1.35 -0.168 97 61 35
4.1350002 1.375 -0.18700001 103 54 21
4.1079998 1.362 -0.19499999 124 78 45
4.1160002 1.364 -0.207 154 104 69
4.1370001 1.372 -0.206 139 84 45
4.1220002 1.355 -0.198 121 77 40
4.1230001 1.3660001 -0.214 169 115 71
4.1199999 1.365 -0.20900001 157 105 66
4.1339998 1.344 -0.205 99 55 18
4.1399999 1.346 -0.212 151 103 67
4.1199999 1.327 -0.36399999 216 160 111
4.1259999 1.364 -0.368 178 134 85
4.125 1.3609999 -0.36899999 151 100 47
4.1370001 1.364 -0.34299999 197 143 105
4.138 1.3559999 -0.347 43 5 0
4.131 1.368 -0.347 179 138 106
4.1350002 1.3660001 -0.338 121 74 44
4.1430001 1.358 -0.33399999 27 4 0
4.1360002 1.367 -0.33500001 73 33 8
4.1339998 1.369 -0.278 167 118 77
4.1479998 1.348 -0.148 108 67 35
4.1550002 1.35 -0.163 71 36 16
4.1609998 1.349 -0.15700001 71 39 18
4.1360002 1.375 -0.17900001 164 108 71
4.1230001 1.3 -0.18099999 91 42 9
4.1939998 1.329 -0.233 45 16 0
4.1500001 1.33 -0.243 119 85 58
4.1479998 1.329 -0.24699999 68 33 11
4.1490002 1.329 -0.249 128 93 73
4.1479998 1.332 -0.23800001 99 58 28
4.223 1.316 -0.223 142 109 68
4.211 1.3150001 -0.23 43 16 0
4.1900001 1.3380001 -0.23800001 55 23 0
4.1919999 1.336 -0.243 61 33 12
4.1960001 1.324 -0.24600001 48 17 0
4.1300001 1.37 -0.175 139 86 52
4.1830001 1.342 -0.17299999 63 25 6
4.1399999 1.341 -0.212 74 29 0
4.1170001 1.34 -0.191 187 141 91
4.1459999 1.334 -0.22499999 134 82 32
4.1459999 1.309 -0.213 210 177 144
4.1420002 1.308 -0.208 223 180 174
4.1469998 1.307 -0.212 206 173 140
4.1389999 1.308 -0.206 146 101 98
4.1490002 1.3099999 -0.215 226 187 144
4.2049999 1.332 -0.22499999 79 48 20
4.1999998 1.3329999 -0.237 69 42 23
4.2140002 1.324 -0.213 55 17 0
4.2150002 1.324 -0.20999999 53 12 0
4.2179999 1.3200001 -0.213 60 23 0
4.2189999 1.323 -0.205 83 45 6
4.191 1.323 -0.266 93 48 9
4.1890001 1.3329999 -0.255 77 43 16
4.1950002 1.327 -0.25400001 64 28 4
4.138 1.37 -0.31799999 65 30 8
4.1360002 1.367 -0.33000001 45 14 0
4.1399999 1.354 -0.33199999 41 22 8
4.1360002 1.364 -0.31299999 130 78 28
4.1919999 1.336 -0.24600001 76 45 24
4.1900001 1.335 -0.252 115 80 52
4.2010002 1.323 -0.25600001 63 26 8
4.2030001 1.329 -0.204 188 149 106
4.2030001 1.334 -0.199 221 181 156
4.1869998 1.34 -0.18799999 255 207 149
4.1890001 1.33 -0.199 217 172 153
4.1849999 1.34 -0.183 155 110 69
4.1880002 1.34 -0.193 104 51 1
4.1849999 1.296 -0.182 93 43 8
4.1849999 1.296 -0.19 132 78 32
4.151 1.2920001 -0.183 73 28 9
4.1680002 1.294 -0.177 48 9 0
4.164 1.293 -0.17200001 92 55 26
4.152 1.295 -0.18799999 174 129 87
4.1399999 1.3049999 -0.2 165 127 104
4.1370001 1.304 -0.19499999 155 117 78
4.1360002 1.301 -0.182 119 73 47
4.1269999 1.304 -0.189 193 147 95
4.1350002 1.303 -0.193 109 71 24
4.1269999 1.3150001 -0.19599999 156 113 62
4.1440001 1.309 -0.20999999 217 180 162
4.1370001 1.318 -0.206 187 137 110
4.1469998 1.318 -0.20100001 176 126 101
4.1700001 1.349 -0.18799999 150 103 59
4.1500001 1.294 -0.185 86 41 12
4.1370001 1.299 -0.168 114 71 29
4.1339998 1.35 -0.167 108 71 44
4.1409998 1.289 -0.171 90 49 21
4.1820002 1.295 -0.15099999 54 24 13
4.2290001 1.3150001 -0.243 101 59 37
4.217 1.314 -0.242 72 31 1
4.2150002 1.316 -0.23999999 108 71 44
4.2080002 1.322 -0.23800001 72 46 23
4.112 1.3 -0.177 175 124 79
4.1030002 1.308 -0.18099999 137 89 51
4.1139998 1.306 -0.169 84 46 10
4.1100001 1.3049999 -0.167 106 64 26
4.1170001 1.3099999 -0.176 119 74 33
4.1389999 1.291 -0.336 77 45 24
4.131 1.3329999 -0.361 195 140 86
4.1350002 1.347 -0.359 163 111 63
4.1339998 1.339 -0.36000001 181 126 70
4.1259999 1.326 -0.34900001 179 116 49
4.1110001 1.355 -0.38699999 156 121 81
4.1230001 1.339 -0.37099999 181 127 67
4.1290002 1.345 -0.36899999 152 101 48
4.132 1.349 -0.36500001 174 122 72
4.1259999 1.3559999 -0.366 203 152 95
4.125 1.3660001 -0.36000001 254 220 182
4.131 1.36 -0.35600001 192 140 100
4.1329999 1.363 -0.35299999 142 91 48
4.112 1.2970001 -0.368 94 56 35
4.1090002 1.3099999 -0.368 167 118 78
4.1279998 1.318 -0.354 128 79 47
4.1230001 1.311 -0.34999999 71 34 15
4.1220002 1.319 -0.36700001 250 197 147
4.1370001 1.321 -0.338 243 198 113
4.1360002 1.323 -0.34099999 171 116 33
4.1350002 1.3200001 -0.34099999 152 97 33
4.1399999 1.335 -0.345 161 105 54
4.1399999 1.34 -0.35299999 193 137 88
4.1370001 1.34 -0.35600001 180 125 71
4.1360002 1.334 -0.35100001 161 105 56
4.2160001 1.311 -0.28299999 110 57 25
4.2049999 1.311 -0.27200001 161 114 70
4.1440001 1.334 -0.26300001 114 75 36
4.1420002 1.3279999 -0.264 90 54 20
4.1539998 1.358 -0.30700001 197 143 79
4.1459999 1.35 -0.331 34 18 3
4.1459999 1.337 -0.33199999 113 69 24
4.1469998 1.34 -0.33399999 73 36 9
4.1799998 1.295 -0.226 80 43 25
4.1700001 1.2970001 -0.222 58 17 0
4.1409998 1.3049999 -0.20299999 119 75 62
4.164 1.295 -0.205 137 87 38
4.1700001 1.2970001 -0.21699999 122 87 57
4.171 1.298 -0.22499999 64 19 0
4.165 1.304 -0.27500001 255 226 188
4.164 1.306 -0.27500001 253 226 183
4.1620002 1.306 -0.278 255 232 171
4.165 1.301 -0.28600001 153 102 49
4.164 1.301 -0.289 93 40 0
4.1490002 1.34 -0.29800001 218 156 95
4.1469998 1.337 -0.32300001 154 95 27
4.1459999 1.337 -0.315 197 130 52
4.1459999 1.339 -0.32100001 198 139 73
4.145 1.334 -0.31900001 247 182 100
4.1360002 1.3609999 -0.34400001 157 106 79
4.1389999 1.362 -0.338 107 64 45
4.1469998 1.342 -0.31999999 229 177 120
4.1469998 1.345 -0.317 148 99 41
4.1469998 1.345 -0.31999999 124 78 26
4.1409998 1.354 -0.324 111 78 45
4.1409998 1.354 -0.32699999 66 41 19
4.1479998 1.348 -0.31200001 181 129 69
4.152 1.352 -0.29100001 214 154 94
4.1370001 1.35 -0.294 192 134 71
4.1360002 1.334 -0.29800001 209 147 90
4.1370001 1.35 -0.292 189 130 70
4.1440001 1.295 -0.32100001 146 102 57
4.1500001 1.319 -0.30199999 191 131 69
4.1409998 1.311 -0.31 197 122 64
4.1350002 1.298 -0.331 75 39 3
4.1339998 1.295 -0.33700001 157 117 92
4.1350002 1.312 -0.32499999 254 233 180
4.1370001 1.312 -0.322 255 237 184
4.1409998 1.303 -0.338 77 44 13
4.1430001 1.325 -0.27200001 59 27 4
4.1529999 1.309 -0.30399999 189 127 70
4.1409998 1.3 -0.31900001 206 147 91
4.1599998 1.3 -0.29499999 146 88 50
4.1459999 1.298 -0.30399999 171 112 68
4.1370001 1.329 -0.287 159 108 61
4.132 1.302 -0.329 106 52 5
4.1329999 1.33 -0.294 186 130 79
4.1199999 1.341 -0.37400001 162 110 53
4.1230001 1.341 -0.37099999 164 112 55
4.1259999 1.342 -0.36700001 172 120 63
4.145 1.347 -0.22499999 185 138 94
4.1849999 1.337 -0.24699999 88 53 31
4.178 1.3430001 -0.208 123 68 29
4.1830001 1.334 -0.205 215 175 124
4.1750002 1.342 -0.211 112 55 12
4.1290002 1.357 -0.205 160 114 80
4.164 1.339 -0.21600001 139 78 33
4.1399999 1.376 -0.21600001 196 145 102
4.1999998 1.331 -0.242 51 24 5
4.2010002 1.331 -0.236 68 43 23
4.197 1.335 -0.23999999 60 33 14
4.1849999 1.337 -0.22 70 26 0
4.1929998 1.334 -0.23 81 46 24
4.1849999 1.342 -0.19599999 92 33 0
4.177 1.348 -0.20299999 98 53 20
4.177 1.348 -0.208 82 35 5
4.1869998 1.34 -0.223 161 118 84
4.178 1.346 -0.211 154 102 62
4.1880002 1.341 -0.214 154 98 51
4.1810002 1.346 -0.199 132 82 47
4.1729999 1.347 -0.18700001 121 73 35
4.177 1.3380001 -0.176 66 24 2
4.2090001 1.3329999 -0.214 86 45 15
4.2069998 1.33 -0.22 93 60 25
4.1430001 1.3279999 -0.26100001 132 92 57
4.1430001 1.331 -0.25799999 104 61 27
4.1350002 1.353 -0.248 124 73 26
4.125 1.364 -0.249 170 113 60
4.1360002 1.353 -0.25299999 91 42 0
4.1279998 1.362 -0.24600001 157 102 48
4.138 1.373 -0.241 177 125 77
4.1399999 1.36 -0.244 106 53 11
4.138 1.362 -0.23899999 142 91 48
4.1370001 1.372 -0.23800001 182 131 76
4.1479998 1.346 -0.23999999 149 100 57
4.1469998 1.348 -0.25099999 97 52 11
4.1459999 1.348 -0.249 135 88 44
4.1259999 1.367 -0.222 193 137 90
4.1209998 1.363 -0.22499999 138 83 44
4.1209998 1.363 -0.23100001 157 102 63
4.1279998 1.367 -0.229 158 101 56
4.1370001 1.372 -0.233 183 130 78
4.1339998 1.369 -0.289 63 17 0
4.1339998 1.372 -0.308 209 162 118
4.131 1.365 -0.29499999 90 39 12
4.1360002 1.372 -0.30399999 217 168 125
4.131 1.3710001 -0.185 116 66 33
4.098 1.357 -0.205 93 47 14
4.1079998 1.36 -0.211 107 57 22
4.105 1.359 -0.20900001 94 45 13
4.131 1.3710001 -0.191 116 70 34
4.1230001 1.3660001 -0.211 154 101 59
4.1220002 1.327 -0.36000001 176 118 70
4.1279998 1.351 -0.36899999 186 135 78
4.1430001 1.358 -0.331 35 15 4
4.1399999 1.346 -0.34400001 80 42 21
4.1350002 1.331 -0.34 155 95 25
4.1370001 1.332 -0.33700001 224 170 96
4.1360002 1.353 -0.35600001 182 133 93
4.1329999 1.363 -0.303 217 157 103
4.1550002 1.35 -0.161 51 16 0
4.197 1.335 -0.234 61 30 9
4.1479998 1.332 -0.236 128 87 57
4.204 1.3150001 -0.24699999 65 30 8
4.1300001 1.3710001 -0.177 145 89 54
4.1389999 1.351 -0.25299999 135 86 45
4.1389999 1.351 -0.25 128 77 30
4.1459999 1.342 -0.249 100 56 19
4.1430001 1.331 -0.26100001 191 147 110
4.1230001 1.317 -0.205 247 196 151
4.2030001 1.337 -0.21699999 50 13 0
4.1890001 1.322 -0.26899999 157 111 59
4.191 1.325 -0.25999999 109 68 46
4.1350002 1.3660001 -0.31900001 122 81 49
4.1360002 1.367 -0.324 66 30 8
4.1360002 1.367 -0.32699999 55 22 3
4.138 1.365 -0.329 68 40 26
4.2150002 1.321 -0.19499999 228 182 156
4.184 1.296 -0.185 117 64 22
4.1830001 1.296 -0.215 54 25 9
4.1820002 1.296 -0.21799999 43 13 2
4.184 1.296 -0.20900001 118 79 50
4.184 1.296 -0.212 95 60 38
4.1849999 1.296 -0.206 143 100 65
4.1669998 1.299 -0.215 93 54 11
4.1690001 1.2970001 -0.215 85 43 5
4.1659999 1.299 -0.212 202 156 107
4.1500001 1.308 -0.215 207 170 128
4.1479998 1.291 -0.178 114 76 53
4.1669998 1.294 -0.175 72 35 16
4.1529999 1.301 -0.17900001 60 22 1
4.1700001 1.295 -0.18000001 87 41 25
4.1370001 1.313 -0.189 124 83 27
4.1420002 1.316 -0.199 173 127 91
4.1339998 1.306 -0.19599999 182 144 105
4.1329999 1.3 -0.18000001 81 36 7
4.132 1.303 -0.191 100 58 8
4.1230001 1.314 -0.19400001 131 87 40
4.1300001 1.3049999 -0.191 141 100 46
4.1469998 1.313 -0.207 207 163 154
4.151 1.316 -0.20100001 211 162 147
4.1700001 1.349 -0.185 102 57 15
4.1589999 1.294 -0.19499999 212 160 102
4.1700001 1.295 -0.185 113 59 25
4.1430001 1.314 -0.19599999 202 163 124
4.1459999 1.3150001 -0.199 151 105 79
4.1389999 1.299 -0.171 111 67 28
4.145 1.29 -0.176 95 56 25
4.1469998 1.304 -0.19400001 155 114 70
4.1409998 1.314 -0.19400001 189 151 106
4.2129998 1.318 -0.235 75 48 31
4.1069999 1.307 -0.17 103 63 28
4.1069999 1.304 -0.164 118 74 37
4.1360002 1.293 -0.33700001 92 56 34
4.1430001 1.349 -0.34599999 154 110 83
4.1160002 1.3609999 -0.38499999 143 113 85
4.1149998 1.358 -0.38600001 124 90 52
4.112 1.358 -0.389 74 47 18
4.1269999 1.354 -0.366 183 131 74
4.1389999 1.354 -0.34900001 91 53 30
4.1339998 1.364 -0.347 169 117 77
4.1170001 1.298 -0.36399999 90 53 37
4.1300001 1.319 -0.35100001 77 27 0
4.1259999 1.317 -0.35699999 127 82 43
4.1269999 1.3200001 -0.35699999 120 68 29
4.1199999 1.324 -0.359 178 119 77
4.1339998 1.323 -0.34400001 158 98 35
4.1409998 1.349 -0.34900001 179 133 99
4.1459999 1.342 -0.34 49 12 0
4.145 1.337 -0.26899999 91 56 18
4.1350002 1.353 -0.27000001 102 53 21
4.1399999 1.351 -0.266 87 40 12
4.1459999 1.337 -0.27399999 96 56 21
4.1430001 1.349 -0.26800001 119 73 40
4.1420002 1.352 -0.26300001 102 57 26
4.1430001 1.349 -0.266 87 44 12
4.145 1.347 -0.26300001 105 66 33
4.1430001 1.347 -0.271 136 87 54
4.1389999 1.351 -0.27200001 136 83 49
4.138 1.332 -0.287 167 116 71
4.1300001 1.365 -0.27599999 125 72 28
4.1420002 1.349 -0.26300001 75 32 0
4.1399999 1.36 -0.27399999 69 20 0
4.1279998 1.365 -0.257 121 68 26
4.1329999 1.369 -0.26699999 159 112 70
4.1329999 1.369 -0.26100001 146 98 58
4.1290002 1.365 -0.26499999 85 35 0
4.1409998 1.36 -0.27900001 111 63 23
4.1479998 1.348 -0.32499999 75 47 23
4.1469998 1.35 -0.31999999 116 75 29
4.145 1.35 -0.33700001 39 15 3
4.1680002 1.3049999 -0.271 251 216 194
4.1680002 1.302 -0.28200001 247 200 144
4.145 1.306 -0.207 219 176 169
4.1700001 1.2970001 -0.22 96 60 34
4.165 1.304 -0.278 255 228 175
4.152 1.347 -0.30000001 234 176 112
4.1440001 1.323 -0.322 255 255 225
4.145 1.323 -0.31900001 255 253 221
4.1459999 1.3200001 -0.31400001 207 165 115
4.1420002 1.325 -0.317 255 230 174
4.1389999 1.329 -0.32600001 219 184 100
4.1389999 1.316 -0.32100001 255 254 216
4.1339998 1.363 -0.34999999 199 150 109
4.1329999 1.331 -0.34400001 184 121 54
4.1389999 1.359 -0.34099999 79 40 23
4.151 1.354 -0.31 159 108 51
4.1399999 1.36 -0.285 168 124 79
4.1350002 1.353 -0.29699999 191 132 72
4.138 1.351 -0.28600001 197 141 82
4.1420002 1.347 -0.28200001 169 109 59
4.138 1.351 -0.278 148 89 45
4.1490002 1.321 -0.29899999 175 121 61
4.1409998 1.313 -0.31200001 211 147 85
4.1440001 1.312 -0.30599999 174 105 46
4.1430001 1.3329999 -0.32699999 215 167 91
4.1420002 1.325 -0.32800001 255 252 185
4.138 1.332 -0.33399999 224 177 99
4.1339998 1.3279999 -0.33500001 199 159 64
4.132 1.327 -0.33899999 177 122 32
4.1420002 1.303 -0.32699999 115 68 26
4.1409998 1.302 -0.33500001 117 81 47
4.1370001 1.3150001 -0.324 255 254 213
4.1370001 1.329 -0.329 252 222 134
4.145 1.304 -0.32300001 102 46 0
4.1269999 1.342 -0.198 130 84 35
4.1230001 1.344 -0.204 116 72 33
4.1329999 1.342 -0.208 118 74 39
4.1630001 1.301 -0.292 91 32 0
4.1550002 1.304 -0.296 151 88 47
4.158 1.307 -0.28999999 123 64 4
4.1599998 1.303 -0.29499999 114 55 15
4.1609998 1.311 -0.292 166 105 48
4.1399999 1.324 -0.29800001 178 127 64
4.1300001 1.3099999 -0.33399999 169 120 54
4.1500001 1.311 -0.29699999 167 102 46
4.1160002 1.3559999 -0.38 176 130 80
4.119 1.357 -0.37599999 172 124 75
4.118 1.359 -0.37900001 177 133 86
4.1240001 1.347 -0.37900001 168 125 74
4.1170001 1.359 -0.382 142 103 60
4.1090002 1.351 -0.38800001 165 128 86
4.112 1.3380001 -0.38499999 199 152 96
4.1129999 1.347 -0.38999999 119 88 57
4.1880002 1.33 -0.25299999 111 75 49
4.1479998 1.329 -0.252 129 93 69
4.119 1.348 -0.213 94 49 16
4.119 1.346 -0.20999999 93 53 18
4.158 1.34 -0.222 211 165 115
4.1430001 1.347 -0.222 156 109 63
4.1490002 1.3380001 -0.23800001 99 59 34
4.1490002 1.335 -0.235 100 60 34
4.1490002 1.335 -0.233 72 31 3
4.1370001 1.372 -0.21699999 211 153 105
4.1350002 1.372 -0.212 154 95 51
4.2010002 1.3279999 -0.245 65 34 14
4.1999998 1.3329999 -0.234 81 53 32
4.1989999 1.3329999 -0.23899999 56 30 13
4.1989999 1.336 -0.205 223 186 134
4.1900001 1.3380001 -0.20100001 161 114 70
4.1760001 1.34 -0.214 102 40 0
4.1760001 1.345 -0.192 98 46 6
4.1739998 1.347 -0.17900001 76 36 10
4.2059999 1.332 -0.22 100 67 36
4.1459999 1.329 -0.25799999 172 133 102
4.1459999 1.34 -0.23800001 73 33 7
4.1479998 1.337 -0.244 90 51 22
4.1370001 1.359 -0.23100001 106 62 37
4.1339998 1.35 -0.235 156 106 69
4.1339998 1.369 -0.264 154 106 68
4.1420002 1.374 -0.26199999 240 196 157
4.138 1.351 -0.25600001 184 139 100
4.1269999 1.362 -0.243 165 112 60
4.1370001 1.375 -0.233 174 125 82
4.1350002 1.375 -0.241 173 128 86
4.1389999 1.359 -0.23899999 115 65 28
4.1479998 1.34 -0.241 80 38 13
4.131 1.368 -0.25299999 217 163 117
4.1329999 1.369 -0.25799999 154 105 64
4.1329999 1.369 -0.25600001 160 109 66
4.1160002 1.362 -0.215 110 59 16
4.118 1.362 -0.223 130 75 34
4.1259999 1.351 -0.222 70 26 0
4.1230001 1.363 -0.236 200 146 99
4.1279998 1.367 -0.23199999 162 108 61
4.131 1.368 -0.237 215 164 107
4.1240001 1.364 -0.23800001 196 145 90
4.1230001 1.3660001 -0.21699999 161 107 61
4.132 1.3710001 -0.31099999 134 92 50
4.1370001 1.372 -0.301 216 167 124
4.131 1.365 -0.303 101 40 0
4.131 1.3710001 -0.18799999 123 75 39
4.1360002 1.358 -0.21699999 143 91 52
4.1259999 1.34 -0.36700001 175 120 63
4.1259999 1.3279999 -0.354 170 112 64
4.1279998 1.329 -0.35100001 171 111 57
4.1360002 1.35 -0.35800001 164 113 66
4.132 1.355 -0.359 175 124 79
4.1500001 1.335 -0.23999999 114 77 50
4.1700001 1.3329999 -0.25600001 103 66 37
4.151 1.3329999 -0.243 94 60 33
4.158 1.335 -0.26300001 109 71 35
4.1500001 1.332 -0.23 115 70 37
4.2020001 1.321 -0.23100001 60 33 12
4.2080002 1.317 -0.241 84 52 29
4.204 1.321 -0.236 69 45 19
4.1919999 1.336 -0.235 73 41 16
4.2059999 1.316 -0.244 69 35 10
4.1459999 1.342 -0.24600001 86 40 4
4.1269999 1.318 -0.207 183 131 92
4.197 1.3380001 -0.221 49 13 0
4.1370001 1.369 -0.33199999 79 46 27
4.138 1.365 -0.32600001 111 80 60
4.184 1.296 -0.18000001 78 32 8
4.1789999 1.2970001 -0.21799999 48 15 0
4.177 1.2970001 -0.21600001 63 29 4
4.177 1.2970001 -0.211 87 44 2
4.1849999 1.296 -0.204 90 47 15
4.1560001 1.307 -0.208 216 178 155
4.164 1.307 -0.199 148 102 69
4.184 1.296 -0.18799999 105 51 5
4.1609998 1.303 -0.191 247 205 147
4.1680002 1.3 -0.21699999 76 41 11
4.1389999 1.307 -0.20299999 137 93 84
4.132 1.3049999 -0.193 159 119 70
4.1199999 1.313 -0.192 124 79 37
4.1620002 1.349 -0.17299999 88 47 17
4.1420002 1.2920001 -0.176 131 94 65
4.1430001 1.3 -0.17299999 101 58 23
4.1539998 1.295 -0.19 255 215 163
4.1560001 1.296 -0.193 241 195 136
4.152 1.3 -0.177 80 43 16
4.1500001 1.3 -0.17399999 102 63 30
4.1469998 1.302 -0.177 81 41 15
4.1479998 1.294 -0.183 65 22 3
4.1209998 1.354 -0.373 181 134 80
4.1209998 1.357 -0.373 185 135 82
4.1329999 1.336 -0.36300001 178 123 67
4.1240001 1.3200001 -0.36300001 190 136 92
4.132 1.319 -0.34799999 89 36 5
4.138 1.335 -0.34799999 120 64 15
4.1300001 1.313 -0.33700001 174 126 52
4.1399999 1.351 -0.352 170 122 84
4.1409998 1.341 -0.34999999 189 138 93
4.145 1.342 -0.34299999 66 24 0
4.1440001 1.347 -0.27399999 116 64 25
4.1469998 1.3430001 -0.33399999 46 17 1
4.1420002 1.352 -0.329 34 19 0
4.1420002 1.352 -0.33199999 30 14 1
4.1420002 1.352 -0.32600001 74 48 23
4.1669998 1.307 -0.271 255 222 197
4.1469998 1.307 -0.20999999 211 174 155
4.152 1.306 -0.204 131 85 72
4.1539998 1.306 -0.206 216 172 159
4.1680002 1.313 -0.287 147 90 21
4.145 1.326 -0.322 255 251 205
4.1440001 1.331 -0.31600001 197 139 55
4.145 1.3609999 -0.31999999 108 72 36
4.132 1.36 -0.35299999 131 81 46
4.131 1.33 -0.347 192 130 69
4.132 1.344 -0.35699999 160 108 60
4.1350002 1.342 -0.354 202 148 101
4.138 1.362 -0.34099999 154 104 79
4.1399999 1.357 -0.34 40 7 0
