ply
format ascii 1.0
comment PCL generated
element vertex 1240
property float x
property float y
property float z
property uchar red
property uchar green
property uchar blue
element camera 0
property float view_px
property float view_py
property float view_pz
property float x_axisx
property float x_axisy
property float x_axisz
property float y_axisx
property float y_axisy
property float y_axisz
property float z_axisx
property float z_axisy
property float z_axisz
property float focal
property float scalex
property float scaley
property float centerx
property float centery
property int viewportx
property int viewporty
property float k1
property float k2
end_header
7.427 2.539 -0.847 35 7 0
7.4130001 2.573 -0.85600001 18 0 0
7.4130001 2.569 -0.85600001 21 6 0
7.4109998 2.5699999 -0.85500002 24 6 2
7.3969998 2.5650001 -0.85900003 166 148 138
7.4060001 2.582 -0.85000002 54 32 19
7.461 2.5810001 -0.83600003 98 65 50
7.4429998 2.5810001 -0.84299999 89 48 20
7.4330001 2.5869999 -0.84799999 88 74 65
7.4289999 2.592 -0.84899998 142 108 73
7.4619999 2.572 -0.82800001 48 28 19
7.4650002 2.55 -0.83600003 58 38 27
7.4349999 2.563 -0.824 41 13 1
7.441 2.5569999 -0.824 140 104 46
7.395 2.569 -0.85500002 40 18 7
7.3940001 2.566 -0.85900003 70 50 39
7.3889999 2.5680001 -0.85900003 83 61 47
7.3369999 2.5610001 -0.85699999 25 12 0
7.342 2.562 -0.85600001 160 137 123
7.3390002 2.5599999 -0.85799998 31 17 6
7.2930002 2.507 -0.89600003 68 50 46
7.2740002 2.529 -0.89399999 53 28 21
7.2750001 2.54 -0.88599998 129 111 107
7.4310002 2.529 -0.87400001 53 40 34
7.3330002 2.8299999 -0.80599999 54 38 38
7.342 2.7820001 -0.792 159 139 140
7.342 2.7839999 -0.78799999 60 25 6
7.3330002 2.7920001 -0.79900002 38 24 23
7.3759999 2.8010001 -0.76899999 29 8 3
7.3109999 2.7709999 -0.62599999 75 27 0
7.3109999 2.74 -0.64499998 71 53 39
7.323 2.789 -0.69999999 17 3 2
7.329 2.7969999 -0.708 214 177 158
7.3540001 2.7850001 -0.80400002 48 10 1
7.3769999 2.7869999 -0.82599998 18 0 0
7.3969998 2.8050001 -0.82099998 100 73 62
7.355 2.836 -0.787 144 114 86
7.3909998 2.819 -0.81900001 36 11 4
7.2639999 2.845 -0.829 58 22 0
7.2740002 2.8429999 -0.83499998 82 45 27
7.2800002 2.8299999 -0.82700002 76 32 7
7.302 2.8299999 -0.824 50 15 0
7.2820001 2.823 -0.82200003 112 101 99
7.277 2.839 -0.83499998 99 61 42
7.2969999 2.826 -0.829 93 48 27
7.277 2.8340001 -0.83399999 73 37 15
7.2550001 2.687 -0.81900001 101 74 63
7.263 2.684 -0.82499999 162 160 165
7.2680001 2.6989999 -0.81599998 127 129 126
7.257 2.7049999 -0.81400001 150 141 144
7.2579999 2.7019999 -0.81800002 81 71 59
7.2810001 2.6919999 -0.81999999 240 192 126
7.2490001 2.714 -0.81699997 134 94 59
7.3210001 2.763 -0.70899999 38 19 13
7.3179998 2.7650001 -0.70499998 142 137 143
7.2719998 2.7309999 -0.829 130 90 54
7.2670002 2.73 -0.829 110 68 44
7.2729998 2.7130001 -0.824 142 111 93
7.277 2.7019999 -0.81599998 111 66 24
7.4029999 2.8429999 -0.565 143 81 40
7.1999998 2.7309999 -0.87900001 120 90 52
7.2189999 2.7839999 -0.875 96 70 57
7.2150002 2.7939999 -0.875 90 88 73
7.2290001 2.7809999 -0.87199998 61 23 0
7.237 2.793 -0.87 106 68 29
7.2249999 2.756 -0.88 148 129 112
7.2199998 2.763 -0.88 95 72 56
7.198 2.7869999 -0.88499999 111 83 69
7.178 2.7279999 -0.88099998 139 130 133
7.1420002 2.7780001 -0.87900001 30 18 20
7.2859998 2.7690001 -0.86400002 112 80 67
7.2859998 2.78 -0.861 141 134 128
7.283 2.766 -0.86400002 44 25 18
7.3239999 2.7950001 -0.80299997 89 36 0
7.335 2.8069999 -0.79500002 104 69 37
7.3080001 2.786 -0.824 49 32 22
7.3099999 2.7739999 -0.82800001 60 24 0
7.3280001 2.77 -0.83099997 54 22 0
7.3309999 2.7639999 -0.83099997 123 87 61
7.3169999 2.7639999 -0.84899998 64 35 19
7.3169999 2.7720001 -0.84299999 83 56 39
7.3379998 2.7880001 -0.84200001 30 15 12
7.329 2.7909999 -0.83999997 76 39 13
7.323 2.779 -0.84200001 152 99 65
7.348 2.796 -0.84299999 112 83 67
7.3379998 2.7130001 -0.83899999 137 123 97
7.3579998 2.7260001 -0.82800001 29 8 3
7.3559999 2.7320001 -0.82499999 106 77 45
7.151 2.7090001 -0.884 150 148 151
7.1599998 2.7079999 -0.89099997 124 89 70
7.158 2.7119999 -0.88 133 131 132
7.2410002 2.855 -0.87800002 49 26 12
7.2639999 2.8380001 -0.84500003 140 130 131
7.2540002 2.8469999 -0.838 136 109 90
7.257 2.865 -0.829 62 17 0
7.2610002 2.869 -0.83200002 98 66 43
7.2540002 2.8559999 -0.83899999 255 206 136
7.2930002 2.786 -0.861 160 134 121
7.29 2.799 -0.85600001 125 83 35
7.2989998 2.7880001 -0.84200001 186 135 92
7.2800002 2.8099999 -0.81999999 142 129 120
7.2839999 2.8199999 -0.824 109 96 41
7.2729998 2.816 -0.81900001 112 102 93
7.348 2.855 -0.82499999 177 151 118
7.3559999 2.8380001 -0.83899999 35 27 25
7.3569999 2.8310001 -0.838 161 155 157
7.2540002 2.8640001 -0.83999997 255 214 139
7.197 2.8010001 -0.85699999 99 78 73
7.2069998 2.825 -0.83600003 160 100 48
7.2129998 2.825 -0.829 103 65 20
7.2179999 2.8050001 -0.83200002 119 90 60
7.2329998 2.8110001 -0.82700002 183 134 78
7.2610002 2.8299999 -0.82700002 88 70 58
7.257 2.8150001 -0.82200003 52 17 0
7.3169999 2.7739999 -0.82599998 131 97 49
7.3249998 2.783 -0.82499999 96 54 14
7.3080001 2.7539999 -0.83499998 76 40 8
7.3109999 2.7709999 -0.83200002 140 93 47
7.2859998 2.7850001 -0.86299998 72 40 17
7.2719998 2.7980001 -0.86199999 62 32 6
7.2220001 2.786 -0.83499998 226 223 216
7.2220001 2.8 -0.83200002 122 102 93
7.2529998 2.813 -0.81599998 49 21 9
7.2379999 2.823 -0.82700002 105 63 38
7.3470001 2.8399999 -0.80599999 186 143 98
7.335 2.8440001 -0.833 103 67 43
7.3309999 2.8369999 -0.84600002 26 12 9
7.3280001 2.8380001 -0.82700002 103 57 31
7.336 2.8310001 -0.727 79 50 36
7.3340001 2.8239999 -0.73100001 21 0 0
7.3330002 2.826 -0.72600001 67 41 28
7.336 2.8310001 -0.72500002 116 84 71
7.3390002 2.835 -0.71899998 100 76 64
7.2859998 2.823 -0.833 178 158 151
7.1069999 2.7379999 -0.88999999 80 52 40
7.1810002 2.6010001 -0.88300002 91 63 39
7.1859999 2.6170001 -0.87 174 122 72
7.1919999 2.619 -0.88300002 163 162 168
7.1810002 2.631 -0.87 106 91 84
7.1789999 2.671 -0.87800002 60 47 41
7.171 2.6570001 -0.884 146 136 134
7.1900001 2.632 -0.87699997 122 95 78
7.2069998 2.5840001 -0.89499998 32 10 0
7.2020001 2.586 -0.88800001 136 103 60
7.2140002 2.576 -0.87900001 137 116 99
7.21 2.625 -0.86500001 72 59 51
7.2189999 2.6110001 -0.88 66 46 35
7.329 2.823 -0.69099998 26 11 8
7.329 2.8299999 -0.66100001 78 43 21
7.3210001 2.8429999 -0.68000001 28 10 8
7.3260002 2.826 -0.667 60 28 5
7.329 2.8280001 -0.68000001 63 33 22
7.3189998 2.78 -0.68099999 65 26 9
7.3189998 2.783 -0.685 44 15 0
7.3169999 2.7780001 -0.68699998 40 26 23
7.3150001 2.7739999 -0.67799997 68 44 34
7.3470001 2.773 -0.71399999 60 37 31
7.3449998 2.8239999 -0.78100002 255 239 162
7.3449998 2.822 -0.78200001 190 168 144
7.3660002 2.819 -0.75800002 63 42 37
7.3769999 2.8169999 -0.741 49 31 27
7.3429999 2.8139999 -0.74599999 36 14 1
7.3470001 2.8069999 -0.76999998 133 97 75
7.3590002 2.8329999 -0.70599997 81 25 2
7.3520002 2.849 -0.71100003 36 5 2
7.3530002 2.8399999 -0.71200001 88 56 41
7.3800001 2.78 -0.60000002 64 37 28
7.3850002 2.7750001 -0.59899998 92 67 60
7.355 2.8440001 -0.68699998 229 204 173
7.3629999 2.8199999 -0.70200002 25 15 13
7.362 2.8210001 -0.685 198 163 133
7.3759999 2.8099999 -0.68900001 137 111 86
7.3839998 2.819 -0.69800001 64 39 32
7.401 2.7980001 -0.71899998 71 43 22
7.3990002 2.816 -0.77999997 43 32 28
7.395 2.8269999 -0.78200001 35 21 20
7.4120002 2.8 -0.72399998 88 71 63
7.3870001 2.7969999 -0.73500001 25 15 23
7.3569999 2.8280001 -0.736 49 20 6
7.355 2.8169999 -0.76200002 106 70 44
7.3499999 2.8110001 -0.75700003 124 92 71
7.342 2.8280001 -0.78899997 145 90 51
7.3449998 2.8280001 -0.78500003 210 184 135
7.348 2.8299999 -0.78500003 72 47 6
7.3590002 2.8540001 -0.838 129 119 110
7.3660002 2.862 -0.83499998 255 255 227
7.3559999 2.6170001 -0.85600001 24 5 0
7.2509999 2.536 -0.89700001 42 23 17
7.2160001 2.589 -0.88999999 178 154 142
7.2199998 2.5840001 -0.89099997 93 71 60
7.2179999 2.5969999 -0.88499999 81 59 46
7.211 2.5650001 -0.89399999 47 27 20
7.2199998 2.5469999 -0.89499998 145 135 134
7.336 2.8329999 -0.847 33 3 0
7.3280001 2.8239999 -0.847 54 21 6
7.2870002 2.7579999 -0.861 34 16 4
7.316 2.7119999 -0.83600003 107 77 66
7.3049998 2.7190001 -0.82499999 123 86 57
7.3299999 2.7420001 -0.84200001 140 105 83
7.302 2.7 -0.815 36 13 0
7.316 2.694 -0.81199998 42 26 27
7.3889999 2.6070001 -0.84600002 103 87 74
7.395 2.6059999 -0.83600003 190 155 101
7.3979998 2.6159999 -0.83499998 151 137 134
7.3709998 2.5840001 -0.85399997 157 121 95
7.375 2.5810001 -0.85399997 197 163 136
7.3559999 2.5610001 -0.86799997 62 39 25
7.3569999 2.5710001 -0.86500001 81 58 44
7.3639998 2.5639999 -0.86699998 35 15 6
7.3610001 2.5680001 -0.86500001 106 81 61
7.3600001 2.575 -0.866 119 93 66
7.3499999 2.5699999 -0.86500001 63 43 34
7.369 2.5940001 -0.85000002 59 32 21
7.349 2.592 -0.85299999 60 36 26
7.3540001 2.704 -0.81 96 69 58
7.355 2.707 -0.81199998 43 20 14
7.3600001 2.7060001 -0.81199998 56 29 18
7.3649998 2.6960001 -0.82200003 69 41 27
7.3369999 2.6800001 -0.81 161 116 77
7.336 2.6789999 -0.81099999 185 157 110
7.3429999 2.668 -0.84200001 44 29 24
7.3299999 2.6659999 -0.81800002 120 79 33
7.302 2.6889999 -0.81599998 229 186 135
7.2969999 2.694 -0.81800002 38 22 25
7.4590001 2.6300001 -0.82499999 158 113 80
7.46 2.6289999 -0.82499999 113 69 40
7.329 2.6700001 -0.81599998 147 114 97
7.2129998 2.6470001 -0.861 116 73 41
7.1849999 2.6389999 -0.86799997 142 110 95
7.191 2.651 -0.86199999 91 63 41
7.1929998 2.645 -0.86500001 81 50 29
7.2729998 2.8039999 -0.56099999 197 164 113
7.395 2.526 -0.84500003 15 1 0
7.3600001 2.4360001 -0.86400002 255 235 188
7.349 2.4159999 -0.85699999 236 222 193
7.3540001 2.424 -0.861 251 239 215
7.3590002 2.4349999 -0.86000001 212 188 150
7.3520002 2.4130001 -0.86699998 172 139 98
7.3099999 2.743 -0.64999998 84 65 61
7.3150001 2.743 -0.653 86 43 24
7.3130002 2.7490001 -0.65799999 108 79 65
7.2849998 2.803 -0.57599998 45 16 8
7.329 2.598 -0.84399998 13 2 0
7.2839999 2.6159999 -0.86400002 20 9 5
7.3400002 2.5940001 -0.84200001 89 63 48
7.3530002 2.596 -0.84299999 211 168 133
7.322 2.6470001 -0.82099998 248 219 177
7.3319998 2.631 -0.847 36 19 11
7.3319998 2.625 -0.85100001 69 52 45
7.3720002 2.569 -0.829 73 42 22
7.3889999 2.773 -0.62599999 182 156 143
7.3670001 2.826 -0.64099997 98 46 9
7.3850002 2.7780001 -0.634 190 155 113
7.401 2.75 -0.57999998 64 17 0
7.3990002 2.757 -0.57499999 107 81 68
7.3979998 2.7520001 -0.579 61 23 2
7.3899999 2.76 -0.59200001 87 50 32
7.3969998 2.7260001 -0.57200003 138 116 77
7.3870001 2.7290001 -0.57599998 87 46 16
7.461 2.608 -0.81599998 43 23 14
7.461 2.6140001 -0.81900001 20 0 0
7.4569998 2.6159999 -0.81900001 55 23 8
7.3649998 2.5510001 -0.83200002 159 127 89
7.3769999 2.5539999 -0.83600003 105 93 81
7.2389998 2.7320001 -0.84200001 78 54 42
7.2280002 2.7520001 -0.847 145 121 109
7.2399998 2.7479999 -0.847 97 67 43
7.223 2.724 -0.84799999 131 88 43
7.1729999 2.714 -0.88 107 71 23
7.191 2.717 -0.87699997 167 134 93
7.1890001 2.6900001 -0.852 77 36 6
7.1750002 2.678 -0.85799998 100 56 17
7.1719999 2.6800001 -0.86199999 158 114 65
7.1479998 2.7160001 -0.88099998 43 29 26
7.164 2.6670001 -0.866 129 90 47
7.2350001 2.72 -0.86799997 125 68 39
7.2329998 2.6500001 -0.87099999 163 149 146
7.2220001 2.6700001 -0.866 102 76 61
7.2620001 2.612 -0.87400001 67 50 43
7.2420001 2.608 -0.87300003 186 145 115
7.2490001 2.6010001 -0.87300003 174 137 111
7.204 2.707 -0.85399997 79 46 27
7.2129998 2.6949999 -0.84600002 113 98 95
7.2080002 2.7160001 -0.86000001 108 66 24
7.2189999 2.7030001 -0.83600003 149 101 61
7.2179999 2.71 -0.84399998 116 80 48
7.243 2.671 -0.85100001 57 19 0
7.2459998 2.658 -0.85399997 105 83 70
7.2309999 2.6830001 -0.84399998 30 15 12
7.2249999 2.671 -0.85600001 219 176 144
7.2470002 2.6819999 -0.84200001 93 74 60
7.2290001 2.6860001 -0.86400002 115 58 28
7.2210002 2.668 -0.85600001 105 73 58
7.2140002 2.6700001 -0.85500002 73 41 16
7.2140002 2.661 -0.861 90 58 33
7.1890001 2.704 -0.86199999 144 102 60
7.2719998 2.7520001 -0.86000001 54 26 15
7.2719998 2.7409999 -0.861 80 57 43
7.2480001 2.7060001 -0.815 105 92 83
7.2509999 2.7249999 -0.83099997 133 94 51
7.2579999 2.71 -0.81999999 55 42 36
7.1570001 2.767 -0.88800001 78 37 9
7.1659999 2.7449999 -0.88200003 177 133 86
7.2069998 2.766 -0.88300002 41 20 0
7.1869998 2.7460001 -0.875 59 23 0
7.1939998 2.7379999 -0.87900001 131 105 70
7.2249999 2.6099999 -0.87099999 117 98 83
7.2220001 2.5940001 -0.866 149 134 137
7.2160001 2.6129999 -0.87 113 101 101
7.2379999 2.628 -0.87099999 64 37 26
7.2410002 2.642 -0.85500002 112 86 69
7.2529998 2.6500001 -0.852 88 52 18
7.2160001 2.641 -0.87599999 147 138 139
7.224 2.6359999 -0.87599999 57 31 18
7.3140001 2.641 -0.82200003 107 98 91
7.3119998 2.6500001 -0.82599998 96 59 17
7.3109999 2.625 -0.82800001 64 40 30
7.2880001 2.6270001 -0.84799999 55 44 40
7.2220001 2.559 -0.87900001 144 88 27
7.2179999 2.576 -0.889 45 22 14
7.2839999 2.5940001 -0.86299998 155 124 77
7.289 2.536 -0.88800001 37 10 0
7.2930002 2.533 -0.88700002 66 38 26
7.2940001 2.536 -0.88599998 34 19 14
7.3140001 2.5239999 -0.88800001 56 41 38
7.3060002 2.5280001 -0.88700002 55 37 33
7.303 2.5190001 -0.89200002 46 28 24
7.257 2.5999999 -0.87300003 162 160 165
7.2729998 2.608 -0.86199999 118 75 24
7.276 2.609 -0.861 140 132 130
7.276 2.6040001 -0.86400002 108 80 59
7.2690001 2.5799999 -0.86799997 109 68 24
7.2639999 2.586 -0.86699998 151 107 58
7.25 2.6129999 -0.86400002 50 27 11
7.2379999 2.5999999 -0.875 35 17 7
7.2550001 2.5450001 -0.87599999 99 76 58
7.25 2.55 -0.89300001 70 53 46
7.2550001 2.5510001 -0.89099997 141 132 137
7.2470002 2.546 -0.89399999 29 17 17
7.2470002 2.5550001 -0.88599998 159 157 162
7.2509999 2.553 -0.88599998 144 139 145
7.2319999 2.54 -0.89499998 18 4 3
7.2779999 2.51 -0.89499998 170 140 130
7.3660002 2.5550001 -0.84600002 122 87 55
7.3460002 2.5639999 -0.85600001 26 19 13
7.3790002 2.54 -0.84200001 36 13 0
7.3610001 2.516 -0.86500001 207 172 140
7.3600001 2.5139999 -0.866 203 169 131
7.3629999 2.517 -0.86400002 165 134 103
7.3460002 2.5179999 -0.86400002 37 8 0
7.3460002 2.5250001 -0.86299998 123 94 54
7.3590002 2.5120001 -0.86799997 156 139 132
7.3699999 2.5350001 -0.852 143 125 113
7.368 2.533 -0.85399997 113 66 24
7.3670001 2.529 -0.852 144 126 114
7.3499999 2.54 -0.86199999 130 111 97
7.3649998 2.52 -0.86299998 174 145 111
7.3740001 2.5280001 -0.85399997 56 36 27
7.3720002 2.569 -0.86199999 70 42 20
7.3400002 2.51 -0.86699998 146 127 120
7.3509998 2.5020001 -0.88200003 70 49 32
7.3610001 2.5050001 -0.87699997 130 94 72
7.355 2.507 -0.87699997 139 117 94
7.3319998 2.503 -0.86500001 39 20 13
7.3309999 2.5120001 -0.86199999 47 23 11
7.3660002 2.5510001 -0.87199998 80 53 46
7.348 2.556 -0.87 37 18 12
7.3540001 2.5510001 -0.87 28 10 6
7.368 2.5439999 -0.866 89 84 88
7.381 2.5569999 -0.86900002 25 7 3
7.388 2.566 -0.86500001 63 35 14
7.323 2.461 -0.87900001 89 69 60
7.3200002 2.493 -0.86900002 125 82 47
7.316 2.477 -0.87699997 94 66 45
7.3109999 2.484 -0.88099998 134 106 94
7.243 2.7850001 -0.815 145 92 61
7.1849999 2.7869999 -0.88300002 94 65 51
7.237 2.7679999 -0.833 136 90 54
7.2210002 2.8570001 -0.87699997 16 6 7
7.25 2.8570001 -0.87900001 126 100 87
7.2490001 2.852 -0.87 36 18 8
7.211 2.8010001 -0.88200003 64 38 25
7.2210002 2.8069999 -0.87699997 60 36 26
7.2360001 2.8010001 -0.87199998 29 6 0
7.217 2.8110001 -0.875 142 110 87
7.2140002 2.8180001 -0.87400001 107 68 25
7.2069998 2.763 -0.86500001 63 40 26
7.3439999 2.654 -0.815 42 29 20
7.2709999 2.6489999 -0.83700001 49 31 27
7.2870002 2.6630001 -0.838 65 48 41
7.2880001 2.6689999 -0.83600003 49 21 9
7.2930002 2.6600001 -0.82800001 95 64 36
7.2969999 2.6630001 -0.82499999 114 96 96
7.2719998 2.6830001 -0.82599998 216 176 117
7.2870002 2.694 -0.81900001 140 140 138
7.2859998 2.684 -0.82300001 155 119 67
7.3099999 2.6719999 -0.85299999 82 58 46
7.2550001 2.6459999 -0.852 155 124 95
7.2620001 2.6259999 -0.86799997 72 52 45
7.2649999 2.635 -0.86900002 59 35 25
7.2600002 2.654 -0.86400002 69 43 30
7.2639999 2.6370001 -0.85000002 120 114 114
7.2820001 2.635 -0.84600002 108 89 75
7.2820001 2.6800001 -0.85699999 98 84 81
7.2789998 2.744 -0.83099997 148 98 47
7.309 2.7260001 -0.84500003 207 166 104
7.2930002 2.7079999 -0.82700002 174 137 108
7.3049998 2.7130001 -0.82599998 167 102 70
7.3189998 2.7030001 -0.81599998 121 80 52
7.3130002 2.7049999 -0.81999999 37 22 19
7.3000002 2.7609999 -0.83399999 137 119 105
7.302 2.747 -0.83499998 147 121 104
7.3000002 2.7539999 -0.83399999 132 104 92
7.2950001 2.7479999 -0.83399999 92 55 36
7.336 2.727 -0.82099998 184 152 101
7.335 2.721 -0.81699997 253 216 172
7.3299999 2.7249999 -0.82099998 183 155 116
7.1719999 2.6830001 -0.86400002 94 53 21
7.1729999 2.691 -0.86500001 69 28 0
7.1929998 2.664 -0.86199999 62 45 35
7.2069998 2.6789999 -0.85500002 17 2 0
7.2150002 2.6570001 -0.86900002 86 35 4
7.2579999 2.7320001 -0.86299998 176 127 69
7.2420001 2.7620001 -0.83999997 133 91 66
7.2880001 2.7550001 -0.82999998 62 20 0
7.3039999 2.7539999 -0.85900003 93 80 64
7.2459998 2.77 -0.87800002 117 82 54
7.3429999 2.4979999 -0.88700002 42 22 11
7.329 2.4960001 -0.89099997 46 29 22
7.3309999 2.5050001 -0.88300002 98 79 65
7.3720002 2.467 -0.86400002 192 166 129
7.3520002 2.4890001 -0.87699997 70 48 34
7.3390002 2.4809999 -0.88200003 122 98 86
7.335 2.4690001 -0.87800002 35 21 18
7.3309999 2.464 -0.87900001 42 27 22
7.3280001 2.474 -0.87 107 77 43
7.3850002 2.723 -0.56199998 39 20 13
7.4050002 2.7360001 -0.54500002 69 17 0
7.3920002 2.7320001 -0.57700002 164 106 66
7.4070001 2.7409999 -0.56900001 65 35 25
7.3930001 2.7360001 -0.57599998 58 34 22
7.3720002 2.7520001 -0.551 150 130 80
7.3850002 2.8840001 -0.55699998 202 164 117
7.3130002 2.4949999 -0.87099999 86 59 38
7.2839999 2.5280001 -0.88999999 69 41 30
7.3270001 2.5020001 -0.884 67 48 33
7.322 2.5150001 -0.88200003 155 124 80
7.2969999 2.5020001 -0.88999999 35 18 11
7.303 2.5120001 -0.89200002 27 9 5
7.316 2.4679999 -0.89099997 35 18 11
7.3720002 2.4590001 -0.86400002 115 98 80
7.3850002 2.5369999 -0.87199998 46 22 10
7.4000001 2.5420001 -0.87 30 12 2
7.4070001 2.536 -0.86900002 29 12 4
7.302 2.8340001 -0.588 64 41 23
7.382 2.78 -0.60900003 138 94 67
7.3839998 2.7820001 -0.61299998 222 179 147
7.3920002 2.7709999 -0.61199999 70 23 0
7.375 2.832 -0.63300002 48 30 18
7.3730001 2.8399999 -0.63200003 78 50 29
7.375 2.8399999 -0.56800002 111 75 53
7.3660002 2.8329999 -0.62699997 128 91 62
7.322 2.822 -0.62400001 84 62 41
7.3379998 2.8239999 -0.63700002 44 28 31
7.3200002 2.8239999 -0.61799997 116 107 98
7.368 2.829 -0.62599999 81 46 18
7.3629999 2.8269999 -0.62599999 49 30 15
7.3720002 2.8310001 -0.62800002 62 42 31
7.3559999 2.8199999 -0.62300003 66 48 36
7.3579998 2.8110001 -0.63599998 68 49 34
7.369 2.7780001 -0.56800002 246 217 157
7.3660002 2.789 -0.57300001 242 224 186
7.3119998 2.8050001 -0.57499999 77 35 19
7.368 2.793 -0.57700002 140 80 43
7.349 2.7720001 -0.59299999 92 36 13
7.3540001 2.763 -0.59899998 106 89 63
7.3150001 2.8280001 -0.602 71 36 4
7.309 2.816 -0.57499999 38 18 9
7.349 2.8280001 -0.63800001 81 54 43
7.3429999 2.8269999 -0.63700002 139 86 46
7.3610001 2.8340001 -0.63200003 103 67 45
7.3410001 2.8039999 -0.64999998 56 15 0
7.3449998 2.8039999 -0.64600003 113 86 65
7.3010001 2.822 -0.63099998 25 7 7
7.3039999 2.8340001 -0.634 102 60 44
7.3699999 2.793 -0.64600003 108 96 96
7.3130002 2.75 -0.62800002 66 50 34
7.3460002 2.7679999 -0.62599999 77 33 6
7.3509998 2.7609999 -0.625 114 95 97
7.3439999 2.7639999 -0.62400001 90 47 15
7.3449998 2.747 -0.64499998 120 95 73
7.3509998 2.7550001 -0.65200001 28 15 9
7.3839998 2.7509999 -0.54100001 123 83 58
7.3769999 2.7420001 -0.54500002 231 174 93
7.3839998 2.8239999 -0.72899997 75 26 9
7.3829999 2.819 -0.72299999 61 38 30
7.3850002 2.7909999 -0.74000001 130 112 102
7.3639998 2.79 -0.75099999 88 61 44
7.3499999 2.789 -0.75199997 50 17 2
7.349 2.668 -0.80299997 123 113 101
7.3499999 2.671 -0.79799998 80 76 67
7.3839998 2.5780001 -0.83499998 44 30 21
7.3829999 2.638 -0.83200002 56 41 36
7.3670001 2.5940001 -0.83600003 141 102 59
7.3649998 2.595 -0.83700001 83 52 32
7.3779998 2.7620001 -0.62900001 54 37 30
7.3699999 2.766 -0.64600003 36 23 15
7.3850002 2.7850001 -0.69599998 141 121 114
7.4029999 2.789 -0.70499998 237 214 206
7.362 2.779 -0.70499998 69 50 36
7.3740001 2.7850001 -0.70899999 57 39 27
7.369 2.7850001 -0.69599998 100 69 51
7.3800001 2.79 -0.72899997 10 4 4
7.4130001 2.7939999 -0.713 111 92 78
7.415 2.7969999 -0.71799999 44 24 13
7.415 2.7939999 -0.70599997 69 62 36
7.4000001 2.786 -0.70999998 65 26 11
7.3540001 2.619 -0.83399999 45 34 32
7.323 2.677 -0.847 50 39 45
7.3850002 2.648 -0.82700002 155 122 69
7.3260002 2.7850001 -0.676 119 79 44
7.322 2.78 -0.67500001 149 106 74
7.323 2.7850001 -0.68000001 117 73 46
7.3150001 2.756 -0.69499999 27 2 0
7.3200002 2.76 -0.70200002 31 15 15
7.3509998 2.776 -0.69800001 96 70 57
7.3319998 2.766 -0.71200001 93 71 60
7.3610001 2.766 -0.66100001 101 73 59
7.3330002 2.7809999 -0.64399999 46 11 0
7.3449998 2.7780001 -0.634 136 105 84
7.3569999 2.7809999 -0.64099997 84 55 37
7.323 2.737 -0.64600003 73 47 30
7.395 2.8099999 -0.69 255 241 220
7.3720002 2.7780001 -0.65100002 47 28 22
7.3769999 2.799 -0.66600001 92 82 83
7.349 2.664 -0.80699998 53 43 33
7.3400002 2.675 -0.81400001 154 113 59
7.3369999 2.7920001 -0.75199997 54 31 15
7.3369999 2.7920001 -0.764 161 151 159
7.3410001 2.789 -0.74699998 49 33 20
7.3449998 2.7739999 -0.72600001 111 89 76
7.3439999 2.7750001 -0.72600001 113 90 76
7.3709998 2.793 -0.79500002 38 4 0
7.369 2.7939999 -0.792 154 125 111
7.3629999 2.7920001 -0.79100001 40 13 4
7.388 2.7939999 -0.81800002 14 0 0
7.388 2.789 -0.81 16 0 0
7.3860002 2.789 -0.81300002 122 96 69
7.29 2.8180001 -0.54299998 255 254 225
7.277 2.8280001 -0.54299998 198 98 23
7.2709999 2.8239999 -0.56099999 166 134 85
7.3969998 2.803 -0.79100001 35 25 23
7.3860002 2.8199999 -0.76499999 15 1 0
7.3930001 2.8310001 -0.78899997 33 15 11
7.3990002 2.8329999 -0.792 33 14 16
7.3889999 2.8039999 -0.77399999 221 194 175
7.3959999 2.8080001 -0.78200001 150 140 138
7.3909998 2.8080001 -0.77600002 65 34 16
7.3629999 2.777 -0.833 126 90 64
7.3429999 2.7309999 -0.83999997 250 255 241
7.3400002 2.727 -0.83899999 249 255 240
7.3590002 2.7880001 -0.84500003 144 143 151
7.369 2.8 -0.83999997 140 107 76
7.2969999 2.855 -0.59899998 190 125 67
7.3200002 2.7880001 -0.64499998 230 180 131
7.3790002 2.77 -0.55299997 128 96 45
7.3860002 2.7720001 -0.56099999 179 126 82
7.3790002 2.78 -0.56800002 237 170 99
7.3759999 2.7739999 -0.565 33 13 4
7.375 2.776 -0.588 44 19 15
7.3119998 2.813 -0.57099998 65 29 0
7.3060002 2.825 -0.55299997 212 168 139
7.4120002 2.7590001 -0.61000001 76 39 13
7.4050002 2.7590001 -0.60799998 254 207 139
7.4060001 2.756 -0.61000001 178 151 132
7.4050002 2.763 -0.61699998 162 123 94
7.3200002 2.7780001 -0.65700001 63 39 29
7.3080001 2.7690001 -0.64499998 104 69 37
7.3140001 2.7550001 -0.662 63 30 25
7.3179998 2.7869999 -0.69 41 19 8
7.3319998 2.8080001 -0.704 96 65 47
7.3319998 2.8099999 -0.70499998 47 29 29
7.3319998 2.799 -0.713 119 110 111
7.3280001 2.812 -0.69700003 86 33 1
7.223 2.8759999 -0.84899998 148 109 70
7.2189999 2.865 -0.84799999 149 106 61
7.3000002 2.8199999 -0.61000001 80 61 55
7.2989998 2.8139999 -0.61900002 82 46 22
7.3460002 2.753 -0.62400001 84 48 24
7.3410001 2.7620001 -0.62400001 86 40 16
7.336 2.7539999 -0.62300003 58 47 41
7.3379998 2.7479999 -0.62599999 113 64 32
7.3920002 2.8599999 -0.597 50 13 0
7.3909998 2.8570001 -0.61000001 62 33 17
7.3829999 2.8440001 -0.54799998 157 105 58
7.329 2.8180001 -0.71499997 68 22 9
7.3260002 2.823 -0.704 54 25 9
7.375 2.803 -0.685 55 31 19
7.3629999 2.823 -0.667 63 32 11
7.3499999 2.576 -0.84399998 176 138 102
7.3590002 2.5840001 -0.84200001 114 78 42
7.348 2.5869999 -0.84200001 129 84 61
7.3319998 2.576 -0.86199999 35 14 9
7.3299999 2.5680001 -0.86799997 23 4 0
7.402 2.5799999 -0.833 60 31 25
7.388 2.6040001 -0.847 48 20 6
7.414 2.595 -0.85100001 11 1 0
7.415 2.5469999 -0.85799998 25 13 13
7.4299998 2.5510001 -0.861 15 0 0
7.4260001 2.556 -0.85399997 14 0 0
7.4190001 2.5680001 -0.85100001 16 9 3
7.4450002 2.556 -0.85500002 42 27 22
7.4489999 2.572 -0.84200001 156 97 41
7.46 2.566 -0.82700002 45 15 4
7.4549999 2.546 -0.86299998 110 101 102
7.467 2.552 -0.83700001 21 2 0
7.448 2.559 -0.82200003 104 77 60
7.336 2.562 -0.85699999 23 11 0
7.3410001 2.572 -0.85000002 138 96 56
7.3390002 2.5539999 -0.861 26 9 0
7.3369999 2.5769999 -0.84500003 44 19 14
7.2930002 2.5079999 -0.89600003 173 142 124
7.2800002 2.5220001 -0.89300001 50 20 12
7.276 2.5239999 -0.89300001 78 49 41
7.2930002 2.5639999 -0.86400002 128 119 86
7.2940001 2.5669999 -0.86199999 89 50 9
7.2989998 2.562 -0.86400002 55 28 11
7.2950001 2.575 -0.85900003 103 61 36
7.2880001 2.5339999 -0.88 43 26 19
7.2989998 2.5309999 -0.88099998 42 28 25
7.2940001 2.517 -0.89399999 113 81 66
7.3109999 2.516 -0.88700002 20 5 0
7.3169999 2.5179999 -0.88700002 53 24 10
7.3309999 2.526 -0.88499999 34 21 15
7.3150001 2.497 -0.88599998 82 60 47
7.2909999 2.5280001 -0.89099997 37 22 17
7.302 2.5239999 -0.88099998 156 143 137
7.3559999 2.5450001 -0.87 16 0 0
7.3369999 2.543 -0.87400001 27 12 9
7.3309999 2.5469999 -0.87300003 29 14 9
7.3210001 2.5420001 -0.87800002 32 21 17
7.3260002 2.552 -0.87300003 33 18 13
7.3390002 2.5580001 -0.86900002 29 10 4
7.3099999 2.566 -0.87800002 44 26 24
7.3520002 2.563 -0.86699998 80 56 46
7.336 2.8239999 -0.79799998 57 36 33
7.3559999 2.7739999 -0.72399998 70 44 27
7.3210001 2.77 -0.70099998 132 127 133
7.3189998 2.7639999 -0.69499999 63 39 29
7.368 2.7820001 -0.824 24 6 6
7.3699999 2.7850001 -0.83200002 71 51 42
7.3899999 2.8110001 -0.82599998 77 52 45
7.3839998 2.7869999 -0.84100002 60 41 24
7.3390002 2.8399999 -0.81099999 82 55 44
7.3280001 2.8380001 -0.82300001 105 104 100
7.3260002 2.8329999 -0.82099998 161 143 131
7.3979998 2.8210001 -0.81300002 86 62 58
7.3000002 2.8269999 -0.82300001 101 56 35
7.3319998 2.813 -0.79400003 107 79 31
7.3410001 2.8139999 -0.78799999 80 46 34
7.3600001 2.79 -0.78600001 63 35 24
7.3610001 2.7909999 -0.78399998 29 12 5
7.2789998 2.7090001 -0.81900001 38 23 16
7.2459998 2.707 -0.80900002 246 252 242
7.184 2.753 -0.87300003 115 74 42
7.1830001 2.753 -0.87400001 68 32 6
7.1939998 2.7409999 -0.87199998 163 124 69
7.217 2.7780001 -0.875 121 89 64
7.3249998 2.79 -0.81400001 206 206 218
7.29 2.7750001 -0.82800001 146 121 99
7.2989998 2.7839999 -0.829 58 27 6
7.2950001 2.7880001 -0.82800001 58 24 0
7.2880001 2.7850001 -0.82800001 77 50 29
7.3039999 2.7780001 -0.829 60 29 11
7.3119998 2.7639999 -0.83600003 56 22 0
7.316 2.779 -0.84299999 69 40 22
7.3000002 2.7679999 -0.84899998 185 137 88
7.348 2.7939999 -0.84200001 70 52 50
7.3130002 2.7160001 -0.84299999 140 98 73
7.3400002 2.7130001 -0.83899999 107 77 66
7.158 2.714 -0.89099997 113 80 61
7.2690001 2.835 -0.85000002 141 129 131
7.2550001 2.8380001 -0.84600002 155 145 144
7.2080002 2.8210001 -0.86000001 86 54 29
7.2649999 2.8610001 -0.83600003 35 8 0
7.3340001 2.822 -0.73299998 33 12 7
7.3369999 2.8180001 -0.73799998 154 115 86
7.2740002 2.7980001 -0.852 189 152 126
7.184 2.7850001 -0.87199998 109 77 54
7.1950002 2.786 -0.86900002 98 60 15
7.1810002 2.78 -0.86699998 49 37 39
7.2059999 2.8150001 -0.847 142 125 118
7.2140002 2.809 -0.83999997 156 104 57
7.211 2.8399999 -0.83099997 102 60 36
7.3260002 2.7449999 -0.82999998 120 84 48
7.2220001 2.796 -0.83899999 107 104 111
7.2270002 2.7969999 -0.829 129 84 42
7.2280002 2.789 -0.82999998 124 85 42
7.2480001 2.8180001 -0.81999999 108 89 83
7.2579999 2.809 -0.81800002 201 145 86
7.3460002 2.855 -0.83600003 245 225 201
7.316 2.8 -0.81400001 65 41 17
7.3109999 2.8069999 -0.81699997 47 10 1
7.3049998 2.803 -0.81400001 50 24 1
7.3410001 2.8039999 -0.73699999 161 107 73
7.2140002 2.5680001 -0.87800002 168 149 135
7.224 2.5810001 -0.86400002 118 118 120
7.184 2.6070001 -0.87900001 151 118 73
7.1789999 2.6689999 -0.87800002 63 36 17
7.21 2.6210001 -0.87900001 69 47 34
7.2140002 2.589 -0.87900001 102 57 28
7.2030001 2.596 -0.889 200 177 161
7.223 2.6059999 -0.88 48 28 17
7.2290001 2.6159999 -0.875 53 33 24
7.2119999 2.608 -0.88499999 43 21 8
7.3280001 2.8299999 -0.66399997 99 66 47
7.3210001 2.8329999 -0.64399999 27 12 9
7.329 2.826 -0.69400001 75 40 12
7.3280001 2.8239999 -0.69599998 44 15 0
7.3299999 2.825 -0.713 51 21 11
7.3200002 2.7809999 -0.67900002 125 84 54
7.3460002 2.8099999 -0.75400001 96 64 49
7.3649998 2.832 -0.759 135 85 50
7.3369999 2.8210001 -0.73799998 24 9 6
7.3629999 2.7939999 -0.778 49 19 8
7.3730001 2.7969999 -0.76099998 63 37 22
7.3499999 2.839 -0.71899998 66 48 36
7.3699999 2.832 -0.71899998 137 106 88
7.3969998 2.7650001 -0.60399997 75 34 14
7.388 2.773 -0.62099999 218 192 177
7.3600001 2.8299999 -0.70300001 39 12 1
7.3340001 2.809 -0.72399998 83 62 59
7.395 2.8139999 -0.708 64 25 8
7.395 2.8150001 -0.713 56 23 4
7.3779998 2.8169999 -0.71100003 127 121 123
7.395 2.802 -0.72299999 34 17 7
7.3720002 2.8269999 -0.71100003 11 2 3
7.4130001 2.7969999 -0.722 36 21 16
7.421 2.8010001 -0.72500002 34 23 21
7.4070001 2.796 -0.72100002 36 24 26
7.3559999 2.835 -0.75800002 71 24 14
7.355 2.8180001 -0.77100003 84 76 74
7.3499999 2.809 -0.764 106 100 102
7.3499999 2.8299999 -0.78100002 122 94 31
7.362 2.8510001 -0.82499999 108 76 38
7.2529998 2.53 -0.89600003 188 168 161
7.2220001 2.5569999 -0.89499998 47 29 19
7.3109999 2.823 -0.83899999 236 215 210
7.3109999 2.75 -0.85799998 137 114 98
7.3410001 2.7119999 -0.833 111 81 73
7.355 2.7090001 -0.82599998 66 35 7
7.3829999 2.6159999 -0.847 102 69 54
7.3779998 2.5769999 -0.85699999 104 78 63
7.3239999 2.5799999 -0.86799997 42 25 18
7.3189998 2.5840001 -0.866 103 92 90
7.3639998 2.5940001 -0.85000002 40 10 0
7.3600001 2.5929999 -0.85000002 84 55 47
7.3590002 2.7260001 -0.81699997 63 40 26
7.355 2.7219999 -0.81999999 85 55 45
7.3400002 2.72 -0.81999999 131 125 127
7.3390002 2.677 -0.81199998 154 115 72
7.3499999 2.661 -0.84200001 57 39 29
7.4559999 2.6270001 -0.82499999 114 69 38
7.223 2.645 -0.85799998 176 127 68
7.2069998 2.645 -0.87099999 60 50 49
7.1890001 2.6570001 -0.86400002 72 43 25
7.184 2.658 -0.86400002 80 49 21
7.1680002 2.6589999 -0.86199999 78 43 13
7.1719999 2.6589999 -0.86500001 78 34 5
7.2740002 2.8069999 -0.56599998 83 48 29
7.2810001 2.799 -0.56199998 228 176 137
7.395 2.5280001 -0.84600002 16 3 0
7.3520002 2.421 -0.85900003 222 210 188
7.342 2.4170001 -0.86299998 243 244 248
7.3280001 2.737 -0.63200003 45 10 0
7.309 2.7490001 -0.653 75 33 9
7.3119998 2.747 -0.65399998 68 40 19
7.303 2.747 -0.64700001 96 67 51
7.3200002 2.5910001 -0.84899998 105 72 37
7.316 2.595 -0.85100001 122 73 30
7.3150001 2.599 -0.85000002 130 108 95
7.3470001 2.6070001 -0.85299999 142 109 76
7.3449998 2.6040001 -0.852 207 160 114
7.3080001 2.6630001 -0.85000002 31 12 0
7.3369999 2.6429999 -0.81800002 61 29 14
7.362 2.8239999 -0.64600003 101 47 9
7.362 2.8280001 -0.65399998 40 10 0
7.3899999 2.7590001 -0.63499999 27 14 8
7.3979998 2.7609999 -0.60500002 130 82 46
7.395 2.7490001 -0.58899999 68 45 39
7.3839998 2.7409999 -0.58399999 79 40 11
7.3270001 2.7650001 -0.62400001 98 48 13
7.3299999 2.763 -0.62400001 128 69 29
7.3860002 2.55 -0.83700001 49 19 11
7.3839998 2.563 -0.83499998 143 120 112
7.2379999 2.7179999 -0.82999998 141 94 78
7.2360001 2.7190001 -0.83700001 149 112 68
7.2399998 2.7119999 -0.81800002 173 132 104
7.1539998 2.717 -0.87900001 136 97 40
7.177 2.6689999 -0.86199999 114 85 67
7.2309999 2.6470001 -0.85900003 39 25 14
7.2309999 2.677 -0.86299998 62 44 40
7.2639999 2.6199999 -0.86799997 41 22 16
7.2090001 2.724 -0.861 124 88 40
7.2179999 2.707 -0.84100002 236 188 142
7.2090001 2.724 -0.847 96 68 56
7.2140002 2.677 -0.85500002 114 80 53
7.224 2.737 -0.87300003 12 2 1
7.2579999 2.7550001 -0.86500001 46 16 6
7.2649999 2.7420001 -0.86199999 62 40 29
7.2449999 2.743 -0.847 59 36 22
7.2490001 2.73 -0.84299999 84 61 47
7.2420001 2.7149999 -0.82200003 197 142 85
7.2600002 2.7190001 -0.824 240 192 143
7.256 2.7219999 -0.82700002 141 112 94
7.158 2.7579999 -0.88200003 28 16 16
7.1719999 2.7290001 -0.884 20 9 5
7.1830001 2.779 -0.88800001 122 93 77
7.2280002 2.5999999 -0.87199998 150 103 73
7.2290001 2.595 -0.87099999 160 115 60
7.224 2.6570001 -0.87099999 65 37 23
7.217 2.6340001 -0.875 144 135 136
7.224 2.645 -0.87300003 154 144 143
7.3039999 2.5969999 -0.85299999 154 136 134
7.302 2.6070001 -0.84799999 44 27 19
7.2399998 2.5409999 -0.89200002 205 170 151
7.2270002 2.5669999 -0.89099997 138 136 139
7.2399998 2.559 -0.88499999 56 34 21
7.243 2.556 -0.87400001 103 76 55
7.2090001 2.5780001 -0.89499998 54 32 21
7.2880001 2.5999999 -0.85799998 50 36 33
7.2779999 2.592 -0.875 54 30 20
7.29 2.5969999 -0.87 94 74 67
7.29 2.5840001 -0.87599999 68 42 29
7.2880001 2.586 -0.87400001 186 177 178
7.3130002 2.5209999 -0.88800001 40 11 0
7.316 2.5469999 -0.87699997 32 21 17
7.309 2.5369999 -0.88200003 79 64 59
7.302 2.529 -0.88800001 103 71 58
7.3239999 2.5810001 -0.85299999 54 27 10
7.3179998 2.5910001 -0.861 33 18 11
7.316 2.569 -0.85699999 127 84 41
7.3119998 2.5769999 -0.85600001 98 66 25
7.2820001 2.608 -0.861 145 140 136
7.29 2.608 -0.85799998 35 19 19
7.289 2.6159999 -0.85699999 128 85 34
7.2930002 2.609 -0.85699999 192 149 96
7.256 2.5810001 -0.86799997 210 180 130
7.2589998 2.589 -0.87800002 52 30 19
7.243 2.5810001 -0.88099998 48 24 14
7.25 2.5780001 -0.88200003 131 107 97
7.2740002 2.602 -0.86500001 70 55 48
7.2529998 2.6070001 -0.86699998 170 124 74
7.2470002 2.6110001 -0.87099999 38 19 12
7.25 2.6140001 -0.87 152 147 151
7.2420001 2.6110001 -0.86799997 164 158 158
7.243 2.6029999 -0.87099999 163 162 168
7.2399998 2.608 -0.87 152 116 66
7.2519999 2.6159999 -0.86799997 166 116 63
7.2220001 2.592 -0.88499999 81 59 46
7.2389998 2.5940001 -0.86900002 116 82 34
7.2329998 2.5880001 -0.87099999 160 117 62
7.2410002 2.589 -0.87300003 169 168 174
7.2379999 2.5699999 -0.87099999 161 102 36
7.243 2.5680001 -0.87099999 124 81 38
7.244 2.5510001 -0.889 153 147 151
7.2659998 2.5669999 -0.86900002 163 130 85
7.2690001 2.5539999 -0.87400001 111 75 25
7.2600002 2.562 -0.87 170 157 122
7.2509999 2.5710001 -0.88200003 106 83 69
7.2600002 2.562 -0.87800002 118 90 69
7.256 2.529 -0.88200003 49 31 21
7.257 2.5309999 -0.87900001 139 134 130
7.2270002 2.5450001 -0.89499998 92 75 68
7.277 2.517 -0.89600003 96 66 58
7.3850002 2.5339999 -0.847 81 74 55
7.3740001 2.5020001 -0.87099999 103 89 89
7.369 2.5450001 -0.838 57 35 14
7.3629999 2.5380001 -0.861 230 199 145
7.3639998 2.543 -0.861 71 42 8
7.3540001 2.5409999 -0.86299998 222 191 134
7.3649998 2.573 -0.86199999 72 49 18
7.3660002 2.566 -0.86400002 30 21 24
7.349 2.507 -0.87599999 108 93 96
7.3340001 2.4960001 -0.86500001 54 37 29
7.316 2.471 -0.88 108 84 72
7.2600002 2.7309999 -0.83200002 94 61 18
7.1859999 2.7950001 -0.87699997 53 26 15
7.1939998 2.7780001 -0.88099998 53 21 8
7.1849999 2.779 -0.88499999 25 14 20
7.2199998 2.7539999 -0.85299999 123 49 4
7.23 2.7839999 -0.83399999 161 100 56
7.2340002 2.7650001 -0.84399998 131 75 28
7.2490001 2.862 -0.88099998 34 23 21
7.2470002 2.8369999 -0.87699997 49 25 15
7.2459998 2.799 -0.87400001 66 42 30
7.25 2.8080001 -0.86900002 70 43 32
7.2459998 2.8139999 -0.87099999 161 150 154
7.2519999 2.7980001 -0.87800002 70 50 41
7.243 2.8239999 -0.87900001 23 8 5
7.2719998 2.668 -0.86000001 96 72 60
7.257 2.6570001 -0.85000002 154 115 58
7.2989998 2.6819999 -0.81999999 115 80 26
7.2550001 2.6589999 -0.86299998 65 39 26
7.3179998 2.7420001 -0.847 80 45 26
7.3270001 2.7390001 -0.84299999 79 58 39
7.3150001 2.7320001 -0.84299999 135 111 83
7.3109999 2.6630001 -0.81999999 168 144 120
7.309 2.711 -0.82200003 107 77 67
7.316 2.72 -0.82300001 253 218 164
7.3299999 2.7609999 -0.83999997 75 42 23
7.1659999 2.6830001 -0.86699998 110 73 28
7.2789998 2.77 -0.86400002 49 16 0
7.2490001 2.7850001 -0.86699998 163 149 149
7.2529998 2.776 -0.86699998 131 117 117
7.2579999 2.789 -0.86199999 65 36 18
7.2659998 2.77 -0.86199999 47 30 23
7.2709999 2.786 -0.85900003 52 21 3
7.2480001 2.7809999 -0.87 112 70 30
7.3449998 2.51 -0.88099998 78 56 35
7.3509998 2.5150001 -0.87599999 143 132 138
7.3730001 2.4690001 -0.86500001 209 185 139
7.3299999 2.4679999 -0.87599999 40 25 22
7.322 2.4809999 -0.87199998 56 33 19
7.3979998 2.724 -0.56900001 140 96 61
7.3779998 2.7279999 -0.56400001 139 98 70
7.3779998 2.7309999 -0.57300001 71 52 48
7.381 2.734 -0.57800001 85 42 8
7.3070002 2.5339999 -0.875 27 13 10
7.2950001 2.5020001 -0.89499998 149 120 102
7.3969998 2.543 -0.86900002 102 90 92
7.4120002 2.53 -0.87199998 38 27 23
7.3959999 2.5179999 -0.87199998 143 111 73
7.3109999 2.773 -0.62900001 136 85 40
7.3080001 2.832 -0.59299999 122 81 49
7.3629999 2.823 -0.62900001 48 29 14
7.388 2.7739999 -0.60100001 116 82 54
7.3730001 2.829 -0.62800002 52 34 22
7.368 2.7909999 -0.574 124 62 15
7.3720002 2.7869999 -0.57200003 193 148 93
7.3699999 2.783 -0.56999999 224 187 132
7.3720002 2.78 -0.56800002 71 31 5
7.342 2.779 -0.579 87 61 34
7.3600001 2.7839999 -0.57200003 88 52 26
7.3590002 2.78 -0.574 255 214 146
7.3629999 2.7869999 -0.57300001 194 125 70
7.362 2.78 -0.59299999 47 23 19
7.3709998 2.796 -0.58099997 109 54 15
7.3470001 2.8039999 -0.63300002 43 20 2
7.349 2.8110001 -0.63099998 58 32 17
7.3509998 2.8180001 -0.62900001 85 68 52
7.3579998 2.7709999 -0.59500003 53 19 9
7.3660002 2.7650001 -0.60799998 93 53 27
7.316 2.839 -0.60299999 123 93 67
7.3150001 2.8199999 -0.57700002 96 61 39
7.302 2.8080001 -0.574 43 10 0
7.3080001 2.7539999 -0.63300002 103 42 13
7.3790002 2.777 -0.61199999 124 105 99
7.3769999 2.773 -0.611 119 91 77
7.3759999 2.773 -0.63 141 113 99
7.3759999 2.77 -0.61400002 75 44 24
7.3449998 2.743 -0.64099997 74 60 47
7.336 2.7379999 -0.63599998 51 14 0
7.3779998 2.803 -0.77899998 40 18 7
7.3649998 2.7939999 -0.787 51 21 11
7.3800001 2.5869999 -0.83499998 230 192 145
7.3649998 2.631 -0.82800001 72 39 30
7.3660002 2.7739999 -0.63099998 92 65 46
7.355 2.7679999 -0.63499999 172 123 90
7.3779998 2.7620001 -0.61699998 117 89 68
7.3779998 2.77 -0.61900002 125 94 74
7.3730001 2.7639999 -0.64099997 35 21 18
7.362 2.773 -0.66900003 34 6 3
7.3559999 2.7750001 -0.67000002 63 30 13
7.3449998 2.7739999 -0.68099999 106 60 34
7.3540001 2.7780001 -0.68199998 142 107 88
7.3660002 2.783 -0.69 27 10 3
7.3530002 2.78 -0.68900001 139 104 85
7.375 2.7820001 -0.73500001 48 29 15
7.3779998 2.79 -0.722 129 101 80
7.4060001 2.79 -0.70999998 48 24 14
7.408 2.7950001 -0.71600002 37 14 0
7.362 2.6340001 -0.82599998 42 20 9
7.3309999 2.668 -0.84399998 182 171 169
7.3470001 2.651 -0.84799999 95 80 73
7.322 2.7820001 -0.67799997 112 67 34
7.3249998 2.7550001 -0.66100001 37 23 14
7.3210001 2.7609999 -0.70599997 35 17 15
7.3309999 2.7679999 -0.704 51 27 17
7.316 2.76 -0.699 51 25 10
7.369 2.767 -0.64700001 46 33 17
7.349 2.777 -0.67799997 24 13 9
7.3210001 2.7609999 -0.69499999 22 7 4
7.3340001 2.767 -0.68800002 77 49 28
7.3239999 2.7650001 -0.69099998 43 25 23
7.3369999 2.7639999 -0.68199998 59 27 2
7.3639998 2.783 -0.639 193 149 114
7.3639998 2.7909999 -0.64399999 123 67 30
7.3559999 2.7850001 -0.66000003 54 23 2
7.3569999 2.803 -0.65200001 80 62 58
7.3460002 2.77 -0.66900003 26 15 11
7.3449998 2.7679999 -0.66900003 75 39 13
7.348 2.6600001 -0.81099999 37 28 21
7.388 2.7920001 -0.81400001 25 8 1
7.3839998 2.7909999 -0.80599999 23 4 0
7.2940001 2.8239999 -0.56300002 61 33 22
7.302 2.8299999 -0.546 156 115 71
7.2789998 2.8269999 -0.542 46 10 0
7.2719998 2.826 -0.55699998 219 142 74
7.3759999 2.826 -0.77100003 84 61 55
7.3709998 2.826 -0.76700002 68 45 29
7.3899999 2.8099999 -0.773 34 23 21
7.3969998 2.8080001 -0.78299999 53 42 38
7.3940001 2.8110001 -0.778 48 34 33
7.3000002 2.8499999 -0.59399998 229 174 91
7.3150001 2.779 -0.63999999 223 172 117
7.3200002 2.7850001 -0.64499998 175 122 72
7.3909998 2.77 -0.56999999 128 100 79
7.3720002 2.7780001 -0.56699997 200 148 75
7.3800001 2.7839999 -0.56999999 204 139 71
7.3610001 2.7609999 -0.59899998 148 120 99
7.3670001 2.753 -0.58999997 29 17 17
7.3499999 2.783 -0.59100002 42 21 18
7.3369999 2.7609999 -0.625 73 25 3
7.3169999 2.75 -0.62599999 71 36 14
7.3119998 2.819 -0.55000001 48 27 22
7.3189998 2.822 -0.55699998 173 133 81
7.4029999 2.7479999 -0.61199999 124 103 84
7.3070002 2.7679999 -0.63800001 50 14 0
7.3249998 2.7939999 -0.69400001 48 15 8
7.2989998 2.8139999 -0.61900002 82 46 22
7.3520002 2.7539999 -0.62900001 255 207 166
7.349 2.7490001 -0.625 126 110 113
7.3130002 2.747 -0.65499997 77 42 10
7.329 2.842 -0.68699998 23 8 5
7.3600001 2.8399999 -0.685 170 151 118
7.3410001 2.839 -0.70999998 86 66 55
7.3390002 2.836 -0.70899999 113 64 34
7.329 2.8340001 -0.69599998 132 98 71
7.329 2.813 -0.66900003 34 23 21
7.3270001 2.816 -0.66600001 54 37 30
7.3509998 2.5810001 -0.84399998 58 23 0
7.3449998 2.576 -0.84399998 71 38 7
7.3629999 2.5880001 -0.83899999 152 116 90
7.3969998 2.585 -0.83700001 50 32 30
7.4330001 2.527 -0.85600001 60 43 36
7.4039998 2.5610001 -0.85900003 102 85 78
7.4200001 2.563 -0.852 22 11 5
7.4239998 2.5610001 -0.852 22 13 6
7.4330001 2.556 -0.85699999 23 7 7
7.4159999 2.5710001 -0.85500002 20 7 1
7.4520001 2.5610001 -0.82300001 52 26 9
7.2880001 2.5769999 -0.861 122 105 98
7.2909999 2.573 -0.861 53 33 24
7.2919998 2.5539999 -0.86799997 96 67 49
7.2800002 2.5510001 -0.87300003 44 22 9
7.296 2.536 -0.87699997 133 106 85
7.2969999 2.5439999 -0.87199998 116 88 66
7.29 2.539 -0.87699997 84 59 39
7.3140001 2.5050001 -0.88200003 34 14 3
7.296 2.523 -0.89200002 49 31 27
7.289 2.527 -0.89099997 87 57 46
7.3260002 2.5309999 -0.88200003 146 120 105
7.3319998 2.5320001 -0.87800002 66 40 27
7.3600001 2.5220001 -0.86699998 57 39 29
7.3400002 2.562 -0.866 36 12 8
7.3520002 2.5439999 -0.86299998 255 230 191
7.3569999 2.5450001 -0.86400002 86 51 11
7.3439999 2.783 -0.78100002 72 37 7
7.3759999 2.813 -0.76200002 27 13 12
7.3239999 2.776 -0.69700003 136 129 136
7.329 2.7679999 -0.70099998 30 17 11
7.3260002 2.7880001 -0.70700002 15 1 1
7.329 2.7880001 -0.713 12 0 2
7.3309999 2.7820001 -0.82599998 58 29 11
7.3860002 2.789 -0.83700001 90 73 55
7.3860002 2.802 -0.829 46 24 13
7.355 2.7820001 -0.81999999 53 20 1
7.3610001 2.786 -0.81599998 31 1 0
7.3340001 2.836 -0.81099999 155 118 89
7.3569999 2.836 -0.81099999 245 233 193
7.388 2.8329999 -0.79400003 54 35 29
7.3969998 2.822 -0.80599999 137 116 113
7.3969998 2.803 -0.79900002 74 47 38
7.2779999 2.8329999 -0.829 59 20 0
7.348 2.813 -0.78200001 45 27 23
7.3460002 2.8050001 -0.77200001 230 163 108
7.3400002 2.789 -0.81800002 89 61 40
7.211 2.7379999 -0.866 106 64 22
7.2140002 2.744 -0.86400002 48 21 12
7.211 2.757 -0.86199999 146 75 33
7.21 2.757 -0.87099999 15 5 6
7.2119999 2.744 -0.85500002 109 61 15
7.2719998 2.756 -0.86000001 85 47 10
7.3299999 2.779 -0.83899999 99 73 58
7.342 2.8150001 -0.84299999 161 151 152
7.3260002 2.7190001 -0.83600003 124 94 83
7.1739998 2.723 -0.88800001 73 42 24
7.283 2.7939999 -0.85900003 70 36 0
7.2839999 2.8199999 -0.84200001 74 39 17
7.2820001 2.819 -0.84100002 130 94 70
7.2849998 2.812 -0.83999997 137 131 133
7.29 2.8050001 -0.84200001 145 144 150
7.2709999 2.809 -0.82099998 120 89 71
7.2719998 2.7980001 -0.82200003 75 59 46
7.2880001 2.7939999 -0.81999999 194 144 95
7.2989998 2.806 -0.82200003 55 19 5
7.256 2.7950001 -0.81800002 117 86 68
7.256 2.7880001 -0.82300001 141 88 54
7.277 2.8199999 -0.84100002 134 133 141
7.277 2.823 -0.84100002 136 136 146
7.2529998 2.8180001 -0.85000002 132 94 75
7.2690001 2.7909999 -0.82300001 107 88 73
7.2649999 2.783 -0.82700002 61 24 5
7.2160001 2.819 -0.83399999 137 120 113
7.2090001 2.8269999 -0.847 132 85 43
7.2690001 2.823 -0.82800001 62 28 0
7.2859998 2.783 -0.829 85 55 31
7.25 2.763 -0.84500003 66 31 11
7.3330002 2.7609999 -0.83099997 77 53 51
7.23 2.789 -0.81900001 130 101 83
7.2410002 2.825 -0.82499999 56 32 22
7.2350001 2.8299999 -0.82800001 47 23 13
7.2290001 2.7969999 -0.81999999 183 139 112
7.3280001 2.835 -0.81800002 67 32 2
7.3239999 2.8139999 -0.80699998 104 69 49
7.3249998 2.822 -0.815 145 98 54
7.3410001 2.802 -0.73900002 66 20 4
7.2150002 2.835 -0.85399997 174 125 84
7.2150002 2.5650001 -0.87900001 142 137 143
7.204 2.618 -0.87199998 73 46 19
7.198 2.6140001 -0.87599999 161 112 46
7.2049999 2.6029999 -0.87900001 85 56 38
7.2119999 2.6129999 -0.87300003 62 34 13
7.1830001 2.6210001 -0.88200003 153 144 147
7.1950002 2.6300001 -0.87199998 141 112 82
7.1890001 2.635 -0.87099999 111 79 54
7.2270002 2.622 -0.875 76 54 43
7.3260002 2.813 -0.66000003 39 24 21
7.329 2.819 -0.70599997 30 16 13
7.3299999 2.8169999 -0.704 70 24 9
7.3140001 2.76 -0.69300002 59 32 21
7.3200002 2.7709999 -0.68800002 27 13 10
7.3200002 2.7650001 -0.68199998 62 47 42
7.316 2.7639999 -0.671 31 6 0
7.3590002 2.8440001 -0.68400002 234 215 182
7.3340001 2.799 -0.75 91 84 91
7.3460002 2.8050001 -0.77999997 146 109 82
7.3990002 2.8139999 -0.70599997 60 31 23
7.3460002 2.842 -0.71700001 150 135 130
7.3439999 2.8380001 -0.71799999 209 175 150
7.3759999 2.835 -0.72100002 121 112 115
7.4120002 2.796 -0.71799999 46 28 16
7.4229999 2.802 -0.72100002 44 31 25
7.3520002 2.8239999 -0.77600002 252 205 125
7.348 2.8069999 -0.76499999 70 13 0
7.3520002 2.8139999 -0.77399999 134 96 73
7.355 2.8150001 -0.76599997 76 32 3
7.3439999 2.825 -0.78299999 253 234 165
7.3540001 2.8329999 -0.78100002 244 223 158
7.355 2.8310001 -0.778 255 224 169
7.3509998 2.8280001 -0.778 241 215 140
7.329 2.813 -0.84899998 88 68 67
7.3309999 2.8369999 -0.83999997 23 9 8
7.2989998 2.8199999 -0.83700001 43 26 18
7.3119998 2.7249999 -0.82700002 139 94 53
7.3629999 2.7019999 -0.83099997 146 77 36
7.3559999 2.701 -0.82499999 80 54 37
7.3720002 2.5769999 -0.85799998 201 167 140
7.3639998 2.5899999 -0.85100001 128 92 58
7.3429999 2.71 -0.81400001 29 11 1
7.355 2.6830001 -0.824 68 40 18
7.3520002 2.681 -0.81599998 95 61 34
7.211 2.652 -0.86799997 36 22 19
7.1789999 2.648 -0.86799997 157 105 48
7.3060002 2.7509999 -0.64999998 61 18 0
7.2880001 2.6110001 -0.86500001 13 0 0
7.3590002 2.592 -0.84100002 116 89 70
7.323 2.6040001 -0.85699999 11 0 4
7.3280001 2.642 -0.81999999 83 61 50
7.3099999 2.6199999 -0.86000001 12 3 4
7.3070002 2.6300001 -0.85799998 110 95 54
7.302 2.6199999 -0.86199999 14 4 2
7.3400002 2.6800001 -0.80900002 169 162 170
7.3909998 2.7590001 -0.579 79 59 52
7.4029999 2.76 -0.60699999 238 189 130
7.3930001 2.7490001 -0.60900003 100 70 46
7.4000001 2.756 -0.60900003 169 143 120
7.3330002 2.77 -0.62599999 99 46 15
7.3330002 2.7579999 -0.62400001 70 25 0
7.2379999 2.6470001 -0.85699999 75 44 15
7.2399998 2.6559999 -0.85699999 75 44 16
7.237 2.6500001 -0.85799998 114 81 66
7.2350001 2.6440001 -0.85900003 172 132 81
7.223 2.651 -0.85900003 135 95 44
7.2490001 2.641 -0.86799997 77 51 38
7.2030001 2.6919999 -0.85299999 115 71 26
7.1989999 2.7049999 -0.85799998 147 128 121
7.2119999 2.6930001 -0.847 79 33 0
7.2470002 2.6619999 -0.86199999 147 87 51
7.2329998 2.7379999 -0.87400001 159 134 112
7.257 2.756 -0.85000002 66 36 25
7.256 2.7709999 -0.86799997 144 109 87
7.2459998 2.7179999 -0.82599998 120 74 15
7.158 2.763 -0.88300002 104 59 17
7.1820002 2.7720001 -0.87 140 99 55
7.2319999 2.6040001 -0.875 47 29 19
7.2329998 2.6199999 -0.866 99 78 61
7.224 2.618 -0.86799997 57 30 9
7.2940001 2.635 -0.833 101 64 37
7.3010001 2.635 -0.83200002 178 141 114
7.3249998 2.6229999 -0.852 24 9 6
7.2340002 2.5439999 -0.89099997 144 134 135
7.243 2.539 -0.89700001 16 2 1
7.2389998 2.552 -0.884 133 131 136
7.25 2.5510001 -0.875 110 109 115
7.2389998 2.562 -0.87400001 145 120 100
7.2940001 2.6010001 -0.85600001 170 127 74
7.2849998 2.5810001 -0.87699997 159 153 155
7.2940001 2.579 -0.87599999 95 69 54
7.296 2.5869999 -0.87099999 75 55 44
7.289 2.563 -0.88099998 44 24 13
7.296 2.5580001 -0.88099998 37 17 10
7.302 2.5469999 -0.88099998 20 2 0
7.2940001 2.55 -0.88 44 25 19
7.3140001 2.572 -0.87300003 117 90 73
7.3010001 2.569 -0.87699997 51 31 24
7.3179998 2.5280001 -0.88499999 53 24 10
7.3210001 2.533 -0.88099998 152 124 112
7.3150001 2.5320001 -0.88200003 36 21 16
7.3189998 2.572 -0.85699999 132 99 58
7.3099999 2.575 -0.85699999 81 37 0
7.3309999 2.5580001 -0.86000001 196 162 116
7.256 2.596 -0.86500001 223 168 103
7.2490001 2.5880001 -0.87599999 105 72 39
7.244 2.586 -0.87699997 163 164 169
7.2540002 2.5829999 -0.87 159 136 122
7.2649999 2.5940001 -0.87300003 81 50 32
7.2600002 2.6259999 -0.86699998 135 96 67
7.2340002 2.5840001 -0.88 67 45 34
