ply
format ascii 1.0
comment PCL generated
element vertex 998
property float x
property float y
property float z
property uchar red
property uchar green
property uchar blue
element camera 1
property float view_px
property float view_py
property float view_pz
property float x_axisx
property float x_axisy
property float x_axisz
property float y_axisx
property float y_axisy
property float y_axisz
property float z_axisx
property float z_axisy
property float z_axisz
property float focal
property float scalex
property float scaley
property float centerx
property float centery
property int viewportx
property int viewporty
property float k1
property float k2
end_header
-1.395 7.7160001 -0.74900001 101 50 21
-1.396 7.7160001 -0.75199997 164 98 48
-1.404 7.7199998 -0.74900001 171 143 140
-1.402 7.7020001 -0.74800003 91 55 21
-1.4349999 7.7189999 -1.046 152 101 44
-1.437 7.7220001 -1.046 182 146 122
-1.437 7.724 -1.028 120 87 46
-1.39 7.6960001 -0.75599998 72 32 6
-1.441 7.652 -1 138 127 123
-1.432 7.664 -0.98799998 198 177 172
-1.431 7.6609998 -1.0039999 185 149 133
-1.383 7.723 -0.77999997 255 185 128
-1.3839999 7.7189999 -0.778 180 130 79
-1.377 7.723 -0.77499998 138 99 68
-1.402 7.7020001 -0.76200002 132 52 3
-1.387 7.7020001 -0.764 90 53 34
-1.38 7.6950002 -0.75599998 73 32 12
-1.39 7.698 -0.78200001 155 115 79
-1.395 7.6999998 -0.76499999 180 119 56
-1.395 7.6960001 -0.77100003 156 64 25
-1.399 7.6659999 -0.75 128 100 88
-1.4 7.665 -0.74900001 158 112 76
-1.403 7.6760001 -0.74800003 170 124 62
-1.3940001 7.6869998 -0.75099999 115 85 61
-1.4400001 7.723 -1.0369999 155 118 99
-1.449 7.7140002 -1.05 62 28 1
-1.46 7.7119999 -1.051 180 160 149
-1.451 7.698 -1.0599999 74 33 11
-1.455 7.717 -1.046 248 205 160
-1.434 7.7140002 -1.046 234 191 99
-1.459 7.7249999 -0.99400002 60 31 25
-1.464 7.7259998 -0.98900002 101 57 28
-1.479 7.7270002 -1.007 91 43 7
-1.443 7.7220001 -1.01 204 169 149
-1.449 7.723 -1.0140001 249 208 152
-1.446 7.7220001 -1.01 254 203 138
-1.461 7.6539998 -0.81199998 119 94 64
-1.465 7.6539998 -0.81800002 146 112 84
-1.484 7.6479998 -0.80599999 100 48 8
-1.3839999 7.6919999 -0.773 102 63 30
-1.392 7.6700001 -0.75300002 150 103 57
-1.387 7.6799998 -0.755 255 203 65
-1.441 7.6599998 -0.96700001 156 123 104
-1.426 7.6690001 -0.97299999 170 149 132
-1.424 7.6700001 -0.96799999 179 147 126
-1.527 7.6810002 -0.82300001 163 87 1
-1.525 7.6919999 -0.83200002 115 65 30
-1.5319999 7.6820002 -0.82200003 91 57 30
-1.5089999 7.6739998 -0.83600003 52 26 0
-1.397 7.7020001 -0.764 151 59 0
-1.411 7.7010002 -0.755 165 93 43
-1.4170001 7.7030001 -0.755 88 48 13
-1.418 7.704 -0.76599997 166 86 25
-1.411 7.6700001 -0.75599998 216 162 118
-1.418 7.664 -0.75700003 155 109 31
-1.408 7.6760001 -0.74900001 254 216 135
-1.42 7.6760001 -0.75300002 143 98 59
-1.402 7.664 -0.75300002 240 209 180
-1.411 7.6820002 -0.74800003 121 71 12
-1.421 7.6929998 -0.75199997 126 86 35
-1.426 7.678 -0.75700003 101 74 45
-1.45 7.7189999 -1.0420001 75 27 0
-1.454 7.7030001 -1.056 185 172 164
-1.465 7.6830001 -1.058 113 66 38
-1.434 7.7049999 -1.033 140 144 155
-1.438 7.7129998 -1.0369999 118 76 38
-1.436 7.7150002 -1.046 255 218 128
-1.438 7.7119999 -1.046 189 154 126
-1.462 7.7119999 -1.045 248 202 168
-1.466 7.7249999 -0.99800003 104 47 4
-1.433 7.6750002 -0.99599999 52 28 18
-1.447 7.7210002 -1.008 177 120 67
-1.437 7.7140002 -1.026 127 126 132
-1.429 7.6799998 -0.89999998 138 86 47
-1.4299999 7.6869998 -0.88 182 117 75
-1.442 7.6750002 -0.88300002 122 95 68
-1.436 7.6690001 -0.90200001 81 49 26
-1.418 7.6950002 -0.84799999 86 33 2
-1.416 7.6859999 -0.84200001 189 116 63
-1.416 7.6999998 -0.84500003 207 136 80
-1.436 7.6820002 -0.89700001 201 139 92
-1.388 7.6729999 -0.76300001 249 159 39
-1.39 7.6760001 -0.75599998 254 203 88
-1.533 7.6939998 -0.82700002 215 164 121
-1.529 7.684 -0.82099998 196 149 107
-1.521 7.7020001 -0.815 231 191 142
-1.525 7.7049999 -0.81999999 98 71 44
-1.529 7.704 -0.83200002 69 41 20
-1.536 7.7059999 -0.84100002 59 26 7
-1.524 7.7140002 -0.83099997 134 78 45
-1.53 7.698 -0.83499998 225 176 133
-1.525 7.6960001 -0.83700001 117 72 41
-1.528 7.6989999 -0.838 85 51 26
-1.503 7.724 -0.81300002 248 195 127
-1.495 7.7129998 -0.81300002 213 143 84
-1.5089999 7.7140002 -0.81 122 72 19
-1.451 7.645 -0.93699998 166 117 87
-1.4630001 7.6440001 -0.93300003 117 52 10
-1.449 7.6269999 -0.93699998 238 201 174
-1.456 7.6659999 -0.954 153 153 143
-1.457 7.671 -0.96799999 40 12 0
-1.461 7.6719999 -0.96799999 46 21 1
-1.428 7.6490002 -0.93099999 188 92 15
-1.433 7.6440001 -0.935 244 152 77
-1.431 7.6339998 -0.92699999 140 87 53
-1.433 7.6490002 -0.93599999 189 121 72
-1.433 7.638 -0.93099999 180 114 79
-1.4680001 7.6750002 -0.93199998 56 32 30
-1.473 7.6820002 -0.93599999 145 102 68
-1.472 7.6799998 -0.93000001 193 152 120
-1.49 7.6750002 -0.92299998 185 146 117
-1.479 7.6620002 -0.82300001 215 176 107
-1.476 7.6620002 -0.83399999 106 90 57
-1.49 7.6539998 -0.80599999 198 124 61
-1.487 7.6529999 -0.80299997 78 9 0
-1.4910001 7.664 -0.89099997 74 36 15
-1.483 7.6570001 -0.88999999 56 35 32
-1.487 7.6560001 -0.89700001 146 82 34
-1.482 7.658 -0.88700002 159 89 38
-1.488 7.6690001 -0.917 153 116 90
-1.53 7.7049999 -0.84299999 136 87 57
-1.529 7.7059999 -0.83499998 203 151 114
-1.506 7.7030001 -0.89700001 135 67 18
-1.5140001 7.6849999 -0.89099997 44 27 11
-1.5140001 7.6820002 -0.89399999 78 62 46
-1.508 7.697 -0.89200002 117 42 2
-1.386 7.6799998 -0.76899999 182 70 0
-1.3839999 7.677 -0.773 231 129 44
-1.39 7.6820002 -0.778 192 108 44
-1.391 7.6869998 -0.78100002 147 116 98
-1.393 7.6989999 -0.75800002 188 135 85
-1.421 7.6929998 -0.755 82 47 15
-1.401 7.6880002 -0.75099999 204 160 55
-1.399 7.6849999 -0.75099999 255 243 134
-1.404 7.6830001 -0.75099999 246 213 108
-1.4119999 7.6859999 -0.75 152 74 8
-1.419 7.6799998 -0.75199997 223 155 108
-1.4220001 7.684 -0.75700003 85 31 0
-1.4400001 7.6999998 -1.045 103 57 21
-1.4400001 7.6859999 -1.033 176 126 77
-1.461 7.723 -0.93800002 98 46 0
-1.466 7.717 -0.94999999 146 114 93
-1.456 7.7249999 -0.93900001 133 102 81
-1.476 7.7090001 -0.93800002 104 50 6
-1.483 7.6989999 -0.93800002 116 113 106
-1.4809999 7.7059999 -0.949 230 178 121
-1.482 7.6989999 -0.94300002 190 143 91
-1.4960001 7.6919999 -0.903 66 20 0
-1.493 7.678 -0.89999998 46 17 3
-1.497 7.6919999 -0.90100002 47 21 8
-1.497 7.7030001 -0.90200001 46 23 15
-1.454 7.691 -1.051 162 94 59
-1.451 7.6939998 -1.054 85 42 10
-1.447 7.691 -1.044 185 106 50
-1.462 7.6849999 -1.053 111 68 36
-1.476 7.723 -1.006 159 93 33
-1.436 7.677 -0.98799998 190 162 150
-1.426 7.6799998 -0.96799999 153 107 74
-1.429 7.6750002 -0.97000003 193 151 127
-1.444 7.7179999 -0.99900001 205 179 164
-1.431 7.6999998 -0.90899998 140 111 103
-1.431 7.7059999 -0.89999998 101 42 0
-1.427 7.7010002 -0.903 177 108 77
-1.448 7.711 -0.977 131 85 51
-1.4579999 7.7199998 -0.98799998 98 56 32
-1.457 7.723 -1.0039999 68 22 0
-1.452 7.7210002 -1.0190001 170 131 88
-1.444 7.7220001 -1.015 210 179 159
-1.431 7.6950002 -0.90700001 138 99 70
-1.431 7.6799998 -0.90700001 102 40 15
-1.427 7.6409998 -0.92299998 230 165 97
-1.432 7.631 -0.91900003 163 109 71
-1.432 7.6300001 -0.91500002 140 92 56
-1.415 7.6560001 -0.91799998 174 101 48
-1.426 7.6479998 -0.92500001 210 128 70
-1.419 7.7090001 -0.84799999 115 80 60
-1.429 7.7030001 -0.86799997 222 179 147
-1.421 7.6950002 -0.85100001 80 24 0
-1.488 7.6929998 -0.81 188 139 62
-1.4859999 7.7080002 -0.81400001 126 89 60
-1.523 7.678 -0.81900001 185 127 81
-1.522 7.6950002 -0.81599998 93 64 46
-1.526 7.704 -0.82599998 89 68 51
-1.443 7.6620002 -0.98900002 56 21 1
-1.443 7.6609998 -0.99199998 121 84 65
-1.439 7.6329999 -0.93400002 143 74 35
-1.436 7.6399999 -0.935 39 21 9
-1.443 7.6630001 -0.95599997 129 69 19
-1.442 7.6500001 -0.94300002 99 55 30
-1.5190001 7.6989999 -0.84100002 66 39 20
-1.493 7.6630001 -0.898 129 85 56
-1.4859999 7.6599998 -0.90700001 134 93 63
-1.488 7.6669998 -0.88499999 178 158 151
-1.493 7.6729999 -0.884 123 84 43
-1.4960001 7.7399998 -0.88700002 102 53 10
-1.4960001 7.743 -0.89499998 45 19 4
-1.502 7.7389998 -0.89399999 114 85 79
-1.502 7.7150002 -0.889 45 17 3
-1.4910001 7.6830001 -0.91299999 164 149 144
-1.49 7.6799998 -0.90700001 70 29 9
-1.49 7.6700001 -0.903 85 39 13
-1.482 7.6490002 -0.80199999 255 216 167
-1.473 7.6570001 -0.79400003 255 222 164
-1.466 7.6560001 -0.80299997 66 39 22
-1.46 7.664 -0.81 130 114 101
-1.477 7.6560001 -0.80599999 167 86 21
-1.391 7.6719999 -0.77999997 162 132 72
-1.39 7.6560001 -0.76499999 121 86 58
-1.396 7.6500001 -0.76999998 152 104 84
-1.397 7.652 -0.77499998 76 42 15
-1.391 7.6630001 -0.77100003 193 147 121
-1.391 7.6719999 -0.778 255 233 159
-1.423 7.698 -0.83999997 45 11 0
-1.419 7.6989999 -0.82499999 66 35 32
-1.414 7.6939998 -0.81900001 89 30 0
-1.418 7.6989999 -0.81999999 93 29 0
-1.421 7.7049999 -0.79400003 151 80 28
-1.4170001 7.7090001 -0.79000002 135 94 76
-1.419 7.7020001 -0.801 120 92 80
-1.414 7.6960001 -0.75300002 186 141 99
-1.391 7.691 -0.75300002 150 112 73
-1.396 7.6919999 -0.75300002 231 145 42
-1.408 7.6989999 -0.76499999 133 51 13
-1.4119999 7.697 -0.76899999 117 35 0
-1.4069999 7.697 -0.76800001 225 144 91
-1.4 7.698 -0.76899999 137 45 0
-1.401 7.697 -0.773 255 211 135
-1.488 7.6550002 -0.80199999 134 60 21
-1.492 7.6719999 -0.801 236 187 121
-1.402 7.6599998 -0.76800001 159 120 87
-1.4119999 7.6630001 -0.76999998 134 91 56
-1.438 7.6589999 -0.79799998 184 129 90
-1.4299999 7.6589999 -0.80199999 121 58 17
-1.439 7.6700001 -0.80900002 223 133 73
-1.4450001 7.665 -0.79100001 173 115 75
-1.446 7.6589999 -0.787 140 93 49
-1.489 7.7160001 -0.81400001 160 107 53
-1.476 7.6880002 -0.801 172 110 53
-1.484 7.6869998 -0.801 253 175 100
-1.488 7.7329998 -0.81999999 193 105 15
-1.495 7.7199998 -0.824 174 143 125
-1.442 7.6750002 -0.78899997 151 101 64
-1.442 7.6700001 -0.78399998 195 145 92
-1.438 7.6739998 -0.78200001 144 100 51
-1.436 7.6789999 -0.77899998 191 126 84
-1.456 7.717 -1.043 115 67 27
-1.441 7.7129998 -1.046 175 132 98
-1.439 7.7059999 -1.046 204 133 81
-1.477 7.7069998 -0.96399999 208 110 23
-1.477 7.7049999 -0.958 249 150 67
-1.475 7.7090001 -0.94999999 145 100 45
-1.469 7.7140002 -0.94099998 159 130 114
-1.482 7.7030001 -0.91900003 82 33 0
-1.48 7.6849999 -1.0470001 205 115 53
-1.472 7.6830001 -1.058 145 93 56
-1.478 7.6760001 -1.0549999 140 133 123
-1.4529999 7.6960001 -1.056 162 158 155
-1.4630001 7.698 -1.0470001 140 96 59
-1.464 7.723 -0.99299997 192 135 82
-1.4349999 7.6700001 -0.98000002 205 183 172
-1.434 7.6669998 -0.99599999 161 140 135
-1.434 7.6669998 -1.003 144 134 135
-1.439 7.7069998 -0.99599999 54 23 0
-1.436 7.6919999 -0.91900003 130 68 27
-1.437 7.697 -0.917 145 85 51
-1.438 7.6830001 -1.011 109 46 5
-1.438 7.6690001 -1.01 177 153 149
-1.42 7.6999998 -0.84799999 100 71 53
-1.424 7.6859999 -0.852 149 112 85
-1.418 7.684 -0.84100002 133 62 10
-1.434 7.6919999 -0.89499998 177 113 42
-1.393 7.6789999 -0.75300002 255 228 120
-1.393 7.6849999 -0.75199997 94 60 23
-1.483 7.6880002 -0.80400002 170 90 3
-1.513 7.6939998 -0.81099999 165 122 90
-1.439 7.7030001 -0.87 121 75 39
-1.443 7.7129998 -0.86299998 163 123 87
-1.456 7.6989999 -0.87199998 83 38 9
-1.446 7.7129998 -0.86199999 194 152 110
-1.511 7.6830001 -0.829 85 55 47
-1.4859999 7.6729999 -0.87099999 127 57 0
-1.478 7.6849999 -0.92799997 124 92 67
-1.48 7.6890001 -0.93900001 153 103 52
-1.479 7.6890001 -0.93400002 195 116 59
-1.447 7.6680002 -0.97100002 92 43 3
-1.454 7.671 -0.97100002 83 43 18
-1.449 7.6690001 -0.98100001 176 124 74
-1.451 7.6700001 -0.96700001 66 28 15
-1.474 7.6830001 -0.94199997 141 98 64
-1.447 7.6589999 -0.99400002 170 130 104
-1.457 7.6680002 -0.94700003 140 87 37
-1.456 7.658 -0.93800002 50 21 7
-1.455 7.665 -0.94400001 44 20 8
-1.454 7.6589999 -0.94 86 35 8
-1.432 7.6690001 -0.93000001 133 83 46
-1.428 7.6859999 -0.94300002 246 204 156
-1.434 7.6830001 -0.935 255 218 176
-1.425 7.6690001 -0.92299998 78 17 0
-1.4400001 7.6620002 -0.96499997 157 126 108
-1.434 7.6669998 -0.95999998 163 157 161
-1.426 7.6620002 -0.935 220 165 111
-1.511 7.6849999 -0.88800001 65 39 26
-1.508 7.6830001 -0.88700002 101 72 56
-1.5140001 7.6950002 -0.83999997 193 132 88
-1.4630001 7.6690001 -0.86699998 200 135 81
-1.47 7.6609998 -0.87900001 144 73 29
-1.462 7.6690001 -0.86900002 153 74 17
-1.45 7.678 -0.861 174 94 43
-1.476 7.6659999 -0.875 160 107 63
-1.4859999 7.6729999 -0.866 189 132 79
-1.484 7.6729999 -0.861 132 97 77
-1.476 7.6630001 -0.88800001 137 63 16
-1.476 7.6630001 -0.89300001 196 123 68
-1.461 7.6700001 -0.88200003 125 75 42
-1.482 7.6719999 -0.83999997 140 72 35
-1.478 7.6739998 -0.84799999 89 57 34
-1.4910001 7.6680002 -0.889 66 33 18
-1.487 7.6729999 -0.87800002 73 50 34
-1.487 7.664 -0.88800001 168 88 25
-1.474 7.664 -0.91500002 141 114 103
-1.46 7.6620002 -0.93400002 167 132 110
-1.47 7.6659999 -0.90200001 171 136 117
-1.456 7.6630001 -0.91299999 123 122 118
-1.4680001 7.677 -0.92400002 153 115 96
-1.492 7.7420001 -0.88999999 101 58 26
-1.4960001 7.7470002 -0.833 254 188 76
-1.5 7.744 -0.82999998 122 87 49
-1.501 7.7490001 -0.82800001 236 165 61
-1.502 7.73 -0.85000002 155 95 58
-1.492 7.7519999 -0.83200002 198 157 93
-1.512 7.7249999 -0.84100002 177 145 120
-1.517 7.7259998 -0.82800001 121 55 7
-1.507 7.7259998 -0.85399997 75 42 7
-1.501 7.7129998 -0.89200002 122 81 51
-1.4809999 7.6960001 -0.93300003 140 97 62
-1.4579999 7.6690001 -0.80000001 187 129 89
-1.4400001 7.664 -0.79799998 171 142 128
-1.449 7.6669998 -0.81900001 126 81 42
-1.449 7.6700001 -0.81599998 105 51 17
-1.45 7.6690001 -0.824 97 47 14
-1.441 7.6739998 -0.81599998 99 53 20
-1.416 7.6900001 -0.83899999 164 92 44
-1.414 7.691 -0.82700002 151 87 51
-1.4170001 7.691 -0.838 160 95 53
-1.416 7.6900001 -0.83099997 81 15 0
-1.386 7.6700001 -0.76700002 226 142 30
-1.388 7.6789999 -0.759 117 78 45
-1.3940001 7.665 -0.75700003 219 175 138
-1.4220001 7.704 -0.78500003 183 113 62
-1.439 7.6939998 -0.79299998 218 167 122
-1.4170001 7.697 -0.81999999 92 48 23
-1.411 7.6989999 -0.75400001 214 162 102
-1.436 7.658 -0.77700001 133 115 105
-1.446 7.6620002 -0.78100002 159 116 74
-1.4859999 7.6719999 -0.79900002 201 139 82
-1.484 7.6739998 -0.80000001 195 148 80
-1.49 7.6799998 -0.80299997 191 119 45
-1.477 7.677 -0.79799998 107 73 28
-1.479 7.6659999 -0.79799998 175 97 22
-1.489 7.6630001 -0.80299997 136 66 4
-1.398 7.6630001 -0.76300001 145 106 73
-1.402 7.6589999 -0.77100003 218 163 99
-1.401 7.697 -0.77499998 226 179 107
-1.436 7.6830001 -0.78100002 223 178 145
-1.441 7.6880002 -0.78799999 255 186 94
-1.4349999 7.6830001 -0.77499998 255 209 162
-1.419 7.6999998 -0.773 109 40 0
-1.413 7.6939998 -0.78100002 141 86 22
-1.49 7.7150002 -0.83200002 131 99 78
-1.488 7.7340002 -0.82499999 255 178 78
-1.488 7.7309999 -0.833 180 129 76
-1.439 7.6700001 -0.77700001 184 146 107
-1.434 7.671 -0.77899998 45 27 23
-1.386 7.6849999 -0.76599997 188 144 105
-1.388 7.6799998 -0.759 241 165 28
-1.45 7.7199998 -1.039 106 54 15
-1.4450001 7.7210002 -1.036 87 28 0
-1.4529999 7.7179999 -1.036 98 61 34
-1.459 7.7210002 -1.026 66 40 23
-1.478 7.7189999 -1.007 133 73 21
-1.471 7.697 -1.044 175 129 95
-1.4579999 7.7059999 -1.024 211 113 48
-1.443 7.7030001 -1.046 110 72 49
-1.437 7.717 -1.043 207 159 77
-1.438 7.7160001 -1.04 157 99 26
-1.477 7.71 -0.91799998 135 77 29
-1.4809999 7.7129998 -0.90399998 136 116 109
-1.4680001 7.7119999 -0.95300001 158 118 92
-1.466 7.6869998 -1.024 153 107 71
-1.471 7.691 -1.0140001 194 151 119
-1.478 7.6900001 -1.0319999 54 19 0
-1.457 7.7020001 -1.022 132 91 71
-1.461 7.7210002 -0.94099998 143 111 90
-1.4630001 7.7119999 -0.95200002 88 43 4
-1.462 7.7140002 -0.94099998 153 112 82
-1.48 7.6849999 -1.046 160 160 152
-1.477 7.6900001 -1.0420001 195 101 40
-1.472 7.6950002 -1.048 143 143 135
-1.478 7.6919999 -1.0369999 136 77 43
-1.47 7.6810002 -1.057 106 52 18
-1.473 7.6739998 -1.051 93 47 11
-1.476 7.6760001 -1.046 192 113 70
-1.477 7.678 -1.046 125 41 0
-1.46 7.691 -1.035 123 44 3
-1.46 7.7049999 -1.045 159 113 77
-1.469 7.7080002 -0.995 103 51 4
-1.436 7.6700001 -0.98400003 189 166 158
-1.4349999 7.6630001 -0.99699998 165 144 139
-1.441 7.6570001 -1.008 255 207 131
-1.443 7.7179999 -1.003 200 169 151
-1.437 7.6830001 -0.98400003 161 136 129
-1.436 7.6849999 -0.995 152 124 113
-1.456 7.7199998 -1.018 149 114 72
-1.437 7.6880002 -1.006 139 130 125
-1.439 7.678 -1.01 137 94 59
-1.444 7.6849999 -1.023 131 86 55
-1.444 7.691 -1.025 130 68 7
-1.429 7.6820002 -0.92199999 245 182 139
-1.4349999 7.6859999 -0.92799997 172 133 102
-1.4809999 7.6859999 -0.80000001 147 112 70
-1.466 7.6849999 -0.79699999 187 145 107
-1.429 7.677 -0.829 99 58 26
-1.4450001 7.6820002 -0.85500002 150 78 28
-1.428 7.6739998 -0.838 72 50 36
-1.444 7.6859999 -0.84200001 59 31 17
-1.4529999 7.6799998 -0.87099999 238 152 93
-1.442 7.6789999 -0.88700002 140 66 31
-1.442 7.6729999 -0.89999998 51 15 0
-1.429 7.6810002 -0.84799999 100 57 22
-1.521 7.7069998 -0.81800002 150 94 45
-1.515 7.6890001 -0.81800002 149 79 17
-1.515 7.684 -0.82099998 125 99 82
-1.4910001 7.7010002 -0.81599998 156 105 40
-1.5039999 7.7010002 -0.81800002 88 47 19
-1.499 7.6859999 -0.81300002 212 163 104
-1.495 7.6810002 -0.80800003 187 116 60
-1.4960001 7.6820002 -0.81 218 151 106
-1.447 7.704 -0.86299998 142 95 51
-1.4910001 7.697 -0.90799999 95 49 16
-1.4859999 7.6900001 -0.91299999 142 133 134
-1.482 7.7030001 -0.91100001 45 21 9
-1.4910001 7.7030001 -0.90200001 60 2 0
-1.494 7.7059999 -0.81599998 126 51 0
-1.5089999 7.711 -0.81400001 189 154 88
-1.465 7.7030001 -0.86400002 82 23 0
-1.473 7.671 -0.84500003 251 183 144
-1.508 7.717 -0.81199998 134 91 23
-1.5039999 7.7290001 -0.82200003 124 52 12
-1.497 7.7379999 -0.82700002 151 92 50
-1.497 7.7360001 -0.82599998 175 113 54
-1.451 7.671 -0.97500002 146 93 61
-1.46 7.6729999 -0.96499997 42 20 6
-1.449 7.6570001 -0.94099998 167 132 102
-1.464 7.671 -0.94 79 35 8
-1.4630001 7.6750002 -0.95499998 62 48 39
-1.442 7.6409998 -0.94 103 101 104
-1.439 7.6420002 -0.93699998 225 167 129
-1.427 7.6560001 -0.92799997 193 91 17
-1.4400001 7.6900001 -0.92900002 91 34 4
-1.451 7.6960001 -0.93400002 82 31 0
-1.4579999 7.6599998 -0.93599999 48 20 6
-1.507 7.6849999 -0.88499999 71 42 28
-1.5089999 7.6939998 -0.85100001 63 37 24
-1.5039999 7.6729999 -0.84100002 174 100 35
-1.5039999 7.6799998 -0.838 193 127 77
-1.5089999 7.7020001 -0.86199999 47 25 11
-1.479 7.6680002 -0.87599999 144 88 41
-1.447 7.6760001 -0.88599998 149 100 60
-1.456 7.6680002 -0.898 99 62 44
-1.443 7.6560001 -0.91299999 164 105 73
-1.439 7.6459999 -0.90799999 128 99 93
-1.4680001 7.6680002 -0.889 124 84 59
-1.495 7.6680002 -0.81900001 154 118 86
-1.499 7.677 -0.81599998 109 79 41
-1.483 7.665 -0.83099997 118 91 72
-1.427 7.6409998 -0.917 235 173 98
-1.4529999 7.6529999 -0.93699998 99 52 24
-1.447 7.6350002 -0.93599999 141 98 56
-1.448 7.6399999 -0.926 161 135 120
-1.441 7.6339998 -0.92199999 130 83 53
-1.457 7.6459999 -0.92000002 133 70 26
-1.438 7.6370001 -0.90700001 195 161 116
-1.482 7.658 -0.90700001 185 129 92
-1.431 7.6350002 -0.92400002 128 72 35
-1.494 7.6669998 -0.89899999 61 29 16
-1.46 7.664 -0.926 70 35 13
-1.457 7.6560001 -0.92699999 41 17 5
-1.506 7.7280002 -0.84100002 113 67 34
-1.507 7.6950002 -0.88099998 62 36 21
-1.483 7.6890001 -0.917 69 27 2
-1.467 7.6599998 -0.80000001 190 140 81
-1.42 7.6989999 -0.801 134 84 49
-1.388 7.684 -0.77399999 148 109 70
-1.387 7.6739998 -0.77100003 199 114 50
-1.398 7.6880002 -0.78799999 226 128 81
-1.395 7.6739998 -0.77999997 251 148 69
-1.403 7.6760001 -0.78500003 79 30 0
-1.413 7.6789999 -0.796 114 60 13
-1.4119999 7.6700001 -0.79400003 203 98 17
-1.411 7.7020001 -0.801 105 37 2
-1.4119999 7.691 -0.815 141 74 29
-1.41 7.6919999 -0.80599999 153 80 39
-1.419 7.6999998 -0.81400001 73 40 33
-1.4119999 7.697 -0.79500002 97 24 0
-1.427 7.698 -0.833 108 47 3
-1.452 7.6900001 -0.815 155 74 21
-1.446 7.6869998 -0.80599999 98 54 27
-1.448 7.6900001 -0.81599998 248 188 118
-1.471 7.6960001 -0.81400001 146 115 94
-1.469 7.6929998 -0.82499999 78 45 30
-1.464 7.691 -0.82999998 180 107 39
-1.487 7.7309999 -0.84399998 38 11 0
-1.493 7.7090001 -0.83899999 75 18 7
-1.487 7.737 -0.82200003 177 106 44
-1.465 7.723 -0.82800001 162 93 52
-1.4069999 7.6939998 -0.75099999 210 128 46
-1.409 7.6890001 -0.75099999 230 149 68
-1.415 7.665 -0.77499998 182 134 96
-1.473 7.6589999 -0.79299998 177 140 88
-1.475 7.6690001 -0.79900002 229 164 62
-1.485 7.6669998 -0.801 172 124 52
-1.49 7.665 -0.80500001 132 69 15
-1.395 7.6719999 -0.77700001 254 199 145
-1.429 7.6750002 -0.81900001 82 41 9
-1.419 7.6719999 -0.80900002 132 87 56
-1.419 7.6589999 -0.79799998 165 116 75
-1.419 7.6820002 -0.829 179 122 79
-1.425 7.6789999 -0.82099998 51 20 0
-1.418 7.684 -0.82499999 186 137 70
-1.41 7.6700001 -0.78899997 211 108 29
-1.438 7.6630001 -0.78600001 142 122 121
-1.46 7.6849999 -0.82300001 107 46 17
-1.465 7.6760001 -0.833 74 37 18
-1.456 7.678 -0.82099998 165 82 32
-1.4680001 7.6830001 -0.833 57 19 0
-1.4400001 7.6890001 -0.81599998 255 215 159
-1.431 7.6880002 -0.80500001 234 172 123
-1.438 7.678 -0.82300001 83 33 0
-1.434 7.6869998 -0.82700002 135 105 81
-1.469 7.6719999 -0.79799998 255 212 90
-1.462 7.6750002 -0.80000001 242 191 50
-1.4529999 7.678 -0.79500002 88 44 17
-1.469 7.691 -0.80199999 202 120 47
-1.45 7.6869998 -0.81099999 194 101 44
-1.425 7.697 -0.77700001 158 85 32
-1.437 7.6609998 -0.77700001 178 142 108
-1.387 7.6869998 -0.76200002 255 182 57
-1.443 7.7199998 -1.033 112 38 3
-1.455 7.711 -1.0319999 142 106 80
-1.443 7.698 -1.045 125 49 0
-1.436 7.6859999 -0.97299999 163 143 136
-1.438 7.684 -0.98000002 120 55 13
-1.488 7.6960001 -1.012 65 37 13
-1.482 7.6890001 -1.033 118 63 22
-1.4859999 7.6960001 -1.0039999 123 70 20
-1.464 7.7150002 -0.949 99 41 0
-1.459 7.7220001 -0.93699998 139 108 88
-1.465 7.7140002 -0.93900001 146 111 91
-1.47 7.704 -0.884 114 70 33
-1.477 7.717 -0.88200003 100 75 53
-1.465 7.6830001 -1.051 115 68 38
-1.473 7.7020001 -1.001 104 76 54
-1.476 7.6960001 -0.99400002 132 102 76
-1.4450001 7.7059999 -0.97799999 91 47 20
-1.434 7.664 -0.99199998 194 173 170
-1.469 7.6950002 -1.0420001 181 138 106
-1.431 7.6750002 -0.96200001 255 217 162
-1.432 7.677 -0.95899999 255 226 171
-1.436 7.6659999 -0.94300002 122 127 130
-1.4349999 7.6960001 -0.96700001 161 122 91
-1.434 7.6859999 -0.95899999 135 71 33
-1.437 7.7020001 -1.01 175 134 112
-1.4400001 7.698 -1.012 155 110 81
-1.442 7.698 -1.028 128 85 42
-1.451 7.6810002 -0.87400001 213 127 68
-1.443 7.6929998 -0.88 130 88 50
-1.42 7.6890001 -0.84799999 172 85 31
-1.4349999 7.6810002 -0.85399997 193 111 61
-1.431 7.6820002 -0.84799999 191 115 65
-1.4299999 7.6869998 -0.87699997 179 119 85
-1.402 7.6820002 -0.75099999 255 236 127
-1.4 7.691 -0.75099999 216 131 41
-1.439 7.71 -0.86199999 80 61 46
-1.485 7.697 -0.83499998 60 34 21
-1.488 7.7049999 -0.82800001 56 28 17
-1.47 7.6890001 -0.833 112 35 0
-1.469 7.697 -0.85399997 248 173 105
-1.459 7.7030001 -0.85000002 163 85 19
-1.461 7.691 -0.85299999 127 71 38
-1.446 7.7090001 -0.85100001 206 112 61
-1.511 7.7059999 -0.81599998 99 61 14
-1.477 7.6810002 -0.847 95 62 43
-1.476 7.691 -0.85299999 86 38 0
-1.48 7.6890001 -0.86000001 60 30 4
-1.439 7.6929998 -0.88099998 132 67 35
-1.437 7.6999998 -0.87 142 108 80
-1.443 7.6929998 -0.89300001 123 51 11
-1.46 7.677 -0.86500001 178 101 33
-1.462 7.6810002 -0.85100001 245 187 123
-1.476 7.671 -0.866 117 61 10
-1.478 7.6739998 -0.86199999 104 72 51
-1.511 7.7270002 -0.82099998 201 161 135
-1.454 7.6719999 -0.97500002 98 49 16
-1.451 7.6690001 -0.96399999 51 18 11
-1.46 7.6729999 -0.972 105 75 51
-1.459 7.6719999 -0.96899998 168 115 71
-1.454 7.6919999 -0.95200002 113 58 38
-1.446 7.6919999 -0.94599998 57 21 0
-1.454 7.691 -0.94599998 142 82 54
-1.4630001 7.7080002 -0.95899999 161 114 70
-1.465 7.7090001 -0.94700003 222 177 138
-1.482 7.6919999 -0.94599998 140 95 66
-1.446 7.652 -1.01 188 140 94
-1.443 7.6570001 -1.01 151 103 54
-1.459 7.6729999 -0.958 140 86 40
-1.4400001 7.6539998 -0.94499999 159 101 51
-1.438 7.6620002 -0.94199997 187 135 95
-1.443 7.664 -0.95899999 60 31 15
-1.4349999 7.6750002 -0.94199997 174 137 111
-1.464 7.7150002 -0.95700002 134 70 22
-1.447 7.7010002 -0.96799999 155 106 74
-1.437 7.6900001 -0.94999999 132 70 23
-1.4400001 7.6890001 -0.93199998 80 27 0
-1.444 7.6880002 -0.94 59 17 5
-1.51 7.6950002 -0.84600002 92 36 1
-1.482 7.6690001 -0.88 157 96 49
-1.47 7.665 -0.89300001 182 115 70
-1.482 7.6719999 -0.838 88 21 0
-1.4299999 7.6420002 -0.91299999 214 149 93
-1.448 7.6539998 -0.94 141 84 54
-1.484 7.6570001 -0.89899999 211 147 99
-1.4910001 7.6719999 -0.90100002 89 49 24
-1.5089999 7.7049999 -0.85399997 104 69 41
-1.508 7.7160001 -0.85399997 112 77 47
-1.498 7.7290001 -0.84100002 137 75 34
-1.512 7.7080002 -0.84500003 125 92 38
-1.507 7.6919999 -0.884 49 23 10
-1.5039999 7.6939998 -0.86000001 46 23 9
-1.488 7.7049999 -0.90200001 103 40 9
-1.48 7.6900001 -0.93599999 189 144 102
-1.467 7.6609998 -0.80000001 128 101 82
-1.459 7.664 -0.81800002 116 61 22
-1.462 7.665 -0.81900001 140 78 29
-1.408 7.6810002 -0.78799999 144 36 0
-1.411 7.691 -0.81 117 46 4
-1.414 7.6939998 -0.815 109 49 13
-1.426 7.6989999 -0.82300001 130 120 110
-1.483 7.7389998 -0.82700002 219 131 31
-1.462 7.7259998 -0.82599998 143 76 24
-1.4910001 7.7459998 -0.838 224 145 50
-1.493 7.7319999 -0.83999997 156 65 0
-1.428 7.6620002 -0.77499998 131 95 59
-1.418 7.6690001 -0.76700002 96 60 24
-1.489 7.6630001 -0.80800003 183 133 96
-1.403 7.6729999 -0.77899998 61 19 0
-1.415 7.6869998 -0.82700002 164 97 55
-1.411 7.6810002 -0.792 188 78 27
-1.413 7.6869998 -0.80400002 231 147 100
-1.457 7.6830001 -0.82200003 113 45 10
-1.434 7.6849999 -0.829 91 59 38
-1.431 7.6799998 -0.83600003 45 16 8
-1.4349999 7.6890001 -0.78399998 135 49 2
-1.451 7.6820002 -0.79400003 255 199 79
-1.447 7.6659999 -0.787 177 144 113
-1.471 7.6900001 -0.80199999 179 138 92
-1.451 7.6830001 -0.796 203 146 30
-1.406 7.6669998 -0.77499998 93 50 16
-1.405 7.6680002 -0.77600002 220 128 25
-1.4220001 7.6869998 -0.75700003 146 110 74
-1.442 7.7210002 -1.034 83 17 0
-1.447 7.7199998 -1.036 64 35 21
-1.459 7.7129998 -1.043 154 114 88
-1.476 7.6999998 -0.98199999 163 126 99
-1.49 7.6799998 -1.0089999 170 129 97
-1.484 7.6849999 -1.039 183 132 85
-1.482 7.691 -1.013 132 71 24
-1.484 7.6830001 -1.0140001 157 95 38
-1.474 7.71 -0.93900001 119 116 111
-1.464 7.71 -0.935 89 31 7
-1.466 7.7090001 -0.93599999 199 167 146
-1.472 7.7059999 -0.86500001 127 70 27
-1.483 7.711 -0.86500001 76 19 0
-1.479 7.7129998 -0.86000001 82 24 0
-1.448 7.6960001 -0.89399999 125 86 43
-1.456 7.7010002 -0.89999998 168 158 157
-1.467 7.7049999 -0.90200001 177 153 129
-1.47 7.7010002 -0.89099997 77 28 0
-1.46 7.7129998 -0.92900002 171 142 124
-1.469 7.6799998 -1.051 105 61 12
-1.464 7.671 -1.036 174 148 135
-1.469 7.6739998 -1.039 204 156 108
-1.462 7.6789999 -1.041 118 71 43
-1.461 7.6810002 -1.043 172 108 73
-1.457 7.684 -1.044 104 59 26
-1.447 7.684 -1.039 160 84 34
-1.4529999 7.6830001 -1.033 119 75 40
-1.441 7.665 -1.012 201 150 97
-1.457 7.7090001 -1.018 40 11 0
-1.4400001 7.6669998 -0.97500002 172 104 57
-1.437 7.6669998 -0.98199999 246 177 112
-1.439 7.698 -0.99000001 58 17 0
-1.447 7.7069998 -0.98500001 210 182 168
-1.447 7.71 -0.99299997 200 172 160
-1.442 7.6929998 -0.97899997 106 54 0
-1.443 7.697 -0.98100001 83 18 0
-1.444 7.717 -1.018 165 115 66
-1.439 7.6729999 -1.0089999 134 107 98
-1.4220001 7.704 -0.84899998 48 16 1
-1.4450001 7.6760001 -0.89499998 108 35 0
-1.424 7.6950002 -0.81 255 204 140
-1.441 7.6830001 -0.86299998 169 83 26
-1.423 7.6919999 -0.852 117 33 0
-1.48 7.6729999 -0.84200001 138 70 31
-1.527 7.7010002 -0.82499999 95 56 15
-1.5190001 7.7129998 -0.81999999 198 119 26
-1.4809999 7.7049999 -0.82300001 160 75 20
-1.483 7.6929998 -0.81199998 116 63 19
-1.456 7.698 -0.92699999 183 147 111
-1.459 7.7030001 -0.93099999 116 79 60
-1.429 7.6900001 -0.866 137 53 7
-1.431 7.6900001 -0.87099999 131 50 5
-1.431 7.6890001 -0.875 143 67 18
-1.4960001 7.7010002 -0.83999997 71 42 36
-1.515 7.7030001 -0.81599998 177 139 103
-1.484 7.7129998 -0.87699997 115 51 15
-1.499 7.7210002 -0.86699998 143 59 0
-1.499 7.7119999 -0.86400002 31 12 5
-1.501 7.7069998 -0.86400002 110 29 0
-1.511 7.6869998 -0.83099997 194 149 94
-1.4859999 7.6880002 -0.83399999 134 127 134
-1.483 7.6739998 -0.838 117 58 24
-1.477 7.6799998 -0.84899998 53 25 13
-1.476 7.6739998 -0.852 111 59 22
-1.478 7.6750002 -0.85100001 76 46 22
-1.462 7.7059999 -0.85100001 132 53 0
-1.4579999 7.7069998 -0.84899998 132 53 0
-1.452 7.7069998 -0.84399998 124 58 10
-1.45 7.7080002 -0.85699999 160 122 86
-1.455 7.7069998 -0.85000002 129 49 0
-1.464 7.7090001 -0.85299999 157 81 29
-1.472 7.6999998 -0.85399997 222 148 87
-1.433 7.6890001 -0.88 185 114 68
-1.443 7.6859999 -0.84899998 84 53 35
-1.471 7.6729999 -0.84100002 117 50 8
-1.465 7.6719999 -0.83099997 95 44 15
-1.47 7.6739998 -0.838 137 73 27
-1.506 7.73 -0.83099997 127 52 0
-1.442 7.6989999 -0.96499997 83 47 31
-1.45 7.697 -0.96399999 116 79 60
-1.482 7.6950002 -0.94800001 221 169 109
-1.467 7.6799998 -0.94599998 103 57 24
-1.444 7.6539998 -1.007 189 150 121
-1.438 7.6929998 -0.95999998 117 85 62
-1.475 7.7030001 -0.85600001 148 104 77
-1.476 7.665 -0.87900001 157 103 56
-1.471 7.665 -0.89899999 173 111 74
-1.506 7.6869998 -0.81699997 117 96 67
-1.5039999 7.6810002 -0.81900001 232 160 102
-1.484 7.664 -0.82599998 138 85 54
-1.454 7.6599998 -0.91399997 125 72 30
-1.446 7.6500001 -0.91600001 49 25 13
-1.42 7.6620002 -0.92299998 183 124 92
-1.429 7.671 -0.917 95 26 0
-1.436 7.665 -0.90899998 145 83 42
-1.4299999 7.6500001 -0.90899998 220 144 94
-1.518 7.7140002 -0.83999997 181 117 73
-1.4910001 7.6760001 -0.87400001 69 29 4
-1.4859999 7.6789999 -0.86699998 114 92 81
-1.492 7.6789999 -0.87800002 161 138 130
-1.506 7.697 -0.85799998 50 25 3
-1.5 7.7049999 -0.89899999 116 89 72
-1.4960001 7.7049999 -0.898 114 52 27
-1.484 7.7119999 -0.89999998 94 44 9
-1.465 7.6700001 -0.80000001 222 158 52
-1.411 7.691 -0.79900002 118 36 0
-1.411 7.691 -0.80299997 139 62 20
-1.487 7.7410002 -0.82599998 136 57 18
-1.49 7.7449999 -0.83700001 176 129 77
-1.41 7.6939998 -0.75199997 230 156 85
-1.419 7.6729999 -0.76099998 197 135 78
-1.413 7.691 -0.81900001 152 85 42
-1.428 7.6609998 -0.778 127 88 47
-1.419 7.665 -0.77999997 232 184 144
-1.424 7.6890001 -0.76899999 206 145 98
-1.408 7.664 -0.76700002 136 102 65
-1.46 7.7129998 -0.98400003 163 126 97
-1.4859999 7.6830001 -1.012 172 114 64
-1.487 7.6760001 -1.0319999 142 97 55
-1.482 7.6830001 -1.0319999 142 96 62
-1.442 7.6939998 -1.015 110 68 26
-1.487 7.678 -1.0039999 202 163 132
-1.4910001 7.6680002 -1.007 162 123 90
-1.48 7.6960001 -0.96600002 42 16 1
-1.48 7.6890001 -0.95300001 244 193 128
-1.478 7.6900001 -1.012 171 122 90
-1.462 7.7090001 -0.94 104 54 17
-1.4680001 7.7010002 -0.86799997 75 21 0
-1.464 7.7080002 -0.85900003 90 34 1
-1.443 7.6919999 -0.88599998 120 58 21
-1.449 7.7010002 -0.903 205 118 41
-1.448 7.6999998 -0.90700001 194 185 188
-1.446 7.6950002 -0.89399999 141 74 29
-1.459 7.71 -0.90600002 135 89 53
-1.466 7.7129998 -0.90499997 108 89 83
-1.466 7.7119999 -0.91000003 83 22 1
-1.482 7.7160001 -0.90100002 122 59 16
-1.4579999 7.7129998 -0.92299998 172 145 124
-1.456 7.7020001 -0.92000002 87 46 18
-1.469 7.6560001 -1.006 156 59 4
-1.454 7.6570001 -1.013 169 160 155
-1.452 7.651 -1.016 189 140 97
-1.462 7.6620002 -1.013 120 77 42
-1.4680001 7.6630001 -1.018 184 170 167
-1.449 7.6570001 -1.017 123 78 36
-1.454 7.6669998 -1.026 92 47 14
-1.464 7.6999998 -1.0089999 202 163 132
-1.443 7.6680002 -0.97399998 140 95 62
-1.46 7.6750002 -0.97600001 146 112 84
-1.443 7.7010002 -0.98799998 143 119 107
-1.46 7.6620002 -0.99599999 160 150 140
-1.451 7.671 -0.98199999 161 107 69
-1.455 7.717 -1.002 61 19 3
-1.464 7.7069998 -0.99699998 109 55 21
-1.451 7.71 -0.98799998 96 40 5
-1.461 7.6799998 -0.98400003 132 83 42
-1.462 7.6789999 -0.977 121 63 26
-1.46 7.6750002 -0.98699999 41 8 0
-1.4400001 7.6799998 -1.011 88 47 17
-1.431 7.6919999 -0.87 83 27 2
-1.429 7.6999998 -0.86199999 101 73 51
-1.427 7.6989999 -0.85799998 96 70 53
-1.4170001 7.6900001 -0.84299999 213 132 77
-1.434 7.6880002 -0.86900002 171 135 103
-1.48 7.697 -0.82599998 144 122 111
-1.439 7.6929998 -0.92199999 115 51 23
-1.442 7.6929998 -0.92299998 98 38 4
-1.4630001 7.7199998 -0.83200002 154 71 29
-1.523 7.7119999 -0.82800001 165 111 73
-1.518 7.704 -0.81599998 244 204 153
-1.503 7.7049999 -0.87099999 100 75 55
-1.5 7.723 -0.86299998 128 91 62
-1.493 7.723 -0.88700002 234 181 139
-1.4809999 7.7179999 -0.88599998 107 43 7
-1.497 7.7189999 -0.86299998 202 149 105
-1.476 7.6929998 -0.85000002 153 90 37
-1.4859999 7.6830001 -0.86299998 109 66 34
-1.471 7.698 -0.85399997 205 129 67
-1.455 7.6989999 -0.85299999 152 60 9
-1.437 7.6830001 -0.884 158 87 43
-1.472 7.6750002 -0.85600001 56 34 23
-1.472 7.6739998 -0.84799999 72 36 20
-1.465 7.6789999 -0.85000002 236 176 116
-1.513 7.7259998 -0.82999998 129 52 10
-1.4630001 7.6760001 -0.96200001 48 30 16
-1.469 7.684 -0.95999998 113 69 42
-1.447 7.6669998 -0.96100003 160 113 71
-1.479 7.697 -0.977 172 131 99
-1.477 7.7049999 -0.97299999 237 143 53
-1.483 7.6919999 -0.97100002 101 56 17
-1.446 7.6919999 -0.95899999 120 87 68
-1.443 7.698 -0.91100001 165 115 78
-1.4450001 7.6929998 -0.92500001 169 109 72
-1.478 7.6589999 -0.90100002 158 99 55
-1.487 7.6719999 -0.91500002 126 89 63
-1.478 7.6620002 -0.81999999 252 172 77
-1.485 7.6630001 -0.81999999 91 45 0
-1.448 7.671 -0.90799999 138 92 58
-1.425 7.658 -0.91799998 142 103 74
-1.449 7.6409998 -0.92199999 157 134 118
-1.447 7.6420002 -0.921 104 78 63
-1.448 7.645 -0.92000002 180 118 69
-1.459 7.6479998 -0.92799997 128 77 46
-1.444 7.6360002 -0.93000001 174 148 133
-1.4450001 7.6469998 -0.917 169 111 61
-1.4349999 7.6539998 -0.91000003 200 129 83
-1.495 7.7270002 -0.84100002 160 126 99
-1.498 7.7249999 -0.84399998 88 52 26
-1.503 7.7020001 -0.88800001 162 106 69
-1.4960001 7.7160001 -0.87900001 83 65 53
-1.5039999 7.6950002 -0.87400001 96 60 36
-1.472 7.7069998 -0.89999998 151 97 50
-1.4680001 7.6630001 -0.81999999 227 156 74
-1.4119999 7.6880002 -0.80699998 130 49 4
-1.413 7.684 -0.81199998 143 71 23
-1.431 7.6890001 -0.824 136 106 80
-1.489 7.6599998 -0.80400002 174 97 27
-1.413 7.691 -0.82300001 122 55 13
-1.437 7.6599998 -0.796 97 63 35
-1.428 7.6599998 -0.78500003 163 110 60
-1.451 7.671 -0.97799999 150 95 56
-1.473 7.7049999 -0.97399998 98 61 34
-1.4859999 7.6750002 -1.03 76 13 0
-1.485 7.6739998 -1.031 125 77 29
-1.488 7.6700001 -1.025 142 99 57
-1.479 7.6589999 -1.0039999 167 122 83
-1.487 7.6659999 -1.008 186 101 37
-1.471 7.6589999 -1.003 166 148 144
-1.482 7.6669998 -1.013 170 85 20
-1.474 7.6869998 -0.95200002 84 49 9
-1.466 7.6999998 -0.86799997 100 41 7
-1.452 7.697 -0.89300001 137 122 115
-1.4579999 7.717 -0.91100001 130 79 48
-1.4809999 7.6799998 -1.041 141 90 47
-1.47 7.6630001 -1.015 148 91 46
-1.4809999 7.6739998 -1.035 183 131 91
-1.446 7.6739998 -1.022 92 65 54
-1.442 7.6810002 -1.013 92 53 24
-1.4630001 7.6669998 -1.029 193 101 26
-1.4529999 7.717 -1.0089999 129 75 31
-1.457 7.6609998 -1.007 152 100 53
-1.477 7.6810002 -0.97000003 47 19 7
-1.441 7.6900001 -0.97799999 72 25 0
-1.444 7.6999998 -0.98000002 95 31 6
-1.4299999 7.6960001 -0.85000002 90 59 31
-1.438 7.6950002 -0.83899999 65 40 33
-1.48 7.6880002 -0.80500001 254 175 82
-1.414 7.6849999 -0.80000001 238 174 136
-1.4349999 7.6849999 -0.87699997 138 79 45
-1.427 7.6900001 -0.86199999 123 35 0
-1.516 7.7049999 -0.84299999 67 47 38
-1.5140001 7.7199998 -0.83700001 119 46 0
-1.488 7.6859999 -0.80599999 196 121 53
-1.5039999 7.6739998 -0.81800002 180 130 81
-1.497 7.671 -0.81999999 134 71 20
-1.5 7.6890001 -0.83399999 189 151 102
-1.499 7.6739998 -0.82599998 67 36 8
-1.505 7.7270002 -0.81800002 113 50 6
-1.521 7.7179999 -0.82800001 80 47 28
-1.495 7.7129998 -0.861 131 50 3
-1.512 7.691 -0.833 159 109 76
-1.471 7.6750002 -0.84899998 137 72 34
-1.476 7.6919999 -0.99199998 135 91 42
-1.4859999 7.6620002 -0.81699997 222 147 80
-1.482 7.6620002 -0.81599998 164 112 37
-1.45 7.6599998 -0.91299999 140 104 68
-1.494 7.7179999 -0.866 170 97 28
-1.494 7.7210002 -0.89200002 66 36 28
-1.5039999 7.6989999 -0.87900001 148 75 32
-1.408 7.6929998 -0.78200001 247 195 135
-1.479 7.6620002 -0.81999999 242 201 119
-1.467 7.704 -0.97600001 97 54 22
-1.485 7.6690001 -1.015 126 75 32
-1.489 7.6729999 -1.013 191 112 56
-1.466 7.6669998 -0.99400002 141 123 109
-1.477 7.6880002 -0.94999999 117 66 19
-1.484 7.6859999 -1.003 238 153 89
-1.484 7.6810002 -1.002 130 96 69
-1.462 7.7160001 -0.90600002 42 19 11
-1.47 7.6690001 -1.033 232 185 139
-1.472 7.6669998 -1.027 192 132 82
-1.473 7.6680002 -1.029 139 89 54
-1.474 7.6620002 -1.012 78 31 1
-1.47 7.665 -1.024 191 171 160
-1.464 7.665 -1.022 198 181 171
-1.4400001 7.7059999 -0.99699998 76 48 37
-1.46 7.7030001 -1.003 81 24 5
-1.479 7.6960001 -0.96200001 140 89 32
-1.444 7.6999998 -0.98299998 118 51 22
-1.427 7.697 -0.83700001 133 91 66
-1.426 7.6869998 -0.85399997 141 51 1
-1.426 7.6939998 -0.85900003 94 41 10
-1.506 7.6960001 -0.83999997 67 38 32
-1.502 7.6999998 -0.85399997 160 107 75
-1.474 7.6919999 -0.98199999 43 10 0
-1.432 7.6820002 -0.94800001 222 175 129
-1.425 7.6570001 -0.79000002 150 99 54
-1.4630001 7.6880002 -0.80000001 208 125 55
-1.4630001 7.6880002 -0.80400002 190 96 35
-1.465 7.6880002 -0.80699998 145 76 37
-1.483 7.671 -1.029 64 31 14
-1.471 7.6859999 -0.98699999 142 111 90
-1.474 7.6869998 -0.95599997 131 97 60
-1.47 7.664 -0.99900001 189 176 168
-1.473 7.671 -1.034 145 96 55
-1.474 7.6589999 -1.008 82 32 0
-1.446 7.651 -1.005 201 124 70
-1.48 7.6900001 -0.95700002 213 161 101
-1.4630001 7.7030001 -0.96499997 140 99 71
-1.442 7.6830001 -0.875 154 69 14
-1.413 7.6880002 -0.801 127 64 20
-1.424 7.6950002 -0.85500002 100 44 17
-1.506 7.7259998 -0.84799999 159 103 70
-1.502 7.717 -0.85000002 125 76 44
-1.442 7.6989999 -0.917 129 128 124
-1.4910001 7.6999998 -0.85900003 116 69 15
-1.47 7.677 -0.85299999 255 192 132
-1.478 7.7030001 -0.96799999 240 142 51
-1.475 7.6859999 -0.97899997 205 125 72
-1.474 7.6900001 -0.99199998 177 131 82
-1.426 7.6659999 -0.80199999 226 132 60
-1.484 7.677 -1.029 130 82 34
-1.48 7.6669998 -1.02 116 82 70
-1.493 7.6989999 -0.85699999 255 215 165
-1.479 7.698 -0.97399998 173 128 87
-1.5 7.697 -0.86500001 42 20 9
-1.476 7.6669998 -0.99699998 80 41 10
-1.479 7.671 -1.002 115 71 34
-1.4809999 7.6760001 -1 210 173 144
0 0 0 1 0 0 0 1 0 0 0 1 0 0 0 0 0 998 1 0 0
