ply
format ascii 1.0
comment PCL generated
element vertex 1244
property float x
property float y
property float z
property uchar red
property uchar green
property uchar blue
element camera 0
property float view_px
property float view_py
property float view_pz
property float x_axisx
property float x_axisy
property float x_axisz
property float y_axisx
property float y_axisy
property float y_axisz
property float z_axisx
property float z_axisy
property float z_axisz
property float focal
property float scalex
property float scaley
property float centerx
property float centery
property int viewportx
property int viewporty
property float k1
property float k2
end_header
-8.2650003 2.148 -0.78200001 47 15 4
-8.2069998 2.1300001 -0.80299997 79 57 43
-8.2080002 2.1289999 -0.80199999 12 0 0
-8.2030001 2.1340001 -0.80500001 109 91 79
-8.2480001 2.145 -0.861 24 0 0
-8.25 2.145 -0.86299998 19 11 9
-8.0950003 2.1110001 -0.72500002 113 60 26
-8.2010002 2.1289999 -0.74699998 164 120 85
-8.1899996 2.1110001 -0.82999998 61 35 20
-8.1820002 2.112 -0.83499998 43 17 0
-8.177 2.0999999 -0.83700001 122 87 68
-8.2019997 2.1170001 -0.81699997 43 19 9
-8.1949997 2.1289999 -0.80299997 27 5 0
-8.2010002 2.1259999 -0.80000001 72 48 38
-8.125 2.1110001 -0.70099998 99 62 44
-8.1999998 2.0940001 -0.727 117 71 35
-8.1529999 2.0880001 -0.69999999 95 58 29
-8.151 2.082 -0.69499999 152 95 50
-8.151 2.0780001 -0.69599998 111 50 5
-8.1599998 2.092 -0.71200001 121 82 49
-8.2440004 2.0780001 -0.68800002 96 59 30
-8.1190004 2.089 -0.68599999 79 39 13
-8.1330004 2.0840001 -0.68900001 114 59 18
-8.1219997 2.0699999 -0.685 60 21 14
-8.29 2.122 -0.71200001 159 106 75
-8.2860003 2.154 -0.73500001 104 60 35
-8.2930002 2.1459999 -0.708 129 58 14
-8.2860003 2.152 -0.71799999 51 18 1
-8.2810001 2.1619999 -0.72299999 105 87 77
-8.2889996 2.152 -0.70899999 75 26 0
-8.2880001 2.152 -0.71200001 72 27 4
-8.2860003 2.154 -0.70999998 84 43 15
-8.2670002 2.1670001 -0.713 44 18 5
-8.1149998 2.039 -0.77700001 117 73 48
-8.1330004 2.05 -0.77700001 114 90 62
-8.2559996 2.0350001 -0.68900001 195 142 76
-8.2609997 2.062 -0.73199999 48 19 3
-8.2530003 2.062 -0.72399998 21 7 4
-8.2519999 2.069 -0.72600001 48 29 22
-8.2519999 2.066 -0.72600001 15 1 0
-8.2980003 2.0769999 -0.80500001 56 26 2
-8.2849998 2.1140001 -0.83999997 11 6 2
-8.2919998 2.1059999 -0.83200002 132 68 41
-8.283 2.1070001 -0.91000003 120 103 93
-8.2950001 2.0669999 -0.87 100 85 78
-8.2819996 2.0999999 -0.89300001 74 47 38
-8.2770004 2.1110001 -0.88700002 5 0 1
-8.2749996 2.1129999 -0.89099997 4 0 0
-8.2779999 2.1059999 -0.85399997 32 17 12
-8.2770004 2.109 -0.85399997 15 1 0
-8.2729998 2.141 -0.85399997 113 98 91
-8.2770004 2.1429999 -0.87 18 1 0
-8.2370005 2.148 -0.89700001 110 92 82
-8.2860003 2.1159999 -0.833 185 118 75
-8.224 2.096 -0.81699997 37 17 10
-8.2360001 2.098 -0.80299997 35 7 3
-8.2360001 2.0910001 -0.84200001 99 64 45
-8.25 2.089 -0.83899999 84 60 48
-8.3079996 2.1010001 -0.79799998 35 7 0
-8.2950001 2.1099999 -0.80000001 15 0 0
-8.2659998 2.0969999 -0.77899998 10 0 0
-8.2670002 2.102 -0.78200001 138 92 68
-8.2880001 2.0739999 -0.80299997 62 33 17
-8.2889996 2.085 -0.82599998 15 4 2
-8.2950001 2.0910001 -0.81900001 42 16 3
-8.2950001 2.072 -0.80599999 165 131 104
-8.2910004 2.082 -0.84899998 36 12 2
-8.2880001 2.0880001 -0.84799999 11 0 0
-8.2869997 2.0829999 -0.85900003 30 15 10
-8.2840004 2.0829999 -0.86299998 44 29 24
-8.2609997 2.0829999 -0.83700001 57 35 21
-8.2550001 2.075 -0.84899998 41 22 8
-8.2849998 2.125 -0.79299998 14 4 3
-8.2279997 2.0910001 -0.78899997 69 30 15
-8.2370005 2.0869999 -0.78399998 34 1 0
-8.2629995 2.0880001 -0.77499998 12 0 0
-8.1009998 2.0450001 -0.83700001 22 9 3
-8.1020002 2.046 -0.84100002 46 29 22
-8.1190004 2.0469999 -0.83700001 64 27 1
-8.1219997 2.0450001 -0.83200002 42 9 2
-8.1140003 2.05 -0.80800003 34 9 4
-8.1110001 2.049 -0.815 17 0 0
-8.1219997 2.1370001 -0.84399998 50 23 14
-8.1129999 2.1429999 -0.80400002 141 107 82
-8.1610003 2.128 -0.82700002 20 5 0
-8.1269999 2.0810001 -0.796 126 106 95
-8.1470003 2.135 -0.83099997 104 53 22
-8.1440001 2.1359999 -0.83399999 30 13 5
-8.1160002 2.1429999 -0.84200001 115 87 73
-8.1140003 2.1389999 -0.84399998 62 32 24
-8.1169996 2.0699999 -0.74400002 29 6 0
-8.1129999 2.075 -0.745 50 10 0
-8.1540003 2.059 -0.759 108 73 51
-8.1689997 2.0929999 -0.77100003 64 34 24
-8.1709995 2.099 -0.778 50 27 19
-8.1700001 2.0669999 -0.97500002 26 7 3
-8.1719999 2.0610001 -0.98199999 53 14 0
-8.177 2.069 -0.98400003 44 0 0
-8.184 2.069 -0.991 47 4 0
-8.1750002 2.062 -0.98400003 40 4 0
-8.1730003 2.0669999 -0.98100001 34 11 5
-8.2910004 2.072 -0.86900002 36 17 10
-8.2889996 2.072 -0.87199998 21 6 3
-8.2440004 2.0810001 -0.88499999 39 3 0
-8.2580004 2.0829999 -0.89300001 45 16 8
-8.2480001 2.0829999 -0.89399999 122 77 46
-8.2410002 2.086 -0.86699998 102 65 46
-8.2290001 2.0910001 -0.86900002 46 28 16
-8.2670002 2.1140001 -1.031 54 11 0
-8.2469997 2.1110001 -1.026 89 44 21
-8.2320004 2.1029999 -1.034 255 196 123
-8.2749996 2.138 -0.99400002 34 7 0
-8.243 2.152 -0.949 11 3 1
-8.257 2.151 -0.97600001 8 3 0
-8.2449999 2.1440001 -0.889 111 92 86
-8.2340002 2.141 -0.88499999 128 106 95
-8.2279997 2.131 -0.86500001 107 96 94
-8.1260004 2.079 -0.85399997 37 8 0
-8.1359997 2.0780001 -0.83999997 67 39 17
-8.1429996 2.122 -0.82999998 90 61 43
-8.158 2.1159999 -0.82999998 96 91 88
-8.1370001 2.1099999 -0.82999998 138 107 87
-8.1289997 2.109 -0.82200003 26 2 0
-8.1269999 2.119 -0.81999999 22 1 0
-8.1330004 2.109 -0.83099997 46 32 23
-8.1359997 2.0769999 -0.80800003 60 25 5
-8.1330004 2.082 -0.81999999 59 26 9
-8.1309996 2.125 -0.86900002 27 9 0
-8.1280003 2.1270001 -0.866 11 0 0
-8.1429996 2.115 -0.85799998 22 1 0
-8.2469997 2.089 -0.833 34 12 1
-8.2609997 2.086 -0.79299998 150 122 110
-8.2279997 2.102 -0.84799999 31 8 0
-8.2250004 2.109 -0.85299999 86 42 17
-8.2279997 2.109 -0.85600001 54 11 0
-8.1700001 2.1010001 -0.833 35 8 0
-8.1669998 2.0899999 -0.829 75 39 23
-8.1689997 2.0929999 -0.833 45 9 0
-8.1709995 2.1010001 -0.83600003 20 1 0
-8.1789999 2.1129999 -0.83600003 18 0 0
-8.177 2.1199999 -0.83999997 38 18 7
-8.2410002 2.085 -0.95099998 27 9 7
-8.2480001 2.0880001 -0.93800002 90 68 54
-8.2250004 2.0910001 -0.94700003 99 76 62
-8.2530003 2.0869999 -0.91000003 48 19 1
-8.2449999 2.096 -0.91000003 39 21 9
-8.2460003 2.0910001 -0.92900002 84 60 50
-8.2489996 2.096 -0.92000002 40 11 0
-8.2530003 2.092 -0.92000002 42 10 0
-8.2770004 2.069 -0.85500002 61 30 10
-8.2290001 2.118 -0.73900002 70 33 6
-8.2209997 2.095 -0.83200002 136 114 103
-8.1990004 2.098 -0.84399998 107 78 64
-8.1999998 2.096 -0.83499998 34 7 0
-8.1529999 2.059 -0.78500003 91 72 65
-8.0439997 2.066 -0.84799999 51 14 0
-8.0509996 2.075 -0.84899998 39 5 3
-8.1350002 2.1340001 -0.83700001 32 16 16
-8.1230001 2.108 -0.86500001 35 22 16
-8.2130003 2.155 -1.039 20 0 0
-8.2279997 2.1600001 -1.068 20 5 2
-8.0690002 2.1300001 -0.98400003 59 34 14
-8.0690002 2.118 -0.991 94 62 37
-8.0609999 2.096 -1.01 127 103 99
-8.0640001 2.0929999 -1.018 22 7 4
-8.2349997 2.1589999 -1.012 8 0 0
-8.2440004 2.1489999 -1.0140001 27 10 3
-8.2489996 2.1470001 -0.99900001 57 40 30
-8.2259998 2.152 -1.025 247 225 212
-8.177 2.056 -1.003 41 8 1
-8.1610003 2.053 -1.005 17 1 1
-8.1660004 2.0510001 -1.003 15 5 3
-8.1730003 2.0439999 -0.99299997 39 20 6
-8.1269999 2.0539999 -1.03 41 8 0
-8.118 2.062 -1.031 19 0 0
-8.1160002 2.0610001 -1.023 24 3 0
-8.2539997 2.1600001 -1.069 42 27 20
-8.2279997 2.158 -1.079 10 1 2
-8.2229996 2.155 -1.079 15 7 5
-8.2229996 2.082 -1.087 54 12 0
-8.2150002 2.072 -1.074 38 18 17
-8.2259998 2.109 -1.079 12 0 0
-8.2019997 2.102 -1.071 46 27 21
-8.2010002 2.1040001 -1.067 30 6 0
-8.1999998 2.1059999 -1.069 102 61 39
-8.21 2.095 -1.0829999 44 30 29
-8.2150002 2.099 -1.087 57 27 17
-8.2209997 2.0910001 -1.092 76 38 27
-8.0679998 2.1400001 -0.99000001 81 53 32
-8.0550003 2.0810001 -0.97799999 18 0 0
-8.0530005 2.0810001 -0.97299999 35 12 4
-8.0459995 2.085 -0.97500002 30 12 8
-8.0459995 2.076 -0.97000003 20 2 0
-8.04 2.0769999 -0.95499998 61 34 23
-8.0509996 2.0799999 -0.97600001 24 7 0
-8.0579996 2.1140001 -0.93400002 21 0 0
-8.0559998 2.1199999 -0.93099999 31 2 0
-8.0539999 2.1010001 -0.93599999 9 0 0
-8.0579996 2.1210001 -0.93599999 50 18 7
-8.059 2.108 -0.93800002 26 2 0
-8.0799999 2.1170001 -0.94499999 20 2 0
-8.0819998 2.1140001 -0.94400001 33 15 5
-8.1370001 2.151 -0.82099998 102 75 64
-8.1409998 2.1530001 -0.81 153 125 113
-8.1099997 2.1570001 -0.833 25 0 0
-8.0979996 2.148 -0.82099998 116 74 52
-8.0970001 2.1440001 -0.82499999 56 28 14
-8.0900002 2.1210001 -0.83399999 177 140 124
-8.0500002 2.0810001 -0.82499999 56 7 0
-8.0979996 2.1440001 -0.83499998 101 87 78
-8.1020002 2.1140001 -0.81199998 47 18 10
-8.0760002 2.0999999 -0.82300001 48 29 25
-8.0799999 2.105 -0.82499999 24 6 2
-8.1129999 2.056 -0.86400002 35 12 0
-8.085 2.0480001 -0.92000002 20 1 0
-8.1190004 2.082 -0.90799999 12 2 1
-8.1040001 2.056 -0.88999999 52 24 3
-8.1059999 2.05 -0.89999998 116 79 60
-8.0819998 2.05 -0.884 11 2 3
-8.0769997 2.0569999 -0.89499998 79 52 35
-8.0740004 2.0550001 -0.88099998 66 42 30
-8.0900002 2.0510001 -0.903 41 23 21
-8.085 2.049 -0.884 78 40 19
-8.0790005 2.0510001 -0.87400001 17 2 0
-8.0819998 2.053 -0.88800001 6 2 0
-8.1160002 2.119 -0.88499999 15 0 0
-8.0900002 2.0580001 -1.0650001 102 67 39
-8.1169996 2.059 -1.043 74 43 25
-8.1070004 2.0680001 -1.075 139 100 71
-8.1070004 2.0769999 -1.0700001 87 56 36
-8.085 2.066 -1.091 38 8 0
-8.0880003 2.0650001 -1.089 23 4 0
-8.1110001 2.063 -0.99299997 47 24 16
-8.1079998 2.0569999 -1.007 83 51 40
-8.1129999 2.0539999 -0.99900001 109 73 47
-8.0979996 2.0480001 -0.96399999 125 84 62
-8.099 2.049 -0.96700001 140 96 67
-8.1429996 2.0539999 -0.99800003 103 70 51
-8.1040001 2.102 -0.92000002 19 3 3
-8.0970001 2.105 -0.92000002 19 4 1
-8.1020002 2.102 -0.92199999 22 4 2
-8.1359997 2.0829999 -0.96399999 144 99 68
-8.2200003 2.151 -1.013 45 25 24
-8.2150002 2.1489999 -1.022 22 3 0
-8.2130003 2.145 -1.008 22 2 1
-8.0690002 2.1389999 -0.99900001 13 1 1
-8.0710001 2.1389999 -0.99800003 67 49 39
-8.0670004 2.1389999 -0.99900001 22 11 9
-8.0609999 2.138 -0.99699998 34 6 0
-8.0609999 2.142 -1 42 10 0
-8.0900002 2.128 -1.0089999 44 28 28
-8.0819998 2.1110001 -1.029 12 1 0
-8.0950003 2.0869999 -1.079 10 2 0
-8.1040001 2.076 -1.061 16 5 3
-8.1029997 2.075 -1.057 38 19 13
-8.1029997 2.096 -1.029 45 25 14
-8.1049995 2.0929999 -1.03 19 1 1
-8.1059999 2.105 -1.018 42 19 11
-8.099 2.1059999 -1.005 178 132 96
-8.1020002 2.118 -1.012 13 0 0
-8.1149998 2.063 -1.017 29 16 10
-8.1149998 2.053 -1.038 127 89 66
-8.1129999 2.073 -1.033 24 5 0
-8.1160002 2.0639999 -1.0319999 35 15 6
-8.1049995 2.082 -1.04 175 130 97
-8.0559998 2.0780001 -1.003 33 4 0
-8.0550003 2.0739999 -0.98000002 27 8 4
-8.0790005 2.0650001 -0.98799998 41 18 4
-8.066 2.0710001 -1.003 19 1 0
-8.0559998 2.0680001 -1.036 33 8 1
-8.0539999 2.0969999 -0.93099999 61 43 41
-8.1400003 2.069 -0.99599999 16 0 0
-8.1450005 2.0639999 -0.99699998 39 15 3
-8.1389999 2.0880001 -0.98100001 73 19 0
-8.1160002 2.085 -0.98699999 47 20 9
-8.1230001 2.0739999 -0.99299997 86 50 26
-8.1520004 2.089 -0.98000002 67 9 5
-8.118 2.062 -1.0369999 132 100 75
-8.2390003 2.1570001 -0.99299997 8 0 0
-8.2390003 2.1040001 -1.038 199 133 81
-8.2309999 2.099 -1.041 244 182 107
-8.2329998 2.1010001 -1.038 225 167 94
-8.2290001 2.099 -1.041 231 172 102
-8.2290001 2.102 -1.0369999 176 126 53
-8.2489996 2.155 -1.0369999 22 4 0
-8.2489996 2.1489999 -1.027 214 178 154
-8.2779999 2.0480001 -0.69400001 169 113 64
-8.2700005 2.059 -0.70499998 79 32 6
-8.2709999 2.072 -0.69099998 120 69 40
-8.2779999 2.0680001 -0.69400001 217 132 78
-8.2629995 2.066 -0.67199999 65 25 0
-8.2659998 2.0599999 -0.67199999 243 219 155
-8.2419996 2.069 -0.67299998 192 112 49
-8.0909996 2.027 -0.99599999 77 42 14
-8.0930004 2.0469999 -1.041 44 7 0
-8.0970001 2.0450001 -1.039 43 6 0
-8.0889997 2.052 -1.0420001 24 5 1
-8.0959997 2.0420001 -1.028 42 15 4
-8.0880003 2.0309999 -0.98799998 98 61 35
-8.0889997 2.033 -0.98699999 66 33 14
-8.1049995 2.0480001 -0.98100001 103 72 51
-8.0550003 2.059 -0.90499997 81 53 41
-8.0690002 2.0569999 -0.92299998 20 0 0
-8.0699997 2.0569999 -0.92400002 42 20 9
-8.0450001 2.073 -0.95599997 101 75 62
-8.0410004 2.073 -0.92400002 39 20 16
-8.0430002 2.0799999 -0.92400002 21 1 0
-8.0780001 2.0550001 -0.95200002 42 14 2
-8.1049995 2.053 -0.87 44 26 14
-8.1070004 2.053 -0.86900002 39 20 5
-8.2600002 2.1289999 -1.062 28 10 6
-8.2629995 2.138 -1.064 25 10 7
-8.2370005 2.158 -1.043 98 68 44
-8.2220001 2.154 -1.039 136 114 103
-8.2629995 2.1600001 -0.66100001 75 24 3
-8.2740002 2.1719999 -0.66100001 135 81 45
-8.2700005 2.177 -0.66100001 212 158 68
-8.2799997 2.187 -0.67000002 182 116 56
-8.0950003 2.1070001 -0.91000003 32 24 21
-8.0790005 2.1029999 -0.91100001 12 1 0
-8.1190004 2.0869999 -0.898 18 6 6
-8.0600004 2.128 -0.991 20 2 0
-8.066 2.112 -1.0140001 28 9 3
-8.0649996 2.0610001 -1.031 162 135 124
-8.2349997 2.0880001 -1.064 177 99 27
-8.2250004 2.082 -1.075 112 45 3
-8.1049995 2.066 -1.0700001 128 93 71
-8.2860003 2.1500001 -0.75 133 91 67
-8.2849998 2.1440001 -0.73299998 119 102 94
-8.2559996 2.154 -0.74599999 83 54 38
-8.2130003 2.1199999 -0.76700002 105 60 41
-8.2019997 2.086 -0.755 145 79 53
-8.1969995 2.0840001 -0.74599999 94 33 4
-8.2530003 2.0810001 -0.79400003 121 93 81
-8.2449999 2.0550001 -0.704 218 140 101
-8.2320004 2.072 -0.74400002 83 61 48
-8.2159996 2.0869999 -0.75599998 149 79 28
-8.2329998 2.076 -0.75099999 174 130 105
-8.2360001 2.072 -0.75199997 104 75 59
-8.2379999 2.0769999 -0.759 85 35 10
-8.25 2.0639999 -0.741 21 3 0
-8.2580004 2.0810001 -0.69300002 75 39 15
-8.2489996 2.135 -0.699 126 64 39
-8.2460003 2.1600001 -0.68000001 134 77 50
-8.2519999 2.1489999 -0.69 155 81 46
-8.2550001 2.1760001 -0.68199998 136 80 45
-8.2449999 2.049 -0.67400002 153 126 107
-8.2390003 2.0739999 -0.69099998 185 128 73
-8.1999998 2.0829999 -0.74000001 117 75 50
-8.2370005 2.0680001 -0.68900001 130 82 59
-8.2550001 2.0480001 -0.69999999 111 71 45
-8.2580004 2.046 -0.69599998 82 20 0
-8.2629995 2.05 -0.69599998 129 64 24
-8.2550001 2.152 -0.66600001 131 85 59
-8.2600002 2.1340001 -0.69499999 123 70 28
-8.2440004 2.0940001 -0.79799998 29 1 0
-8.2379999 2.109 -0.73000002 49 27 16
-8.2320004 2.1129999 -0.72799999 40 1 0
-8.2110004 2.095 -0.73000002 47 5 0
-8.2550001 2.1300001 -0.71600002 124 97 90
-8.29 2.1659999 -0.667 236 167 90
-8.2749996 2.1589999 -0.66100001 75 28 2
-8.1289997 2.062 -0.69999999 96 54 29
-8.125 2.059 -0.70599997 90 36 0
-8.1009998 2.0899999 -0.72000003 28 3 0
-8.0970001 2.1029999 -0.73299998 25 5 0
-8.0979996 2.099 -0.73100001 38 18 11
-8.1199999 2.043 -0.81300002 28 3 0
-8.1149998 2.0510001 -0.80599999 20 2 0
-8.1169996 2.053 -0.85699999 39 7 0
-8.085 2.0510001 -0.84799999 25 6 2
-8.0819998 2.0450001 -0.86400002 77 42 23
-8.0690002 2.053 -0.86000001 15 4 2
-8.0760002 2.0550001 -0.85299999 21 2 0
-8.0909996 2.049 -0.91000003 58 32 17
-8.099 2.05 -0.90700001 78 51 42
-8.1070004 2.052 -0.866 32 13 0
-8.1049995 2.053 -0.86799997 41 23 11
-8.1049995 2.052 -0.85600001 37 17 6
-8.0760002 2.05 -0.86699998 161 129 114
-8.0600004 2.0880001 -0.85100001 40 7 0
-8.066 2.096 -0.84399998 39 20 14
-8.0790005 2.109 -0.85699999 15 0 0
-8.073 2.0969999 -0.82499999 68 16 2
-8.0670004 2.098 -0.85100001 4 0 0
-8.066 2.089 -0.83399999 121 93 81
-8.1409998 2.0550001 -0.78500003 21 3 1
-8.1459999 2.0880001 -0.77100003 71 45 30
-8.1389999 2.0810001 -0.77399999 36 18 8
-8.1230001 2.0810001 -0.78299999 73 27 3
-8.1239996 2.0869999 -0.77499998 16 1 0
-8.1269999 2.102 -0.77100003 12 1 0
-8.1309996 2.105 -0.773 16 1 0
-8.1040001 2.0810001 -0.759 58 34 22
-8.1090002 2.0799999 -0.73699999 29 9 8
-8.1120005 2.079 -0.74199998 30 6 0
-8.1110001 2.095 -0.76800001 46 18 7
-8.1029997 2.095 -0.74900001 170 139 121
-8.0970001 2.1070001 -0.73400003 65 32 13
-8.1619997 2.0580001 -0.97799999 169 106 63
-8.191 2.1229999 -1.072 38 19 12
-8.1990004 2.1170001 -1.08 33 6 0
-8.1899996 2.1170001 -1.073 22 3 0
-8.1850004 2.122 -1.068 61 28 13
-8.2130003 2.1389999 -1.089 31 6 2
-8.217 2.1270001 -0.93199998 46 25 20
-8.2250004 2.1199999 -0.92299998 146 111 91
-8.191 2.128 -1.016 30 13 6
-8.1020002 2.062 -0.93000001 67 53 52
-8.1129999 2.0639999 -0.94099998 126 107 103
-8.1400003 2.0580001 -0.97000003 118 79 46
-8.2209997 2.0829999 -0.96799999 181 143 107
-8.2180004 2.082 -0.96799999 46 17 3
-8.2189999 2.082 -0.96200001 29 14 11
-8.2110004 2.1359999 -0.98799998 95 76 70
-8.2110004 2.118 -0.98500001 20 0 0
-8.1049995 2.0420001 -0.94 6 2 1
-8.1020002 2.039 -0.94400001 11 3 1
-8.1049995 2.039 -0.94099998 8 2 4
-8.0959997 2.0510001 -0.95999998 27 7 0
-8.1009998 2.0510001 -0.96200001 24 7 0
-8.1020002 2.05 -0.912 21 6 1
-8.1429996 2.066 -0.96899998 125 90 70
-8.1260004 2.0669999 -0.96100003 29 16 10
-8.1520004 2.0739999 -0.96899998 103 65 44
-8.1079998 2.0769999 -0.92699999 109 98 94
-8.0570002 2.0569999 -0.94099998 32 7 2
-8.0699997 2.0510001 -0.917 115 86 80
-8.0860004 2.052 -0.93000001 24 5 1
-8.0740004 2.059 -0.98299998 15 4 2
-8.0550003 2.0610001 -0.96499997 51 28 20
-8.0979996 2.0450001 -1.043 77 39 26
-8.1009998 2.043 -1.034 56 25 7
-8.1120005 2.0369999 -1.026 85 58 39
-8.0760002 2.059 -1.033 54 28 15
-8.085 2.0469999 -1.02 19 0 0
-8.1049995 2.0910001 -1.03 118 89 73
-8.1099997 2.0899999 -1.026 42 18 6
-8.1029997 2.082 -1.0089999 48 29 25
-8.0970001 2.073 -0.99900001 14 0 0
-8.1020002 2.075 -1.013 41 30 24
-8.2819996 2.122 -0.824 16 0 0
-8.2860003 2.1159999 -0.82499999 9 0 1
-8.2709999 2.145 -0.77399999 39 0 0
-8.2220001 2.108 -0.84899998 36 14 3
-8.2399998 2.141 -0.85900003 63 42 39
-8.2390003 2.1340001 -0.84200001 17 3 2
-8.2410002 2.1010001 -0.917 102 83 77
-8.2390003 2.1459999 -0.90499997 128 109 102
-8.2659998 2.1070001 -1.018 119 82 66
-8.2629995 2.1040001 -1.012 54 12 0
-8.2530003 2.109 -1.0089999 203 163 138
-8.2629995 2.1070001 -1.0140001 59 32 21
-8.2779999 2.1070001 -1.01 137 81 24
-8.2790003 2.1129999 -1.016 63 16 0
-8.2519999 2.1110001 -1.056 111 61 8
-8.2480001 2.1270001 -1.066 43 16 7
-8.2469997 2.125 -1.062 40 11 7
-8.2580004 2.1459999 -1.0190001 13 2 0
-8.2770004 2.145 -1.0089999 62 32 21
-8.2580004 2.1210001 -0.921 48 25 17
-8.2589998 2.0869999 -0.92900002 47 13 3
-8.2410002 2.148 -0.92199999 12 2 1
-8.2410002 2.148 -0.92699999 9 0 0
-8.2659998 2.1489999 -0.852 19 0 0
-8.2519999 2.141 -0.83600003 29 6 0
-8.2729998 2.145 -0.85500002 109 92 84
-8.2189999 2.1210001 -0.78399998 19 1 0
-8.2010002 2.1199999 -0.78200001 37 22 19
-8.2489996 2.1359999 -0.796 67 33 23
-8.2449999 2.1389999 -0.78399998 31 11 10
-8.2589998 2.141 -0.79699999 19 4 1
-8.2460003 2.135 -0.773 51 22 8
-8.2259998 2.131 -0.76200002 112 61 32
-8.2019997 2.1289999 -0.80199999 11 7 8
-8.2180004 2.1300001 -0.81099999 85 52 37
-8.2629995 2.1440001 -0.79299998 50 31 27
-8.2629995 2.1389999 -0.801 27 9 7
-8.2659998 2.1389999 -0.80299997 63 28 8
-8.2469997 2.1400001 -0.87400001 13 0 0
-8.2370005 2.135 -0.87400001 66 47 40
-8.0950003 2.1110001 -0.73000002 145 95 62
-8.1059999 2.1300001 -0.72899997 94 59 39
-8.1000004 2.1259999 -0.72399998 167 114 72
-8.1049995 2.118 -0.71700001 165 114 59
-8.132 2.1470001 -0.81 141 104 78
-8.125 2.142 -0.80800003 180 127 83
-8.1920004 2.1059999 -0.83700001 83 56 49
-8.2309999 2.122 -0.77399999 27 1 0
-8.2440004 2.1259999 -0.75599998 40 21 15
-8.1719999 2.085 -0.73799998 94 66 54
-8.1800003 2.0929999 -0.72399998 117 76 58
-8.2019997 2.098 -0.727 111 70 52
-8.1300001 2.096 -0.69599998 158 86 27
-8.151 2.0799999 -0.71799999 76 48 34
-8.118 2.076 -0.685 96 63 46
-8.1199999 2.0880001 -0.68599999 199 146 102
-8.1110001 2.0999999 -0.69400001 63 26 8
-8.2880001 2.1500001 -0.71700001 43 9 0
-8.276 2.1159999 -0.71100003 115 64 37
-8.2919998 2.135 -0.69999999 183 113 64
-8.2869997 2.152 -0.71499997 61 22 5
-8.2810001 2.164 -0.73100001 86 69 62
-8.2910004 2.1470001 -0.71600002 42 5 0
-8.2810001 2.158 -0.71200001 190 130 94
-8.2580004 2.0739999 -0.76899999 15 0 3
-8.1309996 2.056 -0.75199997 198 159 126
-8.1330004 2.056 -0.75800002 91 55 31
-8.1160002 2.039 -0.77399999 89 58 37
-8.1210003 2.0420001 -0.77999997 57 27 17
-8.25 2.0639999 -0.713 63 28 0
-8.2480001 2.066 -0.73799998 19 0 0
-8.2629995 2.075 -0.73500001 54 24 13
-8.2620001 2.0810001 -0.74199998 109 82 65
-8.2779999 2.0769999 -0.80500001 46 24 13
-8.2799997 2.063 -0.80199999 72 39 22
-8.2989998 2.092 -0.815 49 17 2
-8.2860003 2.112 -0.84200001 10 0 0
-8.2819996 2.1329999 -0.83499998 40 18 5
-8.2779999 2.1140001 -0.84500003 20 10 8
-8.2840004 2.092 -0.90499997 97 67 43
-8.2860003 2.0969999 -0.91500002 9 0 0
-8.2849998 2.0929999 -0.912 28 5 0
-8.2840004 2.0899999 -0.912 120 89 71
-8.2659998 2.1010001 -0.87400001 128 110 106
-8.2659998 2.099 -0.87599999 124 105 99
-8.2650003 2.1259999 -0.87099999 39 20 16
-8.2700005 2.1199999 -0.88200003 25 1 0
-8.2690001 2.108 -0.86299998 11 0 0
-8.257 2.155 -0.92000002 18 8 6
-8.2589998 2.155 -0.917 12 1 0
-8.2519999 2.1530001 -0.912 15 0 0
-8.2869997 2.085 -0.80500001 50 24 7
-8.2849998 2.076 -0.80299997 109 69 44
-8.2849998 2.073 -0.81300002 28 9 5
-8.2729998 2.085 -0.82599998 32 14 4
-8.2639999 2.089 -0.88200003 88 61 54
-8.2650003 2.0899999 -0.87599999 57 30 21
-8.2600002 2.0869999 -0.866 46 21 14
-8.2360001 2.0929999 -0.85600001 59 16 9
-8.2320004 2.0940001 -0.84299999 125 106 100
-8.2659998 2.099 -0.78500003 47 19 7
-8.2889996 2.1140001 -0.824 7 1 1
-8.2740002 2.1210001 -0.736 108 81 64
-8.2799997 2.128 -0.73900002 15 0 0
-8.2810001 2.1329999 -0.75199997 29 9 2
-8.2889996 2.138 -0.74800003 25 6 0
-8.2770004 2.1010001 -0.79900002 34 11 5
-8.2650003 2.109 -0.78200001 101 74 57
-8.2650003 2.105 -0.79100001 46 22 12
-8.2790003 2.122 -0.79699999 25 1 0
-8.2880001 2.122 -0.79500002 139 111 97
-8.2659998 2.1240001 -0.77899998 80 37 21
-8.2659998 2.1229999 -0.77100003 59 23 11
-8.2620001 2.1140001 -0.778 14 0 0
-8.2639999 2.0910001 -0.77899998 68 39 23
-8.2589998 2.0650001 -0.74599999 30 9 6
-8.1169996 2.046 -0.83099997 39 4 0
-8.118 2.049 -0.80900002 17 3 3
-8.1289997 2.1489999 -0.824 44 32 16
-8.1210003 2.086 -0.81300002 24 10 9
-8.1120005 2.0869999 -0.81099999 99 75 65
-8.1190004 2.1040001 -0.80500001 32 13 15
-8.1160002 2.1240001 -0.87599999 12 1 0
-8.1960001 2.086 -0.787 75 30 11
-8.1940002 2.096 -0.79699999 45 32 24
-8.1940002 2.095 -0.801 40 20 11
-8.1800003 2.1010001 -0.773 15 0 0
-8.1269999 2.1240001 -0.72399998 88 34 0
-8.1269999 2.122 -0.73000002 106 37 6
-8.1389999 2.1559999 -0.80800003 149 123 108
-8.099 2.118 -0.73699999 123 121 122
-8.1009998 2.1240001 -0.741 107 69 50
-8.1009998 2.1270001 -0.74699998 78 51 32
-8.1059999 2.0769999 -0.81300002 36 17 11
-8.1160002 2.0810001 -0.79100001 72 13 0
-8.1339998 2.0610001 -0.71499997 130 87 55
-8.1219997 2.0710001 -0.73100001 64 24 0
-8.1169996 2.0680001 -0.71899998 49 21 17
-8.1689997 2.085 -0.76300001 59 23 1
-8.1639996 2.0810001 -0.75800002 36 4 0
-8.1780005 2.085 -0.745 67 30 4
-8.1479998 2.0780001 -0.74599999 38 5 0
-8.2819996 2.0899999 -0.88999999 79 50 32
-8.2489996 2.089 -0.88099998 56 30 15
-8.2659998 2.1470001 -0.90200001 40 21 7
-8.2650003 2.148 -0.89700001 98 83 76
-8.2639999 2.155 -0.90100002 125 108 101
-8.2659998 2.1459999 -0.90200001 137 104 85
-8.2659998 2.1429999 -0.89899999 104 79 59
-8.2670002 2.145 -0.90899998 55 23 10
-8.2639999 2.1400001 -0.903 117 82 60
-8.2659998 2.1170001 -0.91100001 126 105 102
-8.2799997 2.1159999 -0.98000002 118 101 93
-8.2469997 2.092 -1.049 65 16 2
-8.2480001 2.096 -1.059 178 120 70
-8.2460003 2.0929999 -1.064 140 81 37
-8.2650003 2.099 -1.001 69 16 0
-8.2700005 2.1029999 -0.99900001 51 14 5
-8.2620001 2.1210001 -1.0470001 71 28 0
-8.2670002 2.122 -1.0369999 39 4 0
-8.2720003 2.119 -1.03 252 222 172
-8.2790003 2.1159999 -1.013 59 16 0
-8.2790003 2.1159999 -1.022 78 32 6
-8.2390003 2.1459999 -0.95300001 15 1 0
-8.2589998 2.1370001 -0.94700003 38 13 8
-8.2589998 2.1340001 -0.93800002 65 37 25
-8.2679996 2.1400001 -0.98500001 26 12 9
-8.2709999 2.135 -0.98000002 31 11 0
-8.2659998 2.1389999 -0.977 8 0 0
-8.2700005 2.1400001 -0.96399999 38 0 0
-8.2600002 2.1300001 -0.949 40 15 10
-8.2659998 2.1270001 -0.95999998 4 0 0
-8.2639999 2.138 -0.95999998 11 0 0
-8.1870003 2.1040001 -0.84500003 50 21 3
-8.2559996 2.1589999 -0.889 109 92 85
-8.2580004 2.155 -0.89399999 100 83 75
-8.2600002 2.1400001 -0.87900001 90 75 72
-8.1850004 2.1070001 -0.84600002 67 32 12
-8.177 2.1040001 -0.84299999 92 54 31
-8.1289997 2.0840001 -0.83499998 49 10 0
-8.1549997 2.1199999 -0.83099997 29 4 0
-8.1400003 2.1210001 -0.82999998 177 133 106
-8.132 2.1300001 -0.81900001 11 0 0
-8.1190004 2.0899999 -0.81900001 14 0 0
-8.2620001 2.089 -0.78600001 13 1 1
-8.2629995 2.0869999 -0.78399998 77 26 0
-8.217 2.0940001 -0.83700001 137 113 109
-8.2209997 2.098 -0.84100002 11 0 0
-8.1610003 2.095 -0.833 92 66 53
-8.1420002 2.0739999 -0.84100002 51 31 22
-8.243 2.0929999 -0.95599997 76 50 35
-8.2530003 2.099 -0.96399999 48 13 0
-8.2340002 2.0899999 -0.963 46 20 3
-8.2700005 2.0840001 -0.91900003 65 31 6
-8.2690001 2.082 -0.91399997 47 9 0
-8.2810001 2.0840001 -0.90799999 122 88 61
-8.2779999 2.0840001 -0.91000003 39 5 0
-8.2299995 2.0869999 -0.94700003 160 119 89
-8.2580004 2.0840001 -0.90899998 55 13 0
-8.2670002 2.082 -0.91399997 60 28 5
-8.2709999 2.082 -0.90399998 66 29 13
-8.2799997 2.0829999 -0.90499997 94 63 42
-8.2799997 2.085 -0.90100002 122 96 81
-8.2729998 2.0699999 -0.85600001 46 18 14
-8.2609997 2.082 -0.76499999 36 12 0
-8.2600002 2.079 -0.76800001 13 0 0
-8.1899996 2.1010001 -0.84399998 109 76 61
-8.0459995 2.075 -0.84500003 23 0 0
-8.1280003 2.109 -0.88300002 8 0 0
-8.1199999 2.099 -0.86900002 16 2 1
-8.1149998 2.0880001 -0.87 7 0 0
-8.1169996 2.0940001 -0.884 16 2 1
-8.2030001 2.141 -1.038 18 0 0
-8.2220001 2.151 -1.034 14 2 2
-8.217 2.1570001 -1.0420001 16 0 0
-8.1990004 2.1530001 -1.048 24 10 9
-8.2220001 2.1559999 -1.064 24 0 0
-8.2200003 2.1559999 -1.068 16 4 4
-8.2340002 2.161 -1.074 102 85 77
-8.066 2.115 -0.94400001 47 8 0
-8.059 2.0999999 -0.95499998 28 0 0
-8.0670004 2.1059999 -0.949 20 8 10
-8.184 2.0699999 -0.99299997 49 13 1
-8.1800003 2.049 -0.99900001 38 11 0
-8.2309999 2.096 -1.048 197 129 68
-8.2279997 2.096 -1.049 194 138 87
-8.1990004 2.1140001 -1.0779999 65 41 31
-8.2019997 2.1059999 -1.073 122 74 52
-8.2159996 2.089 -1.084 27 11 11
-8.0909996 2.0999999 -0.93000001 73 58 51
-8.0970001 2.099 -0.926 16 1 0
-8.0790005 2.0999999 -0.93599999 92 78 77
-8.0799999 2.105 -0.93900001 78 64 64
-8.0579996 2.1199999 -0.93300003 29 0 0
-8.0799999 2.1099999 -0.94199997 21 2 4
-8.0869999 2.1129999 -0.84100002 198 162 148
-8.1440001 2.0940001 -0.76999998 37 10 3
-8.1440001 2.098 -0.75599998 69 37 22
-8.118 2.1229999 -0.745 54 34 23
-8.1260004 2.1170001 -0.74699998 46 8 0
-8.1070004 2.109 -0.74299997 27 2 0
-8.118 2.118 -0.74699998 82 40 26
-8.1029997 2.1029999 -0.74299997 166 129 113
-8.1129999 2.096 -0.74800003 41 17 5
-8.1009998 2.1300001 -0.74299997 93 60 41
-8.1149998 2.1270001 -0.80299997 120 85 65
-8.1160002 2.131 -0.80199999 45 8 0
-8.1000004 2.1389999 -0.80599999 88 42 18
-8.092 2.125 -0.81300002 15 0 0
-8.1009998 2.0910001 -0.82099998 58 31 20
-8.1020002 2.1129999 -0.81800002 44 11 6
-8.1169996 2.0840001 -0.88200003 115 94 77
-8.1190004 2.073 -0.86900002 26 2 2
-8.1140003 2.0810001 -0.87 18 7 5
-8.1129999 2.089 -0.90799999 15 0 0
-8.1210003 2.076 -0.90799999 34 24 23
-8.1009998 2.0510001 -0.88099998 56 36 27
-8.0860004 2.1259999 -0.866 103 63 38
-8.0959997 2.1240001 -0.86900002 31 21 19
-8.0799999 2.1199999 -0.86699998 11 0 0
-8.1000004 2.115 -0.884 70 64 64
-8.1040001 2.118 -0.875 28 20 18
-8.0889997 2.056 -1.058 45 16 10
-8.1110001 2.0669999 -1.044 42 24 14
-8.1070004 2.0769999 -1.069 8 0 0
-8.1529999 2.05 -0.98500001 100 57 23
-8.1540003 2.0510001 -0.98100001 51 19 0
-8.1239996 2.0840001 -0.97899997 112 77 58
-8.1190004 2.085 -0.98199999 139 107 84
-8.1730003 2.079 -0.97500002 59 18 14
-8.1719999 2.0780001 -0.972 94 43 16
-8.1630001 2.0810001 -0.97299999 104 85 79
-8.1359997 2.0580001 -0.99199998 120 81 48
-8.1630001 2.0840001 -0.98100001 124 92 71
-8.1689997 2.0899999 -0.99599999 129 70 36
-8.1520004 2.086 -0.98100001 50 14 0
-8.1520004 2.0780001 -0.98799998 71 34 8
-8.1669998 2.086 -1.001 75 20 0
-8.1459999 2.069 -0.99599999 16 1 0
-8.1520004 2.0669999 -0.99900001 47 20 9
-8.1540003 2.059 -0.99800003 103 46 16
-8.2069998 2.152 -1.029 132 112 105
-8.0790005 2.135 -0.99699998 35 16 9
-8.0819998 2.132 -1.0089999 17 3 2
-8.0889997 2.119 -1.0190001 21 0 0
-8.085 2.122 -1.015 9 0 0
-8.0930004 2.122 -1.001 19 1 0
-8.1079998 2.0999999 -0.986 20 2 0
-8.0699997 2.0669999 -1.0089999 166 146 135
-8.0530005 2.0799999 -1.025 55 19 7
-8.0640001 2.082 -1.038 134 117 110
-8.066 2.0910001 -1.026 20 6 5
-8.0640001 2.0840001 -1.043 122 99 91
-8.0839996 2.1110001 -1.033 15 4 2
-8.0749998 2.102 -1.029 18 0 0
-8.099 2.086 -1.071 32 7 0
-8.0930004 2.0869999 -1.063 29 6 0
-8.0839996 2.0880001 -1.075 153 135 135
-8.0950003 2.086 -1.063 31 8 0
-8.1160002 2.0550001 -1.02 54 22 11
-8.1120005 2.0450001 -1.021 98 62 36
-8.073 2.0380001 -0.97600001 119 66 35
-8.066 2.086 -0.89999998 17 3 3
-8.0559998 2.0869999 -0.89700001 36 15 10
-8.073 2.099 -0.90100002 22 4 2
-8.0640001 2.0840001 -0.90399998 87 47 22
-8.0559998 2.099 -0.94 14 0 0
-8.1049995 2.076 -0.99000001 55 25 15
-8.0939999 2.1029999 -0.98900002 64 42 31
-8.092 2.099 -0.98500001 141 118 110
-8.1479998 2.0739999 -0.99299997 57 19 0
-8.1569996 2.076 -0.99900001 125 93 72
-8.1280003 2.0899999 -0.97600001 47 9 0
-8.1029997 2.099 -0.95499998 29 2 0
-8.1029997 2.098 -0.94999999 187 155 134
-8.0939999 2.1010001 -0.949 33 9 0
-8.2379999 2.1500001 -1.005 19 1 0
-8.2229996 2.154 -1.013 18 0 0
-8.2250004 2.0969999 -1.048 53 12 0
-8.2270002 2.0999999 -1.041 74 38 14
-8.2159996 2.0910001 -1.056 143 83 49
-8.2130003 2.1070001 -1.039 157 107 72
-8.1870003 2.1199999 -1.0650001 40 7 0
-8.2609997 2.0439999 -0.69400001 213 133 64
-8.2629995 2.0599999 -0.66900003 142 102 51
-8.2690001 2.0510001 -0.67500001 180 118 69
-8.2729998 2.0539999 -0.67699999 255 248 193
-8.2779999 2.0680001 -0.68599999 174 117 72
-8.2790003 2.1170001 -0.70999998 128 72 55
-8.2819996 2.1259999 -0.71600002 116 59 32
-8.2810001 2.1300001 -0.72000003 79 22 5
-8.1009998 2.039 -0.99599999 18 10 7
-8.092 2.0350001 -0.99000001 69 41 29
-8.1140003 2.043 -1.023 180 143 124
-8.0860004 2.0320001 -0.98699999 116 79 52
-8.0909996 2.0350001 -0.98699999 36 8 0
-8.0559998 2.0669999 -0.90600002 74 45 31
-8.085 2.0539999 -0.90600002 80 33 7
-8.0469999 2.0710001 -0.96100003 49 26 12
-8.0419998 2.0739999 -0.92000002 50 27 21
-8.0530005 2.073 -0.91600001 53 29 19
-8.0760002 2.125 -0.98699999 20 6 5
-8.0769997 2.1229999 -0.991 55 35 24
-8.0869999 2.0969999 -0.95499998 38 13 6
-8.0810003 2.0940001 -0.95599997 8 0 0
-8.0900002 2.0940001 -0.97899997 15 0 0
-8.1099997 2.0539999 -0.87199998 44 22 8
-8.2559996 2.1530001 -1.059 21 10 8
-8.066 2.0910001 -0.89099997 27 3 0
-8.0559998 2.0739999 -0.88099998 29 9 2
-8.0600004 2.0810001 -0.86500001 29 1 0
-8.0719995 2.102 -0.912 14 0 0
-8.1160002 2.0669999 -0.90700001 96 63 46
-8.1199999 2.1010001 -0.89700001 56 31 24
-8.0869999 2.095 -1.0470001 71 56 51
-8.0769997 2.0910001 -1.039 23 5 3
-8.0790005 2.096 -1.035 20 1 3
-8.0950003 2.0880001 -1.04 16 2 0
-8.0629997 2.062 -1.024 24 0 0
-8.0699997 2.0799999 -1.052 47 17 6
-8.0600004 2.059 -1.045 27 13 12
-8.0649996 2.0610001 -1.04 181 157 147
-8.066 2.0610001 -1.029 166 148 138
-8.0620003 2.0710001 -1.067 143 129 126
-8.2299995 2.0799999 -1.081 135 72 28
-8.1000004 2.05 -0.963 55 18 0
-8.1029997 2.052 -0.963 93 49 20
-8.2819996 2.1559999 -0.74599999 83 63 52
-8.2700005 2.1730001 -0.70700002 100 69 51
-8.29 2.1730001 -0.69999999 118 74 45
-8.2860003 2.154 -0.736 83 62 57
-8.2620001 2.1389999 -0.71799999 146 111 92
-8.2559996 2.1400001 -0.72799999 86 48 27
-8.2700005 2.165 -0.74199998 112 80 57
-8.2790003 2.164 -0.73400003 109 92 84
-8.2489996 2.1389999 -0.73799998 52 20 7
-8.1280003 2.118 -0.73400003 138 102 78
-8.1169996 2.0699999 -0.722 77 31 8
-8.1040001 2.0899999 -0.74000001 22 4 2
-8.2150002 2.0880001 -0.76200002 50 27 13
-8.1990004 2.085 -0.76300001 139 78 47
-8.2370005 2.0810001 -0.77499998 77 45 30
-8.2410002 2.076 -0.764 28 0 0
-8.2589998 2.0780001 -0.792 90 53 34
-8.1090002 2.1029999 -0.70099998 112 83 67
-8.2410002 2.049 -0.69599998 187 132 76
-8.25 2.05 -0.699 43 4 0
-8.2519999 2.0599999 -0.73100001 23 0 0
-8.243 2.0680001 -0.74800003 30 2 0
-8.2180004 2.0869999 -0.75400001 73 40 25
-8.2460003 2.1670001 -0.67400002 165 110 69
-8.2639999 2.0510001 -0.67199999 184 154 104
-8.2600002 2.131 -0.70300001 168 108 71
-8.2639999 2.131 -0.71200001 119 67 30
-8.2510004 2.0409999 -0.69400001 79 31 8
-8.2530003 2.0369999 -0.68099999 121 75 49
-8.2370005 2.1070001 -0.73100001 72 31 25
-8.2469997 2.0880001 -0.73699999 28 3 0
-8.2460003 2.082 -0.73900002 50 23 14
-8.2609997 2.0869999 -0.74400002 96 50 27
-8.21 2.1040001 -0.72500002 174 133 103
-8.2290001 2.109 -0.73199999 81 31 0
-8.1239996 2.059 -0.70899999 161 112 79
-8.1379995 2.053 -0.82800001 25 4 1
-8.1129999 2.053 -0.86199999 61 35 20
-8.0900002 2.0469999 -0.84299999 58 28 18
-8.0819998 2.0439999 -0.86699998 15 1 0
-8.0780001 2.0510001 -0.86000001 34 17 10
-8.0909996 2.05 -0.90799999 65 47 43
-8.0719995 2.0569999 -0.87699997 47 27 18
-8.1009998 2.052 -0.85900003 18 8 6
-8.1020002 2.053 -0.86400002 9 0 0
-8.0509996 2.082 -0.85500002 35 5 0
-8.0579996 2.0810001 -0.82700002 17 3 2
-8.0690002 2.099 -0.84500003 19 0 0
-8.0670004 2.098 -0.85000002 11 1 0
-8.0609999 2.085 -0.83499998 66 40 27
-8.0539999 2.072 -0.82499999 36 17 11
-8.0649996 2.096 -0.85699999 27 2 0
-8.0640001 2.0899999 -0.86500001 38 23 20
-8.1440001 2.0569999 -0.77600002 75 54 49
-8.1199999 2.0510001 -0.79799998 38 14 2
-8.1470003 2.092 -0.77100003 18 0 0
-8.1059999 2.0539999 -0.78100002 71 47 35
-8.1219997 2.1040001 -0.77100003 14 0 0
-8.1230001 2.1040001 -0.764 47 30 23
-8.1190004 2.098 -0.76700002 20 6 5
-8.099 2.1010001 -0.73699999 45 22 14
-8.165 2.0510001 -0.98199999 45 16 2
-8.1599998 2.049 -0.98199999 74 31 15
-8.2229996 2.1029999 -1.044 152 110 88
-8.2349997 2.1040001 -1.036 191 126 58
-8.1990004 2.119 -1.079 50 27 11
-8.2060003 2.1259999 -1.0779999 110 81 73
-8.2049999 2.1300001 -1.072 126 108 104
-8.2049999 2.1329999 -1.071 107 89 85
-8.1999998 2.132 -1.013 32 7 2
-8.2150002 2.1229999 -0.97600001 24 0 0
-8.1370001 2.0580001 -0.97399998 172 108 60
-8.2329998 2.1389999 -0.93000001 67 44 36
-8.21 2.0969999 -0.96700001 95 64 44
-8.2299995 2.0869999 -0.95700002 48 20 6
-8.2340002 2.0829999 -0.97799999 27 0 0
-8.224 2.1010001 -1.025 41 3 0
-8.2709999 2.1010001 -0.98500001 155 106 76
-8.2360001 2.0769999 -0.98199999 130 113 103
-8.2360001 2.1210001 -1.0140001 141 113 102
-8.2370005 2.1210001 -1.01 128 98 87
-8.2259998 2.108 -1.012 25 16 17
-8.2299995 2.0769999 -0.991 24 4 0
-8.2299995 2.0799999 -0.98299998 140 112 98
-8.2110004 2.082 -0.97500002 135 100 78
-8.217 2.086 -0.98699999 116 98 88
-8.2010002 2.0940001 -0.99900001 93 61 40
-8.2040005 2.092 -0.98299998 130 112 98
-8.2150002 2.089 -0.986 45 15 4
-8.2080002 2.085 -0.977 21 10 8
-8.2189999 2.085 -0.98799998 114 94 83
-8.1990004 2.1029999 -0.97500002 55 27 15
-8.2049999 2.109 -0.97899997 18 0 0
-8.2019997 2.108 -0.99400002 40 3 0
-8.0979996 2.049 -0.93099999 65 23 1
-8.1289997 2.0580001 -0.96899998 83 51 28
-8.1099997 2.0610001 -0.94800001 37 22 19
-8.1029997 2.0550001 -0.94999999 76 49 32
-8.1140003 2.05 -0.90399998 60 32 10
-8.1160002 2.0539999 -0.903 30 8 0
-8.1120005 2.0569999 -0.912 65 44 41
-8.1549997 2.0569999 -0.977 147 90 45
-8.151 2.0550001 -0.977 141 110 89
-8.1450005 2.0610001 -0.97000003 81 44 17
-8.1420002 2.073 -0.96799999 107 76 47
-8.1529999 2.062 -0.972 161 118 84
-8.1110001 2.0829999 -0.91100001 25 10 7
-8.1029997 2.0899999 -0.93900001 60 41 37
-8.0649996 2.0739999 -0.93199998 22 4 2
-8.059 2.075 -0.91600001 39 10 6
-8.0620003 2.092 -0.93400002 143 118 98
-8.066 2.0840001 -0.93800002 21 0 0
-8.0819998 2.0539999 -0.926 22 8 7
-8.0780001 2.052 -0.98900002 17 6 4
-8.0780001 2.05 -0.99199998 19 1 0
-8.0699997 2.086 -0.972 135 99 83
-8.1049995 2.0420001 -1.034 52 25 14
-8.0970001 2.0450001 -1.036 40 8 0
-8.2559996 2.145 -0.76999998 59 39 32
-8.2559996 2.1429999 -0.76499999 32 13 6
-8.2110004 2.0999999 -0.84500003 51 24 13
-8.2220001 2.1300001 -0.898 136 116 107
-8.2609997 2.155 -0.93000001 12 8 7
-8.2600002 2.1459999 -0.93400002 9 1 0
-8.2550001 2.112 -1.016 89 76 70
-8.2679996 2.1099999 -1.021 71 44 23
-8.276 2.1070001 -1.006 178 130 84
-8.2600002 2.1140001 -1.048 85 71 71
-8.243 2.1140001 -1.058 36 6 0
-8.243 2.1040001 -0.91000003 81 67 64
-8.243 2.1029999 -0.912 76 65 63
-8.2390003 2.109 -0.91299999 31 7 7
-8.257 2.1459999 -0.94099998 9 5 4
-8.2559996 2.1500001 -0.94999999 8 2 2
-8.2580004 2.148 -0.93900001 33 14 8
-8.25 2.154 -0.93099999 10 0 0
-8.2370005 2.145 -0.926 9 0 0
-8.2399998 2.1470001 -0.92199999 11 1 0
-8.2679996 2.1470001 -0.847 4 0 0
-8.2790003 2.1329999 -0.82800001 60 34 21
-8.2740002 2.1389999 -0.82599998 43 25 25
-8.276 2.125 -0.82300001 25 7 7
-8.276 2.132 -0.82599998 56 30 17
-8.2749996 2.1370001 -0.83200002 22 4 2
-8.2720003 2.132 -0.82200003 63 39 29
-8.2130003 2.1229999 -0.79400003 39 1 0
-8.2030001 2.1199999 -0.79900002 27 2 0
-8.2189999 2.1289999 -0.79699999 54 24 13
-8.2209997 2.122 -0.79000002 25 11 10
-8.2080002 2.1170001 -0.77499998 49 25 13
-8.2139997 2.1170001 -0.77999997 68 26 10
-8.1920004 2.118 -0.76200002 41 19 5
-8.1879997 2.1240001 -0.74400002 154 99 60
-8.2349997 2.125 -0.79400003 162 144 134
-8.2609997 2.1459999 -0.77999997 66 29 13
-8.2259998 2.1359999 -0.81300002 112 91 74
-8.2069998 2.1289999 -0.81 7 1 3
-8.2729998 2.1259999 -0.81599998 157 112 71
-8.2659998 2.1340001 -0.81900001 14 0 0
-8.2670002 2.1389999 -0.79400003 17 5 5
-8.2670002 2.141 -0.78899997 20 0 0
-8.2690001 2.1340001 -0.79799998 8 0 0
-8.2740002 2.135 -0.78500003 19 5 2
-8.2639999 2.1440001 -0.79000002 30 10 9
-8.2580004 2.1459999 -0.82800001 53 22 4
-8.2399998 2.135 -0.83899999 48 33 28
-8.2650003 2.122 -0.85299999 15 3 3
-8.2690001 2.1340001 -0.85299999 60 41 35
-8.0950003 2.112 -0.727 104 51 17
-8.1149998 2.122 -0.71700001 101 73 51
-8.1149998 2.1140001 -0.81199998 11 0 0
-8.1260004 2.1459999 -0.81 172 120 81
-8.1230001 2.1210001 -0.81300002 47 5 0
-8.1990004 2.0969999 -0.83600003 26 1 0
-8.2010002 2.1170001 -0.81 39 5 0
-8.191 2.098 -0.80000001 52 32 21
-8.1890001 2.098 -0.72600001 96 46 13
-8.1309996 2.0940001 -0.69199997 84 28 0
-8.1610003 2.0829999 -0.73500001 153 117 105
-8.1560001 2.0769999 -0.727 72 27 8
-8.165 2.085 -0.73199999 48 8 0
-8.158 2.079 -0.72500002 66 29 11
-8.1309996 2.0739999 -0.685 111 53 7
-8.1239996 2.0769999 -0.68400002 86 27 0
-8.2939997 2.1429999 -0.71499997 134 71 36
-8.2740002 2.1700001 -0.722 51 18 1
-8.1400003 2.0680001 -0.755 145 100 71
-8.1339998 2.0769999 -0.74000001 130 111 97
-8.1490002 2.0780001 -0.73199999 58 22 8
-8.1300001 2.0610001 -0.75300002 72 33 4
-8.132 2.052 -0.787 39 7 0
-8.2600002 2.0669999 -0.72799999 37 18 12
-8.2959995 2.0969999 -0.80199999 71 44 27
-8.2880001 2.0899999 -0.80400002 56 21 0
-8.2980003 2.0910001 -0.81599998 33 10 4
-8.2799997 2.1110001 -0.847 16 2 1
-8.2849998 2.0940001 -0.91000003 43 21 10
-8.2860003 2.0969999 -0.917 18 7 3
-8.2840004 2.0899999 -0.91000003 66 37 19
-8.2709999 2.1029999 -0.884 36 21 16
-8.2650003 2.1359999 -0.88200003 34 10 8
-8.2679996 2.115 -0.88 2 1 0
-8.2670002 2.122 -0.88 13 3 2
-8.2650003 2.1340001 -0.87400001 28 0 0
-8.2620001 2.155 -0.92400002 82 74 72
-8.2360001 2.102 -0.82700002 15 0 0
-8.2080002 2.0969999 -0.79699999 58 38 31
-8.2559996 2.0829999 -0.85399997 36 9 0
-8.2449999 2.096 -0.85500002 54 25 11
-8.2600002 2.1229999 -0.72100002 52 0 0
-8.2550001 2.1199999 -0.73400003 38 6 0
-8.2620001 2.105 -0.73500001 77 49 35
-8.25 2.122 -0.72899997 143 108 89
-8.2779999 2.1289999 -0.72000003 62 25 7
-8.2580004 2.063 -0.741 20 1 0
-8.1210003 2.046 -0.83999997 70 35 3
-8.1280003 2.138 -0.83600003 32 9 1
-8.1160002 2.1340001 -0.85500002 106 79 62
-8.1190004 2.095 -0.81400001 14 0 0
-8.1029997 2.109 -0.82599998 83 42 22
-8.1969995 2.0899999 -0.78200001 44 19 14
-8.1969995 2.0829999 -0.76599997 146 109 82
-8.1870003 2.0869999 -0.76599997 103 52 21
-8.2049999 2.089 -0.78399998 25 0 0
-8.1940002 2.092 -0.78100002 59 33 20
-8.1879997 2.115 -0.76999998 28 4 0
-8.1920004 2.1129999 -0.77399999 76 40 28
-8.1789999 2.1070001 -0.77200001 41 17 5
-8.1560001 2.1140001 -0.72600001 83 36 6
-8.1560001 2.112 -0.745 113 68 47
-8.1619997 2.1140001 -0.741 97 46 15
-8.151 2.108 -0.73199999 177 103 28
-8.1219997 2.112 -0.70499998 84 39 16
-8.1269999 2.1170001 -0.72299999 106 68 47
-8.1680002 2.1199999 -0.73500001 120 85 65
-8.1730003 2.1159999 -0.73900002 145 72 39
-8.1689997 2.1129999 -0.75 73 54 48
-8.177 2.1129999 -0.75800002 91 59 38
-8.1689997 2.1099999 -0.76300001 45 13 0
-8.1590004 2.1110001 -0.76300001 62 41 36
-8.1709995 2.1010001 -0.778 41 24 17
-8.1590004 2.112 -0.76300001 104 78 61
-8.0979996 2.109 -0.73699999 147 143 144
-8.0970001 2.1140001 -0.73400003 69 32 16
-8.092 2.0910001 -0.824 18 7 5
-8.1090002 2.085 -0.77499998 31 8 0
-8.1000004 2.072 -0.78600001 88 74 65
-8.1070004 2.079 -0.77700001 55 33 22
-8.1379995 2.0539999 -0.76800001 35 6 0
-8.1540003 2.076 -0.72299999 96 25 7
-8.132 2.0769999 -0.73299998 79 21 0
-8.1330004 2.0799999 -0.722 145 102 86
-8.1330004 2.066 -0.70899999 101 33 0
-8.1569996 2.0910001 -0.77100003 66 37 21
-8.1110001 2.0829999 -0.74900001 32 5 0
-8.1479998 2.076 -0.75 103 54 14
-8.1630001 2.0780001 -0.74900001 92 41 14
-8.283 2.076 -0.866 34 19 14
-8.25 2.085 -0.88700002 96 68 54
-8.2440004 2.092 -0.89600003 34 15 11
-8.2629995 2.155 -0.91000003 13 0 0
-8.2629995 2.1240001 -0.89899999 4 0 1
-8.2620001 2.1530001 -0.898 25 7 3
-8.2639999 2.151 -0.898 55 40 33
-8.2799997 2.1159999 -0.98299998 118 100 90
-8.2770004 2.1300001 -0.97600001 37 4 0
-8.2410002 2.0899999 -1.062 190 119 67
-8.2790003 2.1210001 -1.0140001 57 13 4
-8.2810001 2.1140001 -1 117 91 76
-8.2629995 2.1429999 -0.958 37 2 0
-8.2370005 2.1400001 -0.95999998 33 4 0
-8.2270002 2.131 -0.95300001 69 30 15
-8.2629995 2.141 -0.98100001 15 5 4
-8.2679996 2.1359999 -0.97399998 8 0 0
-8.2729998 2.1210001 -0.97600001 71 29 7
-8.2700005 2.119 -0.97100002 51 27 15
-8.191 2.112 -0.852 56 28 16
-8.2519999 2.141 -0.87300003 78 68 66
-8.2279997 2.138 -0.88700002 18 7 5
-8.1289997 2.0829999 -0.83099997 48 26 15
-8.1520004 2.1270001 -0.84200001 39 19 8
-8.1450005 2.072 -0.81800002 112 76 54
-8.0930004 2.1159999 -0.81699997 16 0 1
-8.2250004 2.096 -0.83700001 126 104 93
-8.2510004 2.092 -0.94800001 53 20 13
-8.2629995 2.0929999 -0.94999999 133 97 65
-8.2790003 2.0940001 -0.92000002 126 98 84
-8.2679996 2.086 -0.92199999 57 28 14
-8.2220001 2.0940001 -0.94199997 29 9 0
-8.2819996 2.0880001 -0.898 169 140 124
-8.2819996 2.0880001 -0.90100002 128 100 86
-8.2700005 2.0780001 -0.85500002 106 84 73
-8.0559998 2.059 -0.89099997 58 43 38
-8.1289997 2.1270001 -0.861 45 22 14
-8.1190004 2.119 -0.88300002 17 2 0
-8.1120005 2.118 -0.87800002 20 5 0
-8.073 2.0940001 -1.0039999 24 6 0
-8.0830002 2.0899999 -0.99199998 120 102 98
-8.0699997 2.0810001 -0.99599999 39 21 9
-8.0810003 2.0929999 -0.98199999 11 0 0
-8.1949997 2.131 -1.035 43 25 13
-8.1949997 2.1240001 -1.025 132 114 100
-8.1960001 2.1300001 -1.025 20 6 6
-8.191 2.1199999 -1.017 96 42 14
-8.2019997 2.1459999 -1.0470001 19 4 1
-8.2019997 2.118 -1.031 102 56 30
-8.2069998 2.0999999 -1.024 65 17 7
-8.217 2.1530001 -1.036 36 22 21
-8.2290001 2.161 -1.058 125 90 71
-8.0629997 2.112 -0.94300002 100 67 48
-8.0609999 2.105 -0.94499999 31 3 0
-8.0719995 2.109 -0.94199997 22 3 0
-8.1929998 2.135 -1.057 41 9 0
-8.1780005 2.053 -1.001 44 6 0
-8.1739998 2.046 -0.99699998 61 39 26
-8.1960001 2.1129999 -1.074 46 19 10
-8.217 2.1029999 -1.082 30 9 6
-8.2349997 2.1140001 -1.077 61 32 16
-8.0570002 2.0780001 -0.98400003 113 89 77
-8.0419998 2.082 -0.95899999 31 11 2
-8.0749998 2.108 -0.95099998 29 8 7
-8.0769997 2.1040001 -0.95300001 34 11 5
-8.0749998 2.105 -0.95200002 9 0 0
-8.0930004 2.1029999 -0.94499999 138 123 118
-8.0780001 2.1129999 -0.94300002 46 19 2
-8.1330004 2.148 -0.81900001 125 100 95
-8.0970001 2.1429999 -0.81900001 42 18 6
-8.0939999 2.125 -0.84899998 49 18 0
-8.0979996 2.122 -0.85900003 101 77 65
-8.1059999 2.128 -0.84799999 20 2 0
-8.0819998 2.1140001 -0.82700002 62 22 12
-8.1420002 2.0929999 -0.77200001 26 8 4
-8.1070004 2.125 -0.74299997 75 29 5
-8.1029997 2.112 -0.73900002 31 1 0
-8.1059999 2.131 -0.73500001 98 43 12
-8.0979996 2.138 -0.81 54 18 2
-8.1219997 2.118 -0.74699998 84 38 12
-8.1219997 2.115 -0.74800003 116 61 40
-8.1490002 2.1059999 -0.74800003 44 9 3
-8.0930004 2.131 -0.82499999 54 4 0
-8.1059999 2.141 -0.83600003 27 9 9
-8.1140003 2.059 -0.88599998 104 76 62
-8.092 2.0550001 -0.898 22 8 7
-8.1129999 2.1240001 -0.86799997 19 1 0
-8.1009998 2.1210001 -0.87 9 0 0
-8.0950003 2.125 -0.86699998 21 7 4
-8.0880003 2.1229999 -0.86799997 116 65 34
-8.0869999 2.1129999 -0.87599999 137 92 61
-8.0889997 2.108 -0.89700001 34 1 0
-8.085 2.109 -0.87699997 116 80 58
-8.0869999 2.1040001 -0.88300002 132 92 67
-8.1059999 2.112 -0.89399999 27 7 0
-8.1099997 2.1170001 -0.87800002 45 24 19
-8.0860004 2.0539999 -1.058 27 9 0
-8.1149998 2.0669999 -1.038 86 66 55
-8.1110001 2.072 -1.04 48 24 14
-8.1599998 2.0439999 -0.98900002 90 27 0
-8.1560001 2.05 -0.99199998 73 45 31
-8.1730003 2.072 -0.97399998 54 17 11
-8.1809998 2.0810001 -0.97100002 120 100 89
-8.1739998 2.0899999 -0.99800003 117 80 53
-8.1479998 2.0550001 -0.99299997 35 15 4
-8.1499996 2.086 -0.98100001 56 20 4
-8.1479998 2.0810001 -0.98400003 113 80 61
-8.165 2.0650001 -0.99900001 184 131 91
-8.1689997 2.072 -1.002 128 74 30
-8.1540003 2.072 -0.99800003 77 49 35
-8.2209997 2.151 -1.021 16 0 0
-8.2080002 2.1489999 -1.026 203 161 121
-8.0629997 2.1229999 -1.003 25 2 0
-8.0719995 2.118 -1.0140001 21 1 0
-8.0860004 2.128 -1.003 14 0 0
-8.0939999 2.115 -1.015 17 3 3
-8.0959997 2.115 -1.007 52 31 26
-8.0550003 2.079 -1.0190001 118 101 94
-8.0979996 2.086 -1.074 62 33 15
-8.0959997 2.0840001 -1.056 56 34 23
-8.0950003 2.086 -1.066 22 4 0
-8.0930004 2.0869999 -1.0599999 33 13 4
-8.0930004 2.0869999 -1.0549999 22 3 0
-8.0959997 2.086 -1.0470001 168 147 142
-8.085 2.1110001 -0.99599999 33 9 0
-8.0830002 2.0439999 -0.97399998 25 6 0
-8.0869999 2.043 -0.97899997 97 59 38
-8.066 2.0480001 -0.96700001 67 41 24
-8.0649996 2.0550001 -0.95899999 72 36 10
-8.0600004 2.0810001 -0.90799999 71 34 15
-8.0539999 2.0810001 -0.89700001 161 115 91
-8.0740004 2.0840001 -0.91799998 8 0 0
-8.073 2.085 -0.90799999 31 11 0
-8.0570002 2.072 -0.903 14 0 0
-8.0559998 2.096 -0.93099999 27 9 5
-8.0480003 2.086 -0.95300001 144 108 96
-8.1169996 2.089 -0.97899997 134 103 85
-8.0959997 2.096 -0.977 56 36 25
-8.1020002 2.079 -0.99199998 136 83 49
-8.1230001 2.072 -0.99199998 95 61 36
-8.1499996 2.075 -0.99299997 91 50 30
-8.1459999 2.076 -0.98900002 145 113 90
-8.1350002 2.073 -0.98900002 39 16 10
-8.1280003 2.073 -0.99199998 60 41 26
-8.1149998 2.05 -1.035 110 74 48
-8.2390003 2.1140001 -1.027 208 142 82
-8.2340002 2.0999999 -1.041 207 142 74
-8.2189999 2.1059999 -1.039 120 75 52
-8.2119999 2.1570001 -1.051 38 20 18
-8.2580004 2.0439999 -0.69400001 123 66 11
-8.2840004 2.1289999 -0.71700001 122 58 23
-8.1160002 2.049 -1.025 115 81 56
-8.0869999 2.0869999 -0.96200001 6 0 0
-8.0950003 2.0469999 -0.96700001 107 84 76
-8.0909996 2.049 -0.96600002 109 87 76
-8.0710001 2.0580001 -0.86699998 11 0 0
-8.066 2.062 -0.87699997 76 35 13
-8.2510004 2.1329999 -1.068 58 31 22
-8.2539997 2.1530001 -1.057 21 11 9
-8.257 2.1530001 -1.062 11 0 0
-8.0530005 2.0680001 -0.89499998 54 30 18
-8.0469999 2.059 -0.87900001 119 89 78
-8.0600004 2.0799999 -0.88200003 27 3 1
-8.0600004 2.1029999 -0.935 18 5 0
-8.073 2.0880001 -0.90600002 88 62 49
-8.0749998 2.1010001 -0.889 22 3 0
-8.0740004 2.098 -0.88800001 14 2 2
-8.0830002 2.1040001 -0.87699997 56 28 16
-8.0819998 2.0999999 -0.90499997 21 2 0
-8.1260004 2.069 -0.89600003 27 3 0
-8.118 2.0599999 -0.90499997 49 29 18
-8.073 2.092 -1.035 27 7 6
-8.0710001 2.095 -1.033 25 5 6
-8.0570002 2.0769999 -1.036 66 30 18
-8.0620003 2.073 -1.066 20 1 0
-8.2320004 2.0869999 -1.0650001 241 162 95
-8.283 2.152 -0.75800002 13 2 0
-8.2849998 2.1470001 -0.75199997 8 0 0
-8.2880001 2.1400001 -0.74900001 24 11 3
