ply
format ascii 1.0
comment PCL generated
element vertex 471
property float x
property float y
property float z
property uchar red
property uchar green
property uchar blue
element camera 1
property float view_px
property float view_py
property float view_pz
property float x_axisx
property float x_axisy
property float x_axisz
property float y_axisx
property float y_axisy
property float y_axisz
property float z_axisx
property float z_axisy
property float z_axisz
property float focal
property float scalex
property float scaley
property float centerx
property float centery
property int viewportx
property int viewporty
property float k1
property float k2
end_header
-5.8130002 -1.546 -1.052 59 31 20
-5.8109999 -1.5319999 -1.0599999 54 27 16
-5.829 -1.543 -1.054 44 17 6
-5.8039999 -1.536 -1.0599999 35 8 0
-5.8060002 -1.5369999 -1.0549999 37 6 1
-5.763 -1.493 -1.028 48 29 14
-5.763 -1.5089999 -1.034 11 0 0
-5.7709999 -1.507 -1.045 147 128 121
-5.7779999 -1.493 -1.033 119 104 99
-5.7670002 -1.5599999 -0.96899998 31 11 2
-5.7449999 -1.556 -0.96600002 163 126 97
-5.7480001 -1.55 -0.96100003 114 81 50
-5.7550001 -1.557 -0.96899998 58 30 18
-5.7729998 -1.529 -0.89499998 169 126 91
-5.7789998 -1.545 -0.90200001 154 96 33
-5.783 -1.53 -0.89899999 179 119 69
-5.816 -1.5420001 -1.0470001 61 25 11
-5.823 -1.544 -1.05 25 2 0
-5.7340002 -1.51 -0.884 188 142 83
-5.7179999 -1.4960001 -0.88 58 34 10
-5.7160001 -1.4960001 -0.88200003 255 230 213
-5.7280002 -1.498 -0.88999999 192 166 143
-5.723 -1.495 -0.87800002 79 43 9
-5.7620001 -1.5650001 -0.986 25 1 1
-5.7540002 -1.5650001 -0.98100001 24 8 8
-5.7540002 -1.569 -0.99400002 40 19 18
-5.7670002 -1.5140001 -1.038 19 5 4
-5.763 -1.529 -1.029 48 10 0
-5.7690001 -1.52 -1.039 15 0 0
-5.7729998 -1.515 -1.044 77 53 41
-5.7859998 -1.5319999 -1.039 56 17 2
-5.763 -1.536 -1.028 24 5 0
-5.8239999 -1.5420001 -1.051 61 25 13
-5.8280001 -1.541 -1.045 45 21 9
-5.8169999 -1.538 -1.05 41 8 3
-5.8109999 -1.529 -1.054 37 2 0
-5.7610002 -1.5599999 -0.97500002 227 185 127
-5.7519999 -1.563 -0.97600001 118 86 71
-5.7600002 -1.535 -0.898 181 105 47
-5.7659998 -1.5420001 -0.90700001 98 65 48
-5.7220001 -1.489 -0.884 127 89 52
-5.7379999 -1.4960001 -0.884 126 64 39
-5.7579999 -1.563 -0.97899997 83 63 62
-5.776 -1.551 -0.96700001 65 23 1
-5.7810001 -1.549 -0.97000003 68 57 63
-5.7709999 -1.5039999 -1.036 26 7 1
-5.7670002 -1.5 -1.029 25 5 0
-5.8140001 -1.548 -1.031 89 51 28
-5.8179998 -1.548 -1.024 160 91 34
-5.8179998 -1.541 -1.04 128 108 97
-5.7670002 -1.516 -1.029 5 0 0
-5.7870002 -1.527 -1.04 129 118 116
-5.789 -1.526 -1.0420001 37 20 4
-5.8239999 -1.5420001 -1.045 85 50 30
-5.7410002 -1.5470001 -0.96100003 42 15 0
-5.737 -1.5470001 -0.96899998 113 84 70
-5.737 -1.553 -0.972 117 99 95
-5.7389998 -1.545 -0.972 39 25 24
-5.7519999 -1.53 -0.97100002 66 40 25
-5.7509999 -1.53 -0.97600001 84 55 37
-5.743 -1.5190001 -0.97299999 18 4 1
-5.7470002 -1.524 -0.98199999 100 91 92
-5.7470002 -1.516 -0.97799999 18 8 16
-5.7509999 -1.521 -0.995 67 52 55
-5.7670002 -1.495 -1.002 26 7 1
-5.7750001 -1.494 -1.0089999 16 4 4
-5.7839999 -1.488 -1.002 48 16 3
-5.7680001 -1.494 -0.99000001 11 0 0
-5.7659998 -1.489 -1.016 22 3 0
-5.7789998 -1.494 -1.016 7 0 0
-5.7659998 -1.521 -1.024 28 13 6
-5.7529998 -1.527 -1.006 88 51 32
-5.7589998 -1.5369999 -1.017 67 20 0
-5.757 -1.53 -1.012 14 2 2
-5.7410002 -1.553 -0.98199999 80 66 66
-5.744 -1.559 -0.97100002 126 92 64
-5.7519999 -1.567 -0.99400002 26 0 0
-5.7839999 -1.497 -0.97100002 52 13 0
-5.789 -1.502 -0.96799999 79 42 13
-5.7810001 -1.5 -0.96200001 117 81 57
-5.7670002 -1.501 -0.977 116 101 98
-5.777 -1.498 -0.963 99 60 31
-5.7729998 -1.545 -0.96100003 63 24 0
-5.7820001 -1.54 -0.91000003 87 36 17
-5.796 -1.512 -0.96600002 93 59 49
-5.803 -1.5140001 -0.97299999 59 36 20
-5.8039999 -1.524 -0.986 93 62 41
-5.8070002 -1.5190001 -0.98799998 123 59 24
-5.8189998 -1.526 -1.003 95 78 71
-5.7610002 -1.495 -0.87900001 60 23 4
-5.7579999 -1.494 -0.88 134 89 60
-5.7639999 -1.483 -0.88300002 179 104 21
-5.7610002 -1.488 -0.88300002 56 18 0
-5.7540002 -1.4960001 -0.93400002 35 2 0
-5.7540002 -1.5 -0.94999999 34 24 23
-5.7480001 -1.5 -0.94199997 128 99 93
-5.744 -1.495 -0.93599999 25 0 0
-5.7509999 -1.48 -0.89399999 97 44 4
-5.7470002 -1.4809999 -0.88599998 127 94 75
-5.7309999 -1.48 -0.898 68 37 17
-5.737 -1.484 -0.89999998 104 58 24
-5.724 -1.484 -0.90399998 68 34 22
-5.7340002 -1.489 -0.88300002 255 238 224
-5.743 -1.513 -0.87699997 159 106 40
-5.7399998 -1.524 -0.87800002 121 77 42
-5.744 -1.529 -0.87599999 203 135 86
-5.7870002 -1.518 -0.90799999 144 77 32
-5.7839999 -1.5190001 -0.90100002 118 64 17
-5.7870002 -1.506 -0.89499998 145 90 36
-5.7839999 -1.515 -0.90100002 155 100 44
-5.7849998 -1.5140001 -0.90399998 134 69 31
-5.7670002 -1.508 -1.036 39 17 4
-5.8049998 -1.544 -1.0420001 19 0 0
-5.7750001 -1.508 -1.044 25 4 0
-5.7989998 -1.531 -1.054 39 12 5
-5.7950001 -1.526 -1.046 44 26 16
-5.8070002 -1.526 -1.05 48 23 16
-5.7950001 -1.5319999 -1.041 42 23 9
-5.8270001 -1.5420001 -1.049 48 28 19
-5.8169999 -1.541 -1.0369999 27 8 0
-5.8280001 -1.5369999 -1.046 21 10 8
-5.8249998 -1.533 -1.038 10 0 0
-5.8130002 -1.506 -1.021 47 19 7
-5.8150001 -1.512 -1.011 24 5 0
-5.8109999 -1.5 -1.015 48 16 1
-5.7220001 -1.49 -0.90399998 97 62 40
-5.7579999 -1.543 -0.96399999 151 120 100
-5.7509999 -1.54 -0.96700001 116 81 53
-5.7610002 -1.528 -0.96399999 49 22 11
-5.757 -1.538 -0.96600002 19 5 4
-5.7659998 -1.558 -0.97299999 163 128 74
-5.8070002 -1.502 -1.001 159 123 99
-5.809 -1.511 -0.98500001 68 42 19
-5.7859998 -1.49 -1.025 150 109 91
-5.7820001 -1.493 -1.021 24 5 0
-5.7820001 -1.494 -1.018 12 2 3
-5.7870002 -1.499 -1.016 131 118 112
-5.7540002 -1.507 -0.98299998 11 7 6
-5.7529998 -1.499 -0.98400003 29 14 7
-5.7490001 -1.513 -0.97500002 43 28 23
-5.7610002 -1.503 -0.97600001 90 59 41
-5.7589998 -1.512 -0.99400002 44 16 2
-5.7509999 -1.534 -0.98500001 62 24 3
-5.7550001 -1.5089999 -0.96399999 38 20 6
-5.7909999 -1.502 -1.0089999 14 0 0
-5.7649999 -1.489 -1.025 21 1 0
-5.776 -1.492 -1.025 14 0 0
-5.7579999 -1.488 -1.025 106 96 61
-5.7639999 -1.49 -1.021 32 14 2
-5.777 -1.492 -1.021 113 98 95
-5.7649999 -1.498 -1.011 28 13 10
-5.7680001 -1.533 -0.898 91 51 16
-5.7709999 -1.527 -0.89399999 186 134 94
-5.7870002 -1.527 -0.90499997 159 109 56
-5.7849998 -1.5319999 -0.90399998 138 81 26
-5.7909999 -1.5319999 -0.91299999 231 177 141
-5.8150001 -1.513 -1.02 130 90 64
-5.7690001 -1.485 -0.88599998 233 177 100
-5.7680001 -1.483 -0.88700002 163 94 19
-5.744 -1.4859999 -0.90399998 67 22 0
-5.756 -1.483 -0.89700001 116 77 46
-5.7309999 -1.489 -0.889 210 174 148
-5.7519999 -1.503 -0.87699997 113 65 27
-5.7719998 -1.506 -0.884 116 77 46
-5.7740002 -1.499 -0.95499998 127 92 70
-5.7740002 -1.499 -0.958 62 26 2
-5.7620001 -1.505 -0.96100003 14 4 3
-5.7719998 -1.488 -0.88700002 210 144 68
-5.7690001 -1.4859999 -0.889 196 152 89
-5.7740002 -1.493 -0.89499998 255 225 158
-5.7659998 -1.492 -0.912 60 25 0
-5.7779999 -1.495 -0.89099997 165 129 95
-5.7779999 -1.502 -0.898 152 111 65
-5.7800002 -1.501 -0.89300001 172 116 59
-5.7750001 -1.499 -0.88800001 168 111 44
-5.7810001 -1.505 -0.89899999 159 100 44
-5.7709999 -1.5039999 -0.96399999 23 12 10
-5.7750001 -1.506 -0.94800001 46 18 7
-5.7729998 -1.5039999 -0.94 13 2 0
-5.7779999 -1.543 -0.97000003 120 86 40
-5.7839999 -1.5369999 -0.90399998 165 104 50
-5.7670002 -1.505 -1.027 140 122 120
-5.7880001 -1.5420001 -1.031 45 25 14
-5.7870002 -1.535 -1.034 126 106 97
-5.8060002 -1.546 -1.022 102 64 25
-5.789 -1.549 -1.015 91 57 32
-5.789 -1.549 -1.018 81 54 37
-5.7979999 -1.544 -1.011 113 71 49
-5.777 -1.502 -1.0369999 32 14 10
-5.7989998 -1.527 -1.0470001 50 25 18
-5.8000002 -1.518 -1.043 23 5 3
-5.8049998 -1.536 -1.046 67 24 5
-5.7659998 -1.505 -0.93000001 63 13 4
-5.7719998 -1.5039999 -0.94 25 10 7
-5.7579999 -1.499 -0.93400002 62 28 16
-5.7750001 -1.53 -0.93300003 117 70 60
-5.7800002 -1.529 -0.94800001 33 6 0
-5.7709999 -1.529 -0.93599999 115 84 64
-5.7779999 -1.524 -0.94300002 93 67 52
-5.7680001 -1.508 -0.92400002 78 22 0
-5.7680001 -1.5089999 -0.92799997 123 92 74
-5.7470002 -1.558 -0.96899998 129 94 62
-5.75 -1.562 -0.97899997 77 50 39
-5.7480001 -1.545 -0.96200001 98 69 53
-5.7639999 -1.5319999 -0.95899999 80 37 20
-5.796 -1.502 -1.008 24 6 2
-5.7979999 -1.507 -0.97600001 59 33 10
-5.79 -1.5039999 -0.96899998 150 85 47
-5.8119998 -1.5140001 -1.001 77 45 30
-5.8039999 -1.521 -0.986 133 71 34
-5.7930002 -1.5 -1.0190001 45 15 4
-5.7550001 -1.501 -0.95300001 35 13 2
-5.756 -1.5039999 -0.95499998 37 27 26
-5.7490001 -1.5039999 -0.95200002 38 13 6
-5.7529998 -1.53 -0.99800003 115 99 86
-5.7509999 -1.538 -0.97799999 17 0 0
-5.7579999 -1.51 -1.015 58 38 29
-5.7540002 -1.522 -1 39 25 25
-5.7670002 -1.549 -1.016 30 1 0
-5.7659998 -1.546 -1.016 98 64 39
-5.756 -1.566 -0.99699998 15 1 0
-5.7709999 -1.551 -1.017 30 1 0
-5.77 -1.549 -0.986 22 1 0
-5.7820001 -1.55 -0.977 148 117 71
-5.7859998 -1.51 -0.95899999 120 59 28
-5.789 -1.517 -0.94499999 58 39 24
-5.79 -1.5140001 -0.963 134 95 62
-5.7750001 -1.531 -0.89899999 177 136 104
-5.789 -1.534 -0.91100001 106 59 39
-5.783 -1.538 -0.91100001 136 118 108
-5.7810001 -1.524 -0.89999998 172 110 61
-5.7740002 -1.5089999 -0.88800001 135 95 60
-5.7729998 -1.521 -0.89600003 97 45 6
-5.7880001 -1.525 -0.90799999 210 156 110
-5.7880001 -1.525 -0.91100001 110 57 17
-5.7540002 -1.525 -0.89600003 98 49 6
-5.756 -1.529 -0.90399998 101 40 11
-5.7350001 -1.517 -0.889 143 97 37
-5.743 -1.5190001 -0.889 159 98 44
-5.7459998 -1.5190001 -0.89700001 226 151 84
-5.7449999 -1.516 -0.89899999 145 79 19
-5.743 -1.513 -0.90499997 78 39 8
-5.743 -1.5 -0.92299998 27 20 2
-5.7670002 -1.492 -0.88499999 140 120 111
-5.7459998 -1.521 -0.88099998 253 216 146
-5.743 -1.488 -0.90700001 96 68 54
-5.7529998 -1.5 -0.91799998 114 94 93
-5.757 -1.493 -0.91299999 52 2 0
-5.7449999 -1.495 -0.91000003 128 83 62
-5.7379999 -1.493 -0.88300002 152 81 49
-5.7620001 -1.506 -0.88099998 110 70 35
-5.7659998 -1.497 -0.884 83 34 1
-5.7719998 -1.5 -0.95200002 121 93 72
-5.7779999 -1.507 -0.95599997 107 80 61
-5.7509999 -1.5089999 -0.95499998 44 26 4
-5.7670002 -1.4910001 -0.89700001 220 174 122
-5.7659998 -1.4910001 -0.90100002 118 78 29
-5.763 -1.488 -0.898 68 10 0
-5.756 -1.4809999 -0.88800001 107 54 0
-5.7789998 -1.508 -0.89099997 75 31 2
-5.777 -1.503 -0.89099997 174 92 45
-5.7729998 -1.502 -0.88599998 179 109 39
-5.7729998 -1.501 -0.90799999 201 153 115
-5.7729998 -1.513 -0.917 40 11 0
-5.777 -1.513 -0.90899998 73 37 1
-5.7670002 -1.527 -0.94499999 15 0 2
-5.776 -1.54 -0.96799999 47 16 0
-5.783 -1.5369999 -1.026 35 13 0
-5.7750001 -1.5470001 -1.021 44 22 9
-5.7750001 -1.549 -1.02 38 11 2
-5.8000002 -1.535 -0.98900002 53 24 8
-5.8000002 -1.5369999 -0.99299997 101 55 31
-5.8150001 -1.538 -1.018 195 114 49
-5.8189998 -1.536 -1.022 176 97 18
-5.8099999 -1.5089999 -1.008 92 61 43
-5.8150001 -1.518 -1.0190001 91 42 28
-5.7680001 -1.512 -1.039 41 14 5
-5.8039999 -1.523 -1.046 108 81 70
-5.8179998 -1.54 -1.023 168 94 21
-5.8179998 -1.5420001 -1.024 127 58 3
-5.8169999 -1.521 -1.026 52 8 0
-5.7519999 -1.501 -0.94199997 76 54 41
-5.7550001 -1.512 -0.91799998 52 31 14
-5.7540002 -1.507 -0.92000002 61 26 4
-5.7509999 -1.506 -0.93300003 136 100 84
-5.7639999 -1.54 -0.96399999 13 3 2
-5.7649999 -1.528 -0.93300003 38 5 0
-5.7709999 -1.529 -0.92500001 95 63 52
-5.7620001 -1.5319999 -0.921 191 148 97
-5.7550001 -1.521 -0.93199998 46 9 0
-5.7550001 -1.564 -0.98000002 19 0 0
-5.7620001 -1.53 -0.94 41 6 2
-5.7600002 -1.521 -0.94199997 40 11 0
-5.7480001 -1.548 -0.96100003 115 83 60
-5.7950001 -1.516 -0.97399998 166 90 32
-5.7930002 -1.5039999 -0.97500002 80 62 58
-5.8060002 -1.5089999 -0.99000001 117 79 43
-5.816 -1.518 -1.008 62 32 21
-5.816 -1.526 -1.017 60 31 23
-5.756 -1.497 -0.98299998 115 101 101
-5.7600002 -1.498 -0.98799998 9 0 0
-5.7839999 -1.498 -0.977 43 13 3
-5.7800002 -1.497 -0.99000001 22 10 10
-5.7800002 -1.494 -1.017 24 9 6
-5.7789998 -1.494 -1.016 7 0 0
-5.7919998 -1.501 -0.995 40 24 25
-5.7579999 -1.5190001 -1.002 68 45 39
-5.7610002 -1.497 -0.99400002 47 14 0
-5.7540002 -1.545 -0.98500001 63 31 8
-5.7729998 -1.545 -0.98699999 60 31 15
-5.7979999 -1.546 -1.007 81 43 24
-5.7820001 -1.517 -0.94400001 74 56 56
-5.7870002 -1.525 -0.96100003 51 20 0
-5.7820001 -1.512 -0.89600003 119 60 18
-5.7529998 -1.525 -0.88800001 135 103 62
-5.7610002 -1.534 -0.90200001 55 19 0
-5.7280002 -1.501 -0.89499998 39 9 0
-5.7309999 -1.489 -0.903 104 63 41
-5.7519999 -1.515 -0.94099998 27 0 0
-5.756 -1.5190001 -0.949 51 31 0
-5.7420001 -1.502 -0.949 104 81 75
-5.75 -1.502 -0.91900003 40 11 0
-5.7680001 -1.494 -0.88499999 118 69 36
-5.7399998 -1.487 -0.90399998 87 44 10
-5.7579999 -1.499 -0.92500001 45 11 0
-5.7540002 -1.487 -0.88499999 89 50 11
-5.7309999 -1.485 -0.89499998 107 80 63
-5.7379999 -1.502 -0.89499998 44 15 0
-5.7449999 -1.487 -0.884 114 81 50
-5.756 -1.507 -0.88099998 130 79 34
-5.7620001 -1.521 -0.88800001 147 106 76
-5.756 -1.501 -0.94700003 33 23 22
-5.7519999 -1.515 -0.96100003 67 41 28
-5.77 -1.494 -0.89999998 200 166 102
-5.7719998 -1.498 -0.90200001 78 48 12
-5.7610002 -1.499 -0.91799998 146 75 47
-5.7639999 -1.503 -0.921 218 138 101
-5.776 -1.502 -0.90200001 122 78 29
-5.7729998 -1.5319999 -0.95999998 22 8 5
-5.783 -1.499 -0.96799999 62 21 1
-5.7779999 -1.517 -0.921 91 74 64
-5.7420001 -1.5319999 -0.91900003 36 13 0
-5.7989998 -1.533 -0.98199999 116 93 77
-5.8109999 -1.529 -1 151 85 53
-5.8130002 -1.53 -1.005 170 111 81
-5.8039999 -1.533 -1.002 111 94 87
-5.8010001 -1.502 -1.029 25 0 0
-5.816 -1.517 -1.027 49 16 7
-5.803 -1.513 -1.03 30 15 8
-5.8179998 -1.539 -1.034 24 7 0
-5.8189998 -1.539 -1.026 152 130 117
-5.743 -1.53 -0.92299998 44 24 13
-5.7670002 -1.505 -0.91900003 222 161 130
-5.7750001 -1.527 -0.93199998 123 76 68
-5.776 -1.52 -0.93900001 44 26 26
-5.7740002 -1.533 -0.92000002 71 26 20
-5.763 -1.526 -0.94800001 71 28 9
-5.75 -1.5599999 -0.98699999 22 0 2
-5.7880001 -1.493 -0.98799998 89 50 33
-5.7880001 -1.499 -0.97600001 40 12 1
-5.7930002 -1.503 -0.98299998 44 9 3
-5.8109999 -1.516 -0.99900001 88 75 67
-5.757 -1.521 -1.003 29 4 0
-5.7740002 -1.545 -1.013 115 79 53
-5.7680001 -1.541 -1.021 47 29 17
-5.7509999 -1.558 -0.986 18 0 3
-5.7550001 -1.552 -0.98699999 67 39 28
-5.7729998 -1.554 -0.97399998 179 133 74
-5.79 -1.5420001 -0.98299998 44 1 0
-5.809 -1.543 -1.0140001 150 80 31
-5.7740002 -1.515 -0.93599999 118 88 77
-5.7810001 -1.526 -0.96100003 48 12 0
-5.7820001 -1.5089999 -0.90100002 184 102 55
-5.7410002 -1.499 -0.91799998 42 20 7
-5.7719998 -1.494 -0.88599998 182 95 16
-5.7509999 -1.522 -0.89899999 174 140 128
-5.7480001 -1.521 -0.88700002 153 119 71
-5.7420001 -1.492 -0.90399998 89 59 33
-5.7620001 -1.503 -0.926 58 31 14
-5.7379999 -1.5039999 -0.89399999 149 117 94
-5.7519999 -1.5140001 -0.88099998 120 71 28
-5.75 -1.518 -0.96200001 27 13 13
-5.757 -1.5190001 -0.95700002 73 50 16
-5.7610002 -1.484 -0.89300001 130 78 18
-5.7589998 -1.499 -0.92199999 45 5 5
-5.7709999 -1.517 -0.89399999 255 226 93
-5.7690001 -1.523 -0.89399999 87 55 30
-5.783 -1.499 -0.97399998 39 9 0
-5.7909999 -1.526 -0.91900003 101 26 0
-5.7480001 -1.53 -0.91500002 40 13 4
-5.7839999 -1.53 -0.96799999 69 30 13
-5.79 -1.539 -0.98100001 121 83 64
-5.8060002 -1.525 -0.99199998 160 93 66
-5.7859998 -1.538 -0.97799999 100 57 41
-5.7849998 -1.51 -1.0369999 23 0 0
-5.8200002 -1.535 -1.028 83 65 55
-5.8179998 -1.534 -1.021 91 41 18
-5.8150001 -1.515 -1.021 61 23 12
-5.8099999 -1.512 -1.024 27 12 9
-5.816 -1.531 -1.0369999 10 2 0
-5.8179998 -1.528 -1.034 34 9 2
-5.757 -1.501 -0.94300002 25 13 13
-5.7589998 -1.502 -0.93800002 36 5 0
-5.7410002 -1.505 -0.93599999 77 55 31
-5.7459998 -1.515 -0.94599998 38 14 2
-5.7610002 -1.502 -0.92799997 60 42 40
-5.7750001 -1.518 -0.93199998 32 4 0
-5.7550001 -1.561 -0.99000001 19 0 0
-5.789 -1.501 -0.97299999 48 16 0
-5.7979999 -1.505 -0.98900002 166 97 55
-5.7789998 -1.538 -1.002 37 18 3
-5.7659998 -1.543 -1.018 30 0 0
-5.7740002 -1.53 -1.025 56 26 15
-5.8060002 -1.544 -1.027 36 16 7
-5.8130002 -1.5369999 -1.015 206 130 70
-5.783 -1.508 -0.89999998 154 101 49
-5.7589998 -1.488 -0.89899999 112 68 31
-5.7550001 -1.489 -0.90600002 85 22 4
-5.7690001 -1.51 -0.889 204 160 121
-5.7729998 -1.498 -0.88700002 174 88 11
-5.7449999 -1.49 -0.90700001 108 76 53
-5.744 -1.503 -0.89899999 111 43 6
-5.77 -1.4960001 -0.903 162 106 47
-5.7680001 -1.4960001 -0.90700001 63 11 0
-5.7579999 -1.515 -0.884 90 47 12
-5.7810001 -1.512 -0.89600003 145 82 41
-5.7649999 -1.527 -0.94800001 63 18 0
-5.7610002 -1.523 -0.954 91 55 39
-5.7880001 -1.499 -0.98000002 121 106 103
-5.7589998 -1.533 -0.91299999 85 55 44
-5.7470002 -1.538 -0.91600001 61 27 2
-5.79 -1.527 -0.977 53 38 35
-5.7909999 -1.5420001 -0.98199999 69 36 21
-5.8150001 -1.52 -1.018 37 23 22
-5.7880001 -1.515 -1.036 17 7 6
-5.7930002 -1.511 -1.035 24 9 6
-5.7859998 -1.4960001 -1.029 26 8 4
-5.7870002 -1.503 -1.029 8 0 0
-5.8070002 -1.512 -1.026 67 49 47
-5.8189998 -1.529 -1.0319999 144 124 113
-5.8200002 -1.5369999 -1.026 67 19 0
-5.744 -1.5089999 -0.94999999 47 20 9
-5.783 -1.531 -0.91900003 92 58 30
-5.7550001 -1.549 -0.96799999 80 50 22
-5.7600002 -1.522 -0.94999999 71 32 17
-5.796 -1.502 -0.99299997 24 1 0
-5.756 -1.551 -0.98699999 139 116 102
-5.7529998 -1.559 -0.98799998 19 1 1
-5.7519999 -1.5549999 -0.98500001 81 54 33
-5.7659998 -1.5190001 -1.018 13 3 2
-5.7909999 -1.534 -0.99400002 53 9 0
-5.763 -1.5420001 -0.99699998 91 71 60
-5.7670002 -1.552 -0.98299998 65 16 2
-5.7719998 -1.512 -0.89099997 149 83 35
-5.743 -1.502 -0.898 110 41 12
-5.7930002 -1.503 -0.98500001 94 61 44
-5.8099999 -1.518 -1.029 15 5 3
-5.816 -1.523 -1.02 138 88 63
-5.7740002 -1.5369999 -0.90899998 188 142 106
-5.7909999 -1.539 -1.0089999 61 14 0
-5.7589998 -1.5369999 -0.99199998 38 11 2
-5.7589998 -1.5319999 -1.007 92 57 37
-5.7659998 -1.546 -1.015 28 0 0
-5.7909999 -1.501 -0.98400003 54 21 14
-5.816 -1.521 -1.03 19 1 0
-5.809 -1.5140001 -1.026 25 7 5
-5.8189998 -1.533 -1.028 34 12 1
-5.7620001 -1.5369999 -1.013 70 36 27
-5.7930002 -1.525 -0.98000002 46 16 5
-5.7810001 -1.5369999 -0.986 28 5 0
-5.77 -1.543 -1.008 39 27 29
0 0 0 1 0 0 0 1 0 0 0 1 0 0 0 0 0 471 1 0 0
