ply
format ascii 1.0
comment PCL generated
element vertex 1241
property float x
property float y
property float z
property uchar red
property uchar green
property uchar blue
element camera 1
property float view_px
property float view_py
property float view_pz
property float x_axisx
property float x_axisy
property float x_axisz
property float y_axisx
property float y_axisy
property float y_axisz
property float z_axisx
property float z_axisy
property float z_axisz
property float focal
property float scalex
property float scaley
property float centerx
property float centery
property int viewportx
property int viewporty
property float k1
property float k2
end_header
14.095 -1.9299999 -0.48800001 164 126 89
14.099 -1.938 -0.484 141 88 38
14.1 -1.9349999 -0.491 103 60 25
13.985 -1.9 -0.537 122 77 48
13.985 -1.8890001 -0.537 180 109 67
13.982 -1.9 -0.52100003 85 39 13
13.986 -1.8890001 -0.55000001 190 118 78
13.976 -1.813 -0.83899999 22 1 0
13.972 -1.802 -0.833 5 0 0
13.975 -1.812 -0.84399998 47 20 13
13.973 -1.806 -0.83700001 69 54 49
14.073 -1.909 -0.46399999 198 160 124
14.075 -1.895 -0.46799999 114 114 138
14.065 -1.911 -0.45699999 162 119 68
14.067 -1.91 -0.46200001 255 199 144
13.889 -1.75 -0.602 169 104 50
13.893 -1.758 -0.58700001 158 122 86
13.892 -1.7539999 -0.588 61 7 0
14.032 -1.928 -0.484 38 15 7
14.036 -1.923 -0.47600001 94 48 14
14.037 -1.933 -0.484 173 131 89
13.946 -1.946 -0.76099998 30 16 15
13.942 -1.949 -0.759 34 15 11
13.941 -1.949 -0.76599997 84 72 76
13.942 -1.942 -0.76300001 10 0 0
13.941 -1.927 -0.76099998 43 23 24
13.991 -1.881 -0.546 118 73 40
13.986 -1.876 -0.52600002 169 125 78
13.986 -1.905 -0.54299998 110 67 32
13.934 -1.9069999 -0.81900001 117 108 109
13.94 -1.906 -0.81800002 42 20 7
13.943 -1.923 -0.81800002 50 24 11
13.946 -1.9069999 -0.83399999 27 0 0
13.943 -1.908 -0.84200001 104 84 85
13.947 -1.923 -0.838 113 95 85
13.948 -1.92 -0.83200002 129 121 119
13.951 -1.895 -0.838 69 50 44
13.894 -1.733 -0.61699998 114 91 85
13.892 -1.7410001 -0.61699998 216 183 148
13.891 -1.729 -0.60399997 139 95 46
13.97 -1.811 -0.833 36 8 4
14.084 -1.926 -0.47600001 59 23 7
14.083 -1.921 -0.49900001 175 129 96
14.081 -1.931 -0.472 93 58 28
14.078 -1.928 -0.47499999 124 82 44
13.75 -1.993 -0.59100002 135 76 34
13.761 -2.013 -0.59500003 76 26 3
13.75 -2.0079999 -0.59500003 68 47 26
13.913 -1.848 -0.81599998 160 132 131
13.911 -1.84 -0.82099998 98 60 23
13.915 -1.844 -0.81999999 37 17 10
13.975 -1.827 -0.82499999 41 20 15
13.971 -1.823 -0.82200003 25 0 0
13.974 -1.829 -0.81599998 25 8 1
13.894 -1.76 -0.59200001 65 34 6
13.895 -1.7589999 -0.60900003 152 118 83
13.889 -1.75 -0.61799997 122 66 19
13.895 -1.756 -0.61500001 169 126 92
13.9 -1.763 -0.61000001 148 117 96
13.937 -1.933 -0.76300001 11 0 0
13.934 -1.928 -0.764 26 13 5
14.067 -1.944 -0.46900001 128 83 54
14.068 -1.943 -0.46700001 41 22 16
14.062 -1.9170001 -0.458 179 135 98
13.754 -2.0139999 -0.59899998 46 16 6
13.739 -2.0109999 -0.602 90 37 0
13.755 -2.023 -0.60100001 89 55 30
13.767 -2.0179999 -0.597 42 24 4
13.729 -2.003 -0.62 78 50 38
13.737 -2 -0.60699999 145 110 88
13.726 -1.994 -0.62199998 38 14 4
13.91 -1.76 -0.58399999 127 82 41
13.909 -1.765 -0.58600003 62 33 19
13.897 -1.765 -0.583 104 62 22
13.904 -1.757 -0.58499998 110 57 15
13.898 -1.804 -0.63700002 25 9 9
13.895 -1.804 -0.64300001 46 26 15
13.879 -1.801 -0.62900001 92 42 15
13.906 -1.811 -0.64099997 155 123 100
13.903 -1.807 -0.63200003 93 71 58
13.742 -1.982 -0.62099999 83 46 19
13.741 -1.984 -0.61199999 44 21 15
13.737 -1.993 -0.61299998 108 73 51
13.735 -1.989 -0.63 120 84 52
13.821 -1.951 -0.662 145 118 99
13.819 -1.955 -0.66000003 117 74 32
13.802 -1.9529999 -0.65600002 74 46 35
13.895 -1.766 -0.588 137 55 8
13.988 -1.8940001 -0.54500002 123 86 59
13.743 -2.0020001 -0.60100001 99 41 1
13.946 -1.911 -0.82700002 36 17 11
13.957 -1.896 -0.824 42 23 17
13.936 -1.9069999 -0.82300001 28 9 2
13.95 -1.898 -0.81999999 83 71 75
13.797 -2.026 -0.68699998 142 111 83
13.797 -2.026 -0.67000002 73 46 17
13.795 -2.0320001 -0.67299998 75 44 16
13.933 -1.885 -0.847 20 5 0
13.925 -1.883 -0.84600002 94 74 65
13.927 -1.883 -0.85100001 36 6 6
13.939 -1.878 -0.83700001 63 42 37
13.939 -1.909 -0.83700001 17 2 0
13.906 -1.8710001 -0.69999999 49 36 45
13.92 -1.8609999 -0.69800001 38 13 8
13.91 -1.88 -0.69800001 71 37 25
13.902 -1.8609999 -0.70300001 51 34 26
13.936 -1.758 -0.69800001 65 44 27
13.931 -1.758 -0.69400001 63 36 25
13.929 -1.76 -0.70499998 142 121 116
13.897 -1.729 -0.611 96 73 42
13.894 -1.732 -0.611 253 217 169
13.972 -1.802 -0.83200002 88 59 45
14.069 -1.903 -0.46900001 125 65 11
14.066 -1.9069999 -0.46599999 95 64 36
14.072 -1.893 -0.47099999 206 169 127
14.063 -1.92 -0.46700001 130 84 35
13.872 -1.943 -0.736 32 14 10
13.879 -1.939 -0.73299998 50 22 11
13.876 -1.934 -0.72799999 40 22 12
13.993 -1.791 -0.704 11 1 0
13.995 -1.79 -0.70599997 40 17 1
14 -1.7970001 -0.70300001 77 49 37
13.952 -1.891 -0.82700002 88 71 64
13.954 -1.8940001 -0.81900001 63 41 28
13.943 -1.876 -0.82499999 80 65 58
13.934 -1.873 -0.84100002 44 16 13
13.942 -1.864 -0.82300001 56 35 30
13.946 -1.863 -0.81900001 234 213 210
13.939 -1.874 -0.82999998 153 129 129
13.882 -1.795 -0.63200003 87 32 1
13.893 -1.8559999 -0.71899998 61 23 4
13.899 -1.867 -0.70599997 93 71 60
13.873 -1.855 -0.77700001 95 88 96
13.87 -1.852 -0.78899997 130 122 120
13.868 -1.8559999 -0.79299998 97 59 46
13.886 -1.778 -0.64399999 111 89 68
13.889 -1.778 -0.65499997 112 83 53
13.884 -1.783 -0.648 80 43 24
13.891 -1.778 -0.63599998 231 188 169
13.916 -1.776 -0.62099999 96 66 55
13.92 -1.771 -0.61500001 77 41 17
13.907 -1.784 -0.60600001 60 22 1
13.913 -1.773 -0.61400002 82 68 65
13.991 -1.881 -0.53500003 153 108 69
13.899 -1.751 -0.583 74 41 10
13.985 -1.902 -0.53500003 181 141 115
13.984 -1.905 -0.52700001 162 120 82
13.988 -1.92 -0.528 117 74 40
13.914 -1.891 -0.704 63 37 20
13.91 -1.891 -0.70499998 41 12 6
13.837 -1.934 -0.69599998 94 71 55
13.835 -1.926 -0.69300002 170 124 88
13.857 -1.927 -0.69 104 55 23
13.825 -1.944 -0.667 87 55 30
13.81 -1.9349999 -0.68300003 62 33 15
13.824 -1.944 -0.66500002 43 15 1
13.744 -1.985 -0.59600002 57 32 25
13.747 -1.984 -0.60000002 106 73 54
13.75 -1.99 -0.59500003 62 33 15
13.743 -1.999 -0.60299999 114 81 46
13.747 -1.983 -0.61299998 140 108 85
13.729 -1.995 -0.62599999 141 87 49
13.732 -2.0009999 -0.61900002 165 131 103
13.735 -2.0120001 -0.61900002 150 117 86
13.748 -2.0239999 -0.61299998 34 15 11
13.74 -2.0109999 -0.611 172 120 83
13.748 -1.999 -0.59500003 42 20 0
13.914 -1.969 -0.72600001 34 11 3
13.912 -1.969 -0.72600001 54 34 27
13.913 -1.972 -0.73500001 35 6 0
13.937 -1.951 -0.69400001 48 21 12
13.937 -1.957 -0.69300002 61 33 21
13.934 -1.954 -0.69400001 110 84 67
13.938 -1.939 -0.69499999 94 47 29
13.944 -1.919 -0.81999999 134 128 128
13.946 -1.9 -0.83700001 31 16 11
13.941 -1.908 -0.83099997 127 115 117
13.926 -1.876 -0.699 48 21 12
13.855 -1.925 -0.69499999 173 120 86
13.86 -1.925 -0.69800001 86 61 41
13.856 -1.916 -0.71200001 78 48 38
13.867 -1.916 -0.708 177 154 136
13.858 -1.914 -0.71600002 124 79 56
13.865 -1.916 -0.71700001 31 11 0
13.868 -1.9220001 -0.71799999 85 56 50
13.865 -1.9220001 -0.71499997 53 33 34
13.916 -1.859 -0.70099998 74 45 29
13.934 -1.831 -0.80000001 25 10 7
13.927 -1.847 -0.80699998 79 60 54
13.939 -1.829 -0.80699998 150 126 124
13.969 -1.8940001 -0.699 46 23 7
13.965 -1.872 -0.70599997 35 15 6
13.977 -1.8710001 -0.69499999 126 112 111
13.965 -1.8660001 -0.699 59 32 23
13.958 -1.868 -0.704 77 73 87
13.96 -1.868 -0.70200002 43 16 9
13.984 -1.883 -0.68000001 128 100 88
13.978 -1.887 -0.685 91 74 67
13.938 -1.932 -0.69099998 56 31 26
13.939 -1.943 -0.67000002 227 171 112
13.93 -1.9450001 -0.68599999 135 124 122
13.956 -1.801 -0.78899997 55 19 3
13.964 -1.798 -0.787 36 8 0
13.972 -1.801 -0.79900002 168 145 139
14.057 -1.902 -0.46200001 225 182 140
14.054 -1.883 -0.46599999 133 96 43
14.069 -1.888 -0.46700001 77 46 28
14.053 -1.897 -0.46599999 136 87 44
14.044 -1.924 -0.461 131 82 49
14.058 -1.892 -0.46599999 115 76 19
14.075 -1.911 -0.50300002 94 41 7
14.074 -1.916 -0.49700001 216 180 144
14.073 -1.928 -0.48199999 94 60 25
14.072 -1.92 -0.477 133 87 38
14.063 -1.915 -0.48199999 143 90 48
14.072 -1.9170001 -0.495 255 199 150
14.044 -1.893 -0.47799999 121 53 4
14.054 -1.881 -0.48100001 121 73 33
13.991 -1.88 -0.51999998 105 73 48
13.985 -1.876 -0.51599997 154 110 61
13.987 -1.876 -0.52499998 149 118 61
13.766 -2.0009999 -0.60000002 74 48 35
13.805 -1.998 -0.65499997 77 43 18
13.806 -1.989 -0.65499997 110 77 46
13.804 -1.992 -0.653 91 68 50
13.816 -1.973 -0.662 90 44 18
13.819 -1.9960001 -0.67000002 60 35 15
13.805 -1.983 -0.64899999 48 25 17
13.827 -1.961 -0.66900003 87 57 46
13.827 -1.955 -0.67000002 130 104 87
13.829 -1.9579999 -0.67299998 96 76 67
13.781 -2.0209999 -0.699 127 107 98
13.783 -2.0350001 -0.699 136 121 114
13.942 -1.924 -0.83399999 106 58 18
13.933 -1.9119999 -0.82099998 97 52 11
13.952 -1.822 -0.76899999 14 0 0
13.957 -1.817 -0.76800001 16 4 4
13.946 -1.819 -0.77499998 123 119 118
13.954 -1.821 -0.76499999 20 6 3
13.949 -1.832 -0.76899999 19 5 4
13.948 -1.8329999 -0.76899999 74 72 83
13.946 -1.847 -0.78299999 71 68 79
13.944 -1.841 -0.77999997 79 57 44
13.933 -1.873 -0.83499998 65 50 45
13.932 -1.873 -0.83200002 59 35 23
13.936 -1.873 -0.81900001 129 109 110
13.938 -1.8789999 -0.81800002 93 71 58
13.943 -1.867 -0.81800002 99 77 64
13.921 -1.85 -0.80900002 126 90 58
13.923 -1.848 -0.80299997 24 4 0
13.875 -1.851 -0.77999997 38 11 2
13.91 -1.78 -0.59500003 135 100 78
13.904 -1.786 -0.60000002 39 24 19
13.909 -1.781 -0.60100001 95 85 86
13.92 -1.766 -0.60600001 97 53 28
13.893 -1.742 -0.61000001 252 211 167
13.894 -1.756 -0.60399997 157 117 82
14.065 -1.888 -0.46900001 139 79 27
14.059 -1.885 -0.47400001 115 86 30
13.988 -1.885 -0.53200001 102 49 18
13.784 -2.0350001 -0.685 118 103 96
13.783 -2.036 -0.68400002 124 95 79
14.055 -1.927 -0.47799999 133 74 32
14.05 -1.927 -0.47499999 54 17 0
14.062 -1.937 -0.46799999 115 72 30
14.061 -1.92 -0.46700001 36 17 11
14.035 -1.918 -0.484 127 85 47
14.036 -1.923 -0.49200001 166 119 89
14.046 -1.927 -0.50599998 69 33 7
14.04 -1.927 -0.486 71 39 14
13.763 -2.0220001 -0.60500002 68 42 41
13.904 -1.772 -0.60500002 128 80 34
13.905 -1.773 -0.597 155 118 91
13.902 -1.771 -0.58899999 30 10 3
13.898 -1.751 -0.59200001 117 81 47
14.009 -1.909 -0.52899998 127 66 35
14.012 -1.91 -0.551 149 72 18
14.004 -1.9119999 -0.53899997 92 54 31
14.005 -1.91 -0.54699999 50 18 5
14.007 -1.908 -0.54500002 121 77 40
13.992 -1.9170001 -0.52200001 66 21 0
14 -1.905 -0.51800001 100 59 27
13.822 -1.9630001 -0.662 132 106 91
14 -1.8940001 -0.53600001 102 64 19
14.012 -1.892 -0.52499998 81 40 18
14.014 -1.898 -0.55500001 150 119 99
13.996 -1.911 -0.54799998 119 74 35
13.811 -1.951 -0.67000002 82 42 6
13.864 -1.965 -0.77600002 30 20 11
13.867 -1.962 -0.773 20 9 5
13.858 -1.965 -0.77700001 127 77 24
13.857 -1.9630001 -0.773 80 45 25
13.803 -1.938 -0.69800001 213 162 117
13.798 -1.9400001 -0.69499999 45 13 0
13.802 -1.941 -0.68599999 60 29 8
13.99 -1.901 -0.55000001 184 109 54
13.887 -1.916 -0.73799998 15 1 1
13.894 -1.914 -0.71799999 81 69 71
13.89 -1.906 -0.72899997 18 0 0
13.894 -1.909 -0.72000003 49 38 36
13.869 -1.92 -0.72799999 101 63 44
13.882 -1.906 -0.73799998 14 0 0
13.883 -1.91 -0.74699998 20 2 0
13.863 -1.921 -0.74599999 23 0 0
13.883 -1.938 -0.73400003 73 45 33
13.846 -1.938 -0.70099998 78 69 74
13.735 -2.007 -0.61299998 84 52 31
13.99 -1.8839999 -0.546 114 60 32
13.94 -1.943 -0.68099999 224 167 112
13.913 -1.965 -0.73500001 35 1 0
13.898 -1.957 -0.73400003 56 26 18
13.903 -1.944 -0.75599998 33 12 9
13.89 -1.966 -0.75999999 33 9 5
13.89 -1.966 -0.75800002 52 37 34
13.942 -1.872 -0.76599997 33 15 11
13.94 -1.875 -0.76999998 122 111 109
13.946 -1.887 -0.755 22 11 7
13.945 -1.87 -0.76099998 35 16 10
13.947 -1.869 -0.75599998 72 60 64
13.95 -1.898 -0.83200002 120 101 105
13.905 -1.878 -0.708 67 40 31
13.908 -1.878 -0.704 103 80 66
13.9 -1.869 -0.70300001 26 6 0
13.898 -1.873 -0.71899998 49 25 15
13.928 -1.876 -0.70300001 95 69 54
13.939 -1.892 -0.75300002 24 2 0
13.931 -1.877 -0.73699999 128 106 93
13.895 -1.825 -0.71600002 59 32 21
13.917 -1.831 -0.71399999 27 12 5
13.909 -1.822 -0.722 48 24 20
13.894 -1.784 -0.65799999 62 34 13
13.891 -1.778 -0.66000003 84 61 47
13.895 -1.793 -0.653 59 36 30
13.81 -1.936 -0.69300002 182 159 145
13.898 -1.783 -0.66100001 112 101 97
13.932 -1.7589999 -0.67900002 50 30 19
13.925 -1.798 -0.70999998 33 3 0
13.914 -1.804 -0.71399999 82 65 55
13.91 -1.801 -0.72100002 41 8 3
13.93 -1.785 -0.72299999 75 33 19
13.933 -1.804 -0.77200001 32 15 8
13.92 -1.801 -0.755 21 10 8
13.932 -1.7970001 -0.76099998 219 180 151
13.915 -1.757 -0.58899999 28 8 1
13.913 -1.75 -0.59500003 117 67 16
13.923 -1.763 -0.69400001 37 4 0
13.923 -1.763 -0.69099998 191 160 142
13.922 -1.768 -0.69700003 36 17 2
13.936 -1.76 -0.69999999 23 4 0
13.932 -1.762 -0.699 48 31 24
13.927 -1.819 -0.71399999 45 23 9
13.944 -1.819 -0.713 77 56 51
13.942 -1.819 -0.72399998 21 2 0
13.923 -1.825 -0.722 51 23 1
13.922 -1.831 -0.71700001 53 45 32
13.921 -1.86 -0.70599997 41 17 7
13.918 -1.848 -0.71700001 52 34 10
13.961 -1.868 -0.69099998 44 26 16
13.93 -1.786 -0.68800002 50 28 15
13.93 -1.783 -0.67799997 43 17 2
13.916 -1.786 -0.69400001 46 13 0
13.937 -1.79 -0.67799997 96 86 85
13.96 -1.892 -0.69400001 43 20 4
13.962 -1.897 -0.69199997 157 131 114
13.958 -1.876 -0.699 59 30 22
14.06 -1.885 -0.48199999 112 81 63
14.06 -1.887 -0.48100001 125 68 15
14.007 -1.872 -0.68300003 100 66 39
14.006 -1.877 -0.68300003 99 88 86
14.006 -1.8660001 -0.67699999 68 51 35
13.95 -1.864 -0.75700003 67 70 79
13.951 -1.86 -0.755 17 7 5
13.959 -1.86 -0.76899999 13 0 0
13.951 -1.864 -0.76700002 26 8 6
13.938 -1.87 -0.755 28 13 6
13.926 -1.892 -0.722 107 85 72
13.928 -1.896 -0.71499997 73 59 50
13.921 -1.885 -0.72100002 51 26 21
13.919 -1.882 -0.71700001 51 28 12
13.906 -1.883 -0.71399999 32 12 1
13.908 -1.888 -0.71399999 32 17 22
13.898 -1.908 -0.72000003 89 65 53
13.916 -1.902 -0.713 83 68 65
13.913 -1.918 -0.72100002 78 35 18
13.922 -1.9 -0.70899999 49 30 13
13.921 -1.904 -0.72100002 61 36 39
13.931 -1.944 -0.69099998 44 21 13
13.941 -1.762 -0.70099998 37 9 0
13.972 -1.7970001 -0.79400003 49 27 16
13.918 -1.837 -0.81599998 98 68 66
13.968 -1.8 -0.79799998 54 27 16
14.061 -1.901 -0.47 111 73 36
14.078 -1.928 -0.5 72 42 34
14.077 -1.92 -0.495 120 74 38
14.075 -1.928 -0.47499999 114 76 53
13.997 -1.8940001 -0.51700002 98 62 14
14.042 -1.908 -0.477 224 176 140
14.043 -1.902 -0.47400001 162 94 47
13.998 -1.891 -0.51599997 162 123 84
14.001 -1.885 -0.51800001 187 147 95
13.802 -1.998 -0.64600003 75 40 10
13.797 -1.997 -0.64899999 64 32 17
13.798 -2.0039999 -0.64899999 44 22 11
13.945 -1.923 -0.82700002 47 30 23
13.888 -1.961 -0.75700003 26 12 9
13.885 -1.961 -0.76499999 20 7 1
13.937 -1.911 -0.83399999 59 14 0
13.864 -1.931 -0.79900002 29 14 17
13.865 -1.926 -0.80299997 142 97 55
13.858 -1.921 -0.78200001 35 9 0
13.867 -1.925 -0.79100001 39 28 26
13.87 -1.919 -0.79000002 16 6 4
13.92 -1.873 -0.764 24 5 0
13.918 -1.8710001 -0.76200002 64 19 13
13.909 -1.873 -0.76700002 98 93 100
13.949 -1.803 -0.74599999 23 5 3
13.95 -1.811 -0.736 71 28 12
13.944 -1.819 -0.741 88 83 79
13.958 -1.801 -0.72500002 35 17 13
13.95 -1.817 -0.72899997 39 12 5
13.952 -1.8049999 -0.72799999 36 11 6
13.938 -1.834 -0.77499998 19 0 0
13.947 -1.832 -0.76800001 22 8 8
13.941 -1.829 -0.76999998 39 16 10
13.937 -1.829 -0.77399999 104 100 101
13.936 -1.812 -0.76999998 24 5 0
14.022 -1.898 -0.66799998 53 19 7
14.022 -1.904 -0.67000002 13 3 4
14.035 -1.893 -0.66000003 94 62 39
14.052 -1.925 -0.62300003 59 32 13
14.048 -1.928 -0.63 57 52 59
14.047 -1.92 -0.625 31 14 6
13.916 -1.847 -0.81599998 50 26 16
13.938 -1.878 -0.82200003 49 28 23
13.939 -1.875 -0.81400001 91 78 70
13.936 -1.873 -0.80699998 110 98 98
13.898 -1.802 -0.62900001 88 44 15
13.896 -1.8660001 -0.713 22 11 19
13.879 -1.8430001 -0.78399998 33 15 11
13.883 -1.8430001 -0.77499998 37 23 20
13.884 -1.8609999 -0.76599997 24 11 5
13.907 -1.7819999 -0.62800002 90 47 15
13.902 -1.7869999 -0.62900001 38 12 0
13.889 -1.748 -0.60299999 107 63 18
13.89 -1.749 -0.60100001 122 101 96
14.055 -1.883 -0.47499999 143 106 51
14.046 -1.891 -0.48100001 97 54 12
14.061 -1.903 -0.49700001 87 55 40
14.056 -1.901 -0.49399999 91 52 11
14.072 -1.904 -0.50800002 120 66 20
14.065 -1.903 -0.50800002 103 63 28
13.759 -2.0220001 -0.61299998 85 50 28
13.902 -1.772 -0.58499998 113 58 17
13.898 -1.7410001 -0.602 189 147 105
14.067 -1.927 -0.498 79 43 21
14.052 -1.924 -0.51200002 117 77 51
14.049 -1.926 -0.51700002 66 38 26
14.047 -1.921 -0.51200002 85 42 25
14.031 -1.911 -0.52200001 179 113 81
14.008 -1.911 -0.52499998 50 14 0
13.995 -1.913 -0.52600002 126 102 56
14.009 -1.904 -0.509 83 38 15
13.987 -1.899 -0.53100002 90 47 30
13.987 -1.9069999 -0.52499998 125 86 55
13.988 -1.903 -0.52399999 178 137 109
13.99 -1.9069999 -0.54500002 104 63 35
13.82 -1.979 -0.68699998 93 66 47
13.812 -1.997 -0.676 99 63 41
13.852 -1.883 -0.78799999 106 100 104
13.852 -1.888 -0.77999997 76 40 26
13.854 -1.88 -0.78100002 27 4 0
13.805 -1.938 -0.69400001 79 68 66
13.856 -1.926 -0.78200001 89 60 44
13.81 -1.95 -0.699 241 188 144
13.8 -1.952 -0.68599999 91 42 2
13.937 -1.947 -0.67000002 119 108 106
13.932 -1.952 -0.67799997 47 18 0
13.938 -1.954 -0.67000002 204 152 95
13.869 -1.918 -0.73500001 21 0 0
13.896 -1.932 -0.77600002 87 36 15
13.897 -1.933 -0.79299998 133 86 44
13.9 -1.92 -0.773 49 23 10
13.899 -1.923 -0.74199998 135 103 88
13.892 -1.9400001 -0.74800003 45 12 0
13.877 -1.9349999 -0.74299997 23 5 5
13.854 -1.954 -0.71399999 115 61 17
13.858 -1.95 -0.70700002 102 66 44
13.851 -1.948 -0.713 114 63 34
13.848 -1.951 -0.70899999 39 12 3
13.869 -1.932 -0.72899997 47 11 0
13.741 -2.0050001 -0.60299999 142 114 92
13.869 -1.944 -0.74000001 64 34 24
13.87 -1.9450001 -0.74299997 52 34 34
13.89 -1.937 -0.77700001 46 31 28
13.9 -1.9450001 -0.759 44 26 24
13.895 -1.946 -0.74299997 130 80 27
13.966 -1.901 -0.69199997 29 16 25
13.945 -1.939 -0.69400001 51 24 7
13.94 -1.9400001 -0.68699998 79 47 32
13.944 -1.9450001 -0.69499999 144 118 101
13.941 -1.956 -0.67299998 91 70 53
13.899 -1.924 -0.73000002 32 13 7
13.877 -1.9349999 -0.73199999 32 11 8
13.903 -1.955 -0.73500001 39 20 16
13.898 -1.951 -0.73199999 82 72 71
13.937 -1.878 -0.80800003 43 24 20
13.93 -1.8839999 -0.80199999 58 43 38
13.933 -1.874 -0.801 48 30 18
13.932 -1.8430001 -0.73100001 49 25 13
13.932 -1.842 -0.73900002 47 24 16
13.924 -1.849 -0.727 91 61 50
13.935 -1.837 -0.736 54 12 0
13.946 -1.831 -0.75800002 38 24 21
13.941 -1.895 -0.75599998 23 4 0
13.939 -1.875 -0.759 97 87 86
13.902 -1.888 -0.76300001 51 27 15
13.906 -1.906 -0.76800001 21 8 2
13.901 -1.906 -0.75800002 20 11 2
13.882 -1.8660001 -0.77100003 28 0 0
13.862 -1.916 -0.78100002 17 3 0
13.873 -1.898 -0.79299998 59 25 13
13.869 -1.897 -0.77899998 34 16 14
13.873 -1.892 -0.76700002 30 15 10
13.871 -1.909 -0.77200001 44 12 0
13.885 -1.905 -0.75700003 39 27 27
13.878 -1.8890001 -0.76499999 17 0 0
13.895 -1.823 -0.73000002 20 5 2
13.9 -1.84 -0.74299997 26 8 4
13.895 -1.823 -0.74000001 13 0 0
13.888 -1.7819999 -0.65100002 97 48 18
13.898 -1.789 -0.648 55 17 0
13.932 -1.755 -0.616 96 52 15
13.938 -1.7640001 -0.68300003 37 19 15
13.925 -1.7589999 -0.68800002 41 22 8
13.926 -1.768 -0.68300003 89 62 51
13.925 -1.765 -0.68599999 52 16 2
13.91 -1.74 -0.61000001 187 127 64
13.909 -1.7359999 -0.60500002 175 120 64
13.907 -1.747 -0.616 255 210 152
13.925 -1.836 -0.79400003 74 72 83
13.92 -1.841 -0.79799998 59 40 36
13.921 -1.84 -0.80000001 33 11 0
13.941 -1.809 -0.77399999 100 61 28
13.881 -1.842 -0.79100001 24 1 0
13.882 -1.845 -0.79100001 101 98 109
13.943 -1.839 -0.78399998 46 1 0
13.951 -1.819 -0.76999998 66 35 17
13.897 -1.748 -0.62199998 90 49 17
13.896 -1.777 -0.63800001 66 26 1
13.902 -1.761 -0.62 124 91 60
13.914 -1.737 -0.59399998 188 153 125
13.917 -1.74 -0.59500003 200 148 98
13.937 -1.806 -0.69 95 75 68
13.943 -1.809 -0.68400002 47 36 34
13.921 -1.826 -0.71799999 72 44 32
13.92 -1.824 -0.72299999 66 29 3
13.913 -1.804 -0.72299999 31 17 8
13.933 -1.87 -0.70200002 94 86 97
13.926 -1.867 -0.70599997 20 0 0
13.957 -1.8710001 -0.69199997 113 82 61
13.961 -1.869 -0.69 87 84 95
13.957 -1.873 -0.69300002 81 56 36
13.946 -1.8200001 -0.70300001 178 155 149
13.979 -1.868 -0.69 73 46 37
14.009 -1.87 -0.68900001 64 40 28
13.925 -1.789 -0.72899997 100 63 45
13.97 -1.883 -0.69199997 83 57 42
13.952 -1.877 -0.69 77 48 34
13.965 -1.886 -0.69099998 97 89 100
13.963 -1.877 -0.69099998 48 28 17
13.977 -1.886 -0.68300003 77 56 39
14.017 -1.901 -0.55599999 105 64 32
14.002 -1.8839999 -0.542 138 89 48
13.998 -1.882 -0.53200001 69 39 15
13.999 -1.885 -0.53600001 255 215 163
13.951 -1.864 -0.76999998 93 93 105
13.945 -1.865 -0.76499999 20 6 3
13.946 -1.86 -0.75599998 24 5 1
13.925 -1.882 -0.73500001 121 111 112
13.924 -1.89 -0.73500001 44 22 25
13.923 -1.904 -0.73500001 58 33 36
13.923 -1.904 -0.72500002 68 53 50
13.897 -1.9069999 -0.722 53 32 27
13.931 -1.956 -0.69199997 81 57 53
13.933 -1.95 -0.68599999 85 56 38
13.94 -1.956 -0.68400002 112 87 67
13.955 -1.801 -0.73400003 43 19 7
13.95 -1.8099999 -0.736 18 3 0
13.965 -1.7970001 -0.787 56 23 4
13.95 -1.799 -0.78600001 55 32 24
14.049 -1.926 -0.484 64 31 12
14.066 -1.926 -0.493 210 179 150
14.07 -1.927 -0.498 97 64 49
14.059 -1.9119999 -0.49200001 252 217 185
14.058 -1.927 -0.47799999 136 74 25
13.995 -1.897 -0.51899999 71 26 3
14.04 -1.921 -0.46799999 121 80 50
14.046 -1.893 -0.47499999 182 144 82
14.01 -1.897 -0.50800002 127 91 31
14.001 -1.886 -0.52499998 167 98 56
14.016 -1.888 -0.51700002 114 63 20
14.045 -1.8890001 -0.49000001 176 111 57
14.039 -1.904 -0.49700001 92 53 24
14.041 -1.904 -0.50199997 240 174 124
13.796 -1.973 -0.65200001 80 57 39
13.795 -1.979 -0.65100002 31 15 16
13.803 -1.9809999 -0.65499997 111 77 49
13.785 -2.0179999 -0.69499999 177 161 145
13.775 -2.0150001 -0.70099998 99 69 43
13.773 -2.03 -0.68199998 237 184 142
13.871 -1.959 -0.76200002 79 68 66
13.896 -1.934 -0.79500002 12 2 1
13.9 -1.932 -0.801 45 25 24
13.885 -1.938 -0.78200001 31 15 15
13.872 -1.9299999 -0.801 31 22 25
13.896 -1.934 -0.79699999 58 26 13
13.892 -1.934 -0.80500001 126 77 37
13.937 -1.872 -0.76999998 92 91 99
13.915 -1.869 -0.75999999 10 2 0
13.91 -1.869 -0.75300002 20 2 0
13.914 -1.8609999 -0.75400001 85 84 92
13.874 -1.857 -0.796 97 84 91
13.88 -1.852 -0.78899997 25 10 7
13.915 -1.847 -0.80699998 70 68 81
13.918 -1.8890001 -0.80699998 28 9 3
13.922 -1.887 -0.801 25 6 0
13.908 -1.888 -0.78899997 48 31 24
13.911 -1.881 -0.78299999 101 95 97
13.912 -1.881 -0.79400003 92 86 90
13.894 -1.9 -0.78100002 83 75 72
13.951 -1.942 -0.699 111 78 61
13.969 -1.895 -0.69199997 63 44 29
13.988 -1.9 -0.68099999 84 58 45
14.004 -1.8940001 -0.68099999 58 32 19
14.006 -1.906 -0.68300003 79 69 70
14.013 -1.8940001 -0.66900003 85 62 48
14.036 -1.928 -0.63599998 22 7 4
14.038 -1.921 -0.63499999 93 66 49
13.936 -1.874 -0.81699997 41 19 5
13.886 -1.796 -0.62699997 65 29 7
13.895 -1.7819999 -0.63499999 122 64 24
13.897 -1.796 -0.62900001 37 10 1
13.897 -1.867 -0.71499997 27 2 0
13.901 -1.859 -0.72399998 43 21 8
13.9 -1.854 -0.73199999 89 48 20
13.896 -1.8559999 -0.71499997 36 16 7
13.899 -1.853 -0.71200001 92 84 97
13.882 -1.848 -0.78200001 20 3 0
14.056 -1.899 -0.49399999 182 127 73
14.07 -1.915 -0.50300002 79 35 0
14.042 -1.91 -0.49399999 114 47 0
14.04 -1.908 -0.49700001 117 48 9
13.763 -2.017 -0.61299998 59 23 7
13.762 -2.01 -0.60399997 69 39 28
13.76 -2.0090001 -0.59799999 84 53 33
13.767 -2.0139999 -0.61900002 112 58 30
13.761 -2.017 -0.61699998 104 76 62
13.894 -1.762 -0.597 186 134 86
13.914 -1.7640001 -0.60100001 111 99 101
14.026 -1.895 -0.55900002 141 74 29
14.049 -1.925 -0.51300001 120 71 38
13.993 -1.902 -0.55299997 142 98 71
14 -1.902 -0.56199998 88 60 39
13.816 -1.943 -0.671 65 33 8
13.813 -1.944 -0.67299998 54 33 30
13.797 -1.988 -0.69700003 100 39 8
13.783 -1.987 -0.68599999 62 34 13
13.797 -1.995 -0.69999999 177 150 139
13.791 -1.977 -0.68199998 91 67 57
13.788 -1.964 -0.69 71 43 29
13.738 -2.007 -0.63700002 104 63 35
13.782 -1.9630001 -0.68400002 145 121 111
13.791 -1.961 -0.69499999 54 26 14
13.785 -1.971 -0.68300003 67 53 52
13.87 -1.938 -0.79299998 31 17 17
13.866 -1.965 -0.77600002 115 95 86
13.826 -1.9349999 -0.69199997 173 133 97
13.826 -1.934 -0.69700003 57 38 32
13.829 -1.934 -0.69800001 72 39 24
13.994 -1.893 -0.54699999 212 168 141
13.874 -1.923 -0.736 47 27 28
13.891 -1.934 -0.77999997 173 125 87
13.897 -1.919 -0.745 25 7 3
13.9 -1.914 -0.75300002 94 76 62
13.904 -1.915 -0.74199998 33 13 12
13.899 -1.913 -0.76800001 45 27 25
13.91 -1.914 -0.72799999 42 15 8
13.862 -1.9299999 -0.713 109 53 28
13.828 -1.9579999 -0.69 51 17 5
13.813 -1.976 -0.69300002 77 45 22
13.846 -1.948 -0.708 151 129 118
13.863 -1.941 -0.74400002 73 66 73
13.869 -1.952 -0.75400001 15 1 0
13.863 -1.939 -0.75300002 118 70 32
13.864 -1.939 -0.74599999 43 18 14
13.856 -1.925 -0.78100002 21 10 6
13.776 -1.967 -0.64499998 52 29 23
13.769 -1.97 -0.65799999 101 57 30
13.778 -1.956 -0.65899998 70 23 3
13.76 -1.977 -0.634 83 54 46
13.753 -1.985 -0.64499998 114 76 55
13.771 -1.972 -0.65200001 83 51 26
13.774 -1.9680001 -0.65399998 98 69 55
13.775 -1.969 -0.66100001 101 64 46
13.792 -1.972 -0.65200001 83 47 31
13.799 -1.989 -0.64499998 92 56 24
13.794 -1.9910001 -0.64899999 137 88 48
13.749 -1.992 -0.602 118 61 18
13.737 -2 -0.63099998 144 109 79
13.81 -1.998 -0.67299998 102 69 50
13.81 -1.998 -0.67199999 143 125 115
13.915 -1.875 -0.73500001 49 28 23
13.917 -1.881 -0.74299997 37 18 14
13.909 -1.874 -0.75 20 1 0
13.887 -1.943 -0.74699998 14 0 0
13.891 -1.943 -0.75300002 48 20 8
13.967 -1.896 -0.69199997 69 36 21
13.937 -1.947 -0.67799997 89 65 55
13.886 -1.943 -0.73699999 41 14 7
13.873 -1.957 -0.755 46 30 30
13.908 -1.9170001 -0.72899997 44 23 20
13.902 -1.942 -0.75300002 29 18 24
13.928 -1.883 -0.81 63 53 61
13.916 -1.869 -0.73299998 25 12 6
13.917 -1.869 -0.74199998 15 5 4
13.915 -1.86 -0.73199999 13 0 0
13.932 -1.867 -0.70999998 24 0 0
13.922 -1.8380001 -0.73199999 51 29 8
13.919 -1.845 -0.73400003 73 49 49
13.915 -1.839 -0.73299998 247 212 182
13.949 -1.83 -0.76499999 31 17 14
13.947 -1.8200001 -0.736 18 0 0
13.939 -1.818 -0.75199997 99 95 94
13.901 -1.8839999 -0.76700002 86 75 79
13.923 -1.88 -0.755 6 1 8
13.886 -1.897 -0.79500002 73 30 13
13.889 -1.895 -0.79900002 39 21 11
13.884 -1.899 -0.80199999 115 109 109
13.876 -1.859 -0.77999997 48 14 0
13.875 -1.886 -0.77899998 38 24 24
13.875 -1.923 -0.787 33 15 13
13.876 -1.9119999 -0.78600001 48 29 25
13.888 -1.897 -0.77499998 49 30 23
13.885 -1.897 -0.77399999 88 41 23
13.908 -1.8430001 -0.74000001 80 80 90
13.904 -1.852 -0.713 36 23 14
13.904 -1.822 -0.722 44 29 24
13.896 -1.823 -0.72399998 62 36 21
13.893 -1.778 -0.64700001 68 36 21
13.909 -1.796 -0.64099997 110 76 51
13.911 -1.784 -0.64099997 84 52 27
13.913 -1.798 -0.63300002 98 72 59
13.917 -1.786 -0.64600003 63 28 8
13.933 -1.76 -0.68400002 62 38 28
13.92 -1.771 -0.62800002 76 32 7
13.948 -1.814 -0.72000003 40 11 7
13.947 -1.814 -0.70899999 35 8 1
13.933 -1.827 -0.801 36 13 5
13.902 -1.75 -0.62 255 227 193
13.911 -1.7410001 -0.61000001 146 113 80
13.924 -1.755 -0.616 121 71 36
13.916 -1.753 -0.597 102 59 27
13.915 -1.7589999 -0.60299999 81 46 18
13.904 -1.732 -0.602 166 129 84
13.903 -1.747 -0.59299999 184 148 116
13.906 -1.842 -0.72799999 49 27 14
13.919 -1.831 -0.72399998 25 12 6
13.959 -1.794 -0.69099998 61 38 30
13.969 -1.799 -0.68199998 63 54 59
13.951 -1.786 -0.67500001 48 15 6
13.965 -1.803 -0.68199998 37 18 12
13.953 -1.816 -0.699 96 63 48
13.956 -1.803 -0.69099998 54 31 23
13.953 -1.811 -0.70099998 71 45 30
13.943 -1.812 -0.68900001 48 29 23
13.925 -1.783 -0.69599998 77 55 41
13.923 -1.768 -0.68699998 41 22 8
13.932 -1.793 -0.70099998 44 25 19
13.936 -1.7970001 -0.69999999 61 54 46
13.93 -1.795 -0.73500001 30 13 6
13.928 -1.795 -0.74400002 76 57 53
13.923 -1.802 -0.75 25 5 0
13.914 -1.801 -0.75199997 75 73 84
13.97 -1.8890001 -0.68900001 157 127 117
13.953 -1.8049999 -0.70300001 44 15 1
13.967 -1.8839999 -0.69499999 85 71 70
13.971 -1.874 -0.69499999 40 20 11
13.994 -1.882 -0.54400003 117 85 70
14.006 -1.891 -0.55299997 77 42 14
14.012 -1.903 -0.63099998 33 8 1
14.015 -1.8940001 -0.63099998 43 16 5
14.014 -1.896 -0.63700002 94 70 58
14.038 -1.903 -0.63700002 71 40 22
14.035 -1.905 -0.63499999 65 46 40
14.051 -1.899 -0.62699997 39 22 15
13.94 -1.84 -0.741 56 28 17
13.921 -1.86 -0.75099999 25 5 0
13.918 -1.86 -0.74900001 39 21 17
13.915 -1.854 -0.73799998 34 10 6
13.917 -1.895 -0.70999998 77 41 27
13.909 -1.888 -0.71200001 125 113 113
13.9 -1.908 -0.73400003 32 11 6
13.911 -1.897 -0.722 30 11 5
13.962 -1.794 -0.79400003 40 21 14
13.939 -1.807 -0.76800001 36 22 19
14.063 -1.893 -0.46799999 111 55 6
14.044 -1.895 -0.47999999 82 83 104
14.041 -1.9 -0.484 255 224 187
14.051 -1.9 -0.498 189 144 113
13.997 -1.902 -0.51899999 87 81 93
14.013 -1.895 -0.51899999 92 90 103
13.998 -1.883 -0.52899998 176 124 84
13.806 -2.003 -0.662 137 127 125
13.807 -1.998 -0.67299998 122 69 38
13.793 -2.0009999 -0.67199999 99 47 10
13.791 -2.026 -0.67400002 135 104 86
13.87 -1.951 -0.75700003 38 17 14
13.867 -1.941 -0.75300002 41 22 16
13.872 -1.965 -0.755 83 31 10
13.893 -1.925 -0.77600002 14 3 0
13.926 -1.877 -0.796 106 68 55
13.909 -1.88 -0.78500003 54 24 14
13.907 -1.887 -0.79500002 99 87 91
13.929 -1.877 -0.80500001 112 88 78
13.95 -1.793 -0.73699999 42 3 0
13.952 -1.809 -0.764 87 81 81
13.938 -1.801 -0.75099999 43 15 3
13.95 -1.812 -0.76499999 18 3 0
13.935 -1.7970001 -0.75199997 64 28 4
13.942 -1.951 -0.676 47 19 5
13.946 -1.946 -0.68400002 60 37 19
13.978 -1.895 -0.68300003 94 72 58
13.99 -1.905 -0.68000001 56 30 17
14.002 -1.903 -0.68099999 66 40 25
14.008 -1.872 -0.68099999 138 114 102
14.006 -1.892 -0.667 121 119 130
14.048 -1.914 -0.61199999 69 43 30
14.049 -1.921 -0.61400002 42 24 14
14.05 -1.9 -0.62199998 33 5 0
14.051 -1.896 -0.61900002 45 18 0
13.956 -1.938 -0.685 46 27 13
13.95 -1.946 -0.69499999 76 61 56
13.9 -1.852 -0.73900002 34 17 9
13.906 -1.853 -0.745 71 28 9
13.905 -1.867 -0.72600001 26 9 1
14.052 -1.898 -0.48100001 157 101 44
14.056 -1.887 -0.48300001 157 116 84
14.077 -1.924 -0.5 57 23 11
13.994 -1.881 -0.528 54 25 9
14.051 -1.91 -0.49000001 153 114 75
13.764 -2 -0.60500002 55 31 31
13.75 -1.994 -0.60399997 158 132 115
13.896 -1.763 -0.59399998 146 114 91
14.037 -1.911 -0.51800001 141 99 61
14.06 -1.904 -0.51200002 78 26 4
14.04 -1.927 -0.63200003 55 21 0
14.014 -1.9 -0.51700002 85 37 1
14.013 -1.905 -0.51099998 68 23 0
13.816 -1.976 -0.66900003 69 28 8
13.772 -2.0280001 -0.68800002 48 25 11
13.78 -2.0309999 -0.68599999 141 113 89
13.791 -1.957 -0.69199997 39 20 14
13.786 -1.985 -0.68099999 106 96 94
13.787 -1.988 -0.68000001 154 112 87
13.812 -1.978 -0.66900003 81 45 29
13.867 -1.932 -0.79699999 20 1 0
13.823 -1.944 -0.676 80 49 31
13.823 -1.95 -0.69099998 36 18 18
13.799 -1.9529999 -0.66399997 99 65 40
13.861 -1.916 -0.72600001 17 0 0
13.852 -1.919 -0.72500002 28 10 6
13.87 -1.926 -0.74599999 75 62 69
13.852 -1.9349999 -0.70599997 150 108 84
13.848 -1.928 -0.71799999 39 21 21
13.826 -1.942 -0.70099998 58 26 15
13.841 -1.95 -0.70499998 102 75 64
13.804 -1.976 -0.69800001 122 63 29
13.806 -1.9680001 -0.69999999 120 92 81
13.862 -1.9299999 -0.72899997 11 1 0
13.862 -1.934 -0.73799998 32 16 16
13.871 -1.911 -0.77499998 23 8 3
13.772 -1.972 -0.634 49 15 0
13.797 -1.962 -0.65399998 55 23 0
13.754 -1.985 -0.62 86 48 25
13.749 -1.9859999 -0.62599999 119 72 46
13.782 -1.961 -0.65700001 88 42 8
13.797 -1.971 -0.653 84 58 41
13.733 -2.006 -0.62599999 66 39 20
13.74 -2.0020001 -0.63300002 77 37 2
13.925 -1.893 -0.736 100 88 88
13.919 -1.88 -0.74599999 126 117 118
13.936 -1.9529999 -0.68099999 191 136 82
13.897 -1.919 -0.76700002 35 20 17
13.915 -1.859 -0.73000002 43 23 14
13.915 -1.8710001 -0.72000003 28 7 4
13.912 -1.862 -0.74199998 29 9 2
13.912 -1.869 -0.741 22 4 0
13.918 -1.851 -0.73299998 20 9 5
13.923 -1.878 -0.72399998 46 29 21
13.922 -1.847 -0.72299999 62 42 35
13.938 -1.821 -0.75400001 18 4 3
13.892 -1.908 -0.73799998 21 9 9
13.889 -1.9069999 -0.75400001 45 27 25
13.891 -1.906 -0.74800003 28 17 11
13.894 -1.9069999 -0.74400002 40 22 18
13.898 -1.908 -0.755 37 19 15
13.888 -1.865 -0.76700002 15 0 0
13.913 -1.877 -0.755 58 47 53
13.912 -1.8789999 -0.75999999 15 7 5
13.92 -1.88 -0.76800001 82 68 67
13.879 -1.89 -0.78600001 44 25 18
13.893 -1.88 -0.77999997 90 79 83
13.896 -1.858 -0.77499998 26 9 2
13.866 -1.8890001 -0.78200001 65 45 36
13.888 -1.934 -0.78399998 11 2 0
13.906 -1.842 -0.73900002 26 8 0
13.895 -1.819 -0.73199999 43 7 0
13.891 -1.793 -0.64499998 77 22 0
13.912 -1.78 -0.64899999 97 56 34
13.913 -1.795 -0.63999999 41 15 2
13.932 -1.788 -0.64399999 64 34 24
13.949 -1.79 -0.66500002 44 10 0
13.946 -1.783 -0.662 90 69 52
13.971 -1.804 -0.68099999 38 18 7
13.932 -1.767 -0.67900002 77 55 41
13.938 -1.8 -0.69599998 21 0 0
13.941 -1.8150001 -0.70099998 3 1 12
13.942 -1.807 -0.70200002 150 129 124
13.907 -1.8430001 -0.74800003 65 45 44
13.899 -1.75 -0.62199998 255 203 146
13.931 -1.7539999 -0.61400002 131 57 12
13.896 -1.8279999 -0.72000003 87 67 60
13.971 -1.867 -0.69199997 70 43 32
13.946 -1.789 -0.67699999 41 13 0
13.925 -1.786 -0.69800001 69 25 0
13.958 -1.798 -0.69800001 36 17 10
13.955 -1.789 -0.70300001 44 25 19
13.953 -1.7970001 -0.704 64 21 2
13.937 -1.784 -0.69300002 20 6 6
13.937 -1.781 -0.69199997 115 87 73
13.945 -1.7920001 -0.69199997 92 78 75
13.941 -1.785 -0.68000001 36 12 0
13.964 -1.87 -0.69099998 41 9 0
14.018 -1.898 -0.62800002 67 65 78
14.035 -1.904 -0.64300001 42 16 3
14.035 -1.893 -0.65200001 32 10 0
13.92 -1.893 -0.736 29 7 0
13.96 -1.799 -0.787 123 106 99
13.961 -1.794 -0.78500003 58 40 30
14.065 -1.903 -0.46900001 146 100 66
14.036 -1.911 -0.48699999 106 72 70
14.05 -1.898 -0.49399999 114 112 133
14.05 -1.911 -0.46799999 179 136 94
13.779 -2.0179999 -0.68000001 89 65 41
13.873 -1.946 -0.75400001 25 9 10
13.894 -1.916 -0.77600002 16 5 1
13.918 -1.882 -0.80599999 102 91 95
13.913 -1.89 -0.801 54 37 30
13.941 -1.812 -0.75400001 22 6 6
13.935 -1.8049999 -0.71100003 24 12 12
13.925 -1.813 -0.74299997 15 0 0
13.999 -1.905 -0.68099999 122 95 84
14.006 -1.896 -0.67699999 31 14 7
13.996 -1.9 -0.676 60 9 0
14.009 -1.8940001 -0.65899998 62 43 28
14.032 -1.895 -0.65799999 102 52 15
14.019 -1.896 -0.653 45 17 5
14.049 -1.903 -0.62199998 56 24 3
14.035 -1.933 -0.62099999 93 64 48
14.043 -1.921 -0.61500001 131 106 84
13.944 -1.948 -0.67500001 53 31 34
14.015 -1.923 -0.634 146 116 105
14.024 -1.928 -0.62699997 98 65 34
14.001 -1.905 -0.66500002 44 18 5
13.991 -1.9069999 -0.67299998 70 33 14
13.949 -1.9349999 -0.68199998 239 176 123
14.013 -1.9220001 -0.62199998 81 55 38
14.021 -1.931 -0.61299998 101 75 50
13.902 -1.795 -0.62800002 109 74 46
13.903 -1.858 -0.73400003 98 75 69
13.995 -1.882 -0.52399999 162 114 76
13.763 -2.007 -0.60299999 100 65 37
14.007 -1.883 -0.55900002 108 63 34
14.026 -1.9 -0.565 77 37 12
14.013 -1.91 -0.52200001 53 26 9
13.808 -1.954 -0.69999999 59 30 22
13.802 -1.992 -0.69300002 69 38 10
13.769 -2.0179999 -0.69499999 167 111 64
13.777 -2.029 -0.69499999 151 97 53
13.773 -2.023 -0.69400001 87 54 37
13.814 -1.9579999 -0.66399997 97 78 74
13.867 -1.931 -0.79400003 60 31 15
13.833 -1.9349999 -0.69499999 58 31 14
13.804 -1.944 -0.68300003 47 20 1
13.809 -1.941 -0.68199998 52 32 25
13.8 -1.9529999 -0.67299998 60 29 8
13.857 -1.919 -0.74000001 39 19 8
13.858 -1.927 -0.73299998 112 56 33
13.895 -1.919 -0.75199997 42 16 0
13.893 -1.918 -0.755 23 8 5
13.891 -1.918 -0.75999999 74 60 59
13.852 -1.925 -0.70599997 74 51 33
13.831 -1.932 -0.713 221 167 120
13.836 -1.931 -0.69599998 59 49 48
13.802 -1.974 -0.69599998 81 53 42
13.865 -1.918 -0.78299999 59 27 12
13.87 -1.916 -0.78200001 73 62 66
13.751 -1.9859999 -0.62699997 152 121 100
13.77 -1.979 -0.64700001 50 26 24
13.778 -1.987 -0.65200001 40 14 1
13.755 -1.9960001 -0.64499998 129 89 63
13.771 -1.982 -0.64499998 63 38 33
13.755 -2.0079999 -0.64499998 118 75 43
13.778 -1.98 -0.64999998 135 94 74
13.778 -1.971 -0.64600003 139 89 52
13.767 -1.979 -0.64099997 132 101 81
13.737 -2.0120001 -0.63099998 156 117 84
13.745 -2.0190001 -0.62599999 183 139 112
13.752 -2.0090001 -0.63800001 88 46 21
13.755 -2.0009999 -0.63200003 59 24 4
13.76 -2.0090001 -0.61799997 58 22 6
13.794 -2.02 -0.685 47 29 27
13.922 -1.895 -0.72899997 20 8 12
13.907 -1.878 -0.76599997 87 65 52
13.912 -1.852 -0.74299997 64 21 4
13.92 -1.841 -0.72399998 22 9 1
13.928 -1.8150001 -0.75599998 14 3 1
13.879 -1.8890001 -0.77200001 72 43 25
13.894 -1.895 -0.77700001 34 17 9
13.886 -1.8660001 -0.77999997 96 90 90
13.9 -1.883 -0.78399998 19 4 1
13.92 -1.881 -0.75700003 71 63 61
13.911 -1.8789999 -0.76899999 17 4 0
13.882 -1.852 -0.77499998 32 18 9
13.87 -1.898 -0.78200001 62 42 33
13.892 -1.924 -0.77999997 55 35 36
13.904 -1.842 -0.73400003 92 63 55
13.887 -1.788 -0.64300001 104 105 126
13.948 -1.79 -0.66100001 49 18 0
13.931 -1.781 -0.64499998 110 81 65
13.937 -1.77 -0.67699999 29 6 0
13.939 -1.776 -0.671 86 58 46
13.942 -1.785 -0.66799998 30 8 0
13.932 -1.781 -0.67400002 22 6 6
13.928 -1.781 -0.64099997 59 14 0
13.945 -1.785 -0.671 67 39 27
13.942 -1.7819999 -0.67400002 99 49 12
13.917 -1.7640001 -0.62800002 132 83 40
13.897 -1.778 -0.64899999 55 16 0
13.917 -1.742 -0.59799999 165 105 45
13.914 -1.858 -0.71899998 30 6 2
13.904 -1.826 -0.72500002 2 0 11
13.926 -1.804 -0.72500002 88 42 18
13.943 -1.7690001 -0.68300003 11 0 0
13.939 -1.798 -0.71899998 60 28 17
13.955 -1.793 -0.69800001 51 20 2
13.939 -1.7869999 -0.68900001 44 18 3
13.973 -1.8789999 -0.68900001 81 53 42
14 -1.904 -0.55900002 66 25 0
14.006 -1.903 -0.56900001 76 37 8
14.012 -1.909 -0.56999999 173 133 98
14.006 -1.903 -0.55800003 95 73 52
14.037 -1.9119999 -0.63300002 46 23 15
14.02 -1.91 -0.63599998 71 47 47
13.903 -1.877 -0.72299999 94 53 35
13.921 -1.895 -0.736 77 63 54
13.953 -1.793 -0.787 56 14 0
14.033 -1.903 -0.57700002 61 26 6
14.032 -1.9 -0.57999998 77 40 11
14.036 -1.905 -0.58700001 70 29 0
14.034 -1.902 -0.58600003 77 50 21
14.066 -1.903 -0.51300001 229 185 158
14.047 -1.914 -0.46799999 144 100 63
13.784 -1.992 -0.65600002 108 86 75
13.794 -1.994 -0.65700001 116 87 71
13.794 -2.0009999 -0.66799998 54 28 11
13.779 -2.013 -0.69499999 168 133 114
13.773 -2.0179999 -0.68800002 90 64 39
13.779 -2.0150001 -0.685 172 141 113
13.786 -1.995 -0.67000002 117 81 45
13.79 -1.9859999 -0.66000003 158 144 141
13.93 -1.817 -0.74000001 57 30 11
14.017 -1.895 -0.65200001 129 78 51
14.018 -1.903 -0.66900003 48 26 13
14.007 -1.895 -0.65899998 72 53 39
14.042 -1.9069999 -0.625 62 43 36
14.039 -1.9069999 -0.60900003 78 42 20
14.034 -1.9349999 -0.62800002 136 79 49
14.026 -1.932 -0.61500001 78 54 54
14.035 -1.927 -0.60900003 69 35 8
13.95 -1.9400001 -0.67900002 51 23 9
13.901 -1.854 -0.73900002 86 84 95
14.047 -1.8890001 -0.484 151 108 74
14.007 -1.885 -0.56400001 145 75 39
14.017 -1.897 -0.56199998 74 36 0
14.013 -1.896 -0.56400001 146 70 18
14.008 -1.886 -0.56 100 73 56
14.017 -1.896 -0.59299999 68 32 10
14.026 -1.8839999 -0.59500003 93 66 39
14.018 -1.895 -0.602 123 58 16
14.011 -1.886 -0.55500001 129 81 43
14.013 -1.913 -0.57499999 70 48 35
14.033 -1.893 -0.58600003 66 37 7
14.032 -1.891 -0.59799999 46 17 1
14.03 -1.888 -0.60100001 76 74 85
14.024 -1.897 -0.60500002 55 24 4
14.027 -1.902 -0.61500001 93 90 101
14.025 -1.902 -0.61299998 41 15 0
14.016 -1.898 -0.56599998 103 67 41
14.028 -1.909 -0.51700002 108 70 34
13.815 -1.954 -0.69700003 53 24 10
13.795 -2 -0.68400002 87 72 69
13.779 -1.972 -0.671 82 52 28
13.776 -1.97 -0.66799998 111 66 35
13.786 -1.9630001 -0.67900002 60 25 3
13.788 -1.955 -0.67699999 22 7 4
13.818 -1.962 -0.67299998 92 69 53
13.797 -1.956 -0.65799999 74 28 0
13.793 -1.956 -0.66600001 27 15 15
13.801 -1.9809999 -0.69099998 53 29 29
13.809 -1.983 -0.68599999 95 71 59
13.818 -1.942 -0.67900002 88 74 73
13.825 -1.956 -0.685 60 33 22
13.803 -1.9529999 -0.66900003 61 36 29
13.794 -1.954 -0.67000002 111 74 47
13.897 -1.9220001 -0.764 57 28 12
13.872 -1.934 -0.745 13 0 0
13.856 -1.934 -0.71700001 71 38 29
13.848 -1.942 -0.71399999 152 98 51
13.845 -1.9299999 -0.71100003 41 22 16
13.832 -1.943 -0.71600002 52 19 10
13.766 -1.99 -0.63300002 114 75 46
13.783 -1.992 -0.65100002 162 120 96
13.781 -1.979 -0.65100002 100 69 48
13.771 -1.974 -0.64200002 57 33 31
13.759 -1.999 -0.63800001 130 83 55
13.752 -1.9859999 -0.63999999 98 65 48
13.753 -1.994 -0.63800001 90 56 29
13.935 -1.8200001 -0.75199997 29 12 4
13.917 -1.882 -0.72799999 52 29 23
13.915 -1.881 -0.72500002 43 23 12
13.883 -1.869 -0.77499998 52 38 35
13.89 -1.868 -0.77600002 15 1 0
13.888 -1.893 -0.79799998 36 17 10
13.909 -1.885 -0.76899999 14 0 0
13.902 -1.878 -0.78100002 99 79 68
13.882 -1.906 -0.78399998 27 10 3
13.882 -1.91 -0.77600002 69 57 59
13.905 -1.842 -0.73199999 46 27 21
13.949 -1.7970001 -0.741 97 95 98
13.933 -1.783 -0.69599998 35 15 8
13.932 -1.795 -0.70700002 56 38 28
13.913 -1.768 -0.63099998 108 76 55
13.937 -1.795 -0.71700001 46 29 19
14.02 -1.908 -0.63800001 41 16 9
13.911 -1.869 -0.73799998 30 11 5
14.025 -1.902 -0.579 58 32 17
14.055 -1.911 -0.46599999 154 109 54
13.783 -2.0079999 -0.68000001 77 51 28
13.792 -1.998 -0.68199998 117 111 113
13.888 -1.909 -0.778 47 28 24
13.93 -1.819 -0.73299998 47 24 8
13.939 -1.799 -0.745 88 39 22
14.016 -1.896 -0.64899999 82 62 51
14.037 -1.9069999 -0.63499999 53 25 11
14.028 -1.928 -0.60799998 57 22 0
14.027 -1.924 -0.61199999 57 30 21
14.024 -1.9069999 -0.56699997 87 45 20
14.021 -1.916 -0.56900001 55 25 14
14.041 -1.9119999 -0.60600001 129 105 81
14.034 -1.904 -0.62099999 58 31 20
14.03 -1.905 -0.62099999 74 43 25
14.013 -1.919 -0.63499999 47 18 4
14.018 -1.911 -0.625 54 13 0
14.032 -1.932 -0.62800002 80 53 46
14.008 -1.923 -0.639 126 83 66
13.908 -1.8049999 -0.63599998 112 68 39
14.018 -1.916 -0.56800002 86 49 30
14.023 -1.891 -0.59299999 45 26 19
14.013 -1.904 -0.58499998 76 39 12
13.794 -1.994 -0.69400001 72 58 55
13.783 -2.0280001 -0.68000001 60 36 12
13.786 -1.964 -0.67000002 91 73 63
13.811 -1.9859999 -0.68400002 40 17 0
13.795 -1.955 -0.68000001 56 20 0
13.835 -1.944 -0.71100003 36 27 30
13.761 -1.9809999 -0.63200003 92 55 28
13.773 -1.972 -0.64300001 60 26 1
13.762 -2.006 -0.616 70 52 48
13.75 -1.9859999 -0.63200003 103 67 45
13.747 -2.0220001 -0.61900002 136 98 62
13.744 -2.0139999 -0.61299998 142 93 52
13.75 -2.017 -0.62400001 121 77 38
13.934 -1.819 -0.75099999 46 19 2
13.908 -1.89 -0.72000003 42 18 8
13.892 -1.908 -0.741 56 26 16
13.901 -1.863 -0.78100002 86 63 49
13.878 -1.914 -0.78100002 23 9 9
13.941 -1.791 -0.70700002 140 122 118
14.014 -1.904 -0.65100002 51 22 8
14.019 -1.9069999 -0.64499998 38 16 2
14.012 -1.905 -0.57599998 83 58 36
13.798 -1.994 -0.685 91 55 39
13.926 -1.798 -0.74800003 57 15 0
13.935 -1.796 -0.74000001 48 20 8
14.01 -1.905 -0.66100001 51 25 10
14.028 -1.903 -0.57499999 80 41 12
14.018 -1.905 -0.56400001 138 92 56
14.034 -1.8940001 -0.602 50 19 0
14.031 -1.902 -0.59500003 61 35 10
13.784 -2.02 -0.68000001 67 48 42
13.791 -1.9529999 -0.67299998 96 47 15
13.798 -1.969 -0.68900001 53 16 0
13.831 -1.9450001 -0.70999998 55 27 15
13.761 -2.0009999 -0.64499998 111 62 32
13.914 -1.901 -0.73400003 61 50 54
13.887 -1.911 -0.75 37 15 1
13.893 -1.8609999 -0.77600002 133 122 120
13.933 -1.786 -0.72600001 52 36 23
14.02 -1.9119999 -0.634 21 3 0
14.014 -1.896 -0.65399998 77 77 87
14.018 -1.902 -0.64600003 71 40 20
14.021 -1.901 -0.56699997 66 37 19
14.009 -1.906 -0.57200003 46 13 4
14.012 -1.9069999 -0.58200002 89 52 33
14.015 -1.906 -0.58200002 73 46 27
13.789 -2.013 -0.68199998 170 129 99
14.01 -1.905 -0.66399997 63 31 16
14.026 -1.909 -0.60299999 65 39 22
14.031 -1.904 -0.58999997 61 42 28
14.039 -1.911 -0.60299999 97 42 3
14.016 -1.911 -0.64099997 101 58 24
14.008 -1.904 -0.662 69 45 35
14.031 -1.902 -0.61000001 69 42 31
14.019 -1.921 -0.62099999 59 36 22
14.028 -1.903 -0.58999997 61 27 2
14.025 -1.904 -0.57700002 24 6 4
14.016 -1.906 -0.64200002 57 34 18
14.01 -1.899 -0.65799999 118 88 64
14.021 -1.91 -0.61400002 60 36 34
14.021 -1.908 -0.61400002 116 56 22
0 0 0 1 0 0 0 1 0 0 0 1 0 0 0 0 0 1241 1 0 0
