ply
format ascii 1.0
comment PCL generated
element vertex 1272
property float x
property float y
property float z
property uchar red
property uchar green
property uchar blue
element camera 1
property float view_px
property float view_py
property float view_pz
property float x_axisx
property float x_axisy
property float x_axisz
property float y_axisx
property float y_axisy
property float y_axisz
property float z_axisx
property float z_axisy
property float z_axisz
property float focal
property float scalex
property float scaley
property float centerx
property float centery
property int viewportx
property int viewporty
property float k1
property float k2
end_header
-11.087 4.0159998 -1.131 89 45 20
-11.077 4.0139999 -1.138 201 141 79
-11.091 4.0089998 -1.14 145 55 0
-11.056 3.9530001 -0.81800002 176 126 75
-11.035 3.9619999 -0.815 191 143 105
-11.046 3.957 -0.80900002 91 48 16
-11.06 3.957 -0.83499998 192 149 104
-11.068 3.95 -0.82700002 194 141 101
-11.109 4.0320001 -0.80000001 121 72 39
-11.088 4.0409999 -0.79400003 157 122 100
-11.103 4.0510001 -0.78899997 127 91 67
-11.083 4.0609999 -1.0599999 88 56 35
-11.076 4.0489998 -1.057 148 109 80
-11.079 4.052 -1.061 87 33 0
-11.19 3.9749999 -0.74800003 95 68 41
-11.19 3.9790001 -0.745 232 158 73
-11.192 3.973 -0.75099999 252 186 99
-11.184 3.9809999 -0.73100001 254 186 101
-11.178 3.97 -0.74900001 218 143 60
-11.176 3.9690001 -0.736 245 181 93
-11.169 3.964 -0.75 228 135 68
-11.059 3.9549999 -0.82499999 195 132 89
-11.089 4.0159998 -1.125 76 32 5
-11.175 3.973 -0.73100001 179 110 43
-11.089 4.0419998 -0.77999997 154 87 32
-11.069 4.033 -0.79100001 189 109 50
-11.072 4.0339999 -0.78299999 197 130 77
-11.074 4.0089998 -1.138 112 52 0
-11.086 4 -1.137 174 118 59
-11.088 4.0650001 -1.061 173 144 114
-11.093 4.066 -1.063 64 35 19
-11.089 4.0700002 -1.056 76 40 24
-11.075 4.039 -1.067 95 53 11
-11.068 4.0320001 -1.061 164 114 63
-11.064 4.026 -1.0650001 152 115 86
-11.133 4.0440001 -0.713 153 112 82
-11.137 4.0409999 -0.71700001 158 101 56
-11.125 4.0479999 -0.71399999 106 40 5
-11.184 3.974 -0.74299997 104 83 64
-11.189 3.9809999 -0.74199998 187 100 33
-11.183 3.9779999 -0.73900002 193 114 22
-11.197 3.9879999 -0.75099999 202 127 62
-11.19 3.9860001 -0.736 223 152 70
-11.194 3.993 -0.74199998 243 175 94
-11.089 4.0630002 -1.062 136 96 71
-11.083 4.046 -1.068 197 153 116
-11.127 3.9749999 -1.136 149 122 105
-11.123 3.973 -1.137 211 182 166
-11.114 3.9690001 -1.12 165 79 22
-11.088 3.9879999 -0.95899999 177 122 65
-11.102 3.9849999 -0.95999998 176 102 53
-11.087 3.9879999 -0.963 128 46 0
-11.079 3.984 -0.97000003 109 50 6
-11.098 4.0739999 -1.035 206 187 173
-11.098 4.0739999 -1.0319999 191 172 155
-11.092 4.0739999 -1.034 93 45 5
-11.095 4.0739999 -1.035 206 184 170
-11.095 4.072 -1.033 186 93 26
-11.073 3.961 -1.108 120 75 34
-11.077 3.9579999 -1.104 200 137 60
-11.092 3.9560001 -1.117 226 146 77
-11.115 4.013 -0.67500001 92 46 12
-11.107 4.0100002 -0.676 198 120 38
-11.111 4.0219998 -0.67500001 181 155 118
-11.116 3.9979999 -0.67299998 145 77 2
-11.052 3.9949999 -1.082 137 67 8
-11.054 3.9909999 -1.104 87 36 0
-11.048 3.9760001 -1.091 233 151 75
-11.047 3.9879999 -1.073 242 172 112
-11.045 3.9920001 -1.068 178 102 26
-11.064 3.9890001 -1.13 118 60 14
-11.059 3.98 -1.127 185 128 85
-11.067 3.974 -1.133 199 145 99
-11.094 4 -1.14 162 67 3
-11.042 3.964 -0.81999999 144 93 62
-11.056 3.9649999 -0.83899999 116 85 65
-11.089 3.9879999 -0.97299999 110 61 29
-11.113 3.9790001 -1.14 155 64 7
-11.117 3.971 -1.14 193 108 53
-11.092 4.0100002 -1.131 159 72 1
-11.184 4.02 -0.741 170 108 51
-11.185 4.0219998 -0.74800003 173 105 40
-11.184 4.0240002 -0.74000001 115 78 59
-11.062 3.961 -0.84200001 121 78 44
-11.073 3.977 -0.852 63 17 0
-11.073 3.96 -0.84100002 226 149 67
-11.07 3.9519999 -0.82999998 196 122 59
-11.094 4.0450001 -0.77999997 157 121 95
-11.087 4.0409999 -0.76599997 113 34 0
-11.097 4.0450001 -0.77499998 182 117 61
-11.095 4.0430002 -0.78299999 177 124 84
-11.086 4.007 -0.87699997 61 30 9
-11.099 4.0100002 -0.86900002 99 59 23
-11.087 4.0100002 -0.88599998 129 48 0
-11.076 4.0040002 -0.85900003 77 42 20
-11.105 4.0050001 -0.84500003 119 70 29
-11.09 4.0089998 -0.829 122 57 25
-11.097 4.0120001 -0.82300001 172 125 79
-11.117 4.0009999 -0.861 158 77 12
-11.119 4 -0.852 112 53 13
-11.09 4.0019999 -0.852 131 94 65
-11.072 3.9849999 -0.87300003 195 137 87
-11.078 3.9749999 -0.87300003 145 70 15
-11.074 3.9860001 -0.88300002 114 49 9
-11.079 3.9979999 -0.88599998 178 102 44
-11.077 3.984 -0.94300002 168 116 76
-11.079 4.0050001 -0.94400001 85 20 0
-11.076 3.9820001 -0.93599999 181 104 36
-11.074 4.0450001 -1.054 169 89 40
-11.075 4.0380001 -1.053 129 68 21
-11.083 4.053 -1.035 195 129 71
-11.078 4.0469999 -1.052 132 105 62
-11.08 4.0549998 -1.0549999 112 93 78
-11.086 4.066 -1.04 145 113 92
-11.07 4.0310001 -1.067 198 137 83
-11.106 4.0079999 -0.67799997 167 106 23
-11.102 4.027 -0.69499999 152 97 43
-11.139 4.0170002 -0.68199998 150 70 19
-11.137 4.013 -0.67799997 146 97 64
-11.141 4.0040002 -0.67199999 147 79 4
-11.134 4.0279999 -0.68000001 84 64 37
-11.151 4.0110002 -0.68699998 223 146 66
-11.116 4.0430002 -0.69700003 136 108 87
-11.108 4.033 -0.69800001 252 190 131
-11.112 4.0430002 -0.71600002 146 118 97
-11.153 4.0139999 -0.69 221 140 59
-11.19 3.9809999 -0.75199997 253 193 121
-11.116 3.9820001 -0.93300003 111 34 0
-11.112 3.98 -0.95700002 223 156 86
-11.11 3.977 -0.93199998 113 61 22
-11.08 3.9890001 -0.93699998 252 192 142
-11.099 4.0609999 -1.061 78 33 0
-11.102 4.066 -1.059 151 114 85
-11.095 4.066 -1.063 87 54 37
-11.104 4.052 -1.0369999 247 185 98
-11.092 4.0560002 -1.036 176 153 147
-11.157 4.039 -1.066 47 11 0
-11.156 4.0240002 -1.062 170 77 8
-11.158 4.04 -1.062 53 23 12
-11.157 4.0359998 -1.062 61 26 7
-11.108 4.0339999 -0.95200002 132 66 34
-11.12 4.0359998 -0.963 106 64 26
-11.125 4.0320001 -0.95599997 181 133 85
-11.126 4.0289998 -0.95200002 180 135 93
-11.076 3.967 -1.1289999 177 105 47
-11.089 3.9619999 -1.114 212 117 53
-11.097 3.9760001 -1.12 196 144 105
-11.079 3.9619999 -1.11 137 74 33
-11.12 4.0110002 -0.67500001 171 120 67
-11.127 4.007 -0.67400002 213 168 113
-11.051 3.9909999 -1.074 194 151 108
-11.066 3.977 -1.131 126 67 23
-11.063 3.983 -1.1289999 165 104 57
-11.047 3.9590001 -0.81599998 143 85 37
-11.182 3.973 -0.75700003 194 121 52
-11.122 3.99 -0.94300002 147 82 28
-11.124 3.987 -0.92400002 123 67 6
-11.061 3.984 -1.053 156 97 29
-11.076 4.006 -0.96899998 229 187 149
-11.075 4.0029998 -0.96399999 93 63 37
-11.072 4.0159998 -0.972 214 135 76
-11.12 4.0190001 -1.017 154 114 89
-11.109 4.007 -1 80 38 14
-11.104 4.0190001 -1.002 134 83 38
-11.089 4.04 -1.043 124 51 18
-11.079 4.04 -1.068 244 179 125
-11.09 4.0159998 -1.005 85 46 17
-11.09 4.013 -1.017 153 68 14
-11.079 4.0029998 -0.99699998 97 48 16
-11.1 4.02 -0.99299997 146 65 22
-11.074 4.0159998 -1.059 191 144 100
-11.065 4.0159998 -1.069 134 88 55
-11.067 3.9960001 -1.059 255 204 136
-11.116 3.9779999 -1.131 135 74 43
-11.121 3.9749999 -1.1339999 219 186 171
-11.131 3.9820001 -1.133 152 62 9
-11.111 3.9719999 -1.13 218 184 138
-11.094 4.0050001 -1.138 235 198 118
-11.168 3.9990001 -0.72500002 122 84 37
-11.178 3.9920001 -0.73199999 211 146 80
-11.176 4.0029998 -0.72799999 146 118 79
-11.135 4.039 -0.704 166 113 82
-11.148 4.0019999 -0.67699999 129 94 66
-11.156 4.0089998 -0.69199997 209 133 57
-11.155 4.0110002 -0.69 178 96 20
-11.074 3.9519999 -0.82999998 166 99 28
-11.1 4.0450001 -0.78200001 159 89 40
-11.093 4.0440001 -0.778 178 108 46
-11.085 4.0359998 -0.76700002 162 88 39
-11.082 4.027 -0.77600002 246 188 104
-11.092 4.0110002 -0.82300001 177 111 59
-11.059 3.997 -0.82200003 79 52 25
-11.049 3.9990001 -0.81599998 102 52 15
-11.054 3.993 -0.824 152 101 46
-11.047 3.994 -0.81699997 243 136 56
-11.047 3.987 -0.83999997 193 127 77
-11.046 3.9849999 -0.82099998 196 125 73
-11.115 4.0019999 -0.82200003 134 83 30
-11.114 4 -0.824 114 63 20
-11.114 3.9979999 -0.838 136 59 15
-11.099 4 -0.84299999 146 107 92
-11.072 4.0040002 -0.81800002 189 103 52
-11.082 4.0009999 -0.82700002 140 112 65
-11.074 4.0100002 -1.122 73 27 1
-11.088 4.0159998 -1.118 81 37 8
-11.08 4.013 -1.1059999 180 134 98
-11.056 3.9990001 -1.086 125 88 62
-11.063 3.9990001 -1.112 212 168 123
-11.067 4.0040002 -1.115 195 124 80
-11.079 4.013 -1.1 153 110 75
-11.081 4 -0.88499999 165 71 0
-11.077 4 -0.86400002 90 54 28
-11.08 3.9849999 -0.94999999 126 83 51
-11.091 3.9879999 -0.95599997 115 65 32
-11.108 3.983 -0.95499998 146 90 39
-11.076 4.026 -0.96700001 126 100 83
-11.077 4.0289998 -0.972 161 86 29
-11.092 4.0689998 -1.054 152 78 29
-11.087 4.0710001 -1.05 67 30 14
-11.091 4.0710001 -1.0420001 191 157 130
-11.092 4.073 -1.0369999 68 39 21
-11.065 4.0050001 -0.81800002 233 130 63
-11.053 3.993 -0.80000001 200 151 110
-11.051 3.9790001 -0.82599998 95 32 0
-11.045 3.97 -0.82300001 185 139 90
-11.032 3.9630001 -0.81699997 195 99 23
-11.04 3.967 -0.815 126 82 35
-11.123 4.0250001 -0.68199998 193 148 109
-11.122 4.027 -0.68199998 215 161 117
-11.108 4.0289998 -0.68900001 111 78 47
-11.11 4.0320001 -0.69499999 181 117 56
-11.135 4.0300002 -0.69099998 177 132 90
-11.138 4.0339999 -0.70200002 189 139 112
-11.137 4.0380001 -0.68900001 179 106 38
-11.117 4.0440001 -0.70300001 165 79 30
-11.116 3.9849999 -1.131 122 65 35
-11.114 3.9879999 -1.1160001 186 159 138
-11.111 3.993 -1.13 108 57 28
-11.111 3.983 -0.94999999 109 42 13
-11.12 3.99 -0.954 197 136 82
-11.115 3.987 -0.958 223 155 92
-11.115 3.9849999 -0.972 252 202 149
-11.111 3.973 -0.97899997 123 88 48
-11.109 3.98 -0.96899998 186 136 87
-11.153 4.0159998 -1.029 155 70 13
-11.156 4.0359998 -1.038 187 136 91
-11.156 4.0240002 -1.04 183 94 34
-11.151 4.04 -1.054 202 159 124
-11.154 4.0430002 -1.066 42 15 4
-11.136 4.0409999 -1.046 63 27 11
-11.153 4.0380001 -1.0369999 255 217 167
-11.136 4.0380001 -1.034 135 52 8
-11.142 4.0370002 -1.0420001 62 26 0
-11.104 4.046 -1.034 75 47 26
-11.107 4.0469999 -1.035 176 148 127
-11.107 3.9749999 -1.1059999 208 141 71
-11.112 3.9790001 -1.112 161 79 19
-11.107 3.971 -1.1160001 196 158 119
-11.123 3.9890001 -0.68099999 164 116 70
-11.114 3.9920001 -0.68000001 151 96 42
-11.072 3.9660001 -1.118 179 91 28
-11.072 3.967 -1.122 172 97 39
-11.058 3.9760001 -1.118 149 108 54
-11.061 3.971 -1.12 136 67 34
-11.06 3.977 -1.123 159 96 43
-11.062 3.967 -1.119 214 175 118
-11.063 3.9790001 -1.107 127 88 31
-11.063 3.97 -1.1160001 160 89 33
-11.13 4.0219998 -0.68099999 45 23 10
-11.125 4.0139999 -0.67699999 197 115 57
-11.129 4 -0.67500001 158 102 45
-11.126 4.0040002 -0.67500001 97 48 7
-11.069 3.967 -1.123 182 116 66
-11.065 3.9820001 -1.13 163 97 49
-11.077 3.993 -1.131 200 130 70
-11.047 3.9619999 -0.81999999 54 23 5
-11.131 3.9760001 -0.86400002 166 108 68
-11.141 3.9879999 -0.86199999 168 80 17
-11.137 3.9849999 -0.85299999 146 99 47
-11.11 3.9809999 -0.96100003 162 93 34
-11.123 3.99 -0.93099999 131 80 27
-11.064 3.9960001 -1.066 247 177 105
-11.079 3.9979999 -0.99900001 99 41 4
-11.075 3.9949999 -0.99000001 133 90 47
-11.067 3.987 -1.048 196 118 52
-11.067 3.983 -1.046 138 64 17
-11.065 3.9820001 -1.056 150 79 17
-11.079 4.0170002 -1.05 203 114 56
-11.083 4.0110002 -1.045 156 113 81
-11.082 4.0180001 -1.05 90 43 13
-11.081 4.013 -1.05 148 107 61
-11.082 4.0009999 -1.0420001 206 164 116
-11.084 3.9979999 -1.029 123 50 0
-11.11 4.0100002 -1.0089999 132 93 54
-11.074 4.0100002 -1.0599999 252 204 156
-11.096 4.0190001 -1.031 87 52 30
-11.136 4.0079999 -1.013 173 131 71
-11.125 4.0209999 -1.018 124 80 45
-11.117 4.0040002 -1.015 154 110 75
-11.113 3.97 -1.126 214 181 148
-11.104 3.9590001 -1.124 165 139 124
-11.107 3.9760001 -1.128 200 159 95
-11.107 3.97 -1.125 250 214 156
-11.121 3.974 -1.137 244 211 194
-11.068 3.993 -1.1289999 116 51 0
-11.169 4.0040002 -0.73100001 215 149 97
-11.158 3.997 -0.699 121 90 69
-11.155 4.0009999 -0.69300002 209 147 72
-11.145 3.9879999 -0.68000001 148 74 0
-11.148 4.0009999 -0.68099999 185 111 46
-11.16 4.0040002 -0.70099998 172 104 59
-11.144 3.993 -0.67799997 163 94 19
-11.143 3.987 -0.67900002 101 49 9
-11.184 4.013 -0.75300002 203 157 123
-11.19 3.994 -0.75300002 159 79 28
-11.181 4.0079999 -0.75400001 139 95 70
-11.185 3.994 -0.76499999 234 174 122
-11.176 3.9979999 -0.77700001 205 158 116
-11.112 3.9979999 -0.83999997 169 88 22
-11.17 4.0139999 -0.76099998 170 97 46
-11.164 4.0159998 -0.76599997 175 113 72
-11.163 4.0190001 -0.755 169 102 59
-11.175 4.013 -0.75 184 143 113
-11.152 4.026 -0.75800002 128 94 67
-11.155 4.0170002 -0.73900002 130 80 45
-11.086 4.04 -0.78100002 207 151 102
-11.07 4.0320001 -0.79100001 144 70 23
-11.092 4.0009999 -0.86699998 104 64 38
-11.09 4.0079999 -0.884 192 98 34
-11.097 3.9820001 -0.91600001 137 71 0
-11.093 3.9909999 -0.912 159 106 52
-11.084 3.987 -0.92199999 155 82 3
-11.094 3.9790001 -0.89499998 145 81 20
-11.08 4.0120001 -1.112 141 97 62
-11.075 4.0029998 -1.109 110 64 31
-11.079 4.013 -1.135 243 179 107
-11.076 4.0079999 -1.128 212 145 77
-11.06 3.993 -1.108 92 57 17
-11.065 4 -1.0930001 183 144 87
-11.065 4.0029998 -1.089 211 144 92
-11.064 4.0040002 -1.087 170 114 67
-11.074 3.984 -0.86699998 127 82 41
-11.074 3.9860001 -0.86299998 90 32 8
-11.08 3.99 -0.95899999 142 63 7
-11.08 3.994 -0.96200001 188 151 124
-11.074 4.0120001 -0.96600002 130 73 43
-11.079 4.0139999 -0.94400001 92 31 0
-11.082 3.9990001 -0.90100002 192 98 26
-11.083 3.9990001 -0.91799998 155 62 0
-11.082 3.993 -0.93000001 162 108 61
-11.095 4.0079999 -0.90799999 77 36 6
-11.095 4.0120001 -0.94099998 89 39 4
-11.094 4.0120001 -0.935 150 59 14
-11.092 4.0739999 -1.034 93 45 5
-11.09 4.0700002 -1.038 217 186 165
-11.074 3.9519999 -0.82700002 166 88 24
-11.081 3.9590001 -0.82599998 235 153 77
-11.164 3.973 -0.75300002 161 81 20
-11.159 3.97 -0.75400001 124 77 47
-11.185 3.9979999 -0.73900002 252 182 84
-11.185 3.997 -0.736 249 191 92
-11.187 3.99 -0.73699999 232 166 69
-11.168 4.0139999 -0.73799998 221 168 92
-11.168 4.0139999 -0.74599999 185 97 51
-11.107 4.0139999 -0.76200002 147 95 47
-11.109 4.0170002 -0.76599997 178 119 63
-11.122 4.0110002 -0.75999999 131 87 58
-11.07 3.9990001 -0.80599999 119 55 27
-11.075 4 -0.81 121 92 62
-11.072 3.9920001 -0.79799998 112 69 50
-11.067 4.0009999 -0.80299997 201 133 86
-11.067 3.997 -0.801 190 141 98
-11.084 4.0229998 -0.76700002 158 79 22
-11.048 3.98 -0.83899999 114 61 29
-11.046 3.9860001 -0.84299999 152 62 12
-11.058 3.9760001 -0.83999997 178 122 65
-11.061 3.9890001 -0.83399999 202 96 22
-11.06 3.954 -0.80299997 141 90 43
-11.13 3.9979999 -0.764 119 36 0
-11.139 3.997 -0.76099998 99 36 5
-11.13 3.9990001 -0.75700003 177 96 40
-11.157 3.9719999 -0.74599999 162 80 7
-11.132 4.0380001 -0.72000003 137 64 11
-11.115 4.0289998 -0.72100002 93 44 12
-11.121 4.0409999 -0.71499997 119 81 36
-11.119 4.0219998 -0.68099999 228 160 99
-11.114 4.0339999 -0.70999998 129 86 43
-11.161 4.0089998 -0.70499998 148 71 17
-11.159 3.994 -0.70300001 220 201 143
-11.159 3.997 -0.704 214 138 76
-11.1 4.013 -0.935 108 55 15
-11.129 3.997 -0.87099999 123 62 0
-11.074 4.0159998 -1.071 99 56 22
-11.08 4.0310001 -1.0700001 226 189 145
-11.087 4.027 -1.074 114 62 14
-11.083 4.0159998 -1.074 77 28 0
-11.104 4.053 -1.068 187 125 78
-11.111 3.9779999 -1.1210001 143 54 0
-11.11 3.993 -1.122 129 73 38
-11.108 3.9979999 -1.109 245 214 134
-11.104 3.987 -1.132 119 73 11
-11.09 4.013 -1.115 105 53 14
-11.129 4.039 -1.039 86 48 25
-11.126 4.0279999 -1.022 158 108 71
-11.123 4.0279999 -1.026 151 103 65
-11.111 3.9790001 -0.93599999 86 33 0
-11.082 3.994 -0.94199997 201 143 93
-11.08 3.9890001 -0.94199997 214 160 113
-11.085 4.0599999 -1.049 175 131 86
-11.118 3.9909999 -0.96700001 123 83 58
-11.123 4.0359998 -0.96799999 80 37 5
-11.157 4.033 -1.05 133 60 9
-11.11 4.0500002 -1.038 181 120 55
-11.113 4.0489998 -1.038 230 169 124
-11.099 4.0710001 -1.039 192 129 78
-11.112 4.0609999 -1.044 107 56 25
-11.09 4.0500002 -1.033 153 100 60
-11.094 4.0229998 -0.97899997 131 86 57
-11.084 4.0359998 -0.97500002 149 107 82
-11.087 4.0240002 -0.97600001 165 124 104
-11.099 4.02 -0.98500001 104 60 33
-11.096 4.0180001 -0.98400003 143 92 47
-11.092 4.0289998 -0.97299999 130 104 87
-11.082 4.0310001 -0.96799999 209 163 129
-11.106 4.0100002 -0.98400003 149 110 69
-11.103 4.0110002 -0.99299997 84 37 11
-11.118 4.0019999 -0.96899998 122 54 19
-11.107 4.0079999 -0.97100002 99 40 0
-11.113 4.02 -0.94400001 112 73 44
-11.076 3.983 -1.05 109 77 28
-11.076 3.973 -1.069 127 71 0
-11.08 3.9849999 -1.0549999 141 81 31
-11.089 3.9809999 -1.067 163 100 33
-11.113 4.0029998 -0.676 170 89 7
-11.115 3.9920001 -0.68199998 211 138 69
-11.101 3.9619999 -1.117 196 140 89
-11.106 3.9679999 -1.117 208 172 124
-11.103 3.973 -1.122 255 218 156
-11.07 3.97 -1.098 174 115 81
-11.131 4.0120001 -0.67799997 138 88 39
-11.07 3.9749999 -1.131 166 109 66
-11.05 3.9590001 -0.81999999 195 136 70
-11.062 3.96 -0.83899999 138 96 54
-11.12 3.9849999 -0.91399997 120 68 21
-11.124 3.9820001 -0.90700001 160 113 45
-11.165 3.987 -0.79000002 93 39 1
-11.173 3.9920001 -0.778 172 128 91
-11.168 3.987 -0.78100002 112 68 31
-11.165 3.9879999 -0.78899997 105 63 21
-11.089 3.9749999 -0.80299997 191 129 78
-11.075 3.9679999 -0.79500002 151 96 40
-11.088 3.9679999 -0.80500001 141 81 18
-11.092 3.977 -0.80400002 144 68 8
-11.119 3.9909999 -0.98100001 150 85 27
-11.123 3.9920001 -0.97899997 154 111 69
-11.128 3.997 -0.93199998 177 125 78
-11.125 3.993 -0.94099998 168 116 69
-11.066 3.9960001 -1.064 242 185 118
-11.085 3.9890001 -1.0190001 142 92 57
-11.087 3.994 -1.017 111 46 6
-11.106 3.971 -0.98100001 147 85 36
-11.107 3.9820001 -0.97000003 135 87 41
-11.078 4.0159998 -0.97399998 152 94 44
-11.076 3.9990001 -1.05 143 91 43
-11.087 4.0089998 -1.0039999 151 79 29
-11.085 4.013 -0.98400003 123 73 40
-11.127 4.0370002 -0.97299999 161 106 49
-11.123 4.0320001 -0.95999998 119 77 35
-11.12 4.0289998 -0.96499997 250 200 127
-11.122 4.0349998 -0.97600001 148 78 27
-11.122 4.0359998 -0.972 72 27 0
-11.076 4.0219998 -1.053 106 58 22
-11.121 4.0009999 -1.016 186 115 61
-11.117 4.026 -1.018 238 195 150
-11.117 3.973 -1.132 219 187 166
-11.104 3.9809999 -1.1289999 100 54 0
-11.097 3.9879999 -1.122 183 108 53
-11.124 3.9760001 -1.135 198 169 155
-11.066 3.9990001 -1.115 104 51 7
-11.072 3.983 -1.132 104 40 0
-11.15 4.0029998 -0.68400002 173 94 19
-11.152 3.9960001 -0.69300002 156 86 17
-11.183 3.994 -0.76599997 120 67 17
-11.176 3.9990001 -0.75999999 154 116 97
-11.169 3.98 -0.76800001 174 102 43
-11.154 3.9860001 -0.78200001 157 105 65
-11.159 3.983 -0.787 142 100 62
-11.165 3.9879999 -0.78600001 105 62 20
-11.105 4.0019999 -0.85699999 117 53 15
-11.105 4.0009999 -0.861 210 151 107
-11.102 4.0029998 -0.87300003 124 87 58
-11.115 3.997 -0.86500001 143 103 68
-11.174 4.007 -0.75800002 102 51 20
-11.086 4.039 -0.77499998 204 154 81
-11.08 4.0349998 -0.78500003 174 87 33
-11.066 4.0040002 -0.81099999 97 49 13
-11.097 4.0339999 -0.79500002 179 136 104
-11.093 4.04 -0.79299998 109 45 9
-11.094 4.0349998 -0.79500002 154 84 35
-11.049 3.984 -0.80800003 227 166 101
-11.107 4.0219998 -0.792 136 76 42
-11.106 4.027 -0.801 130 76 42
-11.106 4.0159998 -0.79799998 85 34 5
-11.144 3.9909999 -0.84100002 102 58 21
-11.141 3.9920001 -0.838 109 70 39
-11.14 3.99 -0.85699999 232 182 123
-11.142 3.9879999 -0.84600002 225 188 143
-11.088 3.9990001 -0.85500002 149 103 69
-11.075 3.987 -0.84399998 178 109 52
-11.092 3.9879999 -0.92900002 182 119 52
-11.09 3.9879999 -0.93900001 109 59 26
-11.084 3.983 -0.92900002 219 151 80
-11.117 3.98 -0.90200001 165 110 54
-11.088 3.9630001 -0.83200002 120 85 66
-11.08 3.9679999 -0.84200001 185 115 53
-11.102 3.9649999 -0.84500003 138 64 1
-11.094 3.957 -0.81199998 135 107 34
-11.083 3.96 -0.82300001 142 100 58
-11.114 3.971 -0.84500003 214 138 54
-11.107 3.9690001 -0.829 160 103 48
-11.104 3.97 -0.83700001 208 129 54
-11.1 3.97 -0.829 66 31 3
-11.099 3.9860001 -0.92400002 163 92 30
-11.086 3.9890001 -0.921 132 87 48
-11.086 4.013 -1.091 98 71 26
-11.055 3.987 -1.1 184 103 37
-11.064 3.9979999 -1.076 235 177 127
-11.059 4.0009999 -1.081 153 96 43
-11.075 4.0110002 -1.095 173 130 88
-11.103 4.0469999 -1.0700001 94 57 31
-11.091 4.0170002 -1.1109999 99 49 14
-11.076 3.994 -0.86500001 149 113 87
-11.078 3.9890001 -0.87800002 188 125 71
-11.103 3.9860001 -0.95200002 159 112 60
-11.081 3.9909999 -0.958 161 120 90
-11.084 3.997 -0.926 178 127 84
-11.085 3.9990001 -0.92400002 117 69 29
-11.086 3.9990001 -0.926 125 67 19
-11.083 4.0110002 -0.94300002 210 122 48
-11.091 4.0019999 -0.93099999 106 65 33
-11.105 4.0599999 -1.043 43 9 0
-11.105 4.0700002 -1.049 240 182 136
-11.094 4.0710001 -1.04 49 23 10
-11.094 3.964 -0.81 199 119 48
-11.089 3.9619999 -0.80800003 141 62 0
-11.085 3.9579999 -0.81 226 164 107
-11.076 3.9630001 -0.79799998 140 87 33
-11.072 3.954 -0.81999999 169 87 13
-11.165 3.973 -0.741 187 105 45
-11.164 4.0139999 -0.74299997 135 107 68
-11.187 3.98 -0.755 171 95 45
-11.188 3.9849999 -0.75700003 173 106 51
-11.108 4.0279999 -0.76599997 161 110 53
-11.102 4.0219998 -0.69599998 175 119 68
-11.097 4.0229998 -0.70899999 147 102 71
-11.115 4.0289998 -0.71600002 75 27 4
-11.102 4.027 -0.704 212 134 72
-11.071 3.994 -0.82700002 198 132 71
-11.05 3.987 -0.82499999 94 37 7
-11.106 4.0079999 -0.68800002 192 117 50
-11.056 3.9719999 -0.79699999 159 106 52
-11.059 3.9649999 -0.80000001 164 105 63
-11.072 3.9719999 -0.79799998 110 78 53
-11.156 3.983 -0.75300002 255 204 138
-11.149 3.99 -0.76599997 89 33 0
-11.13 4.04 -0.71700001 124 95 77
-11.116 4.0279999 -0.68099999 147 105 81
-11.128 4.0370002 -0.68300003 189 140 100
-11.143 4.0310001 -0.708 135 92 73
-11.137 4.0219998 -0.68599999 137 93 48
-11.156 4.0139999 -0.699 248 170 95
-11.147 4.0310001 -0.71499997 96 31 1
-11.145 4.027 -0.713 179 98 51
-11.16 4 -0.713 253 241 193
-11.095 3.9879999 -0.95899999 167 95 47
-11.102 3.9849999 -0.96600002 162 106 47
-11.09 4.013 -1.046 89 44 21
-11.152 4.0380001 -1.061 47 15 2
-11.108 4.0580001 -1.061 175 126 57
-11.11 3.9920001 -1.1289999 226 191 137
-11.109 3.99 -1.112 246 222 174
-11.105 3.994 -1.1160001 255 242 181
-11.095 3.9960001 -1.118 157 115 33
-11.136 4.0380001 -1.041 134 84 49
-11.119 3.9879999 -1.0140001 212 176 66
-11.112 3.9790001 -1.02 188 123 65
-11.117 3.983 -1.027 232 166 108
-11.122 4.007 -0.94599998 186 124 77
-11.122 4.0089998 -0.94400001 81 33 0
-11.124 4.0139999 -0.949 90 40 5
-11.156 4.0349998 -1.039 101 63 42
-11.145 4.0029998 -1.026 216 176 88
-11.151 4.0139999 -1.025 186 141 60
-11.157 4.0300002 -1.052 202 112 49
-11.157 4.0359998 -1.058 52 15 0
-11.098 4.0219998 -0.97899997 189 142 112
-11.09 4.0279999 -0.97399998 217 163 117
-11.089 4.0320001 -0.97100002 88 48 23
-11.102 4.0139999 -0.98699999 84 46 23
-11.123 4.0079999 -0.95599997 131 59 21
-11.121 4.0149999 -0.95300001 150 70 37
-11.114 4.027 -0.95099998 163 109 62
-11.122 4.0209999 -0.94700003 206 146 83
-11.085 3.9960001 -1.033 204 128 76
-11.099 3.9909999 -1.057 152 97 33
-11.113 3.9920001 -1.0470001 137 59 0
-11.096 3.9820001 -1.046 237 196 117
-11.1 3.99 -1.0470001 158 97 53
-11.113 3.987 -1.033 175 106 47
-11.113 3.9920001 -1.0369999 156 76 7
-11.113 4.0110002 -0.676 186 128 78
-11.121 4.0100002 -0.72600001 75 34 2
-11.128 4.0209999 -0.73100001 95 65 41
-11.136 3.9820001 -0.69999999 220 141 66
-11.131 3.9849999 -0.68599999 121 64 9
-11.139 3.9890001 -0.68800002 167 106 49
-11.131 3.9949999 -0.67400002 216 174 116
-11.095 3.9630001 -1.114 145 69 17
-11.098 3.964 -1.115 172 101 47
-11.103 3.9679999 -1.12 220 137 69
-11.097 3.9890001 -1.0650001 230 193 149
-11.091 3.9860001 -1.072 182 102 31
-11.091 3.9749999 -1.08 226 192 128
-11.066 3.9719999 -1.128 142 81 37
-11.064 3.99 -1.1109999 146 85 30
-11.069 3.9790001 -0.84899998 172 124 75
-11.123 4.0009999 -0.81800002 169 117 69
-11.103 4.0240002 -0.80400002 67 28 0
-11.103 4.0079999 -0.80800003 160 87 34
-11.121 3.993 -0.95700002 156 112 85
-11.125 3.9949999 -0.94400001 183 124 56
-11.123 3.9949999 -0.94800001 109 57 20
-11.057 3.9890001 -1.074 237 188 148
-11.065 3.9809999 -1.075 204 146 64
-11.053 3.98 -1.085 110 71 42
-11.085 3.994 -1.012 60 28 7
-11.078 4.006 -0.977 135 94 64
-11.077 3.9879999 -0.97899997 148 85 31
-11.087 3.9879999 -0.986 151 86 20
-11.086 3.987 -0.99599999 139 80 36
-11.091 3.9860001 -1.002 112 43 12
-11.089 3.9860001 -0.98799998 178 107 41
-11.085 3.9860001 -0.991 141 86 56
-11.099 3.977 -0.99599999 136 68 7
-11.106 3.971 -0.995 130 68 17
-11.084 4.0159998 -0.98000002 186 133 79
-11.092 4.0209999 -0.97899997 185 132 82
-11.1 4.0229998 -0.963 119 93 34
-11.149 4.0300002 -1.029 248 204 159
-11.125 4.027 -0.95899999 138 81 28
-11.12 4.0110002 -0.95599997 119 71 35
-11.125 3.993 -0.97299999 235 179 120
-11.125 3.994 -0.98699999 203 124 55
-11.09 4.0050001 -1.039 164 112 62
-11.093 4.0089998 -1.029 75 35 9
-11.116 4.013 -1.017 104 63 31
-11.106 4.02 -1.018 187 134 94
-11.128 3.9990001 -1.017 154 109 6
-11.124 3.994 -1.021 221 143 77
-11.112 3.97 -1.1289999 223 190 157
-11.105 3.977 -1.127 182 138 75
-11.089 3.9779999 -1.118 243 157 82
-11.153 4.0159998 -0.74699998 130 81 48
-11.145 4.0240002 -0.71499997 125 94 74
-11.143 4.0310001 -0.71799999 83 28 0
-11.143 4.0120001 -0.73199999 141 89 50
-11.134 4.0209999 -0.72299999 34 7 0
-11.095 4.027 -0.79699999 162 82 23
-11.099 4.0240002 -0.80500001 115 50 10
-11.171 3.9690001 -0.75099999 210 131 56
-11.168 3.987 -0.77899998 117 68 35
-11.149 4.0089998 -0.76800001 153 91 34
-11.146 4.0139999 -0.76700002 108 46 23
-11.097 4.006 -0.86400002 145 101 56
-11.106 4.0019999 -0.85000002 254 202 145
-11.1 4.0009999 -0.88 107 67 41
-11.11 4.0009999 -0.76700002 107 59 19
-11.122 4.0029998 -0.755 196 103 44
-11.109 4 -0.77100003 120 85 57
-11.106 4.007 -0.76300001 162 110 62
-11.091 4.0100002 -0.76499999 113 58 19
-11.129 3.9990001 -0.76099998 101 43 5
-11.123 4.0050001 -0.74599999 74 22 0
-11.171 4.0009999 -0.76700002 90 29 8
-11.173 4.006 -0.759 63 18 0
-11.087 4.02 -0.79000002 124 80 51
-11.09 4.0139999 -0.78500003 129 58 14
-11.093 4.0180001 -0.79000002 149 72 26
-11.084 4.0149999 -0.78399998 162 80 22
-11.084 4.02 -0.78600001 177 119 81
-11.09 3.983 -0.81199998 200 122 50
-11.09 3.977 -0.81199998 186 121 67
-11.09 3.983 -0.80599999 185 115 56
-11.087 3.9879999 -0.80199999 129 71 21
-11.094 3.994 -0.80500001 106 31 0
-11.052 3.9820001 -0.80500001 128 79 47
-11.099 4.0159998 -0.81 109 61 21
-11.146 3.9849999 -0.83700001 106 71 39
-11.145 3.9890001 -0.84899998 102 65 20
-11.132 3.9809999 -0.85000002 145 88 43
-11.13 3.9760001 -0.84600002 191 104 35
-11.129 3.98 -0.85500002 230 171 113
-11.09 3.9719999 -0.81400001 127 62 6
-11.099 3.9719999 -0.824 132 84 48
-11.118 3.9979999 -0.80699998 91 47 10
-11.088 3.9909999 -0.83700001 124 73 26
-11.072 3.993 -0.85600001 105 78 61
-11.087 3.973 -0.85900003 73 40 21
-11.111 3.97 -0.85000002 184 120 49
-11.099 3.971 -0.85500002 190 98 35
-11.105 3.9790001 -0.89700001 184 129 62
-11.105 3.9809999 -0.89999998 147 74 19
-11.114 3.9809999 -0.89600003 179 114 58
-11.115 3.98 -0.88200003 248 204 159
-11.103 3.984 -0.91000003 166 110 63
-11.118 3.974 -0.84600002 152 103 63
-11.057 3.9949999 -1.091 147 76 14
-11.072 4.0120001 -1.0650001 109 62 20
-11.07 4.0040002 -1.0930001 136 86 49
-11.097 4.0359998 -1.073 103 57 33
-11.11 4.033 -1.071 221 138 84
-11.108 4.0489998 -1.069 80 39 17
-11.089 4.013 -1.098 84 35 5
-11.091 4.0209999 -1.076 170 127 92
-11.089 4.013 -1.089 64 23 1
-11.076 3.98 -0.861 196 125 71
-11.075 3.98 -0.85699999 72 27 4
-11.094 3.9879999 -0.94599998 177 106 52
-11.087 3.9890001 -0.94199997 156 101 44
-11.086 3.9879999 -0.954 143 64 7
-11.082 3.993 -0.88800001 142 92 55
-11.083 3.9949999 -0.92799997 89 35 0
-11.108 4.0539999 -1.039 244 199 158
-11.112 4.0599999 -1.057 172 91 46
-11.129 3.9979999 -0.77399999 128 68 32
-11.129 4.0050001 -0.76700002 185 122 89
-11.139 4.0120001 -0.764 151 101 66
-11.074 3.9560001 -0.80800003 150 108 68
-11.152 4.013 -0.69599998 206 121 41
-11.171 4.0089998 -0.73699999 206 151 68
-11.18 4.0040002 -0.74000001 252 220 133
-11.163 4.0139999 -0.74599999 126 62 18
-11.181 3.987 -0.76300001 112 51 0
-11.186 3.994 -0.76300001 189 130 70
-11.108 4.0219998 -0.76700002 161 116 83
-11.112 4.0190001 -0.76800001 139 55 8
-11.1 4.0419998 -0.76899999 200 154 120
-11.106 4.0079999 -0.704 230 192 143
-11.105 4.0040002 -0.69499999 106 59 31
-11.044 3.9790001 -0.80800003 152 101 44
-11.05 3.964 -0.80199999 175 105 53
-11.053 3.9690001 -0.80000001 244 201 166
-11.145 3.9960001 -0.759 145 96 53
-11.148 3.9960001 -0.75 100 43 16
-11.158 3.977 -0.74800003 117 70 42
-11.157 3.9779999 -0.74599999 179 101 26
-11.158 3.9790001 -0.75700003 187 111 59
-11.124 4.0359998 -0.68900001 171 98 47
-11.119 4.0380001 -0.69400001 199 138 84
-11.126 4.0419998 -0.69499999 137 101 77
-11.119 4.033 -0.68800002 177 121 74
-11.144 4.0349998 -0.71600002 114 82 67
-11.153 4.0089998 -0.68800002 121 62 18
-11.184 3.99 -0.736 248 186 85
-11.159 4.0100002 -0.70099998 174 102 52
-11.158 4.0120001 -0.70200002 251 195 121
-11.155 4.0029998 -0.70999998 199 127 79
-11.106 4.0149999 -0.93800002 77 33 6
-11.095 4.0110002 -0.92500001 131 57 8
-11.106 4.0149999 -0.92900002 138 86 47
-11.113 4.0110002 -0.92699999 151 123 109
-11.107 4.0100002 -0.92400002 202 164 119
-11.108 4.0159998 -0.93300003 112 77 57
-11.118 3.9960001 -0.89700001 224 140 67
-11.131 3.994 -0.87900001 225 141 79
-11.114 4 -0.89399999 254 210 139
-11.132 3.9860001 -0.86699998 129 64 8
-11.128 3.984 -0.87400001 200 145 89
-11.126 3.99 -0.898 114 79 60
-11.127 3.9909999 -0.90700001 215 131 45
-11.13 3.9879999 -0.875 142 83 39
-11.115 3.997 -0.89300001 254 206 134
-11.112 4.0040002 -0.96799999 113 41 1
-11.094 4.0100002 -1.036 104 68 46
-11.103 3.997 -1.0700001 136 84 37
-11.098 3.9909999 -1.064 151 71 0
-11.097 3.9879999 -1.0930001 180 145 51
-11.1 3.9890001 -1.097 246 213 118
-11.154 4.0310001 -1.061 55 18 0
-11.121 4.027 -1.059 117 65 25
-11.109 4.026 -1.069 173 142 88
-11.109 3.9860001 -1.11 150 126 90
-11.102 3.993 -1.118 215 195 136
-11.096 3.997 -1.115 173 95 47
-11.143 4.0240002 -1.027 151 102 69
-11.112 3.98 -0.99299997 214 133 42
-11.111 3.973 -0.99699998 130 88 12
-11.114 3.9790001 -1.003 254 217 128
-11.112 3.9760001 -1.005 230 174 79
-11.115 4.0079999 -0.93300003 106 27 0
-11.088 4.0469999 -1.0650001 255 209 162
-11.093 4.0700002 -1.0420001 201 174 157
-11.127 3.9860001 -0.90600002 134 90 27
-11.126 3.99 -0.91900003 129 70 12
-11.12 3.984 -1.006 203 160 68
-11.115 3.9809999 -1.007 207 169 70
-11.121 3.993 -0.98900002 173 140 121
-11.145 4.0040002 -1.029 200 162 81
-11.156 4.0349998 -1.053 61 24 8
-11.101 4.0409999 -1.036 252 189 110
-11.094 4.0359998 -1.039 207 118 58
-11.096 4.0380001 -1.038 177 142 74
-11.102 4.0170002 -0.97799999 135 93 53
-11.11 4.026 -0.949 154 119 79
-11.081 3.983 -1.036 176 119 76
-11.081 3.971 -1.021 146 106 81
-11.099 3.9909999 -1.059 155 112 80
-11.119 4.0139999 -0.72100002 138 86 47
-11.13 3.9849999 -0.69199997 135 83 36
-11.112 4.0009999 -0.70599997 171 94 42
-11.098 3.9649999 -1.1109999 100 49 0
-11.103 3.9630001 -1.118 235 198 143
-11.065 3.97 -1.114 144 76 39
-11.064 3.9790001 -1.102 213 181 124
-11.07 3.9690001 -1.1059999 154 106 32
-11.147 4.0139999 -0.69400001 116 41 1
-11.065 3.9860001 -1.113 232 164 101
-11.157 3.9879999 -0.78500003 153 98 59
-11.089 3.9949999 -0.80400002 213 146 91
-11.094 4.006 -0.81199998 161 89 30
-11.076 3.9760001 -0.84899998 128 79 36
-11.073 3.9760001 -0.84899998 187 141 108
-11.121 3.9920001 -0.95200002 116 64 17
-11.076 3.9760001 -1.0779999 178 117 54
-11.099 3.9660001 -1.016 128 82 48
-11.095 3.977 -1.015 150 65 10
-11.096 3.9879999 -0.98400003 187 116 62
-11.078 3.99 -0.986 169 93 35
-11.081 4.0120001 -0.98199999 138 116 103
-11.075 4.0190001 -0.96899998 222 160 109
-11.111 4.0209999 -0.958 112 37 0
-11.114 4.027 -0.95899999 128 79 39
-11.138 4.0339999 -1.03 160 113 83
-11.125 3.997 -0.96200001 170 108 61
-11.093 4.013 -1.021 79 48 27
-11.096 4.02 -1.028 61 29 8
-11.113 4.0229998 -1.017 246 206 170
-11.093 3.9809999 -1.013 155 101 63
-11.094 3.977 -1.016 212 135 79
-11.127 4.0029998 -1.017 213 137 75
-11.125 4.0279999 -1.02 148 75 40
-11.102 3.9779999 -1.124 125 82 27
-11.162 3.9960001 -0.71700001 205 139 79
-11.132 4.0229998 -0.72600001 65 37 15
-11.146 4.0120001 -0.73799998 153 91 50
-11.157 3.994 -0.69999999 254 234 175
-11.176 3.9890001 -0.76899999 151 89 42
-11.177 3.974 -0.75599998 166 104 47
-11.11 4.0409999 -0.78299999 217 141 83
-11.133 4.0310001 -0.72500002 128 63 21
-11.153 4.0190001 -0.76200002 174 133 103
-11.151 4.02 -0.76300001 124 72 33
-11.1 4.0009999 -0.85699999 198 142 93
-11.126 4.0029998 -0.72500002 106 68 49
-11.126 4.0040002 -0.736 107 57 30
-11.122 4.006 -0.73000002 74 28 5
-11.157 4.0050001 -0.73299998 130 78 30
-11.152 4.0050001 -0.72799999 142 89 35
-11.159 4.0079999 -0.73699999 228 179 121
-11.131 4.0120001 -0.74400002 105 61 34
-11.156 4.0190001 -0.75999999 122 73 33
-11.104 4.0419998 -0.77899998 139 94 63
-11.114 4.0219998 -0.78600001 123 58 20
-11.124 4.013 -0.78399998 198 152 103
-11.11 4.0089998 -0.79100001 119 70 30
-11.075 4.0250001 -0.77999997 215 175 126
-11.093 4.0219998 -0.76999998 159 128 100
-11.088 4.0139999 -0.764 141 87 43
-11.1 4.0219998 -0.76899999 134 104 70
-11.102 4.0229998 -0.76800001 141 98 66
-11.112 4.0229998 -0.71600002 124 93 72
-11.079 4.0149999 -0.78100002 108 48 0
-11.058 3.99 -0.801 241 135 61
-11.096 4.0089998 -0.81 119 59 9
-11.087 4.0250001 -0.79100001 155 112 78
-11.124 3.9979999 -0.80800003 86 40 16
-11.114 3.99 -0.80900002 168 87 32
-11.116 3.993 -0.81400001 146 92 45
-11.09 3.9849999 -0.80699998 130 79 26
-11.143 3.9860001 -0.83999997 91 50 28
-11.14 3.9849999 -0.85000002 90 50 1
-11.14 3.9849999 -0.847 114 78 30
-11.149 3.99 -0.84799999 83 44 3
-11.106 4.0029998 -0.78600001 202 125 71
-11.095 4.0110002 -0.778 111 49 12
-11.095 3.9649999 -0.824 120 79 47
-11.077 3.9879999 -0.83499998 154 108 58
-11.071 3.984 -0.84899998 216 177 136
-11.061 3.984 -0.838 133 84 51
-11.107 3.9790001 -0.83499998 156 98 61
-11.111 3.9809999 -0.84299999 129 90 75
-11.1 3.974 -0.86799997 77 36 8
-11.094 3.9790001 -0.87699997 210 157 105
-11.091 3.9779999 -0.87300003 155 102 52
-11.111 3.98 -0.86799997 165 112 60
-11.106 3.98 -0.89399999 150 98 23
-11.103 3.9849999 -0.91600001 171 89 13
-11.116 3.9909999 -0.88200003 201 140 75
-11.095 3.9879999 -0.92799997 252 183 106
-11.106 3.9860001 -0.92500001 168 105 28
-11.056 3.9779999 -1.091 238 159 92
-11.066 4.006 -1.087 178 155 114
-11.089 4.0359998 -1.072 199 136 82
-11.085 4.0310001 -1.071 187 144 89
-11.091 4.013 -1.1059999 151 94 49
-11.089 4.013 -1.0930001 89 43 19
-11.094 4.0240002 -1.076 115 54 0
-11.09 4.013 -1.085 89 47 22
-11.092 4.006 -1.115 145 71 32
-11.084 3.987 -0.94999999 111 61 0
-11.084 3.987 -0.889 101 49 12
-11.087 3.9920001 -0.89499998 126 76 39
-11.089 3.987 -0.89099997 111 44 1
-11.084 3.993 -0.89200002 116 66 29
-11.109 4.053 -1.039 66 20 0
-11.127 4.0139999 -0.778 100 56 17
-11.137 4.0149999 -0.76499999 144 72 22
-11.076 3.9860001 -0.796 150 114 80
-11.086 3.957 -0.81400001 184 104 41
-11.165 4.0079999 -0.736 210 161 120
-11.113 4.0240002 -0.76999998 199 137 80
-11.112 4.0430002 -0.76999998 140 106 68
-11.115 4.0250001 -0.773 218 167 122
-11.113 4.04 -0.77700001 172 111 67
-11.045 3.977 -0.81599998 153 110 57
-11.074 3.954 -0.81099999 183 109 34
-11.071 3.9549999 -0.81800002 192 109 33
-11.064 3.957 -0.81199998 211 127 54
-11.154 3.9909999 -0.75300002 206 147 103
-11.153 3.993 -0.74599999 98 39 7
-11.169 3.974 -0.73799998 120 59 15
-11.117 4.0419998 -0.70300001 206 138 91
-11.15 4.02 -0.71499997 167 95 57
-11.118 3.9949999 -0.90700001 88 59 45
-11.117 3.9949999 -0.90899998 128 64 20
-11.135 3.987 -0.85900003 192 132 69
-11.133 3.9879999 -0.86400002 161 93 30
-11.126 3.9809999 -0.87599999 188 129 59
-11.097 3.9879999 -0.96499997 133 61 13
-11.103 4.0110002 -1.069 204 176 126
-11.098 4.0019999 -1.077 106 44 0
-11.138 4.027 -1.053 127 82 43
-11.132 4.0139999 -1.054 140 87 35
-11.145 4.0250001 -1.051 90 23 0
-11.11 4.046 -1.057 150 113 71
-11.11 4.033 -1.0599999 173 130 96
-11.112 3.984 -0.99000001 217 170 128
-11.11 3.997 -1.006 162 105 34
-11.113 3.994 -1.0089999 151 105 81
-11.105 4.0149999 -0.93300003 84 35 3
-11.119 4.0040002 -0.93800002 110 67 22
-11.131 3.9909999 -0.87599999 174 105 46
-11.143 4.0050001 -1.02 135 94 6
-11.14 4.0050001 -1.016 253 217 139
-11.149 4.0100002 -1.027 251 210 122
-11.11 4.0229998 -0.94700003 135 95 60
-11.117 4.0120001 -0.94099998 114 68 32
-11.09 3.9860001 -1.056 185 139 103
-11.102 3.994 -1.0549999 190 134 85
-11.153 3.9849999 -0.70300001 249 174 109
-11.127 4.0029998 -0.741 81 30 3
-11.112 4.0050001 -0.70599997 166 110 63
-11.118 4.0079999 -0.70999998 129 52 8
-11.12 3.9920001 -0.68900001 166 116 81
-11.067 3.967 -1.113 238 188 125
-11.076 3.967 -1.1160001 214 138 76
-11.082 3.973 -1.082 232 184 136
-11.079 3.9909999 -1.128 183 118 62
-11.092 3.9879999 -1.119 138 80 43
-11.124 3.9979999 -0.79000002 192 113 70
-11.166 4.0089998 -0.76700002 167 105 56
-11.168 4 -0.76899999 183 114 55
-11.159 3.9949999 -0.77100003 130 67 36
-11.121 3.997 -0.82200003 248 193 136
-11.118 3.997 -0.824 244 193 136
-11.134 3.9849999 -0.85500002 203 144 88
-11.079 3.977 -1.071 166 129 84
-11.108 3.973 -1.033 169 125 80
-11.108 3.973 -1.021 220 172 87
-11.106 3.9679999 -1.021 255 225 141
-11.109 3.9760001 -1.01 239 165 104
-11.097 4.0159998 -0.98699999 123 76 32
-11.077 4.027 -0.96600002 201 144 101
-11.08 4.0159998 -0.96499997 189 155 130
-11.089 4.0079999 -0.95200002 158 81 39
-11.095 4.0229998 -0.963 141 108 77
-11.141 4.0339999 -1.0319999 144 95 54
-11.09 4.0079999 -1.0190001 120 49 3
-11.102 4.0139999 -0.99599999 117 64 14
-11.095 4.013 -1.028 73 36 9
-11.088 3.971 -1.022 104 54 17
-11.118 4.0219998 -1.058 111 67 18
-11.126 4.0050001 -1.035 172 110 27
-11.114 4.0040002 -1.048 124 49 0
-11.138 4.007 -1.041 97 52 0
-11.126 4.013 -1.039 185 124 77
-11.122 3.993 -1.03 192 140 82
-11.111 4.0159998 -1.034 85 36 3
-11.104 4.0149999 -1.036 100 51 19
-11.117 3.994 -1.013 248 218 128
-11.113 3.9890001 -1.001 165 106 46
-11.138 4.0009999 -1.017 171 135 41
-11.102 3.973 -1.109 135 72 5
-11.092 3.971 -1.103 177 111 35
-11.138 4.0029998 -0.75400001 170 106 58
-11.132 4.0029998 -0.75300002 162 111 66
-11.142 4.0079999 -0.75199997 154 101 59
-11.17 3.984 -0.72899997 167 115 75
-11.107 4.0409999 -0.78799999 192 115 69
-11.107 4.0419998 -0.787 108 48 24
-11.123 4.0019999 -0.764 107 58 26
-11.146 3.994 -0.74000001 177 87 25
-11.154 3.9790001 -0.736 200 149 102
-11.127 4.007 -0.74599999 99 30 0
-11.126 4.007 -0.74000001 52 19 2
-11.138 4.0079999 -0.75300002 213 175 156
-11.13 4.0089998 -0.75300002 87 47 11
-11.129 4.0120001 -0.76499999 111 67 32
-11.112 4.0240002 -0.78500003 156 80 30
-11.077 4.0170002 -0.78100002 115 62 10
-11.104 4.0139999 -0.76200002 212 160 103
-11.105 4.0219998 -0.70899999 227 189 142
-11.094 4.02 -0.79699999 183 122 67
-11.09 4.026 -0.792 137 88 58
-11.09 3.974 -0.80800003 109 42 0
-11.084 4.0300002 -0.79000002 122 83 54
-11.129 4.0019999 -0.78500003 88 65 34
-11.112 3.9920001 -0.81300002 121 75 25
-11.113 4.0009999 -0.80199999 125 67 27
-11.143 3.9849999 -0.84200001 109 67 25
-11.138 3.9849999 -0.85000002 151 108 65
-11.115 4.0009999 -0.778 130 74 37
-11.073 3.9860001 -0.85699999 129 97 82
-11.083 3.9920001 -0.85600001 125 76 35
-11.104 3.977 -0.829 89 53 21
-11.083 3.9749999 -0.85100001 128 84 47
-11.119 3.977 -0.85399997 188 110 44
-11.085 3.9790001 -0.87400001 192 115 63
-11.089 3.977 -0.86500001 147 105 63
-11.112 3.997 -0.88999999 199 152 84
-11.123 3.99 -0.92199999 133 77 30
-11.091 3.993 -0.903 106 69 53
-11.089 4.0009999 -0.91600001 86 48 9
-11.093 4.0029998 -0.91500002 231 186 147
-11.1 4.0029998 -0.89200002 137 96 66
-11.095 4.007 -1.089 107 65 27
-11.096 4.0040002 -1.089 194 126 53
-11.093 4.007 -1.1 163 90 37
-11.092 4.0079999 -1.097 109 46 2
-11.091 4.0120001 -1.103 133 100 59
-11.093 4.006 -1.107 157 86 20
-11.091 4.0120001 -1.096 125 46 7
-11.1 4.027 -1.072 194 145 86
-11.104 4.0190001 -1.067 157 104 60
-11.092 4.013 -1.1109999 116 59 14
-11.1 4 -1.108 239 204 104
-11.099 3.9990001 -1.105 209 141 56
-11.087 3.9809999 -0.87699997 107 52 13
-11.082 3.9920001 -0.95200002 97 52 23
-11.095 4.0110002 -0.76999998 229 185 150
-11.098 4.0100002 -0.76999998 118 84 56
-11.088 3.9790001 -0.80199999 124 46 0
-11.158 4.0040002 -0.73199999 167 92 37
-11.122 4.006 -0.75199997 75 29 5
-11.104 4.0219998 -0.69199997 173 144 102
-11.111 4.0190001 -0.67900002 130 97 82
-11.106 4.013 -0.68300003 155 91 30
-11.051 3.9779999 -0.80400002 246 180 94
-11.057 3.983 -0.801 211 148 77
-11.152 3.99 -0.736 103 68 49
-11.156 3.9860001 -0.72799999 176 127 86
-11.167 3.9809999 -0.73199999 184 120 74
-11.114 3.9979999 -0.90100002 77 46 28
-11.125 3.99 -0.91500002 111 66 35
-11.125 3.99 -0.91600001 165 80 13
-11.125 3.9890001 -0.91600001 157 101 44
-11.097 3.9849999 -0.89999998 92 55 28
-11.121 3.987 -0.88499999 109 64 25
-11.127 3.987 -0.87699997 84 35 2
-11.091 4.0120001 -1.0829999 131 51 16
-11.093 4.0139999 -1.074 125 97 60
-11.153 4.0310001 -1.0599999 83 35 0
-11.118 4.0279999 -1.0599999 91 45 11
-11.109 4.0479999 -1.051 159 72 18
-11.095 3.99 -1.09 182 134 58
-11.109 3.9790001 -0.98400003 176 135 89
-11.113 3.993 -0.995 168 121 95
-11.14 4.0100002 -1.015 225 185 124
-11.102 4.0300002 -1.049 207 168 135
-11.112 4.0190001 -1.05 178 129 86
-11.105 4.0170002 -1.056 159 89 37
-11.111 4.0409999 -1.044 103 53 26
-11.111 4.0339999 -1.057 132 88 43
-11.126 4.0300002 -1.0369999 191 131 79
-11.126 4.0279999 -1.033 157 80 38
-11.108 4.0409999 -1.0420001 105 49 14
-11.097 4.0489998 -1.035 161 84 32
-11.155 4.0359998 -1.045 80 45 25
-11.12 3.997 -0.98500001 163 85 36
-11.097 3.99 -1.062 188 129 59
-11.108 3.9990001 -1.056 161 86 19
-11.124 4.0050001 -0.72899997 112 51 6
-11.154 3.99 -0.699 129 66 0
-11.123 4.0089998 -0.71799999 167 111 62
-11.116 4.0159998 -0.70999998 133 70 27
-11.131 3.9960001 -0.70700002 181 98 22
-11.125 3.9990001 -0.70499998 199 122 52
-11.122 3.9979999 -0.70099998 179 86 9
-11.101 3.9679999 -1.113 246 164 91
-11.114 4.0040002 -0.79500002 154 78 28
-11.121 3.9990001 -0.787 149 93 58
-11.169 3.99 -0.77899998 101 57 20
-11.121 3.997 -0.81900001 248 195 141
-11.116 3.994 -0.82599998 155 107 59
-11.12 3.9920001 -0.83499998 134 85 53
-11.115 3.9960001 -0.829 82 38 3
-11.117 3.9809999 -0.866 144 62 15
-11.081 4.0139999 -0.98000002 130 76 42
-11.095 4.0120001 -0.95200002 121 34 0
-11.083 4.0159998 -0.96600002 153 117 95
-11.087 4.026 -0.96700001 209 155 108
-11.086 3.9749999 -1.041 162 102 65
-11.106 3.971 -1.016 200 122 56
-11.105 4.0170002 -1.064 199 131 68
-11.141 4.0180001 -1.045 191 161 137
-11.144 4.007 -1.033 255 232 145
-11.141 4.007 -1.0420001 178 132 72
-11.133 3.9960001 -1.0369999 172 102 43
-11.135 4.0009999 -1.017 255 219 124
-11.098 3.98 -1.12 119 57 20
-11.089 3.9690001 -1.1059999 127 46 0
-11.084 3.97 -1.104 245 152 85
-11.092 3.9719999 -1.101 189 129 56
-11.074 3.9820001 -1.125 125 60 4
-11.171 3.98 -0.73100001 174 91 21
-11.108 4.0419998 -0.78600001 233 156 84
-11.123 4.0009999 -0.76899999 64 25 0
-11.121 4.0040002 -0.75999999 101 43 5
-11.131 4.0029998 -0.71700001 92 59 40
-11.136 4.0040002 -0.71100003 141 100 56
-11.162 3.9760001 -0.73900002 144 98 64
-11.125 4.0050001 -0.74199998 122 56 6
-11.094 4.0349998 -0.76599997 121 63 25
-11.093 3.9990001 -0.80400002 110 65 23
-11.11 3.997 -0.829 151 105 56
-11.115 3.997 -0.82700002 91 46 5
-11.119 3.9990001 -0.79699999 98 52 16
-11.143 3.9860001 -0.84500003 101 63 18
-11.074 3.984 -0.85799998 198 136 85
-11.106 3.9779999 -0.861 144 81 28
-11.1 3.9790001 -0.87199998 77 28 0
-11.11 3.984 -0.90600002 167 103 55
-11.108 3.9990001 -0.88599998 186 100 39
-11.11 3.997 -0.92199999 136 72 26
-11.101 4.0019999 -0.89999998 182 89 19
-11.105 4.0040002 -0.912 138 88 51
-11.07 3.9809999 -1.079 93 59 21
-11.087 4.0180001 -1.051 232 200 139
-11.085 3.983 -0.87800002 167 96 50
-11.091 3.984 -0.88499999 130 53 0
-11.12 4.0190001 -0.77100003 89 53 29
-11.114 4.0310001 -0.69099998 162 91 35
-11.067 3.9549999 -0.82099998 200 134 84
-11.14 3.9860001 -0.69800001 228 152 77
-11.161 3.993 -0.708 190 156 110
-11.16 3.997 -0.71200001 122 93 51
-11.111 4 -0.89700001 115 83 60
-11.112 3.9990001 -0.912 167 138 124
-11.119 3.983 -0.898 94 65 9
-11.124 3.9879999 -0.88 93 50 16
-11.104 3.9960001 -1.104 191 154 63
-11.102 4.013 -0.93000001 116 59 16
-11.114 4.0489998 -1.0420001 182 126 75
-11.112 4.04 -1.053 255 218 174
-11.13 4.0310001 -1.0470001 83 44 1
-11.13 4.0320001 -1.035 78 32 6
-11.115 4.0240002 -1.023 144 94 57
-11.114 3.9879999 -0.99000001 213 149 103
-11.104 3.9990001 -1.063 107 55 7
-11.144 3.99 -0.69499999 200 138 89
-11.124 4.006 -0.70999998 101 50 19
-11.119 3.9990001 -0.69599998 224 175 142
-11.122 4.0019999 -0.70499998 209 117 54
-11.102 3.9690001 -1.113 130 75 11
-11.103 3.9690001 -1.114 208 171 129
-11.14 4.0089998 -0.68099999 128 109 102
-11.126 3.9960001 -0.69800001 186 121 55
-11.121 3.9990001 -0.77999997 191 133 96
-11.111 3.9890001 -0.83200002 78 34 5
-11.119 3.9820001 -0.87400001 138 56 9
-11.086 4.02 -0.96700001 156 112 77
-11.082 3.97 -1.024 242 160 84
-11.132 4.0019999 -1.016 245 202 108
-11.125 4.0050001 -0.736 119 57 8
-11.157 3.9860001 -0.75999999 171 119 80
-11.095 4.0359998 -0.76700002 145 108 79
-11.059 3.987 -0.80000001 192 136 79
-11.061 3.9779999 -0.80000001 144 81 40
-11.068 3.9790001 -0.801 246 198 162
-11.123 4.0009999 -0.792 104 47 2
-11.122 4.0019999 -0.792 164 103 59
-11.119 4.0019999 -0.79500002 160 98 57
-11.119 4 -0.80000001 75 29 0
-11.119 3.9990001 -0.79400003 187 138 98
-11.103 3.9809999 -0.898 214 146 71
-11.104 3.984 -0.88 137 99 54
-11.065 3.9779999 -1.096 255 223 167
-11.096 4.0180001 -1.071 205 148 103
-11.09 3.9909999 -0.89600003 84 24 0
-11.12 4.0240002 -0.77600002 129 93 67
-11.166 3.9790001 -0.73500001 195 118 48
-11.126 4.0440001 -0.71100003 151 80 38
-11.144 4.007 -0.71600002 192 125 72
-11.13 4.0050001 -0.72500002 195 142 102
-11.147 4.007 -0.73199999 137 50 0
-11.16 3.994 -0.70599997 250 237 182
-11.162 3.9879999 -0.70599997 170 116 46
-11.151 3.9879999 -0.70899999 201 129 81
-11.145 3.9860001 -0.704 103 68 36
-11.106 4.0029998 -0.91600001 70 41 27
-11.121 3.9820001 -0.90100002 156 120 62
-11.097 4.0359998 -1.0420001 222 170 122
-11.145 4.0139999 -1.04 233 197 123
-11.147 4.0240002 -1.048 107 34 0
-11.092 3.9860001 -1.081 138 58 0
-11.126 4.007 -0.73799998 44 10 0
-11.132 3.9920001 -0.69800001 157 90 3
-11.092 3.9849999 -1.09 192 148 59
-11.121 3.9979999 -0.69800001 213 127 52
-11.116 4.0019999 -0.699 240 142 71
-11.108 3.9890001 -0.82300001 113 65 27
-11.094 4.0100002 -1.03 100 59 37
-11.136 4.0219998 -1.026 189 140 108
-11.137 4.0050001 -1.015 255 220 140
-11.163 3.9879999 -0.76599997 240 174 122
-11.063 3.99 -0.801 179 121 58
-11.108 3.993 -0.87599999 76 34 10
-11.085 3.9760001 -1.086 218 167 114
-11.101 3.997 -1.104 255 216 121
-11.153 3.9920001 -0.72399998 168 78 16
-11.16 3.9890001 -0.704 250 219 154
-11.148 3.99 -0.70599997 252 183 108
-11.137 3.9849999 -0.69999999 209 137 61
-11.11 3.9920001 -0.87400001 153 71 13
-11.101 4.0079999 -0.92199999 164 122 84
-11.123 3.9949999 -0.69400001 211 153 103
-11.099 3.971 -1.03 181 110 56
-11.098 3.9749999 -1.036 141 74 19
-11.146 4.0120001 -0.75700003 185 95 33
-11.077 3.9719999 -1.094 131 70 13
-11.075 3.9760001 -1.091 195 135 75
-11.109 4.0009999 -0.898 181 97 33
-11.085 3.9749999 -1.081 138 95 63
-11.135 4.006 -0.73400003 190 142 104
-11.092 3.9690001 -1.024 246 194 134
-11.091 3.973 -1.038 251 202 125
-11.132 3.9949999 -1.03 207 128 61
-11.163 3.983 -0.76099998 160 112 66
-11.07 3.9779999 -1.09 192 110 34
-11.131 4.0029998 -0.73500001 89 52 33
-11.092 3.9760001 -1.039 149 88 44
-11.091 3.977 -1.04 254 207 125
0 0 0 1 0 0 0 1 0 0 0 1 0 0 0 0 0 1272 1 0 0
