ply
format ascii 1.0
comment PCL generated
element vertex 598
property float x
property float y
property float z
property uchar red
property uchar green
property uchar blue
element camera 1
property float view_px
property float view_py
property float view_pz
property float x_axisx
property float x_axisy
property float x_axisz
property float y_axisx
property float y_axisy
property float y_axisz
property float z_axisx
property float z_axisy
property float z_axisz
property float focal
property float scalex
property float scaley
property float centerx
property float centery
property int viewportx
property int viewporty
property float k1
property float k2
end_header
10.745 -5.27 -0.82599998 171 153 133
10.749 -5.2729998 -0.81999999 134 113 94
10.749 -5.27 -0.81099999 114 66 30
10.69 -5.3610001 -0.63 85 60 38
10.685 -5.3670001 -0.63300002 94 74 37
10.687 -5.3540001 -0.63499999 60 29 8
10.691 -5.3610001 -0.62599999 52 37 4
10.746 -5.2779999 -0.82499999 52 14 5
10.743 -5.2680001 -0.83200002 171 154 138
10.722 -5.2519999 -0.801 69 34 4
10.724 -5.2529998 -0.79400003 79 53 30
10.717 -5.256 -0.79400003 47 20 0
10.698 -5.3559999 -0.62199998 58 16 0
10.697 -5.3509998 -0.625 71 32 1
10.733 -5.2579999 -0.80599999 58 24 14
10.634 -5.2519999 -0.67199999 169 116 48
10.635 -5.2459998 -0.66799998 106 62 27
10.633 -5.2519999 -0.68000001 254 209 141
10.634 -5.2449999 -0.68099999 91 52 23
10.638 -5.244 -0.67199999 154 99 32
10.707 -5.2649999 -0.773 48 25 9
10.703 -5.2690001 -0.755 38 16 3
10.72 -5.2659998 -0.755 58 36 15
10.697 -5.348 -0.62400001 49 24 2
10.702 -5.3530002 -0.62 31 16 0
10.74 -5.2750001 -0.833 80 40 15
10.738 -5.2690001 -0.833 25 1 0
10.736 -5.2709999 -0.83200002 23 6 0
10.681 -5.3709998 -0.63499999 86 58 19
10.688 -5.3779998 -0.63499999 87 40 14
10.679 -5.3709998 -0.63800001 88 52 18
10.683 -5.3720002 -0.63300002 54 39 16
10.739 -5.2140002 -0.63800001 89 44 38
10.732 -5.2189999 -0.625 103 69 32
10.742 -5.23 -0.63300002 98 71 52
10.735 -5.2210002 -0.63200003 138 100 55
10.741 -5.2189999 -0.63999999 58 23 3
10.706 -5.224 -0.65600002 106 87 70
10.7 -5.2199998 -0.65100002 192 159 128
10.702 -5.217 -0.64700001 85 36 4
10.703 -5.2280002 -0.65700001 172 107 49
10.726 -5.23 -0.65799999 74 45 29
10.72 -5.224 -0.65499997 136 91 52
10.678 -5.276 -0.69199997 133 88 59
10.682 -5.2779999 -0.70200002 103 53 18
10.679 -5.2680001 -0.69599998 71 35 11
10.676 -5.2729998 -0.69599998 63 29 4
10.72 -5.2849998 -0.72600001 113 53 16
10.718 -5.2989998 -0.736 76 39 13
10.718 -5.2810001 -0.736 56 33 15
10.717 -5.2379999 -0.653 175 134 102
10.7 -5.2410002 -0.653 201 133 68
10.723 -5.2470002 -0.65100002 66 39 30
10.708 -5.2399998 -0.648 100 65 35
10.716 -5.3600001 -0.62699997 141 126 85
10.699 -5.3569999 -0.625 47 18 0
10.695 -5.3660002 -0.62599999 93 81 39
10.701 -5.3670001 -0.63300002 132 64 61
10.705 -5.3850002 -0.64499998 70 28 4
10.698 -5.3699999 -0.63800001 68 37 35
10.641 -5.2389998 -0.67199999 172 128 101
10.641 -5.2410002 -0.68000001 119 77 35
10.645 -5.2509999 -0.68199998 124 103 84
10.656 -5.243 -0.68199998 70 31 2
10.72 -5.2810001 -0.745 74 34 8
10.732 -5.2789998 -0.75 63 20 3
10.705 -5.2729998 -0.77700001 94 75 71
10.704 -5.263 -0.78600001 60 37 21
10.707 -5.2649999 -0.77999997 53 27 12
10.706 -5.2639999 -0.79900002 69 47 33
10.655 -5.2319999 -0.67000002 133 87 35
10.641 -5.2579999 -0.68800002 180 100 39
10.633 -5.2600002 -0.68000001 229 174 110
10.734 -5.2690001 -0.824 33 14 0
10.666 -5.2579999 -0.68699998 89 46 11
10.664 -5.2610002 -0.69599998 100 62 39
10.673 -5.2849998 -0.61900002 51 19 0
10.682 -5.283 -0.60900003 84 47 20
10.672 -5.276 -0.61799997 233 196 152
10.683 -5.2859998 -0.60900003 41 15 2
10.658 -5.2600002 -0.62099999 153 83 24
10.668 -5.2519999 -0.61299998 156 87 45
10.682 -5.277 -0.60799998 75 43 18
10.636 -5.2620001 -0.671 148 127 82
10.639 -5.2610002 -0.65600002 95 33 0
10.684 -5.303 -0.62199998 82 57 35
10.679 -5.3590002 -0.64300001 77 27 0
10.741 -5.2859998 -0.824 196 157 142
10.693 -5.3759999 -0.65200001 61 31 7
10.721 -5.2129998 -0.63200003 83 58 38
10.723 -5.2090001 -0.63499999 125 82 31
10.71 -5.2179999 -0.639 68 17 0
10.71 -5.2259998 -0.62900001 249 231 211
10.715 -5.3119998 -0.71200001 60 33 12
10.724 -5.3140001 -0.708 57 11 0
10.718 -5.2989998 -0.71799999 42 19 5
10.725 -5.3109999 -0.713 52 27 7
10.711 -5.3509998 -0.62099999 34 18 0
10.664 -5.283 -0.64700001 69 33 7
10.671 -5.289 -0.65600002 65 46 14
10.68 -5.3000002 -0.63700002 146 125 98
10.665 -5.2849998 -0.65600002 116 66 57
10.723 -5.2690001 -0.74900001 56 33 15
10.726 -5.2719998 -0.75599998 67 28 0
10.717 -5.276 -0.73400003 142 100 75
10.731 -5.276 -0.75700003 40 18 4
10.707 -5.2719998 -0.727 67 42 22
10.698 -5.2659998 -0.736 56 29 8
10.716 -5.289 -0.72399998 95 38 11
10.687 -5.2810001 -0.70700002 151 81 30
10.707 -5.2340002 -0.65399998 255 201 129
10.721 -5.2420001 -0.65100002 78 46 33
10.728 -5.2350001 -0.64899999 93 58 28
10.663 -5.2820001 -0.66299999 249 178 124
10.648 -5.2779999 -0.671 61 40 21
10.658 -5.2810001 -0.65600002 133 88 47
10.732 -5.223 -0.62300003 152 99 59
10.708 -5.3649998 -0.63200003 98 84 75
10.692 -5.2360001 -0.61900002 197 149 101
10.676 -5.2350001 -0.62300003 153 108 69
10.67 -5.2449999 -0.616 87 50 24
10.672 -5.335 -0.67500001 126 64 23
10.68 -5.3449998 -0.66299999 131 111 78
10.686 -5.3319998 -0.66299999 176 152 118
10.673 -5.348 -0.66500002 134 69 29
10.645 -5.243 -0.65799999 88 41 11
10.655 -5.2420001 -0.68000001 119 106 54
10.661 -5.243 -0.67500001 72 28 1
10.645 -5.237 -0.67199999 171 109 48
10.717 -5.3060002 -0.73199999 18 0 0
10.701 -5.2789998 -0.722 77 38 31
10.693 -5.27 -0.73100001 58 35 19
10.702 -5.276 -0.75599998 68 20 0
10.654 -5.2509999 -0.68400002 119 66 24
10.681 -5.322 -0.66600001 75 35 0
10.731 -5.2750001 -0.83099997 35 18 8
10.703 -5.2820001 -0.76499999 64 29 1
10.724 -5.3060002 -0.74199998 32 11 6
10.67 -5.2420001 -0.66799998 127 82 53
10.663 -5.2620001 -0.68699998 84 46 10
10.732 -5.263 -0.79799998 125 89 65
10.729 -5.257 -0.79799998 94 48 15
10.719 -5.2579999 -0.787 64 36 14
10.73 -5.2670002 -0.81 58 35 17
10.728 -5.2610002 -0.80299997 106 70 38
10.722 -5.2600002 -0.801 55 30 10
10.725 -5.2540002 -0.801 71 46 24
10.707 -5.2690001 -0.78100002 114 92 78
10.71 -5.2670002 -0.787 66 32 4
10.669 -5.2880001 -0.634 159 119 68
10.68 -5.2909999 -0.64300001 112 68 19
10.661 -5.2820001 -0.63800001 107 89 67
10.643 -5.2779999 -0.67299998 54 20 0
10.638 -5.263 -0.676 130 84 51
10.64 -5.2670002 -0.68199998 199 178 135
10.648 -5.277 -0.67400002 109 61 13
10.679 -5.2859998 -0.61699998 160 92 31
10.716 -5.3319998 -0.667 113 42 0
10.709 -5.3249998 -0.65600002 224 140 76
10.711 -5.3239999 -0.65200001 111 68 23
10.685 -5.2389998 -0.62099999 136 93 42
10.697 -5.3709998 -0.639 69 38 10
10.746 -5.2779999 -0.815 50 11 0
10.685 -5.3730001 -0.64600003 44 10 0
10.691 -5.3740001 -0.64200002 92 64 40
10.639 -5.2610002 -0.66399997 103 37 0
10.713 -5.2649999 -0.80199999 90 56 31
10.724 -5.27 -0.82300001 45 26 12
10.72 -5.2779999 -0.81199998 99 81 71
10.723 -5.2160001 -0.63200003 84 31 15
10.709 -5.223 -0.65200001 156 113 71
10.719 -5.224 -0.653 170 127 93
10.722 -5.2119999 -0.63999999 69 34 0
10.721 -5.3150001 -0.727 98 45 37
10.727 -5.3210001 -0.72600001 106 47 3
10.74 -5.2420001 -0.63499999 127 68 34
10.742 -5.2379999 -0.63 128 46 0
10.731 -5.243 -0.64099997 105 72 55
10.731 -5.2490001 -0.62599999 94 53 21
10.733 -5.2449999 -0.61900002 105 70 51
10.723 -5.3140001 -0.71700001 47 9 0
10.708 -5.316 -0.70999998 80 24 0
10.724 -5.322 -0.70200002 73 61 9
10.695 -5.3299999 -0.671 68 43 12
10.692 -5.3280001 -0.68099999 132 57 15
10.686 -5.3260002 -0.67000002 121 97 49
10.709 -5.2600002 -0.639 131 84 42
10.696 -5.2719998 -0.63999999 119 61 49
10.689 -5.2680001 -0.64499998 182 116 55
10.707 -5.2620001 -0.63599998 101 53 17
10.7 -5.2540002 -0.63599998 104 47 20
10.687 -5.2529998 -0.64499998 229 164 110
10.699 -5.2480001 -0.63999999 198 120 58
10.7 -5.309 -0.64899999 131 80 27
10.722 -5.277 -0.74299997 60 37 19
10.704 -5.2420001 -0.64499998 199 126 57
10.698 -5.2309999 -0.64600003 106 72 47
10.67 -5.2639999 -0.65200001 255 217 176
10.678 -5.2610002 -0.64899999 166 138 116
10.681 -5.2709999 -0.64700001 253 179 114
10.675 -5.2540002 -0.66399997 93 54 23
10.662 -5.2620001 -0.65899998 175 130 101
10.671 -5.2550001 -0.66799998 205 129 71
10.724 -5.3530002 -0.63700002 119 87 46
10.735 -5.2360001 -0.62400001 120 49 0
10.72 -5.362 -0.634 141 76 74
10.701 -5.3790002 -0.64499998 46 14 0
10.698 -5.3759999 -0.65600002 116 82 55
10.677 -5.2420001 -0.61900002 66 17 0
10.686 -5.3379998 -0.66100001 135 115 64
10.692 -5.3569999 -0.65100002 114 93 72
10.68 -5.3590002 -0.66500002 30 23 0
10.64 -5.2529998 -0.66399997 198 163 105
10.648 -5.2379999 -0.66399997 135 66 11
10.656 -5.2399998 -0.648 80 58 37
10.707 -5.3099999 -0.713 65 32 15
10.701 -5.3060002 -0.71700001 79 36 4
10.707 -5.3010001 -0.72500002 57 16 0
10.715 -5.2880001 -0.745 88 28 2
10.708 -5.2740002 -0.74699998 39 18 1
10.706 -5.2719998 -0.75300002 55 33 19
10.684 -5.2800002 -0.71100003 106 43 12
10.697 -5.3400002 -0.69199997 70 56 17
10.704 -5.3449998 -0.69099998 175 109 48
10.697 -5.3400002 -0.685 96 81 38
10.672 -5.3590002 -0.671 103 39 0
10.677 -5.3569999 -0.685 107 90 44
10.675 -5.3369999 -0.67799997 100 37 0
10.716 -5.3210001 -0.75 52 16 4
10.725 -5.3189998 -0.75199997 48 19 3
10.719 -5.3330002 -0.76800001 122 90 51
10.702 -5.335 -0.75700003 69 33 7
10.711 -5.3369999 -0.773 111 90 69
10.707 -5.3299999 -0.773 49 26 10
10.718 -5.3319998 -0.77600002 115 50 48
10.717 -5.3210001 -0.77499998 53 6 0
10.72 -5.3140001 -0.77100003 129 94 66
10.661 -5.2459998 -0.67699999 185 140 109
10.681 -5.323 -0.67500001 56 19 0
10.678 -5.329 -0.67799997 100 40 6
10.696 -5.322 -0.69 45 25 0
10.725 -5.2729998 -0.82800001 77 44 25
10.711 -5.3299999 -0.77999997 113 81 60
10.711 -5.3179998 -0.77899998 123 89 52
10.721 -5.309 -0.75400001 124 96 84
10.731 -5.3039999 -0.76999998 70 51 44
10.654 -5.2670002 -0.68400002 102 72 44
10.658 -5.2620001 -0.68699998 219 165 129
10.72 -5.283 -0.78299999 39 17 3
10.725 -5.2800002 -0.78500003 70 25 4
10.716 -5.2690001 -0.79699999 126 94 71
10.716 -5.2690001 -0.75800002 67 32 30
10.73 -5.2740002 -0.77700001 66 39 20
10.722 -5.2610002 -0.79100001 59 23 11
10.734 -5.2649999 -0.81599998 67 30 1
10.725 -5.2709999 -0.81599998 36 17 2
10.675 -5.289 -0.62300003 71 63 50
10.683 -5.3039999 -0.62699997 119 76 31
10.657 -5.2820001 -0.63300002 91 54 10
10.646 -5.277 -0.67000002 190 124 74
10.655 -5.277 -0.63800001 235 165 113
10.661 -5.2649999 -0.63300002 89 45 42
10.644 -5.2670002 -0.64600003 130 85 43
10.644 -5.256 -0.64499998 126 81 24
10.694 -5.2399998 -0.62199998 153 97 46
10.687 -5.244 -0.616 159 117 79
10.68 -5.27 -0.61400002 51 16 0
10.684 -5.27 -0.60900003 85 45 10
10.686 -5.2690001 -0.60900003 43 16 0
10.696 -5.2670002 -0.60799998 66 42 32
10.723 -5.2509999 -0.62099999 45 16 0
10.71 -5.2550001 -0.62300003 198 129 74
10.709 -5.2579999 -0.62 131 95 63
10.707 -5.257 -0.61799997 71 35 11
10.683 -5.3670001 -0.63499999 47 21 8
10.688 -5.3569999 -0.63800001 85 36 4
10.696 -5.3730001 -0.66100001 89 42 36
10.7 -5.3759999 -0.65799999 150 118 77
10.677 -5.3730001 -0.671 123 66 11
10.723 -5.3049998 -0.76599997 53 25 13
10.726 -5.2909999 -0.76800001 67 32 4
10.731 -5.2789998 -0.759 110 65 42
10.73 -5.277 -0.778 88 53 23
10.729 -5.3200002 -0.73900002 41 10 0
10.727 -5.3249998 -0.73400003 117 104 59
10.727 -5.329 -0.72899997 64 37 26
10.73 -5.3260002 -0.71499997 125 93 72
10.726 -5.3080001 -0.77100003 132 112 103
10.718 -5.3140001 -0.764 101 76 46
10.727 -5.276 -0.78500003 71 37 10
10.744 -5.2690001 -0.80599999 133 99 90
10.69 -5.3709998 -0.65899998 98 85 77
10.684 -5.3709998 -0.65700001 132 72 20
10.685 -5.368 -0.64499998 136 123 115
10.684 -5.2459998 -0.63499999 165 88 18
10.713 -5.2670002 -0.801 92 56 24
10.719 -5.2610002 -0.801 74 39 11
10.713 -5.2610002 -0.787 54 27 6
10.73 -5.2150002 -0.63300002 72 12 1
10.708 -5.2270002 -0.639 166 107 63
10.715 -5.2210002 -0.64300001 180 144 84
10.735 -5.2360001 -0.63999999 113 69 40
10.73 -5.3200002 -0.70999998 82 46 20
10.723 -5.3189998 -0.70700002 103 71 46
10.717 -5.2329998 -0.62400001 145 79 31
10.692 -5.3579998 -0.64700001 122 71 24
10.738 -5.223 -0.639 156 115 71
10.684 -5.296 -0.63700002 95 55 29
10.674 -5.2820001 -0.66000003 188 151 124
10.713 -5.2800002 -0.72500002 25 0 0
10.698 -5.2810001 -0.71799999 130 56 9
10.727 -5.2379999 -0.64700001 157 127 103
10.728 -5.2329998 -0.64600003 103 74 58
10.709 -5.3670001 -0.63800001 56 25 0
10.704 -5.3800001 -0.64399999 122 67 36
10.714 -5.3239999 -0.64899999 45 21 11
10.706 -5.3140001 -0.64399999 135 84 31
10.715 -5.3210001 -0.639 115 69 17
10.721 -5.3400002 -0.64700001 105 70 42
10.703 -5.2350001 -0.63200003 89 60 30
10.703 -5.2350001 -0.625 73 30 0
10.694 -5.3460002 -0.66000003 149 116 62
10.64 -5.2480001 -0.662 130 81 48
10.724 -5.2820001 -0.75300002 76 50 35
10.684 -5.2729998 -0.71100003 49 17 2
10.699 -5.3460002 -0.68199998 120 54 0
10.71 -5.3400002 -0.671 128 107 62
10.727 -5.3309999 -0.71600002 98 53 32
10.725 -5.3470001 -0.71799999 102 83 24
10.713 -5.3460002 -0.73799998 67 35 10
10.716 -5.3499999 -0.73100001 120 65 34
10.709 -5.3520002 -0.73400003 136 111 71
10.71 -5.3629999 -0.71200001 138 86 75
10.705 -5.3779998 -0.66100001 110 75 53
10.694 -5.3720002 -0.68199998 101 72 38
10.7 -5.3660002 -0.67199999 127 98 54
10.714 -5.3639998 -0.66100001 97 56 26
10.679 -5.3400002 -0.70200002 37 21 5
10.676 -5.3299999 -0.72100002 75 59 43
10.679 -5.323 -0.70300001 68 35 0
10.675 -5.342 -0.72100002 23 1 0
10.678 -5.355 -0.71200001 99 58 6
10.678 -5.3299999 -0.68000001 63 30 0
10.683 -5.336 -0.685 84 49 19
10.707 -5.3210001 -0.76999998 86 55 27
10.7 -5.3260002 -0.75700003 39 18 1
10.704 -5.3099999 -0.76499999 41 2 0
10.694 -5.3249998 -0.75099999 64 26 3
10.701 -5.3060002 -0.74400002 51 15 0
10.704 -5.3179998 -0.74699998 101 42 26
10.708 -5.3109999 -0.75700003 38 0 0
10.721 -5.322 -0.745 96 45 26
10.683 -5.3280001 -0.74599999 94 74 67
10.688 -5.329 -0.74000001 66 49 33
10.688 -5.335 -0.74599999 57 25 4
10.698 -5.3299999 -0.75400001 115 92 78
10.718 -5.3179998 -0.76999998 50 18 0
10.667 -5.2529998 -0.67299998 147 126 109
10.727 -5.2709999 -0.82200003 68 38 30
10.717 -5.3280001 -0.78200001 59 40 25
10.71 -5.2810001 -0.76999998 54 19 0
10.708 -5.276 -0.76800001 83 28 7
10.691 -5.2389998 -0.65200001 139 90 47
10.673 -5.2459998 -0.66399997 100 47 16
10.72 -5.2729998 -0.78399998 114 84 48
10.707 -5.3049998 -0.76599997 57 28 14
10.711 -5.2930002 -0.778 63 31 18
10.731 -5.2750001 -0.764 49 24 4
10.74 -5.2659998 -0.81099999 143 121 100
10.644 -5.2719998 -0.66299999 93 72 25
10.662 -5.2639999 -0.62699997 240 218 195
10.724 -5.2509999 -0.634 83 47 21
10.727 -5.2490001 -0.63999999 102 58 21
10.724 -5.2509999 -0.634 83 47 21
10.714 -5.2579999 -0.63499999 145 68 14
10.697 -5.2480001 -0.61000001 122 80 32
10.692 -5.2519999 -0.61000001 125 83 25
10.687 -5.257 -0.61000001 148 112 50
10.689 -5.27 -0.611 53 26 15
10.687 -5.369 -0.67299998 84 71 65
10.724 -5.2859998 -0.77100003 88 65 49
10.72 -5.3000002 -0.75099999 33 16 0
10.719 -5.3099999 -0.77100003 80 60 49
10.727 -5.2729998 -0.81 84 47 20
10.677 -5.3670001 -0.66500002 51 23 0
10.657 -5.2340002 -0.66399997 197 151 92
10.663 -5.2379999 -0.65799999 150 104 45
10.638 -5.2449999 -0.66799998 143 84 26
10.647 -5.243 -0.65700001 255 221 149
10.717 -5.3060002 -0.71799999 41 19 5
10.709 -5.3070002 -0.71700001 49 23 6
10.728 -5.3270001 -0.71100003 91 37 25
10.72 -5.3260002 -0.71100003 78 54 42
10.714 -5.3280001 -0.639 111 65 15
10.703 -5.3390002 -0.639 91 48 5
10.697 -5.3499999 -0.63 79 32 4
10.708 -5.3319998 -0.63200003 94 63 17
10.709 -5.3340001 -0.63200003 121 101 76
10.706 -5.3210001 -0.64099997 112 80 41
10.715 -5.2350001 -0.62300003 118 61 8
10.701 -5.3509998 -0.639 83 33 0
10.716 -5.336 -0.65100002 63 31 6
10.702 -5.3189998 -0.653 205 178 151
10.704 -5.2750001 -0.62199998 133 126 58
10.705 -5.2589998 -0.62400001 110 65 24
10.699 -5.2610002 -0.61500001 109 52 22
10.698 -5.276 -0.61799997 116 68 64
10.685 -5.2800002 -0.64300001 100 68 45
10.672 -5.2870002 -0.66399997 110 72 25
10.695 -5.2750001 -0.736 60 29 11
10.707 -5.29 -0.74199998 91 42 35
10.726 -5.2280002 -0.65100002 56 36 29
10.711 -5.3740001 -0.648 109 73 49
10.716 -5.3600001 -0.65399998 79 53 26
10.716 -5.3649998 -0.64499998 66 20 0
10.719 -5.3600001 -0.63999999 62 34 12
10.713 -5.3530002 -0.62800002 109 93 41
10.701 -5.329 -0.65899998 132 86 37
10.665 -5.2589998 -0.63099998 88 47 27
10.71 -5.2259998 -0.634 151 107 60
10.699 -5.3449998 -0.65100002 123 103 79
10.708 -5.2820001 -0.755 118 96 85
10.715 -5.296 -0.74400002 41 24 8
10.682 -5.2729998 -0.708 90 64 47
10.711 -5.349 -0.66600001 107 78 36
10.721 -5.3400002 -0.71499997 57 26 5
10.718 -5.3530002 -0.70200002 181 127 65
10.704 -5.3280001 -0.70300001 86 68 48
10.721 -5.322 -0.70599997 62 15 0
10.694 -5.3270001 -0.70899999 91 33 0
10.69 -5.3280001 -0.699 122 60 11
10.675 -5.3410001 -0.722 57 41 25
10.681 -5.3270001 -0.71600002 69 50 18
10.694 -5.3070002 -0.73400003 88 46 24
10.692 -5.3319998 -0.73100001 77 46 15
10.702 -5.3169999 -0.73100001 38 15 1
10.693 -5.3060002 -0.727 122 101 80
10.696 -5.2870002 -0.73000002 69 27 2
10.695 -5.3049998 -0.722 49 27 6
10.696 -5.2680001 -0.73900002 95 59 45
10.694 -5.3249998 -0.68800002 68 12 0
10.707 -5.3309999 -0.75199997 94 77 59
10.705 -5.3210001 -0.76099998 95 48 42
10.723 -5.3109999 -0.74000001 111 53 51
10.701 -5.3390002 -0.74599999 68 9 0
10.692 -5.3400002 -0.74199998 64 42 19
10.695 -5.3369999 -0.74400002 93 45 22
10.706 -5.3439999 -0.74900001 99 58 30
10.706 -5.3460002 -0.74299997 86 65 46
10.687 -5.348 -0.73000002 90 50 14
10.671 -5.2389998 -0.65399998 90 78 78
10.726 -5.2709999 -0.78799999 113 77 45
10.712 -5.2800002 -0.778 79 46 29
10.729 -5.3010001 -0.77200001 112 92 81
10.655 -5.2610002 -0.64200002 255 204 125
10.731 -5.2480001 -0.63 71 32 1
10.666 -5.2410002 -0.65200001 98 50 4
10.701 -5.2519999 -0.61299998 137 83 36
10.671 -5.2789998 -0.62599999 117 95 58
10.673 -5.2610002 -0.61799997 254 213 167
10.67 -5.2529998 -0.61500001 65 31 0
10.686 -5.2480001 -0.616 207 167 108
10.719 -5.2909999 -0.75700003 30 11 0
10.723 -5.2670002 -0.79799998 77 38 9
10.736 -5.2719998 -0.81099999 48 9 2
10.709 -5.3779998 -0.65799999 96 78 64
10.676 -5.3649998 -0.66600001 79 52 25
10.683 -5.3239999 -0.70099998 94 77 59
10.706 -5.316 -0.71399999 127 91 59
10.71 -5.3600001 -0.66600001 113 80 49
10.715 -5.3470001 -0.662 75 41 13
10.702 -5.369 -0.66399997 67 40 10
10.704 -5.3429999 -0.63300002 78 49 19
10.702 -5.335 -0.64700001 99 45 9
10.702 -5.3260002 -0.64700001 79 33 0
10.717 -5.3400002 -0.63800001 81 40 38
10.714 -5.3319998 -0.648 119 48 2
10.715 -5.3390002 -0.66600001 108 69 38
10.69 -5.316 -0.65600002 173 128 71
10.694 -5.316 -0.64899999 115 94 65
10.697 -5.3130002 -0.65499997 132 93 52
10.7 -5.3179998 -0.639 129 110 67
10.701 -5.2779999 -0.62699997 112 90 76
10.692 -5.2979999 -0.62400001 104 50 40
10.692 -5.2909999 -0.62199998 130 103 82
10.693 -5.289 -0.62900001 76 57 43
10.694 -5.2810001 -0.616 135 68 15
10.727 -5.2280002 -0.64899999 205 155 104
10.724 -5.237 -0.62099999 44 17 0
10.717 -5.2399998 -0.625 122 86 38
10.725 -5.2319999 -0.62300003 146 90 39
10.717 -5.3629999 -0.64499998 105 69 45
10.699 -5.3330002 -0.67799997 95 75 40
10.672 -5.244 -0.63200003 161 117 82
10.667 -5.2480001 -0.64600003 103 37 39
10.703 -5.2350001 -0.63300002 158 105 51
10.645 -5.2480001 -0.65700001 250 213 143
10.706 -5.3010001 -0.74699998 113 80 45
10.701 -5.3569999 -0.67199999 99 69 45
10.713 -5.355 -0.71499997 65 37 13
10.719 -5.3210001 -0.708 69 36 19
10.697 -5.3309999 -0.69800001 44 29 0
10.701 -5.3670001 -0.70499998 158 99 85
10.704 -5.3579998 -0.69499999 46 19 0
10.698 -5.3709998 -0.69499999 78 53 23
10.68 -5.3610001 -0.69300002 72 46 13
10.69 -5.3629999 -0.69700003 82 59 27
10.683 -5.3569999 -0.69999999 106 47 5
10.695 -5.3590002 -0.71200001 62 36 11
10.678 -5.3439999 -0.676 95 75 38
10.679 -5.355 -0.69099998 105 72 37
10.702 -5.302 -0.76300001 77 50 29
10.698 -5.283 -0.72000003 41 22 8
10.696 -5.3000002 -0.73000002 64 47 37
10.698 -5.283 -0.73299998 103 54 24
10.685 -5.368 -0.68300003 65 49 13
10.694 -5.3670001 -0.69099998 122 66 15
10.718 -5.309 -0.73400003 46 19 0
10.721 -5.3080001 -0.73900002 25 8 0
10.693 -5.3460002 -0.73199999 79 53 36
10.701 -5.355 -0.71700001 88 60 20
10.695 -5.237 -0.64499998 142 76 42
10.679 -5.2399998 -0.65399998 210 141 84
10.724 -5.2729998 -0.78899997 55 7 0
10.717 -5.2779999 -0.77700001 68 34 6
10.713 -5.2909999 -0.778 119 85 58
10.648 -5.27 -0.65899998 108 64 19
10.719 -5.3460002 -0.65399998 66 39 12
10.663 -5.263 -0.62099999 210 178 121
10.737 -5.27 -0.81 99 56 24
10.65 -5.2600002 -0.68599999 131 95 63
10.665 -5.256 -0.67000002 121 94 75
10.689 -5.329 -0.69400001 47 19 0
10.682 -5.3260002 -0.70700002 70 36 9
10.7 -5.3189998 -0.71700001 95 64 33
10.696 -5.329 -0.722 71 39 14
10.701 -5.3670001 -0.66900003 126 66 55
10.699 -5.3369999 -0.65200001 147 106 54
10.718 -5.348 -0.63499999 138 114 52
10.693 -5.335 -0.65700001 202 161 107
10.696 -5.316 -0.65499997 79 44 6
10.7 -5.3309999 -0.66900003 109 72 30
10.691 -5.296 -0.62599999 236 189 145
10.69 -5.2989998 -0.62300003 83 40 0
10.702 -5.3150001 -0.64200002 121 67 57
10.694 -5.2909999 -0.63300002 43 12 0
10.702 -5.2740002 -0.625 167 113 66
10.738 -5.2189999 -0.64099997 142 72 20
10.706 -5.237 -0.61900002 75 47 23
10.729 -5.2399998 -0.62 79 49 15
10.713 -5.3639998 -0.639 75 34 6
10.719 -5.3579998 -0.64700001 134 103 74
10.704 -5.3309999 -0.66900003 137 69 24
10.695 -5.3660002 -0.68000001 62 37 6
10.697 -5.3579998 -0.68199998 94 64 30
10.656 -5.2709999 -0.67199999 119 67 56
10.664 -5.263 -0.68099999 108 67 21
10.711 -5.3369999 -0.74299997 65 44 27
10.687 -5.3499999 -0.71600002 33 15 1
10.686 -5.3509998 -0.71399999 54 38 15
10.684 -5.3499999 -0.727 95 68 47
10.702 -5.355 -0.69099998 179 124 60
10.681 -5.3470001 -0.70099998 111 92 59
10.682 -5.349 -0.69099998 106 88 48
10.695 -5.3369999 -0.69199997 100 63 21
10.681 -5.3460002 -0.68400002 145 117 69
10.697 -5.2810001 -0.72500002 38 9 0
10.678 -5.3629999 -0.68400002 155 130 89
10.686 -5.3699999 -0.67799997 75 56 41
10.694 -5.3670001 -0.69800001 160 114 62
10.688 -5.3460002 -0.73000002 83 64 58
10.691 -5.2470002 -0.64399999 168 100 25
10.679 -5.2350001 -0.653 94 55 26
10.657 -5.277 -0.64700001 125 75 24
10.654 -5.2550001 -0.64200002 103 67 45
10.665 -5.277 -0.63099998 47 15 0
10.703 -5.3629999 -0.67000002 205 173 134
10.692 -5.3270001 -0.69 52 36 3
10.678 -5.336 -0.71600002 111 47 9
10.721 -5.2259998 -0.63099998 231 196 130
10.694 -5.3410001 -0.73900002 81 42 13
10.719 -5.348 -0.71799999 90 71 56
10.711 -5.3540001 -0.70300001 132 110 61
10.704 -5.3629999 -0.70700002 78 53 23
10.693 -5.3569999 -0.70599997 69 52 24
10.684 -5.3429999 -0.69099998 111 77 32
10.684 -5.3649998 -0.68800002 99 58 12
10.685 -5.369 -0.68000001 49 23 0
10.688 -5.3319998 -0.727 106 80 65
10.726 -5.2220001 -0.63099998 179 143 85
10.7 -5.3520002 -0.72899997 83 47 21
10.719 -5.349 -0.71600002 93 52 32
10.708 -5.3340001 -0.704 73 38 0
10.713 -5.3540001 -0.70499998 149 89 79
10.694 -5.368 -0.68199998 94 61 16
10.696 -5.3299999 -0.72500002 70 46 22
10.718 -5.3410001 -0.63999999 167 116 63
10.721 -5.3449998 -0.64200002 106 83 39
0 0 0 1 0 0 0 1 0 0 0 1 0 0 0 0 0 598 1 0 0
