ply
format ascii 1.0
comment PCL generated
element vertex 165
property float x
property float y
property float z
property uchar red
property uchar green
property uchar blue
element camera 1
property float view_px
property float view_py
property float view_pz
property float x_axisx
property float x_axisy
property float x_axisz
property float y_axisx
property float y_axisy
property float y_axisz
property float z_axisx
property float z_axisy
property float z_axisz
property float focal
property float scalex
property float scaley
property float centerx
property float centery
property int viewportx
property int viewporty
property float k1
property float k2
end_header
-2.029 17.4 -0.56599998 181 145 129
-2.0320001 17.407 -0.565 188 124 99
-2.036 17.4 -0.56999999 195 110 53
-1.987 17.42 -0.60399997 89 55 30
-1.989 17.419001 -0.59799999 83 32 3
-1.978 17.42 -0.60600001 150 92 52
-1.982 17.410999 -0.597 118 79 46
-1.971 17.400999 -0.59799999 63 49 48
-1.9809999 17.402 -0.58999997 207 133 86
-2.0450001 17.388 -0.58899999 196 138 92
-2.039 17.384001 -0.588 154 76 37
-2.0280001 17.391001 -0.53200001 200 90 11
-2.0139999 17.389 -0.52899998 200 107 30
-2.03 17.379999 -0.52499998 208 120 49
-2.0480001 17.393 -0.53200001 134 70 34
-2.033 17.409 -0.56 222 150 91
-2.036 17.410999 -0.565 217 141 81
-1.9910001 17.417999 -0.60500002 139 46 2
-2.0039999 17.407 -0.597 175 80 16
-2.043 17.35 -0.57200003 185 116 61
-2.0320001 17.346001 -0.57599998 100 54 31
-2.0550001 17.343 -0.583 89 57 60
-1.9910001 17.407 -0.597 87 48 31
-1.989 17.399 -0.59200001 162 76 17
-1.998 17.400999 -0.597 151 82 40
-1.977 17.395 -0.59200001 200 107 46
-2.0050001 17.388 -0.53399998 122 73 33
-2.0109999 17.393999 -0.54799998 226 128 55
-2.01 17.391001 -0.53600001 255 165 84
-2.0150001 17.398001 -0.54400003 101 67 68
-2.0420001 17.386 -0.58399999 193 113 54
-2.0409999 17.360001 -0.61900002 162 118 93
-2.0469999 17.34 -0.61199999 119 78 48
-2.033 17.339001 -0.62300003 155 83 33
-2.04 17.358999 -0.62800002 138 85 35
-1.992 17.42 -0.616 159 84 45
-2.0450001 17.354 -0.60699999 185 114 68
-2.0510001 17.344999 -0.60699999 123 50 7
-2.0569999 17.351999 -0.60000002 127 74 40
-2.027 17.336 -0.62 132 75 30
-2.063 17.355 -0.58099997 141 43 0
-2.052 17.382999 -0.53500003 164 108 73
-2.0350001 17.375 -0.53100002 130 72 26
-2.0420001 17.372999 -0.54799998 133 76 21
-2.0580001 17.344999 -0.59399998 118 69 36
-2.0409999 17.406 -0.565 87 53 54
-2.0420001 17.363001 -0.56999999 96 57 26
-2.0510001 17.358 -0.58099997 168 67 11
-2.027 17.367001 -0.54400003 73 44 2
-2.0220001 17.396 -0.53500003 144 91 57
-2.0209999 17.392 -0.53399998 99 51 29
-2 17.395 -0.59899998 96 49 23
-2.0250001 17.372 -0.59600002 149 73 24
-2.036 17.372999 -0.58399999 146 95 52
-2.0150001 17.396999 -0.54500002 203 96 26
-2.05 17.382 -0.55800003 100 67 36
-2.056 17.388 -0.53899997 121 66 25
-2.0539999 17.388 -0.54400003 99 65 66
-2.0409999 17.382999 -0.58200002 138 69 27
-2.0380001 17.372999 -0.58399999 72 32 0
-2.0250001 17.382999 -0.52899998 218 127 57
-2.029 17.344 -0.625 151 88 44
-2.0309999 17.363001 -0.61000001 129 72 29
-2.036 17.353001 -0.60699999 64 44 37
-1.987 17.396999 -0.61299998 152 107 84
-1.983 17.393 -0.60900003 186 113 68
-1.984 17.393 -0.60900003 120 63 18
-2.0420001 17.362 -0.625 207 114 55
-1.993 17.415001 -0.616 146 79 36
-2.0009999 17.402 -0.60900003 149 75 26
-2.0380001 17.363001 -0.60799998 72 36 4
-2.03 17.356001 -0.59799999 129 86 54
-2.049 17.339001 -0.60600001 191 90 36
-2.062 17.349001 -0.58499998 113 33 0
-2.0599999 17.361 -0.588 159 70 12
-2.0139999 17.422001 -0.546 99 50 20
-2.0139999 17.423 -0.55299997 195 110 53
-2.0109999 17.426001 -0.551 200 136 90
-2.043 17.403999 -0.53899997 93 48 7
-2.04 17.406 -0.55800003 188 101 48
-2.0369999 17.408001 -0.56 148 100 62
-2.04 17.403999 -0.54699999 117 63 19
-1.982 17.417999 -0.602 132 69 15
-2.0139999 17.389 -0.55299997 230 147 81
-1.988 17.395 -0.58099997 137 50 0
-1.99 17.393 -0.58999997 148 102 76
-2.033 17.365999 -0.55400002 133 73 21
-2.0239999 17.368 -0.55000001 140 78 29
-2.0190001 17.370001 -0.56099999 87 66 65
-2.026 17.372 -0.55599999 205 153 106
-2.026 17.378 -0.55800003 70 34 2
-2.023 17.379999 -0.54100001 160 84 35
-2.0150001 17.379999 -0.52999997 171 119 95
-2.036 17.354 -0.579 255 160 86
-2.039 17.364 -0.57700002 137 87 50
-2.0469999 17.351 -0.579 255 158 86
-2.0009999 17.405001 -0.60000002 82 41 11
-2.0009999 17.399 -0.60500002 163 72 17
-2.04 17.389 -0.53399998 164 114 77
-2.0309999 17.393 -0.53799999 63 39 35
-2.02 17.374001 -0.55900002 155 89 31
-2.029 17.388 -0.55800003 99 78 75
-2.0320001 17.398001 -0.56599998 206 127 71
-2.05 17.388 -0.55900002 75 48 41
-1.975 17.403999 -0.60900003 166 79 25
-1.977 17.389999 -0.602 142 98 53
-2.0409999 17.363001 -0.62599999 150 85 43
-2.039 17.384001 -0.62099999 166 84 37
-1.977 17.402 -0.61299998 130 73 30
-1.989 17.399 -0.61400002 211 134 78
-1.9859999 17.405001 -0.611 139 68 24
-2.0510001 17.364 -0.58499998 136 77 35
-2.052 17.365999 -0.59799999 79 47 32
-2.0450001 17.337 -0.59600002 146 105 75
-2.0510001 17.341 -0.59799999 157 99 53
-2.0580001 17.341999 -0.588 164 86 40
-2.0190001 17.400999 -0.54100001 176 130 94
-1.985 17.393999 -0.588 123 73 46
-2.0190001 17.381001 -0.52499998 204 118 41
-2.04 17.351 -0.57599998 145 78 35
-2.0309999 17.365 -0.588 113 76 58
-2.043 17.362 -0.57800001 67 42 37
-2.033 17.351 -0.58399999 161 108 64
-1.99 17.385 -0.60299999 142 93 63
-2.0350001 17.368 -0.61199999 127 53 16
-2.036 17.370001 -0.60600001 118 66 27
-2.039 17.386999 -0.53200001 176 113 70
-2.049 17.393 -0.542 63 21 0
-2.03 17.367001 -0.60000002 100 44 11
-2.0439999 17.382999 -0.59399998 223 138 84
-2.0190001 17.382999 -0.54699999 239 142 71
-2.0139999 17.388 -0.54100001 232 140 67
-2.0409999 17.396999 -0.54500002 95 44 15
-2.027 17.391001 -0.55699998 152 94 44
-2.0480001 17.346001 -0.58700001 155 82 39
-2.0369999 17.351 -0.60299999 86 54 55
-2.03 17.403 -0.54299998 119 55 28
-1.988 17.416 -0.61199999 62 38 4
-1.99 17.389999 -0.59600002 184 84 22
-2.0190001 17.381001 -0.53299999 143 53 0
-2.0380001 17.346001 -0.59899998 200 115 60
-2.0339999 17.353001 -0.59799999 112 67 44
-2.0350001 17.364 -0.57999998 150 78 40
-2.039 17.382 -0.61500001 129 51 13
-2.043 17.386999 -0.61500001 69 35 8
-2.04 17.386999 -0.53200001 234 130 45
-2.0420001 17.385 -0.53399998 115 69 46
-2.0450001 17.381001 -0.537 76 28 0
-2.026 17.365999 -0.59500003 164 65 8
-2.0450001 17.385 -0.588 163 89 42
-2.023 17.378 -0.54799998 164 105 49
-2.013 17.385 -0.53100002 164 113 70
-2.0439999 17.379999 -0.55199999 166 99 44
-2.039 17.385 -0.56 131 92 53
-2.0580001 17.361 -0.58700001 236 142 88
-2.0380001 17.346001 -0.58399999 166 116 67
-2.0380001 17.347 -0.58700001 189 112 58
-2.0239999 17.399 -0.53799999 148 87 42
-1.995 17.409 -0.61299998 111 46 6
-2.0339999 17.354 -0.60100001 155 102 60
-2.0209999 17.393 -0.55000001 176 127 94
-2.0380001 17.347 -0.58700001 189 112 58
-2.0179999 17.405001 -0.53899997 106 59 17
-1.992 17.388 -0.60500002 125 79 53
-2.039 17.348 -0.59200001 147 85 46
0 0 0 1 0 0 0 1 0 0 0 1 0 0 0 0 0 165 1 0 0
