ply
format ascii 1.0
comment PCL generated
element vertex 1372
property float x
property float y
property float z
property uchar red
property uchar green
property uchar blue
element camera 0
property float view_px
property float view_py
property float view_pz
property float x_axisx
property float x_axisy
property float x_axisz
property float y_axisx
property float y_axisy
property float y_axisz
property float z_axisx
property float z_axisy
property float z_axisz
property float focal
property float scalex
property float scaley
property float centerx
property float centery
property int viewportx
property int viewporty
property float k1
property float k2
end_header
1.955 11.207 -0.94700003 113 69 40
1.88 11.202 -0.56800002 104 35 4
1.885 11.203 -0.56400001 125 69 34
1.885 11.203 -0.56800002 125 61 23
1.89 11.205 -0.59799999 155 150 156
1.895 11.198 -0.59399998 131 49 11
1.891 11.203 -0.60799998 102 53 23
1.903 11.232 -0.94099998 173 123 86
1.9 11.233 -0.94099998 55 8 0
1.897 11.231 -0.93599999 146 128 118
1.897 11.237 -0.94199997 48 8 0
1.842 11.408 -0.48500001 157 73 11
1.8279999 11.407 -0.495 84 30 0
1.8279999 11.414 -0.5 176 119 66
1.842 11.406 -0.49200001 178 122 61
1.85 11.411 -0.48699999 193 140 109
1.8329999 11.403 -0.484 165 81 17
1.84 11.402 -0.48500001 104 85 81
1.846 11.396 -0.47999999 150 117 98
1.998 11.253 -0.71200001 118 97 92
1.995 11.251 -0.69499999 116 85 56
1.9859999 11.243 -0.69999999 172 71 0
2.0020001 11.27 -0.64300001 185 179 179
1.893 11.202 -0.56800002 205 111 23
1.9 11.209 -0.60000002 94 54 29
1.902 11.21 -0.60500002 167 79 33
1.862 11.4 -0.486 174 105 64
1.865 11.412 -0.495 117 90 83
1.859 11.403 -0.48800001 128 115 109
1.8329999 11.398 -0.484 167 102 48
1.84 11.398 -0.484 189 109 50
1.832 11.39 -0.486 125 80 47
1.829 11.397 -0.486 150 75 20
1.821 11.408 -0.49599999 237 139 74
1.8099999 11.408 -0.50400001 107 39 0
1.808 11.403 -0.50199997 107 82 52
1.808 11.398 -0.498 152 67 10
1.957 11.243 -0.86299998 227 153 78
1.962 11.239 -0.84899998 201 151 38
1.966 11.243 -0.852 143 106 80
1.985 11.249 -0.69 89 25 0
1.902 11.214 -0.60600001 93 56 29
1.901 11.207 -0.60799998 201 113 65
1.893 11.235 -0.912 122 56 21
1.966 11.207 -0.94300002 87 54 37
1.969 11.207 -0.94199997 209 160 65
1.9579999 11.214 -0.94999999 193 122 70
1.955 11.215 -0.94300002 140 59 3
1.857 11.211 -0.74199998 177 116 51
1.8559999 11.221 -0.73500001 111 63 23
1.863 11.206 -0.72799999 126 90 64
1.911 11.215 -0.70099998 125 73 36
1.915 11.22 -0.70499998 128 64 26
1.9119999 11.222 -0.713 120 50 14
1.921 11.226 -0.71100003 154 71 21
1.916 11.221 -0.65799999 206 118 55
1.916 11.222 -0.65499997 156 71 16
1.9170001 11.207 -0.64399999 97 88 91
1.892 11.216 -0.60299999 145 108 82
1.8940001 11.208 -0.59100002 95 43 21
1.865 11.359 -0.63099998 109 53 20
1.8609999 11.346 -0.64999998 112 57 27
1.869 11.348 -0.63200003 70 38 27
1.858 11.354 -0.62 94 33 2
1.8609999 11.363 -0.62599999 167 153 152
1.8279999 11.404 -0.48800001 176 85 15
1.8279999 11.401 -0.486 172 92 41
1.816 11.403 -0.49900001 150 70 17
1.8200001 11.408 -0.49700001 176 97 41
1.818 11.414 -0.50999999 87 68 54
1.8150001 11.397 -0.52100003 122 81 59
1.812 11.401 -0.509 133 93 58
1.862 11.373 -0.62099999 121 66 36
1.8200001 11.41 -0.51700002 154 93 48
1.97 11.242 -0.75 208 108 46
1.97 11.242 -0.74599999 179 79 17
1.985 11.251 -0.74199998 87 50 23
1.9910001 11.248 -0.70099998 242 141 63
1.998 11.261 -0.70200002 208 115 54
1.9960001 11.258 -0.70499998 139 104 76
1.888 11.199 -0.57099998 207 127 56
1.854 11.403 -0.48500001 76 44 21
1.845 11.403 -0.48500001 199 124 84
1.8200001 11.381 -0.495 120 74 40
1.825 11.389 -0.493 141 103 67
1.835 11.387 -0.48699999 124 91 50
1.875 11.366 -0.625 101 69 54
1.876 11.363 -0.639 93 59 49
1.8710001 11.367 -0.62699997 146 91 52
1.875 11.363 -0.62900001 169 99 50
1.854 11.411 -0.50199997 96 74 76
1.951 11.218 -0.91399997 237 170 117
1.9529999 11.214 -0.91799998 244 177 107
1.956 11.217 -0.91500002 203 140 87
1.972 11.247 -0.90200001 128 57 5
1.975 11.246 -0.88999999 202 126 48
1.966 11.241 -0.89499998 218 165 113
1.971 11.245 -0.90499997 147 73 28
1.932 11.316 -0.62 130 73 30
1.9299999 11.311 -0.61400002 87 24 0
1.938 11.326 -0.60299999 141 68 27
1.931 11.326 -0.60000002 183 103 54
1.8940001 11.214 -0.58899999 117 90 71
1.895 11.215 -0.59600002 84 23 0
1.895 11.221 -0.60500002 100 39 8
1.897 11.205 -0.60299999 150 61 21
1.8940001 11.241 -0.92699999 170 94 44
1.891 11.247 -0.921 121 39 0
1.895 11.244 -0.89499998 95 51 6
1.952 11.211 -0.93599999 172 89 21
1.9579999 11.208 -0.94199997 157 74 6
1.949 11.221 -0.926 183 115 68
1.965 11.206 -0.93300003 255 226 102
1.965 11.207 -0.93699998 252 209 94
1.881 11.205 -0.727 120 58 7
1.8710001 11.208 -0.72299999 100 62 39
1.9170001 11.226 -0.71499997 126 51 12
1.911 11.215 -0.64499998 131 119 119
1.923 11.283 -0.63499999 160 78 31
1.906 11.293 -0.63200003 115 30 0
1.914 11.296 -0.63200003 160 157 168
1.923 11.296 -0.61400002 113 40 5
1.873 11.351 -0.63099998 120 67 35
1.8660001 11.354 -0.62 146 72 35
1.841 11.388 -0.486 128 84 55
1.823 11.412 -0.50999999 154 64 11
1.823 11.412 -0.50700003 102 63 46
1.811 11.391 -0.50800002 104 71 36
1.933 11.258 -0.94700003 94 23 1
1.938 11.254 -0.95300001 71 8 0
1.928 11.275 -0.95700002 137 91 67
1.925 11.275 -0.949 108 40 0
1.92 11.275 -0.94800001 82 38 3
1.906 11.234 -0.94 132 61 29
1.913 11.239 -0.92699999 237 163 114
1.903 11.371 -0.708 77 27 4
1.899 11.377 -0.69700003 121 102 88
1.904 11.373 -0.70200002 80 38 14
1.905 11.353 -0.708 120 71 41
1.904 11.354 -0.70200002 88 44 19
2.006 11.265 -0.70899999 83 49 40
2 11.266 -0.68300003 153 72 19
2 11.267 -0.68699998 157 79 30
2.006 11.275 -0.70899999 151 60 3
2 11.241 -0.787 158 94 46
1.998 11.239 -0.79100001 235 172 119
1.9910001 11.219 -0.78100002 142 62 1
1.9960001 11.238 -0.79100001 168 92 40
1.893 11.214 -0.60900003 90 73 30
1.896 11.219 -0.611 135 78 35
1.895 11.222 -0.62400001 101 73 33
1.821 11.395 -0.49399999 140 84 37
1.928 11.313 -0.59399998 170 89 44
1.931 11.329 -0.59799999 119 68 37
1.926 11.294 -0.58999997 134 55 0
1.9220001 11.295 -0.59799999 183 104 35
1.923 11.298 -0.583 139 58 11
1.928 11.327 -0.60000002 119 57 10
1.923 11.316 -0.59399998 126 42 0
1.92 11.31 -0.59899998 92 44 8
1.829 11.41 -0.509 110 65 42
1.84 11.405 -0.51099998 170 116 56
1.946 11.247 -0.87199998 107 68 39
1.96 11.252 -0.87400001 223 147 89
1.959 11.241 -0.85000002 176 112 22
1.9630001 11.242 -0.84600002 255 214 102
1.947 11.241 -0.85299999 224 125 40
1.939 11.247 -0.86500001 176 100 40
1.944 11.242 -0.85299999 43 20 4
2.006 11.248 -0.78500003 155 90 50
1.998 11.246 -0.77399999 102 34 0
1.975 11.25 -0.74199998 63 39 27
1.87 11.331 -0.68400002 91 43 5
1.872 11.339 -0.67900002 96 42 14
1.869 11.333 -0.66100001 92 41 12
1.934 11.266 -0.77100003 254 209 90
1.938 11.267 -0.77100003 255 217 99
1.937 11.275 -0.78200001 122 92 90
1.973 11.251 -0.87 255 201 103
1.962 11.253 -0.92000002 89 42 16
1.95 11.252 -0.93099999 159 61 0
1.948 11.258 -0.91900003 142 92 65
1.944 11.274 -0.92900002 229 163 76
1.947 11.261 -0.93900001 151 134 127
1.951 11.254 -0.87800002 131 62 23
1.951 11.243 -0.92799997 204 103 31
1.9579999 11.239 -0.93099999 219 136 44
1.954 11.238 -0.926 247 146 64
1.951 11.236 -0.92199999 137 73 35
1.927 11.321 -0.63800001 137 79 42
1.923 11.319 -0.63200003 98 62 40
1.993 11.271 -0.69400001 136 121 114
1.995 11.273 -0.704 94 38 13
1.99 11.267 -0.69599998 103 76 69
1.909 11.201 -0.65100002 100 70 46
1.9 11.203 -0.64899999 213 128 71
1.896 11.202 -0.64499998 149 81 34
1.902 11.204 -0.64099997 132 78 44
1.911 11.209 -0.64300001 104 55 25
1.8890001 11.205 -0.736 85 42 8
1.878 11.204 -0.741 221 118 13
1.906 11.213 -0.63599998 158 81 37
1.898 11.218 -0.60500002 90 40 17
1.904 11.216 -0.61799997 169 78 34
1.89 11.204 -0.56800002 111 74 48
1.898 11.252 -0.93300003 102 55 27
1.915 11.257 -0.94099998 88 66 53
1.906 11.245 -0.94099998 101 40 11
1.9170001 11.279 -0.94800001 173 99 62
1.9400001 11.218 -0.91600001 88 46 8
1.942 11.219 -0.91600001 140 64 14
1.949 11.211 -0.92299998 128 104 94
1.965 11.22 -0.93800002 239 192 74
1.8660001 11.208 -0.74299997 110 83 64
1.868 11.206 -0.745 255 193 129
1.867 11.207 -0.745 194 100 36
1.961 11.203 -0.949 225 147 85
1.9680001 11.206 -0.93699998 255 222 116
1.878 11.205 -0.73000002 225 107 11
1.911 11.226 -0.72299999 110 62 26
1.899 11.22 -0.72399998 95 31 4
1.919 11.232 -0.72399998 131 65 31
1.918 11.229 -0.71899998 118 48 12
1.896 11.216 -0.74000001 132 118 117
1.885 11.218 -0.75800002 163 90 35
1.8710001 11.206 -0.745 183 98 18
1.955 11.242 -0.84200001 180 132 47
1.903 11.222 -0.625 78 58 47
2 11.267 -0.67900002 134 51 0
1.91 11.21 -0.662 108 77 49
1.9170001 11.222 -0.70099998 148 79 38
1.936 11.23 -0.69999999 57 25 12
1.919 11.224 -0.69800001 200 128 88
1.92 11.225 -0.69400001 102 38 3
1.921 11.227 -0.699 181 85 27
1.933 11.234 -0.69300002 78 24 0
1.897 11.217 -0.60100001 86 31 1
1.86 11.357 -0.65600002 88 37 10
1.859 11.358 -0.66500002 213 130 54
1.862 11.348 -0.653 107 53 17
1.8609999 11.352 -0.65100002 82 29 0
1.867 11.367 -0.62800002 148 80 33
1.9400001 11.251 -0.94400001 116 68 45
1.9450001 11.248 -0.92900002 170 80 18
1.9450001 11.257 -0.926 137 122 117
1.909 11.241 -0.92000002 99 29 0
1.909 11.237 -0.91000003 67 11 0
1.895 11.369 -0.69199997 109 51 11
1.901 11.356 -0.68300003 78 44 19
1.874 11.357 -0.64899999 198 110 47
1.874 11.354 -0.653 223 130 63
1.882 11.371 -0.65399998 103 49 15
1.874 11.358 -0.63300002 170 90 37
1.881 11.354 -0.639 114 83 62
1.87 11.329 -0.662 88 56 31
1.869 11.344 -0.662 147 111 85
1.965 11.252 -0.74400002 172 100 60
1.975 11.257 -0.73799998 62 46 33
1.971 11.264 -0.73900002 98 46 9
1.9220001 11.303 -0.61299998 81 26 0
1.923 11.298 -0.61000001 132 63 24
1.918 11.296 -0.59399998 125 84 54
1.9349999 11.304 -0.616 118 57 10
1.916 11.3 -0.62400001 148 142 152
1.923 11.298 -0.62900001 127 65 26
1.892 11.208 -0.62599999 109 58 29
1.8940001 11.212 -0.63200003 167 113 79
1.896 11.226 -0.64399999 87 45 29
1.895 11.213 -0.64399999 118 64 30
1.919 11.297 -0.58499998 123 84 53
1.918 11.298 -0.58099997 208 132 83
1.919 11.298 -0.57499999 114 74 48
1.918 11.305 -0.59100002 186 111 69
1.924 11.288 -0.59600002 82 45 26
1.822 11.385 -0.509 193 152 130
1.819 11.383 -0.51599997 109 84 53
1.823 11.382 -0.51700002 143 93 44
1.819 11.39 -0.498 225 129 53
1.921 11.307 -0.588 118 40 4
1.853 11.384 -0.486 133 64 31
1.851 11.39 -0.486 100 41 11
1.85 11.389 -0.486 83 42 14
1.8660001 11.404 -0.495 144 89 50
1.864 11.414 -0.51300001 89 67 69
1.8559999 11.411 -0.514 141 86 65
1.834 11.401 -0.52399999 55 36 32
1.83 11.398 -0.52200001 115 79 57
1.941 11.234 -0.84600002 235 141 53
1.9400001 11.227 -0.83999997 204 114 36
1.931 11.238 -0.88 111 48 7
1.938 11.246 -0.88700002 146 84 45
1.954 11.22 -0.91100001 88 24 0
1.959 11.22 -0.912 85 28 0
1.9630001 11.218 -0.912 70 16 0
2.0009999 11.242 -0.78899997 145 75 24
1.9960001 11.239 -0.80000001 234 175 131
1.987 11.248 -0.69700003 175 79 19
1.944 11.253 -0.89399999 112 47 15
1.951 11.259 -0.89200002 232 144 57
1.971 11.228 -0.91900003 78 41 22
1.972 11.248 -0.91100001 146 72 27
1.971 11.23 -0.921 122 54 0
1.966 11.247 -0.90100002 130 76 30
1.962 11.243 -0.90799999 244 180 134
1.929 11.274 -0.949 108 46 0
1.964 11.256 -0.87800002 145 58 4
1.955 11.245 -0.92799997 156 83 40
1.956 11.217 -0.93199998 206 155 63
1.8839999 11.237 -0.71700001 232 175 122
1.876 11.239 -0.71600002 128 73 34
1.891 11.227 -0.70499998 153 84 45
1.898 11.234 -0.69999999 139 53 6
1.929 11.317 -0.63300002 140 69 25
1.927 11.309 -0.62599999 147 80 38
1.924 11.287 -0.63999999 194 111 67
1.927 11.301 -0.63099998 119 83 61
1.9859999 11.271 -0.67900002 234 149 84
1.9910001 11.281 -0.67900002 111 58 27
1.934 11.316 -0.63800001 91 53 32
1.895 11.21 -0.63300002 95 40 9
1.903 11.213 -0.61299998 190 100 50
1.896 11.251 -0.93000001 124 66 29
1.904 11.256 -0.92699999 255 189 137
1.898 11.249 -0.92000002 141 67 22
1.925 11.272 -0.86699998 84 40 13
1.9349999 11.266 -0.88 179 145 136
1.916 11.265 -0.875 111 70 48
1.899 11.28 -0.87400001 35 9 10
1.9170001 11.27 -0.86699998 82 33 0
1.902 11.274 -0.86799997 37 3 1
1.974 11.213 -0.93599999 213 166 62
1.9579999 11.225 -0.93000001 158 97 52
1.867 11.206 -0.73400003 197 121 59
1.876 11.207 -0.727 150 62 16
1.88 11.21 -0.72299999 191 102 44
1.895 11.22 -0.71499997 118 56 9
1.898 11.224 -0.70700002 86 22 0
1.901 11.221 -0.69999999 201 121 70
1.869 11.214 -0.75 251 193 143
1.8789999 11.209 -0.74699998 199 99 14
1.8940001 11.24 -0.861 51 16 12
1.896 11.233 -0.86299998 61 11 0
1.89 11.246 -0.88200003 85 35 12
1.8890001 11.225 -0.85399997 47 28 13
1.895 11.233 -0.85900003 57 10 0
1.947 11.215 -0.91600001 147 71 13
1.8940001 11.225 -0.85600001 54 12 0
1.897 11.223 -0.85600001 60 15 0
1.904 11.228 -0.86699998 155 125 114
1.883 11.211 -0.74800003 246 143 64
1.883 11.208 -0.74299997 255 145 51
1.972 11.251 -0.83899999 133 98 94
1.964 11.248 -0.83999997 207 161 73
1.974 11.25 -0.86299998 126 76 41
1.901 11.304 -0.75599998 119 42 0
1.896 11.303 -0.75300002 186 119 67
1.9 11.312 -0.755 122 84 73
1.931 11.266 -0.76099998 120 81 48
1.911 11.214 -0.64300001 90 62 40
1.903 11.215 -0.62900001 144 63 16
1.998 11.276 -0.68300003 95 39 4
1.997 11.264 -0.68699998 113 83 57
1.911 11.216 -0.66799998 239 155 93
1.911 11.217 -0.67299998 212 122 62
1.91 11.213 -0.66399997 238 157 94
1.897 11.205 -0.59899998 142 57 18
1.892 11.209 -0.60699999 180 175 181
1.893 11.209 -0.60900003 169 159 160
1.92 11.3 -0.57499999 135 59 25
1.921 11.302 -0.57800001 141 63 17
1.92 11.307 -0.579 147 64 24
1.863 11.366 -0.63800001 147 101 75
1.863 11.369 -0.62400001 131 115 102
1.865 11.366 -0.66000003 223 159 113
1.862 11.36 -0.66100001 175 124 95
1.959 11.268 -0.90700001 108 57 28
1.973 11.253 -0.917 165 88 42
1.9400001 11.257 -0.94800001 82 17 0
1.947 11.257 -0.93599999 154 72 14
1.944 11.245 -0.92400002 150 53 2
1.916 11.239 -0.917 133 67 32
1.914 11.23 -0.898 127 80 34
1.92 11.238 -0.89899999 218 128 40
1.941 11.248 -0.92799997 161 82 26
1.891 11.353 -0.70700002 167 111 76
1.944 11.278 -0.77999997 215 136 44
1.942 11.268 -0.76800001 251 203 105
1.893 11.368 -0.69599998 85 41 12
1.882 11.352 -0.70599997 73 29 2
1.885 11.353 -0.699 91 37 9
1.865 11.361 -0.616 168 146 135
1.875 11.359 -0.64600003 184 100 40
1.9119999 11.32 -0.63099998 108 88 79
1.902 11.305 -0.63599998 128 76 52
1.873 11.348 -0.67400002 95 41 7
1.9960001 11.239 -0.796 229 163 115
1.992 11.239 -0.79400003 255 183 115
2.0020001 11.261 -0.722 173 97 45
1.997 11.257 -0.72399998 211 126 71
2.0039999 11.253 -0.77999997 132 55 1
1.9680001 11.247 -0.74599999 57 26 6
1.9630001 11.255 -0.74699998 106 40 5
1.948 11.246 -0.80599999 211 127 55
1.943 11.252 -0.82700002 216 155 92
1.954 11.255 -0.81300002 227 149 87
1.9299999 11.31 -0.61799997 95 29 0
1.924 11.299 -0.625 112 52 16
1.902 11.208 -0.62300003 177 93 47
1.9170001 11.299 -0.58600003 134 53 8
1.897 11.299 -0.639 161 118 86
1.905 11.289 -0.64300001 102 27 0
1.91 11.31 -0.58600003 84 68 32
1.911 11.295 -0.63300002 119 35 0
2 11.272 -0.70499998 138 116 102
1.897 11.219 -0.60100001 83 52 32
1.837 11.382 -0.49000001 166 100 50
1.842 11.384 -0.48899999 163 118 99
1.836 11.382 -0.49399999 165 109 62
1.8150001 11.387 -0.51200002 72 62 63
1.855 11.397 -0.48500001 191 117 70
1.864 11.407 -0.50099999 107 81 44
1.8559999 11.41 -0.509 87 56 28
1.832 11.391 -0.523 96 63 54
1.898 11.228 -0.861 73 16 0
1.903 11.23 -0.861 150 121 105
1.954 11.227 -0.912 141 71 22
1.977 11.223 -0.93199998 184 112 14
1.98 11.22 -0.93099999 186 112 39
1.9809999 11.239 -0.93300003 225 147 64
1.97 11.21 -0.93099999 253 212 88
1.965 11.209 -0.92799997 253 201 125
1.971 11.215 -0.926 143 76 6
2.0050001 11.273 -0.713 219 124 60
2 11.248 -0.77899998 182 110 60
1.9859999 11.262 -0.70700002 143 78 38
1.8789999 11.327 -0.685 116 99 92
1.883 11.324 -0.67699999 108 72 46
1.947 11.237 -0.91299999 154 82 32
1.948 11.239 -0.91799998 169 102 57
1.95 11.236 -0.921 187 83 20
1.9400001 11.248 -0.88499999 145 82 38
1.964 11.224 -0.91299999 90 49 27
1.98 11.237 -0.92799997 241 167 104
1.982 11.258 -0.88999999 156 83 14
1.97 11.254 -0.87900001 141 54 0
1.97 11.254 -0.884 227 134 54
1.9680001 11.249 -0.89700001 105 49 2
1.952 11.212 -0.92199999 159 91 26
1.959 11.21 -0.92299998 197 112 32
1.915 11.22 -0.69599998 140 91 59
1.916 11.222 -0.69 199 108 61
1.901 11.215 -0.69300002 167 109 61
1.904 11.219 -0.69599998 165 87 38
1.8660001 11.207 -0.727 202 128 65
1.872 11.219 -0.72100002 99 51 15
1.877 11.232 -0.71899998 101 65 41
1.876 11.217 -0.71600002 230 144 97
1.868 11.239 -0.72000003 163 103 49
1.8710001 11.287 -0.73100001 163 89 50
1.873 11.294 -0.73000002 160 98 59
1.874 11.288 -0.72299999 112 93 63
1.87 11.286 -0.736 136 62 15
1.859 11.224 -0.73400003 139 113 100
1.868 11.229 -0.74699998 238 168 106
1.873 11.282 -0.73100001 134 61 20
1.877 11.28 -0.72399998 75 37 14
1.887 11.23 -0.71499997 223 142 97
1.921 11.273 -0.68000001 252 168 104
1.914 11.262 -0.69999999 133 131 144
1.914 11.278 -0.68400002 171 169 180
1.904 11.239 -0.69 88 52 20
1.892 11.233 -0.73100001 184 93 20
1.901 11.255 -0.73699999 205 111 47
1.896 11.255 -0.72500002 54 19 0
1.915 11.235 -0.75199997 221 181 155
1.9349999 11.239 -0.764 130 57 22
1.928 11.233 -0.76999998 165 95 35
1.919 11.235 -0.72899997 105 40 8
1.924 11.242 -0.76200002 220 137 43
1.8940001 11.225 -0.75300002 215 155 105
1.891 11.235 -0.755 135 45 0
1.943 11.301 -0.704 151 77 30
1.9529999 11.3 -0.68900001 216 152 106
1.9529999 11.303 -0.68599999 146 77 36
1.946 11.299 -0.69999999 218 154 110
1.8940001 11.321 -0.65399998 196 120 71
1.901 11.31 -0.64499998 88 66 53
1.8890001 11.317 -0.65700001 171 85 34
1.8940001 11.322 -0.66600001 115 50 18
1.9910001 11.275 -0.67799997 135 79 42
1.989 11.264 -0.68900001 125 55 21
1.988 11.266 -0.67799997 244 157 80
1.933 11.309 -0.61900002 89 32 3
1.924 11.293 -0.63700002 102 39 6
1.943 11.31 -0.68099999 121 100 83
1.938 11.293 -0.67000002 66 41 21
1.934 11.302 -0.68199998 136 85 56
1.944 11.295 -0.67500001 52 24 12
1.903 11.334 -0.70099998 127 79 43
1.903 11.339 -0.68900001 65 26 9
1.897 11.359 -0.69400001 108 57 28
1.896 11.361 -0.68599999 97 48 16
1.902 11.354 -0.676 118 62 35
1.898 11.209 -0.61199999 147 55 18
1.904 11.283 -0.86699998 43 4 0
1.9220001 11.273 -0.85699999 141 95 69
1.898 11.248 -0.91500002 146 71 31
1.904 11.291 -0.87199998 111 87 61
1.899 11.286 -0.86799997 72 14 0
1.92 11.298 -0.85699999 46 21 1
1.9170001 11.299 -0.85500002 55 23 8
1.881 11.35 -0.70099998 81 36 7
1.875 11.35 -0.70599997 92 45 17
1.878 11.253 -0.81099999 92 48 21
1.881 11.254 -0.80400002 87 25 2
1.881 11.249 -0.81 115 65 38
1.883 11.244 -0.81099999 148 73 33
1.892 11.217 -0.72600001 137 56 11
1.881 11.206 -0.73299998 156 89 37
1.8789999 11.23 -0.76599997 249 190 134
1.8839999 11.237 -0.778 124 44 0
1.8839999 11.237 -0.76599997 180 107 54
1.882 11.218 -0.755 171 70 14
1.8789999 11.214 -0.74900001 164 61 3
1.88 11.223 -0.755 159 65 14
1.8940001 11.24 -0.88499999 181 130 73
1.901 11.24 -0.88200003 250 171 78
1.928 11.235 -0.86799997 130 90 64
1.91 11.239 -0.889 59 9 2
1.951 11.242 -0.801 138 127 125
1.965 11.25 -0.80000001 142 70 30
1.962 11.253 -0.80500001 217 145 97
1.943 11.24 -0.83200002 254 202 118
1.969 11.251 -0.84600002 204 158 64
2.003 11.248 -0.78600001 179 104 49
1.883 11.295 -0.722 124 57 15
1.882 11.306 -0.72799999 217 152 122
1.886 11.312 -0.71700001 123 80 38
1.877 11.301 -0.73100001 93 25 2
1.906 11.215 -0.66100001 194 133 89
1.909 11.219 -0.667 168 117 86
1.903 11.23 -0.64099997 110 34 0
1.899 11.226 -0.65399998 60 44 44
1.995 11.264 -0.676 98 61 35
1.892 11.208 -0.60699999 107 57 30
1.854 11.383 -0.58200002 130 59 17
1.8609999 11.385 -0.579 186 124 73
1.862 11.379 -0.59100002 146 91 52
1.864 11.396 -0.50700003 119 67 28
1.862 11.398 -0.523 125 91 81
1.8609999 11.418 -0.50800002 197 156 138
1.852 11.403 -0.52499998 106 71 51
1.844 11.401 -0.52200001 188 151 125
1.848 11.383 -0.48699999 115 86 44
1.852 11.379 -0.48800001 173 121 82
1.8660001 11.358 -0.639 187 119 74
1.864 11.366 -0.63300002 130 67 24
1.876 11.376 -0.65600002 82 42 7
1.8789999 11.37 -0.65600002 110 82 71
1.834 11.376 -0.505 127 75 36
1.831 11.377 -0.52100003 122 84 61
1.898 11.241 -0.93900001 54 8 0
1.944 11.275 -0.92500001 247 185 72
1.943 11.271 -0.92000002 200 138 5
1.947 11.257 -0.94 104 32 0
1.909 11.241 -0.94099998 89 42 16
1.924 11.278 -0.94199997 219 141 93
1.936 11.287 -0.92900002 142 82 0
1.933 11.289 -0.91600001 126 86 61
1.933 11.283 -0.92199999 89 49 24
1.916 11.262 -0.88800001 159 144 139
1.913 11.263 -0.88800001 82 41 19
1.913 11.239 -0.92299998 167 97 46
1.9069999 11.24 -0.92799997 114 38 12
1.9119999 11.234 -0.90100002 107 34 2
1.923 11.27 -0.93099999 149 100 70
1.901 11.253 -0.93099999 153 86 44
1.901 11.24 -0.92699999 94 18 0
1.878 11.339 -0.70599997 92 19 4
1.919 11.283 -0.78200001 249 166 98
1.9220001 11.265 -0.76099998 110 72 36
1.901 11.371 -0.70300001 65 27 8
1.903 11.354 -0.68400002 115 65 32
1.901 11.351 -0.69999999 87 38 5
1.864 11.364 -0.61799997 203 129 92
1.8609999 11.358 -0.61799997 166 104 57
1.862 11.353 -0.66000003 232 144 73
1.874 11.347 -0.634 163 127 103
1.883 11.322 -0.662 135 98 71
1.873 11.329 -0.667 122 102 93
1.874 11.342 -0.653 138 109 103
1.877 11.333 -0.65899998 77 36 18
1.988 11.265 -0.72799999 202 131 89
1.989 11.273 -0.72500002 138 67 21
1.98 11.263 -0.73900002 83 22 0
1.988 11.265 -0.73199999 136 71 39
1.931 11.236 -0.77399999 247 167 52
1.924 11.237 -0.78600001 211 127 28
1.9069999 11.229 -0.79900002 201 107 46
1.929 11.23 -0.79400003 120 79 49
1.934 11.233 -0.78899997 254 198 121
1.915 11.241 -0.78399998 127 58 25
1.868 11.348 -0.62699997 131 53 7
1.902 11.306 -0.64300001 77 9 0
1.918 11.292 -0.64899999 200 137 102
1.921 11.299 -0.64899999 161 128 119
1.9220001 11.3 -0.65200001 111 91 80
1.9220001 11.318 -0.58200002 136 112 100
1.829 11.411 -0.5 108 62 29
1.819 11.393 -0.51800001 170 86 40
1.8150001 11.401 -0.51599997 90 45 12
1.859 11.396 -0.49000001 154 80 33
1.829 11.382 -0.51999998 77 21 0
1.948 11.251 -0.80800003 90 62 41
1.931 11.243 -0.861 103 66 47
1.98 11.219 -0.92900002 109 48 0
1.982 11.257 -0.88599998 193 116 38
1.982 11.257 -0.88099998 246 170 92
1.9809999 11.255 -0.87199998 186 125 45
1.969 11.208 -0.93400002 255 235 113
1.975 11.215 -0.93300003 223 165 58
1.9809999 11.26 -0.852 79 42 36
1.973 11.253 -0.89999998 157 87 25
1.969 11.253 -0.90799999 188 108 55
1.97 11.263 -0.898 152 100 52
1.974 11.268 -0.89399999 203 120 70
1.999 11.272 -0.71499997 177 140 121
1.9349999 11.283 -0.699 131 75 40
1.938 11.29 -0.699 251 191 141
1.9450001 11.292 -0.69400001 138 69 14
1.987 11.258 -0.69599998 170 106 70
1.993 11.256 -0.708 251 144 62
1.964 11.245 -0.75099999 163 71 30
1.9349999 11.241 -0.76899999 128 72 35
1.948 11.251 -0.77100003 238 161 89
1.948 11.242 -0.79000002 142 90 53
1.936 11.243 -0.76800001 237 162 71
1.885 11.326 -0.68800002 134 93 65
1.8940001 11.275 -0.722 150 75 10
1.89 11.271 -0.72500002 244 178 84
1.92 11.282 -0.69400001 163 94 52
1.925 11.244 -0.90100002 181 100 0
1.929 11.248 -0.921 108 35 0
1.9450001 11.247 -0.91500002 113 45 0
1.921 11.237 -0.88700002 116 92 82
1.926 11.24 -0.88800001 97 60 41
1.947 11.243 -0.92299998 169 65 10
1.9680001 11.255 -0.88099998 208 124 62
1.965 11.267 -0.903 152 138 129
1.96 11.263 -0.85699999 144 67 0
1.959 11.264 -0.87699997 213 139 90
1.973 11.267 -0.86699998 169 89 38
1.932 11.275 -0.90600002 201 165 143
1.933 11.278 -0.917 224 151 36
1.933 11.277 -0.90499997 164 117 75
1.961 11.235 -0.91100001 175 110 68
1.95 11.235 -0.91299999 157 84 31
1.959 11.23 -0.91299999 104 78 65
1.965 11.214 -0.92000002 210 132 60
1.964 11.22 -0.917 155 90 32
1.933 11.262 -0.88499999 130 81 40
1.89 11.29 -0.74599999 146 143 150
1.896 11.288 -0.76099998 80 41 12
1.8890001 11.288 -0.755 161 158 167
1.902 11.293 -0.759 122 40 2
1.888 11.272 -0.73799998 87 57 31
1.8940001 11.275 -0.73799998 255 201 82
1.897 11.233 -0.70599997 147 59 13
1.916 11.222 -0.69400001 199 102 49
1.9119999 11.22 -0.67699999 199 104 46
1.914 11.227 -0.67299998 108 73 43
1.868 11.235 -0.72299999 97 43 0
1.8660001 11.215 -0.72799999 141 73 10
1.874 11.227 -0.72100002 158 68 15
1.8710001 11.241 -0.72399998 238 200 164
1.91 11.231 -0.69400001 112 54 17
1.913 11.224 -0.68800002 94 37 8
1.921 11.273 -0.68400002 110 108 119
1.915 11.224 -0.66100001 94 55 24
1.911 11.218 -0.66799998 175 158 151
1.887 11.24 -0.75099999 108 54 18
1.8839999 11.249 -0.75 157 119 106
1.924 11.269 -0.75400001 68 30 9
1.891 11.244 -0.75700003 255 205 149
1.882 11.249 -0.764 112 64 18
1.872 11.252 -0.75099999 73 43 19
1.876 11.246 -0.75700003 200 143 88
1.914 11.243 -0.76300001 122 46 0
1.932 11.251 -0.75999999 205 119 36
1.933 11.247 -0.764 253 179 92
1.897 11.23 -0.73699999 130 77 35
1.908 11.236 -0.72399998 123 116 123
1.887 11.226 -0.77200001 164 90 43
1.895 11.233 -0.77700001 153 53 0
1.939 11.297 -0.69199997 146 90 53
1.891 11.307 -0.74000001 130 62 15
1.8940001 11.308 -0.74299997 178 97 34
1.8940001 11.302 -0.74599999 245 161 89
1.948 11.26 -0.77399999 120 54 0
1.941 11.263 -0.76999998 255 202 96
1.952 11.275 -0.78600001 253 155 68
1.914 11.32 -0.63599998 83 26 0
1.918 11.317 -0.63599998 117 54 19
1.9119999 11.31 -0.63800001 107 54 22
1.888 11.32 -0.65399998 102 58 31
1.89 11.329 -0.65499997 94 44 17
1.947 11.294 -0.68300003 184 119 77
1.9450001 11.292 -0.68199998 188 90 15
1.938 11.283 -0.676 124 61 26
1.926 11.299 -0.63700002 143 65 16
1.929 11.311 -0.63599998 120 62 16
1.9220001 11.282 -0.639 130 68 31
1.918 11.285 -0.639 144 130 127
1.937 11.276 -0.67299998 241 143 78
1.937 11.278 -0.67799997 240 143 66
1.995 11.275 -0.67900002 142 118 114
1.947 11.309 -0.68400002 98 44 10
1.924 11.296 -0.66799998 85 50 31
1.925 11.298 -0.65600002 121 84 65
1.927 11.297 -0.66100001 124 63 32
1.887 11.351 -0.68900001 44 24 0
1.872 11.367 -0.66000003 180 86 22
1.892 11.357 -0.67900002 73 34 3
1.91 11.211 -0.65600002 148 58 0
1.902 11.21 -0.62 147 58 14
1.905 11.298 -0.76899999 85 57 33
1.903 11.312 -0.75700003 102 53 23
1.906 11.314 -0.755 58 30 8
1.947 11.277 -0.79699999 55 30 10
1.95 11.269 -0.81400001 136 90 66
1.939 11.268 -0.80800003 119 55 0
1.881 11.26 -0.80599999 87 25 2
1.904 11.288 -0.86299998 61 3 0
1.873 11.351 -0.67900002 88 51 22
1.8839999 11.258 -0.81099999 89 25 0
1.89 11.256 -0.81400001 140 128 128
1.8890001 11.246 -0.815 46 13 0
1.896 11.255 -0.79699999 110 43 1
1.8660001 11.208 -0.741 211 143 82
1.8890001 11.213 -0.72399998 113 57 20
1.887 11.212 -0.74199998 240 120 42
1.868 11.228 -0.75700003 83 44 15
1.88 11.234 -0.76099998 255 226 205
1.862 11.217 -0.745 117 74 31
1.876 11.211 -0.74699998 166 73 0
1.915 11.233 -0.889 129 85 40
1.9349999 11.232 -0.84600002 93 46 26
1.9170001 11.23 -0.84100002 146 70 34
1.927 11.24 -0.86199999 158 78 19
1.916 11.235 -0.84500003 134 96 60
1.921 11.24 -0.861 73 37 15
1.92 11.239 -0.89499998 245 150 70
1.927 11.233 -0.796 118 86 65
1.906 11.228 -0.80599999 143 53 0
1.905 11.233 -0.796 222 124 63
1.91 11.23 -0.81199998 55 39 26
1.897 11.231 -0.80900002 62 44 44
1.9119999 11.235 -0.80599999 202 105 37
1.97 11.253 -0.79799998 122 112 120
1.96 11.252 -0.79500002 107 47 11
1.897 11.285 -0.73699999 227 187 66
1.904 11.298 -0.745 246 181 81
1.904 11.295 -0.764 185 107 61
1.908 11.292 -0.76800001 204 124 73
1.901 11.297 -0.759 219 141 105
1.902 11.299 -0.75599998 113 35 0
1.906 11.308 -0.74400002 239 183 86
1.902 11.295 -0.76700002 131 78 34
1.909 11.292 -0.78100002 77 45 22
1.899 11.262 -0.73500001 197 117 44
1.893 11.213 -0.65499997 98 35 0
1.9 11.207 -0.65200001 123 72 41
1.908 11.219 -0.64200002 107 64 32
1.904 11.224 -0.64399999 125 93 68
1.902 11.225 -0.65600002 80 45 17
1.921 11.241 -0.68300003 223 133 80
1.918 11.283 -0.64600003 141 127 126
1.897 11.206 -0.60699999 150 58 19
1.8559999 11.38 -0.58499998 104 30 0
1.859 11.378 -0.58099997 187 107 58
1.858 11.373 -0.588 207 134 93
1.862 11.419 -0.50999999 68 41 32
1.855 11.374 -0.48800001 112 47 19
1.858 11.373 -0.48800001 200 142 118
1.951 11.268 -0.912 219 136 70
1.956 11.292 -0.91900003 253 175 74
1.9450001 11.258 -0.94099998 60 19 0
1.936 11.248 -0.94999999 129 111 107
1.914 11.245 -0.93400002 153 78 36
1.913 11.242 -0.93000001 114 38 4
1.895 11.252 -0.898 194 139 118
1.8940001 11.244 -0.90899998 214 145 106
1.943 11.246 -0.91900003 102 40 0
1.891 11.347 -0.70999998 125 106 108
1.887 11.336 -0.71100003 116 70 47
1.89 11.316 -0.727 222 159 118
1.901 11.314 -0.73400003 161 99 48
1.899 11.314 -0.74199998 145 112 103
1.9579999 11.255 -0.80900002 228 153 86
1.9579999 11.253 -0.80500001 163 82 19
1.977 11.271 -0.759 120 77 42
1.965 11.26 -0.759 158 98 62
1.895 11.374 -0.69499999 113 76 50
1.901 11.354 -0.66399997 63 18 0
1.909 11.351 -0.66399997 129 100 82
1.9 11.353 -0.69400001 106 50 15
1.899 11.348 -0.69099998 102 49 17
1.897 11.336 -0.68599999 109 45 0
1.891 11.326 -0.68699998 254 174 111
1.891 11.326 -0.69499999 180 92 29
1.877 11.333 -0.69999999 81 3 0
1.8789999 11.325 -0.708 39 23 24
1.877 11.335 -0.70300001 137 117 106
1.895 11.328 -0.71200001 249 172 120
1.893 11.326 -0.70700002 137 83 49
1.896 11.316 -0.71700001 113 81 70
1.893 11.32 -0.71399999 146 70 21
1.862 11.367 -0.61900002 164 100 56
1.862 11.367 -0.61500001 198 137 92
1.919 11.291 -0.69199997 103 39 3
1.919 11.287 -0.68699998 109 31 0
1.897 11.335 -0.70999998 235 159 101
1.874 11.348 -0.653 144 104 78
1.888 11.333 -0.65700001 127 92 72
1.987 11.255 -0.72100002 100 65 37
1.987 11.261 -0.727 115 57 19
1.992 11.265 -0.73799998 165 96 55
1.993 11.26 -0.75199997 58 37 36
1.988 11.221 -0.778 233 146 67
1.99 11.217 -0.77700001 204 116 45
1.992 11.236 -0.778 249 160 76
1.993 11.243 -0.77100003 69 34 14
1.942 11.238 -0.79000002 150 77 34
1.934 11.263 -0.76099998 214 147 69
1.952 11.247 -0.80299997 252 161 90
1.918 11.315 -0.57599998 167 120 74
1.864 11.382 -0.50999999 182 128 92
1.859 11.392 -0.52200001 147 109 86
1.904 11.308 -0.64300001 50 25 18
1.9119999 11.304 -0.63300002 140 72 33
1.943 11.295 -0.70499998 234 176 130
1.8609999 11.397 -0.49399999 142 119 78
1.937 11.245 -0.87099999 137 78 34
1.932 11.242 -0.87199998 234 144 68
1.949 11.246 -0.83600003 255 212 128
1.954 11.252 -0.83399999 180 122 49
1.978 11.255 -0.86400002 251 221 101
1.982 11.259 -0.87800002 213 142 64
1.979 11.26 -0.85699999 255 235 117
1.978 11.258 -0.861 254 233 108
1.9859999 11.244 -0.77600002 244 162 104
1.978 11.257 -0.77899998 173 91 41
1.978 11.248 -0.76700002 184 107 51
1.989 11.242 -0.77600002 234 152 92
1.932 11.279 -0.68800002 108 64 37
1.988 11.261 -0.69700003 155 110 87
1.988 11.264 -0.704 185 160 153
1.937 11.283 -0.68599999 145 143 154
1.989 11.265 -0.70499998 106 55 28
1.992 11.27 -0.708 81 22 4
1.9579999 11.25 -0.75099999 93 30 0
1.962 11.249 -0.75599998 157 82 42
1.936 11.243 -0.77200001 194 106 0
1.942 11.25 -0.77399999 238 139 45
1.8890001 11.319 -0.713 100 58 33
1.89 11.306 -0.71700001 104 55 23
1.89 11.325 -0.70300001 249 165 103
1.8839999 11.317 -0.72100002 207 158 126
1.895 11.33 -0.70499998 190 112 50
1.89 11.324 -0.69099998 193 108 44
1.887 11.326 -0.69099998 144 58 0
1.882 11.315 -0.72600001 129 96 77
1.9299999 11.249 -0.89899999 211 125 66
1.927 11.237 -0.88300002 134 34 0
1.977 11.24 -0.92500001 118 48 0
1.976 11.236 -0.92699999 180 108 32
1.976 11.251 -0.87099999 139 83 0
1.973 11.253 -0.875 236 166 71
1.979 11.256 -0.87900001 228 141 62
1.975 11.251 -0.88599998 154 75 9
1.9529999 11.264 -0.87699997 189 103 28
1.946 11.264 -0.87300003 135 88 58
1.974 11.257 -0.85600001 255 233 101
1.973 11.268 -0.89200002 239 154 73
1.978 11.261 -0.884 241 150 79
1.951 11.26 -0.85100001 154 64 12
1.9450001 11.26 -0.86000001 125 77 31
1.9170001 11.272 -0.917 85 36 6
1.9349999 11.28 -0.90399998 140 127 119
1.9529999 11.232 -0.91299999 146 69 23
1.9299999 11.26 -0.88700002 127 114 105
1.931 11.263 -0.89899999 43 21 7
1.939 11.251 -0.89200002 95 44 15
1.941 11.267 -0.866 199 159 123
1.932 11.272 -0.85699999 84 41 6
1.95 11.274 -0.83700001 136 59 3
1.887 11.278 -0.73400003 208 148 50
1.885 11.291 -0.74699998 161 83 21
1.906 11.31 -0.74000001 184 122 37
1.898 11.306 -0.73500001 134 52 4
1.901 11.31 -0.72799999 101 56 27
1.892 11.319 -0.72299999 143 97 71
1.931 11.287 -0.70999998 109 48 1
1.926 11.284 -0.713 138 82 45
1.931 11.275 -0.72500002 164 90 41
1.913 11.226 -0.68300003 150 59 12
1.878 11.233 -0.73400003 77 26 0
1.886 11.238 -0.75099999 127 93 94
1.867 11.229 -0.72799999 85 45 19
1.8660001 11.226 -0.73100001 146 87 31
1.87 11.218 -0.72500002 135 60 0
1.877 11.251 -0.75099999 130 127 134
1.916 11.239 -0.68699998 111 64 22
1.915 11.245 -0.69700003 154 96 56
1.908 11.238 -0.70599997 64 42 21
1.902 11.233 -0.70999998 247 190 145
1.91 11.238 -0.71600002 116 113 120
1.9170001 11.224 -0.68699998 187 99 53
1.914 11.224 -0.68199998 164 106 69
1.913 11.223 -0.68400002 91 41 16
1.901 11.254 -0.72899997 132 50 3
1.916 11.237 -0.72600001 123 66 36
1.8789999 11.237 -0.72000003 125 65 11
1.899 11.287 -0.76300001 167 100 45
1.908 11.283 -0.76999998 212 120 53
1.91 11.289 -0.77200001 131 52 0
1.88 11.257 -0.75199997 135 81 35
1.88 11.247 -0.75999999 171 91 38
1.887 11.242 -0.77700001 140 70 21
1.886 11.24 -0.78299999 153 60 16
1.916 11.265 -0.74000001 77 40 21
1.911 11.26 -0.76300001 188 138 103
1.913 11.255 -0.74599999 116 59 29
1.919 11.258 -0.741 178 106 56
1.928 11.271 -0.72899997 193 115 66
1.905 11.257 -0.76200002 227 149 87
1.901 11.285 -0.73199999 89 41 3
1.906 11.258 -0.73799998 248 159 93
1.916 11.24 -0.75099999 235 132 57
1.937 11.261 -0.76499999 255 217 112
1.906 11.247 -0.77700001 176 75 3
1.899 11.247 -0.77200001 164 70 19
1.895 11.221 -0.74299997 123 36 0
1.89 11.234 -0.76300001 174 88 31
1.8839999 11.318 -0.66000003 63 44 30
1.885 11.326 -0.65799999 58 19 4
1.927 11.3 -0.64399999 130 92 71
1.925 11.297 -0.68099999 85 52 35
1.9220001 11.289 -0.662 160 106 68
1.925 11.287 -0.671 107 38 5
1.9220001 11.284 -0.67299998 103 49 2
1.998 11.27 -0.67799997 114 58 25
1.993 11.271 -0.67699999 152 94 57
1.9299999 11.306 -0.62199998 112 51 20
1.944 11.306 -0.68199998 105 74 56
1.924 11.306 -0.648 80 23 0
1.88 11.345 -0.69 129 75 37
1.91 11.212 -0.66000003 177 93 29
1.913 11.29 -0.77600002 233 157 97
1.921 11.286 -0.79000002 90 41 11
1.941 11.276 -0.79400003 249 177 75
1.913 11.298 -0.801 158 82 20
1.903 11.293 -0.79799998 179 102 46
1.901 11.284 -0.866 57 0 0
1.903 11.278 -0.861 47 2 0
1.903 11.28 -0.861 71 25 9
1.905 11.286 -0.85600001 60 6 0
1.9170001 11.296 -0.84899998 97 68 54
1.906 11.303 -0.80500001 182 112 63
1.9170001 11.297 -0.815 100 61 28
1.904 11.273 -0.84100002 101 44 15
1.903 11.276 -0.85600001 86 62 36
1.899 11.257 -0.84899998 113 64 21
1.899 11.288 -0.84399998 83 27 0
1.899 11.264 -0.83200002 81 29 0
1.903 11.277 -0.82800001 118 34 0
1.9069999 11.28 -0.85399997 85 36 19
1.897 11.254 -0.87699997 70 22 10
1.897 11.26 -0.87800002 52 8 0
1.895 11.252 -0.88 65 13 0
1.9 11.253 -0.85600001 61 40 13
1.888 11.244 -0.81199998 109 33 0
1.857 11.211 -0.74199998 177 116 51
1.86 11.217 -0.73299998 196 108 44
1.857 11.218 -0.73799998 139 134 140
1.863 11.222 -0.74199998 186 116 47
1.872 11.222 -0.75199997 255 190 136
1.893 11.231 -0.85399997 61 18 1
1.9 11.233 -0.838 93 43 16
1.899 11.231 -0.84600002 59 16 0
1.898 11.242 -0.815 72 36 14
1.9069999 11.235 -0.85699999 101 41 13
1.921 11.24 -0.86900002 162 131 113
1.909 11.24 -0.89499998 169 112 83
1.8890001 11.239 -0.78600001 113 34 0
1.893 11.237 -0.79500002 195 103 36
1.891 11.24 -0.79500002 166 89 45
1.891 11.246 -0.79699999 114 30 0
1.893 11.237 -0.79900002 215 131 69
1.914 11.237 -0.79799998 155 67 17
1.898 11.24 -0.78600001 74 34 8
1.903 11.231 -0.79900002 199 100 33
1.903 11.231 -0.80299997 153 59 8
1.931 11.239 -0.847 194 104 52
1.925 11.242 -0.82700002 199 114 33
1.905 11.27 -0.84600002 56 4 0
1.903 11.263 -0.85299999 64 16 2
1.97 11.263 -0.77499998 74 17 0
1.973 11.26 -0.764 147 69 31
1.978 11.254 -0.76800001 175 95 44
1.97 11.261 -0.77899998 128 75 35
1.947 11.256 -0.77600002 238 151 56
1.954 11.262 -0.78600001 139 77 30
1.873 11.295 -0.73699999 110 48 9
1.874 11.297 -0.73400003 81 14 0
1.913 11.248 -0.77399999 204 108 24
1.9119999 11.263 -0.76700002 85 43 21
1.902 11.22 -0.63099998 95 51 14
1.9170001 11.284 -0.676 187 185 196
1.92 11.287 -0.68300003 120 39 0
1.925 11.28 -0.676 182 170 170
1.921 11.262 -0.699 145 90 51
1.925 11.269 -0.71100003 150 96 50
1.926 11.276 -0.708 137 76 31
1.928 11.277 -0.69199997 112 83 67
1.857 11.38 -0.58200002 169 108 54
1.852 11.394 -0.54500002 189 109 58
1.848 11.396 -0.53200001 144 86 49
1.869 11.362 -0.64099997 130 78 41
1.943 11.284 -0.92400002 249 200 63
1.951 11.273 -0.90899998 220 142 42
1.941 11.291 -0.91100001 128 84 45
1.957 11.3 -0.91000003 99 53 27
1.9529999 11.298 -0.90200001 77 31 5
1.9579999 11.303 -0.903 115 73 49
1.911 11.247 -0.93800002 116 45 3
1.9170001 11.268 -0.93400002 102 53 20
1.908 11.258 -0.90399998 213 164 132
1.901 11.261 -0.884 72 51 24
1.899 11.25 -0.90700001 125 64 35
1.936 11.247 -0.92400002 116 71 42
1.885 11.327 -0.69800001 101 60 30
1.898 11.334 -0.71399999 69 34 15
1.988 11.25 -0.76999998 206 126 63
1.902 11.352 -0.66100001 122 70 33
1.877 11.353 -0.66100001 240 141 56
1.901 11.354 -0.68800002 87 33 9
1.89 11.33 -0.68099999 110 56 20
1.88 11.332 -0.708 111 47 12
1.8839999 11.329 -0.71200001 115 46 13
1.887 11.329 -0.71600002 97 19 0
1.868 11.362 -0.662 140 51 0
1.869 11.344 -0.65100002 92 51 23
1.9910001 11.264 -0.73400003 136 55 12
1.984 11.267 -0.71899998 162 88 41
2.0009999 11.271 -0.72000003 106 60 34
1.99 11.262 -0.76700002 125 76 44
1.98 11.279 -0.76200002 67 31 7
1.985 11.254 -0.755 189 102 48
1.985 11.25 -0.76800001 176 98 36
1.988 11.264 -0.745 101 16 0
1.987 11.233 -0.78100002 183 102 37
1.942 11.235 -0.79799998 229 144 79
1.934 11.242 -0.80299997 153 67 32
1.979 11.269 -0.74800003 71 42 34
1.969 11.257 -0.74900001 89 52 26
1.9299999 11.262 -0.77100003 164 73 0
1.92 11.26 -0.76999998 98 54 19
1.92 11.308 -0.58399999 80 44 28
1.914 11.306 -0.57999998 134 60 21
1.915 11.315 -0.58099997 132 67 27
1.859 11.377 -0.50999999 112 76 60
1.848 11.377 -0.514 89 58 37
1.921 11.302 -0.64899999 121 58 23
1.825 11.407 -0.51700002 97 54 22
1.948 11.246 -0.83399999 223 168 88
1.976 11.266 -0.87 127 79 56
1.98 11.264 -0.85399997 255 214 122
1.98 11.263 -0.85000002 128 73 6
1.9680001 11.262 -0.80000001 126 47 8
1.967 11.245 -0.75099999 141 45 0
1.9220001 11.284 -0.69700003 141 77 41
1.924 11.28 -0.699 125 58 13
1.934 11.281 -0.69700003 90 55 23
1.932 11.282 -0.70499998 141 83 37
1.9450001 11.288 -0.68800002 84 57 30
1.961 11.248 -0.75099999 147 72 32
1.962 11.255 -0.74800003 152 90 51
1.9400001 11.249 -0.76999998 132 71 24
1.923 11.239 -0.77999997 100 58 33
1.89 11.324 -0.70700002 202 119 65
1.885 11.323 -0.71899998 93 57 31
1.892 11.325 -0.70300001 113 59 25
1.895 11.295 -0.72399998 133 54 0
1.895 11.292 -0.727 156 74 1
1.932 11.241 -0.88800001 191 91 6
1.967 11.254 -0.87599999 150 64 3
1.961 11.274 -0.88999999 163 105 68
1.966 11.263 -0.87900001 178 141 135
1.933 11.266 -0.89999998 68 20 0
1.952 11.231 -0.91299999 195 122 69
1.9450001 11.259 -0.85699999 88 43 14
1.934 11.275 -0.86299998 62 21 1
1.885 11.297 -0.73500001 171 89 39
1.896 11.297 -0.73000002 143 120 114
1.869 11.222 -0.72799999 249 175 88
1.877 11.234 -0.72600001 123 83 57
1.873 11.233 -0.73100001 181 97 24
1.918 11.232 -0.685 195 104 57
1.9069999 11.241 -0.699 144 88 53
1.929 11.235 -0.69999999 71 36 8
1.921 11.244 -0.70200002 168 158 157
1.923 11.236 -0.70999998 201 110 55
1.913 11.224 -0.68199998 121 82 51
1.918 11.247 -0.69599998 161 105 56
1.924 11.273 -0.69099998 170 161 162
1.888 11.238 -0.72000003 67 31 7
1.904 11.254 -0.72600001 126 72 28
1.8940001 11.263 -0.76899999 202 126 68
1.911 11.26 -0.77600002 100 50 15
1.8890001 11.251 -0.77100003 146 65 9
1.925 11.258 -0.755 155 86 45
1.92 11.239 -0.73400003 128 63 31
1.918 11.258 -0.74000001 123 97 82
1.911 11.245 -0.75599998 243 199 162
1.887 11.227 -0.76800001 229 161 114
1.928 11.287 -0.69800001 107 53 19
1.883 11.328 -0.65899998 51 27 0
1.926 11.291 -0.66299999 158 122 96
1.9220001 11.29 -0.65799999 141 83 46
1.952 11.302 -0.68699998 116 52 16
1.8940001 11.326 -0.66500002 124 99 92
1.878 11.337 -0.69800001 145 96 64
1.878 11.342 -0.68400002 112 48 21
1.873 11.336 -0.676 125 62 29
1.905 11.28 -0.79900002 135 129 131
1.91 11.277 -0.79000002 174 129 108
1.913 11.286 -0.778 98 62 38
1.918 11.285 -0.80699998 75 30 7
1.949 11.279 -0.79100001 219 128 35
1.9579999 11.287 -0.79000002 238 145 68
1.896 11.259 -0.78200001 128 48 0
1.893 11.254 -0.78100002 181 111 62
1.899 11.261 -0.79799998 148 94 48
1.887 11.252 -0.778 158 70 20
1.8890001 11.247 -0.787 107 72 50
1.893 11.256 -0.77600002 136 55 0
1.9 11.288 -0.80299997 82 12 0
1.9 11.296 -0.838 73 12 0
1.91 11.3 -0.84299999 91 45 21
1.898 11.304 -0.82800001 117 112 116
1.9 11.288 -0.86199999 78 24 0
1.902 11.292 -0.84299999 168 115 81
1.893 11.295 -0.82800001 152 77 38
1.8839999 11.269 -0.81199998 85 24 5
1.924 11.272 -0.85399997 70 26 0
1.914 11.271 -0.84600002 89 48 26
1.924 11.269 -0.84799999 77 41 19
1.901 11.288 -0.83600003 164 97 70
1.911 11.283 -0.83700001 166 101 59
1.913 11.286 -0.833 118 47 5
1.9170001 11.274 -0.833 108 59 29
1.904 11.282 -0.85799998 55 2 0
1.923 11.266 -0.84299999 137 84 53
1.918 11.269 -0.84100002 51 24 5
1.9 11.273 -0.86699998 153 102 59
1.903 11.261 -0.86000001 74 36 15
1.902 11.259 -0.85500002 73 32 14
1.893 11.249 -0.79100001 129 41 5
1.9220001 11.27 -0.82800001 107 64 29
1.952 11.274 -0.81900001 94 49 16
1.9579999 11.279 -0.815 154 69 28
1.893 11.269 -0.82099998 124 59 27
1.899 11.276 -0.82099998 102 41 13
1.8660001 11.214 -0.72799999 174 117 72
1.899 11.237 -0.84200001 146 61 22
1.898 11.232 -0.84500003 107 61 35
1.896 11.228 -0.84899998 66 21 2
1.897 11.236 -0.85100001 70 29 9
1.89 11.24 -0.79000002 123 46 4
1.892 11.24 -0.80699998 140 99 69
1.9069999 11.236 -0.83200002 145 70 15
1.908 11.235 -0.83200002 55 36 38
1.915 11.234 -0.833 113 69 32
1.92 11.237 -0.838 113 49 13
1.921 11.239 -0.83399999 133 61 21
1.961 11.272 -0.78600001 217 122 30
1.952 11.25 -0.78899997 128 52 3
1.962 11.252 -0.83700001 161 113 49
1.876 11.303 -0.73299998 73 29 2
1.9069999 11.259 -0.78200001 173 92 36
1.914 11.264 -0.77999997 103 61 39
1.919 11.264 -0.78100002 255 178 94
1.893 11.249 -0.81699997 107 30 2
1.921 11.291 -0.67799997 157 112 73
1.859 11.378 -0.58499998 179 100 59
1.852 11.387 -0.55599999 142 71 19
1.855 11.391 -0.55299997 209 125 65
1.853 11.384 -0.55400002 182 126 93
1.857 11.4 -0.52399999 63 38 41
1.847 11.394 -0.52700001 175 116 82
1.845 11.379 -0.51499999 147 89 43
1.857 11.368 -0.48899999 159 94 40
1.851 11.374 -0.49399999 97 59 36
1.853 11.37 -0.495 176 167 170
1.846 11.375 -0.509 126 86 61
1.8329999 11.378 -0.51599997 152 96 61
1.943 11.286 -0.93300003 234 184 87
1.964 11.292 -0.92400002 175 94 29
1.964 11.278 -0.903 147 67 8
1.941 11.284 -0.90799999 73 30 23
1.939 11.285 -0.92400002 255 204 80
1.909 11.239 -0.93099999 99 25 0
1.92 11.252 -0.93800002 96 22 0
1.919 11.269 -0.91399997 154 92 51
1.91 11.262 -0.90100002 125 84 62
1.893 11.261 -0.88700002 164 138 125
1.896 11.252 -0.889 78 27 0
1.944 11.247 -0.917 127 73 37
1.938 11.261 -0.94199997 51 14 0
1.949 11.246 -0.91100001 154 88 40
1.891 11.325 -0.699 225 140 76
1.957 11.258 -0.847 99 52 8
1.969 11.264 -0.84500003 158 111 83
1.974 11.258 -0.852 247 210 103
1.976 11.264 -0.84399998 209 153 78
1.942 11.272 -0.838 137 93 58
1.956 11.277 -0.78799999 182 96 35
1.961 11.279 -0.79400003 76 30 6
1.972 11.268 -0.77200001 137 73 37
1.989 11.246 -0.78100002 141 87 59
1.89 11.345 -0.67299998 73 37 13
1.8940001 11.34 -0.65799999 118 68 35
1.892 11.331 -0.68400002 173 98 40
1.893 11.337 -0.67400002 145 72 31
1.893 11.343 -0.67900002 120 53 11
1.892 11.341 -0.67000002 106 71 51
1.893 11.327 -0.72000003 103 60 26
1.873 11.355 -0.67500001 34 18 0
1.9960001 11.265 -0.73000002 170 83 40
2.0009999 11.271 -0.72000003 106 60 34
1.9960001 11.252 -0.77499998 243 165 91
1.98 11.271 -0.76300001 113 77 51
1.964 11.276 -0.787 123 46 0
1.969 11.282 -0.79400003 241 145 69
1.973 11.268 -0.778 126 83 48
1.977 11.272 -0.76999998 101 40 11
1.983 11.234 -0.78200001 144 123 104
1.934 11.232 -0.79299998 252 188 116
1.853 11.366 -0.49900001 105 40 12
1.844 11.377 -0.50199997 81 43 22
1.862 11.386 -0.50599998 109 49 12
1.924 11.237 -0.87699997 99 29 3
1.914 11.237 -0.88099998 115 25 0
1.947 11.25 -0.83200002 198 132 58
1.98 11.261 -0.86500001 97 58 53
1.979 11.26 -0.88599998 242 155 60
1.962 11.256 -0.75599998 124 102 88
1.92 11.264 -0.704 117 71 37
1.8940001 11.273 -0.72600001 249 185 97
1.919 11.272 -0.71899998 175 87 37
1.921 11.274 -0.713 172 86 39
1.89 11.3 -0.71700001 101 69 46
1.921 11.246 -0.91100001 132 76 39
1.931 11.244 -0.89399999 230 148 110
1.972 11.264 -0.87800002 230 157 78
1.969 11.252 -0.85399997 255 221 95
1.941 11.237 -0.83700001 223 161 78
1.947 11.277 -0.88599998 34 12 0
1.957 11.262 -0.83200002 179 117 56
1.967 11.224 -0.93099999 91 56 37
1.92 11.251 -0.71200001 149 103 70
1.919 11.26 -0.71499997 112 84 70
1.92 11.261 -0.72000003 164 103 56
1.9220001 11.23 -0.71799999 72 33 2
1.921 11.242 -0.69400001 174 164 163
1.881 11.235 -0.722 101 64 35
1.887 11.244 -0.773 145 78 33
1.895 11.278 -0.73100001 252 205 97
1.925 11.26 -0.75300002 133 87 89
1.9119999 11.251 -0.72399998 88 53 57
1.9119999 11.242 -0.75199997 60 45 38
1.908 11.253 -0.74599999 84 57 36
1.886 11.224 -0.76300001 178 110 61
1.924 11.292 -0.64999998 107 44 9
1.873 11.339 -0.67400002 112 55 28
1.901 11.21 -0.65499997 176 109 64
1.91 11.289 -0.77700001 193 117 57
1.925 11.279 -0.796 83 40 5
1.921 11.274 -0.81199998 143 63 10
1.926 11.269 -0.81 177 167 168
1.932 11.268 -0.81099999 51 27 3
1.9 11.248 -0.83099997 133 53 16
1.896 11.252 -0.84100002 62 41 24
1.901 11.259 -0.83999997 63 39 13
1.903 11.272 -0.79299998 169 101 54
1.9 11.278 -0.80199999 104 30 5
1.902 11.287 -0.80199999 121 75 49
1.9119999 11.298 -0.833 88 43 12
1.9119999 11.298 -0.84899998 87 43 16
1.891 11.26 -0.80699998 91 31 3
1.899 11.288 -0.81400001 105 37 0
1.886 11.266 -0.815 130 125 129
1.9 11.258 -0.87400001 72 25 9
1.9349999 11.268 -0.81099999 248 170 96
1.943 11.268 -0.82099998 88 48 23
1.899 11.288 -0.82599998 135 129 131
1.898 11.287 -0.824 145 110 80
1.893 11.281 -0.81199998 81 16 0
1.8710001 11.207 -0.73799998 255 204 76
1.901 11.24 -0.83499998 97 33 0
1.91 11.239 -0.88499999 162 80 32
1.896 11.25 -0.89300001 99 54 0
1.925 11.236 -0.80900002 121 98 92
1.9220001 11.24 -0.82599998 179 100 34
1.971 11.259 -0.787 91 25 0
1.971 11.26 -0.792 94 24 0
1.976 11.263 -0.78500003 128 59 20
1.882 11.313 -0.72899997 84 27 0
1.914 11.277 -0.78100002 100 55 24
1.9220001 11.291 -0.685 105 52 18
1.853 11.387 -0.55199999 160 112 89
1.847 11.376 -0.51300001 158 90 41
1.842 11.379 -0.49599999 192 182 183
1.943 11.28 -0.89399999 150 111 104
1.9630001 11.274 -0.89300001 157 66 0
1.961 11.286 -0.89999998 147 95 48
1.942 11.283 -0.92799997 253 207 85
1.925 11.249 -0.92699999 103 47 12
1.899 11.263 -0.89999998 83 37 3
1.896 11.252 -0.90200001 74 8 0
1.965 11.279 -0.801 178 85 28
1.962 11.271 -0.80599999 163 152 150
2 11.253 -0.78399998 207 120 43
1.9450001 11.258 -0.852 135 103 78
1.941 11.269 -0.82800001 100 56 19
1.961 11.28 -0.78799999 161 79 21
1.962 11.269 -0.80599999 138 48 0
1.956 11.266 -0.81300002 107 34 1
1.992 11.27 -0.71200001 83 18 0
2 11.266 -0.72299999 246 154 87
1.979 11.266 -0.773 146 91 50
1.978 11.27 -0.76899999 123 100 82
1.987 11.262 -0.74900001 160 70 36
1.948 11.239 -0.79500002 110 60 25
1.858 11.37 -0.50199997 139 78 31
1.839 11.384 -0.52200001 75 49 26
1.925 11.237 -0.87400001 110 30 0
1.966 11.271 -0.78200001 232 147 67
1.927 11.27 -0.72600001 142 56 9
1.919 11.267 -0.71200001 135 88 58
1.9069999 11.256 -0.722 172 86 29
1.925 11.28 -0.704 157 95 46
1.985 11.272 -0.71499997 86 34 0
1.961 11.253 -0.75199997 127 77 42
1.979 11.26 -0.88200003 249 168 76
1.972 11.25 -0.866 249 208 94
1.967 11.263 -0.85299999 175 140 136
1.9529999 11.266 -0.81999999 169 95 48
1.915 11.248 -0.71399999 116 65 34
1.92 11.263 -0.70300001 121 93 79
1.923 11.291 -0.65399998 142 82 48
1.899 11.246 -0.81900001 198 102 51
1.897 11.258 -0.82700002 140 119 100
1.899 11.257 -0.838 92 27 0
1.902 11.272 -0.79799998 125 63 26
1.91 11.3 -0.829 72 22 0
1.897 11.294 -0.82300001 127 67 41
1.891 11.276 -0.80699998 74 12 0
1.911 11.295 -0.829 62 20 0
1.903 11.287 -0.85799998 73 15 0
1.898 11.291 -0.83700001 121 88 55
