ply
format ascii 1.0
comment PCL generated
element vertex 66
property float x
property float y
property float z
property uchar red
property uchar green
property uchar blue
element camera 1
property float view_px
property float view_py
property float view_pz
property float x_axisx
property float x_axisy
property float x_axisz
property float y_axisx
property float y_axisy
property float y_axisz
property float z_axisx
property float z_axisy
property float z_axisz
property float focal
property float scalex
property float scaley
property float centerx
property float centery
property int viewportx
property int viewporty
property float k1
property float k2
end_header
8.79 10.537 -0.48699999 141 104 77
8.79 10.534 -0.50300002 105 73 52
8.7749996 10.538 -0.5 99 65 38
8.7740002 10.533 -0.49700001 139 106 55
8.7679996 10.526 -0.51499999 114 82 35
8.776 10.533 -0.493 119 106 98
8.7639999 10.512 -0.491 128 59 20
8.8030005 10.534 -0.48899999 98 68 42
8.802 10.531 -0.50099999 89 48 18
8.8070002 10.528 -0.49399999 134 119 112
8.7650003 10.513 -0.49200001 147 125 127
8.7709999 10.511 -0.48800001 110 100 101
8.7729998 10.51 -0.498 127 62 22
8.7679996 10.517 -0.50300002 49 30 32
8.7790003 10.512 -0.51499999 112 79 38
8.776 10.519 -0.51899999 117 50 7
8.783 10.505 -0.51200002 109 64 33
8.7959995 10.53 -0.49700001 82 60 47
8.7729998 10.518 -0.49399999 167 111 54
8.7869997 10.502 -0.493 128 106 95
8.79 10.502 -0.49000001 167 116 87
8.7790003 10.506 -0.50300002 246 184 137
8.7799997 10.536 -0.498 150 104 81
8.7939997 10.524 -0.484 80 56 44
8.7880001 10.52 -0.48699999 71 42 24
8.7840004 10.537 -0.48500001 88 65 51
8.7779999 10.53 -0.49000001 129 102 73
8.7840004 10.508 -0.48899999 129 115 115
8.7810001 10.505 -0.5 171 157 156
8.7869997 10.528 -0.52700001 63 47 48
8.783 10.533 -0.528 106 75 31
8.7889996 10.534 -0.50099999 120 81 52
8.7849998 10.535 -0.493 188 148 89
8.7799997 10.537 -0.491 72 37 15
8.8000002 10.529 -0.491 149 119 95
8.7810001 10.532 -0.48800001 90 64 51
8.7770004 10.534 -0.50700003 101 87 84
8.79 10.536 -0.528 111 76 46
8.7869997 10.501 -0.50999999 107 51 18
8.7869997 10.511 -0.49000001 110 57 23
8.7930002 10.51 -0.49399999 131 93 57
8.7919998 10.508 -0.49399999 77 62 65
8.7919998 10.502 -0.51999998 144 88 55
8.7849998 10.509 -0.523 128 113 108
8.7969999 10.523 -0.528 234 214 179
8.7989998 10.526 -0.51999998 157 94 50
8.783 10.535 -0.49700001 97 74 60
8.7880001 10.532 -0.514 117 80 51
8.7779999 10.528 -0.51200002 142 99 82
8.7749996 10.526 -0.50700003 110 80 54
8.7849998 10.5 -0.5 88 35 3
8.7980003 10.521 -0.49200001 107 42 2
8.79 10.516 -0.491 146 112 87
8.7849998 10.514 -0.51999998 155 132 124
8.7919998 10.511 -0.52100003 247 212 174
8.7930002 10.521 -0.523 68 50 40
8.7910004 10.504 -0.50199997 79 51 30
8.7980003 10.51 -0.50599998 145 110 78
8.7840004 10.521 -0.49000001 72 11 0
8.8000002 10.527 -0.514 106 67 36
8.7980003 10.52 -0.51300001 78 49 33
8.7770004 10.517 -0.51099998 186 163 155
8.802 10.521 -0.50800002 132 119 113
8.7950001 10.518 -0.49700001 154 100 53
8.8009996 10.527 -0.505 91 64 37
8.7950001 10.511 -0.49599999 161 139 126
0 0 0 1 0 0 0 1 0 0 0 1 0 0 0 0 0 66 1 0 0
