ply
format ascii 1.0
comment PCL generated
element vertex 735
property float x
property float y
property float z
property uchar red
property uchar green
property uchar blue
element camera 1
property float view_px
property float view_py
property float view_pz
property float x_axisx
property float x_axisy
property float x_axisz
property float y_axisx
property float y_axisy
property float y_axisz
property float z_axisx
property float z_axisy
property float z_axisz
property float focal
property float scalex
property float scaley
property float centerx
property float centery
property int viewportx
property int viewporty
property float k1
property float k2
end_header
-7.473 -2.0829999 -0.889 133 104 60
-7.46 -2.079 -0.88499999 134 87 33
-7.473 -2.0869999 -0.89399999 159 79 18
-7.474 -2.0829999 -0.88700002 112 33 0
-7.5170002 -2.0209999 -0.91600001 10 5 2
-7.52 -2.033 -0.90200001 98 83 80
-7.5209999 -2.0320001 -0.89899999 16 1 0
-7.5110002 -2.0320001 -0.90600002 10 0 0
-7.5009999 -2.0650001 -0.89099997 35 10 5
-7.4860001 -2.0769999 -0.89200002 214 130 60
-7.4920001 -2.0680001 -0.89600003 162 101 46
-7.4380002 -2.0239999 -0.97399998 59 29 19
-7.4419999 -2.0309999 -0.97299999 43 2 0
-7.4450002 -2.033 -0.98199999 78 40 27
-7.5209999 -2.043 -0.90799999 43 20 14
-7.5229998 -2.039 -0.898 149 122 113
-7.5190001 -2.0450001 -0.89600003 151 119 106
-7.52 -2.0539999 -0.921 25 2 0
-7.5170002 -2.05 -0.91000003 96 39 0
-7.52 -2.0439999 -0.912 21 1 0
-7.5300002 -2.0420001 -0.88800001 46 9 0
-7.5180001 -2.0480001 -0.89499998 40 6 0
-7.5110002 -2.049 -1.006 12 0 0
-7.5139999 -2.0469999 -0.99699998 65 28 10
-7.5149999 -2.046 -1.008 41 11 3
-7.5149999 -2.046 -1 28 0 0
-7.5120001 -2.0480001 -1 25 10 7
-7.461 -2.02 -1.0599999 57 37 26
-7.4660001 -2.013 -1.0599999 20 2 0
-7.4569998 -2.0090001 -1.062 23 9 8
-7.474 -2.0420001 -1.0599999 30 0 0
-7.4780002 -2.039 -1.068 42 14 0
-7.4640002 -2.029 -1.057 18 0 0
-7.4349999 -2.016 -0.88300002 116 81 43
-7.4369998 -2.0190001 -0.88599998 217 177 66
-7.4310002 -2.007 -0.88800001 161 100 53
-7.513 -2.0510001 -0.847 155 111 66
-7.5110002 -2.046 -0.85100001 255 198 118
-7.5139999 -2.046 -0.852 173 134 43
-7.526 -2.0369999 -0.85399997 126 79 61
-7.513 -2.0569999 -0.89099997 59 32 15
-7.506 -2.0610001 -0.88800001 155 90 52
-7.5100002 -2.0580001 -0.88499999 32 0 0
-7.5050001 -2.053 -0.90700001 127 100 73
-7.5180001 -2.0480001 -0.889 30 0 0
-7.5170002 -2.049 -0.89200002 38 4 0
-7.5139999 -2.053 -0.88800001 69 23 0
-7.5110002 -2.0580001 -0.88200003 48 12 0
-7.5170002 -2.059 -0.94199997 13 3 4
-7.5029998 -2.0569999 -0.92900002 118 81 62
-7.4809999 -2.079 -0.89600003 151 86 22
-7.4899998 -1.9680001 -0.95300001 124 104 97
-7.494 -1.969 -0.94499999 98 48 11
-7.4959998 -1.967 -0.949 182 136 100
-7.5209999 -2.0380001 -0.99900001 77 62 31
-7.5159998 -2.0420001 -1.002 30 3 0
-7.4580002 -2.0239999 -1.05 18 6 6
-7.4689999 -2.036 -1.044 24 8 11
-7.4679999 -2.05 -1.0420001 74 64 55
-7.4770002 -2.0409999 -1.053 64 38 15
-7.4640002 -2.003 -1.001 53 44 45
-7.46 -2.01 -1.022 93 69 57
-7.46 -2.007 -0.99900001 45 34 32
-7.4510002 -2.0550001 -0.94400001 104 71 38
-7.447 -2.049 -0.94800001 41 20 15
-7.447 -2.049 -0.94300002 119 65 31
-7.448 -2.0510001 -0.93699998 28 4 0
-7.441 -2.029 -0.88300002 137 86 33
-7.4429998 -2.0309999 -0.88200003 137 76 19
-7.4499998 -2.0350001 -0.889 179 120 50
-7.447 -2.0380001 -0.95499998 28 0 0
-7.4699998 -1.993 -0.991 33 20 11
-7.474 -1.985 -0.995 39 18 15
-7.4689999 -1.982 -0.97100002 61 39 26
-7.4679999 -1.9960001 -0.98199999 42 22 13
-7.5110002 -2.0350001 -0.90100002 84 67 57
-7.4910002 -2.026 -0.90499997 51 13 0
-7.5279999 -2.0350001 -0.89200002 81 51 40
-7.4949999 -2.066 -0.88700002 105 31 0
-7.4829998 -2.0780001 -0.88499999 120 52 17
-7.461 -2.0739999 -0.88 143 97 45
-7.4549999 -2.0739999 -0.88800001 249 204 149
-7.507 -2.04 -0.85799998 152 88 42
-7.5079999 -2.0650001 -0.847 177 115 58
-7.5110002 -2.063 -0.84799999 154 92 41
-7.507 -2.052 -0.847 180 134 82
-7.5079999 -2.0680001 -0.84799999 127 71 22
-7.5040002 -2.0710001 -0.847 139 80 24
-7.5089998 -2.0510001 -0.90600002 132 106 83
-7.4590001 -1.9910001 -0.88800001 167 97 25
-7.4439998 -1.989 -0.87099999 84 55 41
-7.4650002 -1.988 -0.875 114 49 11
-7.461 -1.99 -0.88200003 202 133 76
-7.4559999 -1.989 -0.87099999 122 69 37
-7.4660001 -2.003 -0.88999999 27 0 0
-7.4689999 -2.0020001 -0.90499997 160 101 61
-7.4569998 -1.9960001 -0.89300001 175 117 43
-7.4910002 -1.994 -1.0369999 26 2 0
-7.4959998 -1.988 -1.026 31 21 22
-7.4970002 -1.997 -1.0420001 21 6 3
-7.5110002 -1.994 -1.028 20 2 0
-7.52 -1.992 -1.007 9 0 1
-7.507 -1.989 -1.006 101 75 50
-7.5079999 -2.007 -1.064 10 0 0
-7.5190001 -2.006 -1.0650001 25 7 3
-7.5170002 -2.0020001 -1.064 95 68 51
-7.5180001 -2.0480001 -0.89399999 69 21 11
-7.4889998 -2.059 -0.93000001 54 18 2
-7.4899998 -2.062 -0.93699998 121 70 39
-7.4980001 -2.059 -0.92900002 82 63 48
-7.4660001 -1.99 -0.87599999 98 56 31
-7.461 -1.993 -0.88499999 183 114 36
-7.4790001 -1.998 -1.048 54 31 23
-7.507 -1.975 -0.96700001 104 87 77
-7.5100002 -1.978 -0.95700002 159 88 36
-7.5110002 -1.98 -0.963 53 22 1
-7.5159998 -2.0209999 -0.93400002 26 8 0
-7.526 -2.026 -0.93400002 48 16 3
-7.5149999 -2.0179999 -0.92400002 51 36 31
-7.4559999 -2.0150001 -1.049 10 0 0
-7.454 -2.007 -1.0420001 80 71 54
-7.4619999 -2.036 -1.033 20 9 5
-7.4530001 -2.0339999 -1.021 81 54 33
-7.454 -2.0309999 -1.023 60 19 0
-7.4559999 -2.026 -1.0089999 10 0 0
-7.4450002 -2.0220001 -0.88999999 139 94 26
-7.4549999 -2.0539999 -0.949 52 27 5
-7.4580002 -2.053 -0.93599999 35 14 0
-7.4349999 -2.013 -0.884 140 88 38
-7.4390001 -2.013 -0.87300003 244 216 169
-7.4390001 -2.0179999 -0.86699998 39 21 11
-7.4790001 -2.0739999 -0.89899999 90 63 34
-7.4829998 -2.066 -0.90899998 85 77 54
-7.4429998 -2.0320001 -0.96700001 32 13 7
-7.447 -2.046 -0.954 47 31 6
-7.4559999 -2.0450001 -0.97000003 40 14 1
-7.4640002 -1.995 -0.94999999 56 8 0
-7.4770002 -1.998 -0.93699998 114 57 30
-7.473 -2.0020001 -0.92900002 16 5 3
-7.4720001 -2.003 -0.935 52 12 2
-7.4590001 -2.0079999 -0.949 63 10 4
-7.4640002 -2.007 -0.92699999 47 19 8
-7.4850001 -1.971 -0.94999999 132 101 81
-7.4380002 -2.0139999 -0.89099997 255 232 129
-7.4499998 -2.0480001 -0.93300003 105 60 39
-7.4510002 -2.0179999 -0.89200002 173 132 50
-7.4520001 -2.0190001 -0.912 114 54 18
-7.4520001 -2.013 -0.912 181 110 44
-7.4520001 -2.016 -0.92500001 28 1 0
-7.4510002 -2.0190001 -0.92900002 14 0 0
-7.4390001 -2.0239999 -0.88300002 109 85 51
-7.467 -2.006 -0.92400002 11 1 0
-7.4650002 -2.0079999 -0.917 49 10 0
-7.4569998 -2.01 -0.91500002 98 36 0
-7.461 -2.0109999 -0.92400002 73 42 24
-7.5120001 -2.0710001 -0.85399997 219 151 90
-7.5190001 -2.0599999 -0.852 112 43 1
-7.5190001 -2.0439999 -0.85399997 250 192 146
-7.52 -2.04 -0.85900003 133 71 14
-7.507 -2.075 -0.85500002 132 64 15
-7.507 -2.075 -0.85900003 127 53 8
-7.5139999 -2.063 -0.86699998 90 21 0
-7.5139999 -2.053 -0.88200003 54 10 0
-7.4759998 -2.069 -0.88099998 171 118 68
-7.4889998 -2.0669999 -0.884 37 8 0
-7.494 -2.066 -0.86400002 102 39 0
-7.5009999 -2.0710001 -0.86299998 165 96 41
-7.4559999 -2.062 -0.89600003 71 51 42
-7.4549999 -2.063 -0.89300001 153 109 64
-7.461 -2.0510001 -0.88800001 76 35 5
-7.4549999 -2.039 -0.88800001 208 158 125
-7.4489999 -2.066 -0.89999998 253 215 106
-7.5029998 -2.043 -0.85100001 106 68 19
-7.4949999 -2.039 -0.85000002 118 82 32
-7.5219998 -2.043 -0.88300002 41 10 5
-7.4619999 -2.0480001 -0.89600003 100 66 65
-7.4619999 -2.0550001 -0.91000003 85 24 3
-7.5100002 -2.0420001 -1.017 26 9 0
-7.5079999 -2.0480001 -1.04 57 33 23
-7.5139999 -2.04 -1.039 97 69 55
-7.5079999 -2.0480001 -1.01 14 0 0
-7.5 -2.052 -1.008 39 12 5
-7.5019999 -2.033 -0.90600002 137 97 71
-7.5209999 -2.0480001 -0.92199999 71 52 45
-7.5 -2.0569999 -0.917 116 63 11
-7.494 -2.056 -0.91500002 130 80 47
-7.5 -2.0569999 -0.92400002 84 36 14
-7.507 -2.052 -0.921 37 25 9
-7.5159998 -2.039 -0.97500002 38 21 11
-7.5170002 -2.0409999 -0.98699999 23 4 0
-7.5180001 -2.0380001 -0.98299998 37 19 15
-7.5159998 -2.0369999 -0.972 19 8 4
-7.5190001 -2.0420001 -0.99400002 50 14 0
-7.52 -2.039 -0.99599999 9 0 0
-7.52 -2.039 -0.99299997 10 0 0
-7.4660001 -2.0009999 -0.88700002 30 5 0
-7.4720001 -2.007 -0.89999998 30 8 0
-7.493 -2.04 -0.89999998 103 70 35
-7.4850001 -2.0309999 -0.90399998 223 178 111
-7.4629998 -2.033 -0.87300003 255 247 142
-7.474 -2.0450001 -0.86699998 247 224 122
-7.4699998 -2.023 -0.86400002 212 146 60
-7.5180001 -2.0350001 -0.98400003 16 2 0
-7.5159998 -2.0369999 -0.97399998 17 6 4
-7.52 -2.0120001 -0.94499999 196 122 59
-7.5089998 -1.997 -1.041 55 27 15
-7.4559999 -2.0079999 -1.03 44 21 13
-7.46 -2.003 -1.0470001 95 81 78
-7.4679999 -2.0109999 -1.036 4 0 0
-7.4770002 -2.003 -1.024 24 7 0
-7.5089998 -2.05 -1.0039999 16 2 0
-7.4970002 -2.052 -0.99599999 211 175 123
-7.4860001 -2.0599999 -0.99400002 12 0 0
-7.5009999 -1.992 -1.0039999 10 2 0
-7.4829998 -1.9910001 -1.01 238 190 141
-7.5029998 -1.992 -0.99900001 9 1 0
-7.4910002 -1.993 -1 9 0 0
-7.5110002 -2.0369999 -0.89600003 33 12 0
-7.5149999 -2.0480001 -0.88200003 64 36 25
-7.5120001 -1.9809999 -0.958 52 30 19
-7.5089998 -1.983 -0.94800001 187 109 45
-7.5120001 -1.994 -0.94300002 202 120 44
-7.5139999 -1.992 -0.95999998 243 194 118
-7.507 -2.0190001 -0.92799997 39 22 15
-7.5050001 -2.0050001 -0.94400001 255 185 113
-7.5029998 -2.0150001 -0.926 60 33 14
-7.4990001 -2.0039999 -0.93900001 22 0 0
-7.4980001 -2.0109999 -0.93099999 65 26 11
-7.527 -2.03 -0.93699998 26 6 5
-7.5289998 -2.036 -0.93900001 87 26 0
-7.5300002 -2.0320001 -0.94 93 29 0
-7.5219998 -2.0150001 -0.94700003 102 36 0
-7.5159998 -2.0209999 -0.94 122 55 0
-7.5110002 -2.03 -0.95899999 52 20 0
-7.5120001 -2.027 -0.963 157 121 85
-7.4970002 -1.977 -0.935 58 23 17
-7.4899998 -1.975 -0.93699998 30 1 0
-7.4790001 -1.984 -0.94499999 91 66 59
-7.4860001 -1.978 -0.94 64 31 16
-7.4920001 -1.982 -0.93900001 139 67 17
-7.4879999 -1.983 -0.94099998 36 6 0
-7.4910002 -1.987 -0.94 104 41 0
-7.4569998 -2.0369999 -1.001 110 86 74
-7.46 -2.0409999 -1.005 80 57 25
-7.46 -2.0409999 -1.008 44 17 0
-7.4569998 -2.0369999 -0.99000001 24 1 0
-7.454 -2.0320001 -0.99000001 9 0 0
-7.5149999 -2.043 -1.005 57 26 21
-7.4780002 -2.0409999 -1.0599999 72 47 25
-7.4790001 -2.039 -1.0599999 48 22 5
-7.4650002 -2.043 -1.0369999 34 7 0
-7.46 -2.0209999 -1.046 13 2 0
-7.4710002 -1.997 -1.016 24 11 3
-7.4860001 -1.997 -1.022 45 23 12
-7.4439998 -2.026 -0.87699997 50 27 19
-7.454 -2.0339999 -0.88 203 151 91
-7.493 -2.0580001 -0.92000002 66 54 32
-7.4720001 -2.063 -0.93599999 56 12 3
-7.4619999 -2.0539999 -0.95499998 46 14 0
-7.4650002 -2.0780001 -0.89200002 235 205 85
-7.4640002 -2.066 -0.903 224 176 91
-7.494 -2.0190001 -0.92000002 65 42 34
-7.4790001 -2.013 -0.92199999 79 51 39
-7.4790001 -2.0150001 -0.90899998 77 49 25
-7.467 -2.0050001 -0.92900002 23 7 7
-7.5079999 -2.0190001 -0.91799998 6 0 0
-7.4640002 -2.0079999 -0.99000001 37 8 0
-7.4549999 -2.01 -0.95099998 148 101 85
-7.454 -2.0090001 -0.95300001 65 42 28
-7.4530001 -2.023 -0.94800001 37 17 6
-7.4530001 -2.0220001 -0.954 83 52 32
-7.4790001 -1.973 -0.95499998 92 30 9
-7.4510002 -1.995 -0.88800001 176 112 40
-7.487 -1.972 -0.94499999 204 146 83
-7.4699998 -1.995 -0.97299999 34 9 4
-7.4640002 -1.995 -0.95300001 79 43 27
-7.4349999 -2.0050001 -0.88200003 91 54 9
-7.447 -2.0039999 -0.89099997 195 142 72
-7.434 -2.0120001 -0.88599998 201 169 110
-7.4450002 -2.0220001 -0.96600002 27 7 0
-7.46 -2.017 -0.90100002 67 22 3
-7.474 -2.007 -0.903 126 63 22
-7.5229998 -2.052 -0.85399997 92 29 0
-7.5149999 -2.063 -0.85299999 138 70 31
-7.5139999 -2.056 -0.875 121 73 37
-7.5110002 -2.0580001 -0.87800002 68 23 4
-7.5139999 -2.0550001 -0.87400001 44 6 0
-7.5170002 -2.049 -0.88700002 33 6 0
-7.5009999 -2.0710001 -0.86000001 134 60 11
-7.4559999 -2.0650001 -0.889 220 188 65
-7.4619999 -2.0469999 -0.875 230 180 129
-7.4580002 -2.069 -0.884 57 30 21
-7.4590001 -2.0650001 -0.88300002 111 66 24
-7.461 -2.056 -0.89399999 201 139 78
-7.4910002 -2.0550001 -0.852 122 79 34
-7.4889998 -2.0339999 -0.86000001 145 96 20
-7.4809999 -2.033 -0.87099999 120 98 87
-7.4840002 -2.0369999 -0.861 164 99 19
-7.474 -2.029 -0.89099997 114 78 56
-7.5089998 -1.989 -0.99900001 120 94 69
-7.5139999 -1.992 -0.99699998 8 0 0
-7.5079999 -1.989 -0.977 36 9 0
-7.4920001 -1.985 -0.977 83 52 24
-7.5110002 -1.984 -0.97000003 23 3 0
-7.5079999 -1.983 -0.97100002 92 69 61
-7.506 -1.993 -0.98400003 10 0 0
-7.5029998 -2.0580001 -0.94199997 164 106 60
-7.5040002 -2.0550001 -0.92199999 98 45 11
-7.5089998 -2.052 -0.92299998 58 14 1
-7.493 -2.0280001 -0.90899998 48 32 19
-7.5 -2.0190001 -0.921 102 71 43
-7.5170002 -2.0380001 -0.98000002 34 17 10
-7.5180001 -2.04 -0.98900002 18 0 0
-7.4970002 -2.0610001 -0.93800002 84 33 4
-7.5100002 -2.0539999 -0.954 30 0 0
-7.4710002 -2.013 -0.87199998 98 42 0
-7.473 -2.017 -0.88099998 215 141 96
-7.4899998 -2.036 -0.87099999 94 36 0
-7.4549999 -2.04 -0.88499999 206 140 62
-7.461 -2.0569999 -0.88099998 106 61 32
-7.5190001 -2.0050001 -1.0549999 41 21 12
-7.5170002 -2.017 -1.045 37 7 0
-7.5180001 -2.016 -1.039 62 35 24
-7.513 -2.039 -1.007 46 16 5
-7.5159998 -2.0309999 -0.99199998 35 0 0
-7.5170002 -2.0190001 -0.97799999 22 4 2
-7.5170002 -2.016 -0.97100002 26 8 8
-7.5149999 -2.0350001 -0.97299999 43 16 7
-7.4850001 -1.998 -1.0420001 20 1 0
-7.4860001 -2.007 -1.067 20 5 0
-7.4920001 -2.013 -1.071 24 5 1
-7.4809999 -2.0039999 -1.069 9 0 0
-7.4889998 -2.0090001 -1.062 30 4 0
-7.4829998 -2.0179999 -1.071 16 4 4
-7.493 -2.016 -1.0549999 42 30 32
-7.473 -2.0209999 -1.059 122 102 93
-7.4679999 -2.0109999 -1.03 6 0 0
-7.4850001 -2.056 -1.0039999 137 84 44
-7.4770002 -2.059 -1.002 40 16 4
-7.4759998 -2.0569999 -1.006 74 48 31
-7.487 -2.052 -1.006 111 90 89
-7.4819999 -2.049 -1.012 68 38 28
-7.4510002 -1.992 -0.87099999 98 39 5
-7.4419999 -2.0009999 -0.866 215 174 120
-7.4520001 -2.006 -0.86299998 87 46 14
-7.4569998 -2.01 -0.86500001 193 145 96
-7.4679999 -2.0309999 -0.87199998 242 198 101
-7.4780002 -2.033 -0.87900001 141 83 33
-7.4990001 -2.0469999 -0.88700002 53 8 3
-7.487 -2.052 -0.88200003 42 10 0
-7.5190001 -2.0369999 -0.89600003 54 30 18
-7.5149999 -2.0090001 -0.97399998 47 29 19
-7.5229998 -2 -0.99800003 17 7 8
-7.5180001 -1.9960001 -1.0039999 10 1 2
-7.4759998 -2.013 -1.0650001 96 59 43
-7.4879999 -1.972 -0.958 83 24 0
-7.4759998 -1.975 -0.95899999 104 63 33
-7.4879999 -1.979 -0.97000003 59 27 12
-7.494 -1.972 -0.95899999 53 17 3
-7.5120001 -2.007 -0.96600002 86 77 78
-7.513 -2.036 -0.97000003 8 0 0
-7.5120001 -2.0309999 -0.96799999 88 65 51
-7.513 -2.017 -0.96600002 12 2 3
-7.4860001 -2 -0.92900002 108 66 54
-7.4970002 -1.998 -0.94099998 164 98 63
-7.4910002 -2.006 -0.93000001 26 1 0
-7.5040002 -1.978 -0.94 47 19 15
-7.5159998 -2.017 -0.92000002 38 23 18
-7.5139999 -2.016 -0.921 19 4 0
-7.5159998 -2.0250001 -0.92000002 19 4 1
-7.4850001 -1.983 -0.94199997 148 95 51
-7.487 -2.016 -1.068 25 7 0
-7.4879999 -2.046 -1.052 56 29 22
-7.4949999 -2.04 -1.054 53 46 4
-7.4980001 -2.043 -1.053 53 23 12
-7.4980001 -2.0469999 -1.046 20 0 0
-7.4720001 -2.0339999 -1.052 43 18 0
-7.4650002 -2.0350001 -1.0369999 29 14 17
-7.4590001 -2.0339999 -1.007 18 0 0
-7.4629998 -2.02 -1.01 30 16 7
-7.4619999 -2.017 -1.0190001 68 36 37
-7.46 -2.0239999 -0.99800003 26 6 0
-7.4580002 -2.027 -1.0039999 9 0 1
-7.4559999 -2.026 -0.99199998 8 0 0
-7.454 -2.0309999 -0.991 10 0 0
-7.4510002 -2.03 -0.98699999 30 12 8
-7.46 -2.0239999 -1.007 6 2 3
-7.4749999 -1.999 -1.006 21 2 0
-7.4510002 -2.0420001 -0.94700003 79 28 0
-7.4629998 -2.052 -0.921 41 21 22
-7.467 -2.0409999 -0.91399997 81 48 29
-7.4530001 -2.0179999 -0.92299998 98 39 9
-7.4679999 -2.0569999 -0.94599998 94 51 35
-7.4790001 -2.056 -0.96100003 36 8 0
-7.46 -2.075 -0.89399999 244 211 96
-7.4759998 -2.0710001 -0.90100002 191 150 96
-7.4450002 -2.0250001 -0.98000002 36 1 0
-7.467 -2.0079999 -0.93300003 18 3 0
-7.5040002 -1.997 -0.94099998 111 100 98
-7.5040002 -2.016 -0.921 129 95 70
-7.4840002 -2.023 -0.90499997 95 67 53
-7.4640002 -2.0079999 -0.99199998 19 5 4
-7.4710002 -1.992 -0.98400003 28 25 10
-7.4910002 -1.973 -0.94199997 92 59 44
-7.4569998 -2.0109999 -0.98400003 6 0 0
-7.4549999 -2.013 -0.98100001 15 0 0
-7.4429998 -2.007 -0.889 229 186 131
-7.4439998 -2.0009999 -0.88099998 132 99 56
-7.4439998 -1.999 -0.87900001 111 91 80
-7.448 -2.0239999 -0.87699997 168 123 68
-7.4460001 -2.03 -0.963 31 3 0
-7.4650002 -2.0369999 -0.90200001 181 102 27
-7.4650002 -2.023 -0.89499998 127 98 58
-7.4619999 -2.0090001 -0.91000003 31 12 8
-7.4629998 -2.0239999 -0.91100001 100 54 28
-7.4749999 -2.0079999 -0.91299999 43 26 19
-7.4770002 -2.0120001 -0.88999999 202 123 48
-7.5170002 -2.0610001 -0.861 91 36 6
-7.5110002 -2.0669999 -0.85900003 91 25 0
-7.513 -2.0639999 -0.866 184 115 58
-7.513 -2.0639999 -0.86299998 161 93 46
-7.5029998 -2.0650001 -0.86799997 63 10 0
-7.487 -2.0699999 -0.88700002 142 61 14
-7.4679999 -2.079 -0.88200003 154 110 61
-7.4650002 -2.0710001 -0.88 153 105 43
-7.5009999 -2.0650001 -0.85399997 123 73 14
-7.4980001 -2.0599999 -0.85100001 249 209 160
-7.5009999 -2.056 -0.84600002 106 60 10
-7.4920001 -2.0380001 -0.86799997 79 49 23
-7.5029998 -2.0369999 -0.85699999 80 41 8
-7.506 -1.987 -0.97600001 27 10 2
-7.5029998 -1.992 -0.98199999 15 4 2
-7.4980001 -2.046 -1.039 27 9 0
-7.5 -2.0469999 -1.044 14 1 0
-7.5089998 -2.0439999 -0.97799999 45 30 27
-7.5149999 -2.0409999 -0.98500001 238 205 172
-7.5019999 -2.046 -0.972 82 49 30
-7.5100002 -2.0539999 -0.95099998 29 1 0
-7.4949999 -2.059 -0.94199997 38 14 4
-7.5040002 -2.0510001 -0.94700003 47 14 0
-7.5190001 -2.04 -0.94599998 69 51 51
-7.5209999 -2.05 -0.93900001 196 138 98
-7.4580002 -1.9960001 -0.87400001 220 182 145
-7.4990001 -2.0610001 -0.88099998 42 7 1
-7.4759998 -2.0510001 -0.86799997 155 97 49
-7.5170002 -2.017 -1.041 46 12 2
-7.5149999 -2.0190001 -1.041 77 45 32
-7.5180001 -2.0079999 -1.051 19 3 3
-7.5149999 -2.0109999 -1.029 49 30 16
-7.5159998 -2.016 -1.034 88 58 34
-7.5089998 -2.02 -1.031 15 0 0
-7.5180001 -2.0350001 -0.98699999 20 6 5
-7.5170002 -2.0179999 -1.038 53 15 6
-7.513 -2.003 -1.056 38 23 16
-7.5019999 -2.0380001 -1.049 64 53 8
-7.46 -2.0179999 -1.0420001 7 3 2
-7.474 -2.0550001 -0.99199998 84 43 23
-7.467 -2.0469999 -0.99900001 44 18 3
-7.4889998 -1.993 -0.99299997 24 0 0
-7.4910002 -1.993 -1.0039999 115 84 63
-7.4510002 -1.9910001 -0.87300003 226 156 84
-7.5159998 -2.0280001 -0.98699999 22 6 6
-7.473 -2.0079999 -1.054 114 91 73
-7.48 -2.006 -1.058 29 11 9
-7.4959998 -2.0090001 -0.93300003 33 3 0
-7.4970002 -1.9809999 -0.93699998 202 157 118
-7.5040002 -1.977 -0.94300002 184 126 78
-7.494 -2.0469999 -0.96799999 35 8 1
-7.4819999 -2.049 -0.97399998 22 1 0
-7.5019999 -2.043 -0.963 35 6 0
-7.4569998 -2.0120001 -0.97399998 15 1 0
-7.46 -2.0109999 -0.97299999 60 36 26
-7.46 -2.0120001 -0.95899999 84 38 22
-7.4679999 -2.0469999 -1.005 23 0 0
-7.4689999 -2.049 -1.002 119 78 58
-7.4629998 -2.04 -0.995 6 0 0
-7.5149999 -2.036 -1 56 22 10
-7.5110002 -2.0220001 -1.005 12 2 0
-7.4619999 -2.0439999 -1.021 66 40 25
-7.4689999 -2.046 -1.036 46 24 11
-7.48 -2.0439999 -1.02 10 0 0
-7.4959998 -2.026 -1.048 39 10 2
-7.4840002 -2.0009999 -1.026 9 0 0
-7.4720001 -2 -1.007 38 9 13
-7.4559999 -2.0550001 -0.94199997 152 98 60
-7.4510002 -2.04 -0.94 113 99 90
-7.4520001 -2.0369999 -0.949 11 0 0
-7.4549999 -2.0469999 -0.93199998 14 0 0
-7.4619999 -2.0450001 -0.92900002 17 0 0
-7.4699998 -2.059 -0.92799997 142 100 76
-7.4580002 -2.026 -0.87300003 255 236 134
-7.467 -2.0550001 -0.94999999 70 31 16
-7.4819999 -2.0610001 -0.93400002 59 16 0
-7.4829998 -2.062 -0.93699998 17 9 6
-7.4770002 -2.062 -0.93000001 68 38 27
-7.48 -2.0610001 -0.93000001 56 23 8
-7.4829998 -2.066 -0.91799998 106 79 68
-7.4720001 -2.0669999 -0.90799999 38 9 5
-7.4689999 -2.079 -0.898 131 67 23
-7.4689999 -2.073 -0.90100002 130 99 71
-7.4520001 -2.039 -0.97600001 42 16 3
-7.447 -2.0339999 -0.96799999 70 32 21
-7.4569998 -2.0409999 -0.97500002 71 43 31
-7.4660001 -2.0079999 -0.93099999 71 27 14
-7.5079999 -2.017 -0.921 23 14 9
-7.467 -2.006 -0.98000002 24 0 0
-7.4530001 -2.0280001 -0.98799998 9 0 0
-7.4710002 -1.983 -0.97600001 22 5 0
-7.4819999 -1.975 -0.94599998 155 93 32
-7.474 -1.9859999 -0.96200001 102 52 27
-7.4689999 -1.9960001 -0.96499997 78 45 26
-7.4450002 -2.0020001 -0.884 210 148 61
-7.4530001 -2.04 -0.96499997 25 4 0
-7.4520001 -2.03 -0.954 69 44 40
-7.4489999 -2.0090001 -0.89300001 158 109 68
-7.4380002 -1.998 -0.87400001 110 63 45
-7.441 -2.0039999 -0.87300003 85 61 17
-7.448 -2.01 -0.86699998 254 228 171
-7.4660001 -2.0250001 -0.90700001 20 10 9
-7.5100002 -2.0190001 -0.91799998 11 2 3
-7.4749999 -2.016 -0.88499999 201 121 62
-7.4720001 -2.007 -0.87800002 110 66 39
-7.5159998 -2.063 -0.85900003 124 67 0
-7.5180001 -2.059 -0.86299998 82 32 9
-7.5190001 -2.056 -0.86400002 65 17 0
-7.5180001 -2.0569999 -0.86000001 115 57 17
-7.5159998 -2.05 -0.866 47 7 0
-7.5190001 -2.0539999 -0.866 68 26 10
-7.5050001 -2.0650001 -0.87 85 33 0
-7.4790001 -2.062 -0.87900001 169 125 80
-7.4720001 -2.0569999 -0.87400001 162 93 34
-7.4580002 -2.062 -0.88599998 251 215 101
-7.4580002 -2.062 -0.88700002 205 168 142
-7.4970002 -2.046 -0.85000002 181 136 94
-7.4970002 -2.039 -0.86199999 96 58 22
-7.5110002 -1.994 -0.96899998 63 15 0
-7.5089998 -2.0009999 -0.96200001 97 48 5
-7.4959998 -2.052 -1.006 44 16 5
-7.506 -2.023 -1.0140001 42 6 0
-7.4790001 -2.0420001 -1.029 64 30 18
-7.4879999 -2.0450001 -1.015 64 23 5
-7.4959998 -2.0450001 -1.031 25 10 7
-7.5009999 -2.0439999 -1.028 41 24 14
-7.527 -2.0409999 -0.92400002 34 20 9
-7.5229998 -2.0420001 -0.921 75 19 0
-7.5240002 -2.03 -0.93300003 24 10 9
-7.5209999 -2.049 -0.935 25 11 8
-7.5159998 -2.053 -0.93300003 34 0 0
-7.5 -2.0539999 -0.91299999 80 46 9
-7.5100002 -2.039 -0.97299999 12 2 3
-7.5139999 -2.039 -0.97500002 22 3 0
-7.507 -2.0450001 -0.95499998 22 2 1
-7.5149999 -2.04 -0.98199999 46 16 0
-7.5009999 -2.0439999 -0.97799999 30 10 1
-7.5149999 -2.0450001 -0.949 18 0 0
-7.5170002 -2.0120001 -1.044 100 58 33
-7.5120001 -2 -1.0420001 96 53 34
-7.5170002 -2.0050001 -1.051 38 15 1
-7.5180001 -2.0090001 -1.036 37 22 19
-7.5159998 -2.0139999 -1.033 66 40 27
-7.487 -1.993 -1.006 153 118 86
-7.4899998 -1.997 -1.031 41 11 1
-7.4720001 -2.0109999 -1.034 12 2 1
-7.4749999 -2.01 -1.0319999 23 9 6
-7.4840002 -2.0009999 -1.031 38 17 14
-7.5159998 -2.006 -1.046 17 0 0
-7.5139999 -2.003 -1.043 88 47 27
-7.5139999 -2.0039999 -1.039 99 75 73
-7.507 -2.006 -1.054 19 0 0
-7.4840002 -2.0009999 -1.052 144 122 108
-7.513 -2.0109999 -1.058 22 1 0
-7.5019999 -2.0439999 -1.048 55 47 1
-7.506 -2.04 -1.0420001 85 75 74
-7.4580002 -2.0150001 -1.028 64 53 47
-7.4619999 -2.0179999 -1.034 4 0 1
-7.467 -2.0450001 -0.98100001 23 9 6
-7.4959998 -1.992 -0.98199999 14 0 0
-7.4809999 -2.0380001 -0.861 209 142 55
-7.4780002 -2.0510001 -0.884 69 37 12
-7.4749999 -2.05 -0.89200002 204 127 47
-7.4640002 -2.01 -1.056 107 82 28
-7.46 -2.0050001 -1.049 30 11 4
-7.4819999 -2.0050001 -1.061 25 13 17
-7.4840002 -2.006 -1.059 32 18 9
-7.5159998 -2.0109999 -0.94599998 130 59 3
-7.5 -1.985 -0.94 135 97 61
-7.5019999 -1.975 -0.95899999 69 43 28
-7.4899998 -2.049 -0.963 46 17 1
-7.4569998 -2.0109999 -0.98199999 12 4 2
-7.5120001 -2.0039999 -1.0089999 24 5 0
-7.4860001 -2.0320001 -1.054 28 0 0
-7.507 -2.033 -1.028 21 0 0
-7.5040002 -2.0280001 -1.026 13 2 0
-7.5050001 -2.036 -1.02 194 171 165
-7.4889998 -1.993 -1 28 4 0
-7.4619999 -2.029 -0.92199999 56 27 19
-7.474 -2.0639999 -0.91799998 51 19 8
-7.473 -2.0510001 -0.97399998 107 79 78
-7.4790001 -2.0569999 -0.94999999 104 72 51
-7.4679999 -2.0569999 -0.935 46 5 0
-7.4619999 -2.0650001 -0.88 180 133 79
-7.4840002 -2.066 -0.91900003 63 46 16
-7.4569998 -2.046 -0.96200001 46 18 7
-7.4619999 -2.0480001 -0.96399999 36 8 4
-7.4450002 -2.033 -0.97100002 61 21 11
-7.4689999 -2.046 -0.977 12 1 0
-7.4619999 -2.013 -0.93199998 37 0 0
-7.506 -2.016 -0.92500001 17 7 5
-7.5009999 -2.017 -0.92299998 97 67 56
-7.4749999 -1.978 -0.958 50 10 0
-7.4809999 -1.976 -0.949 141 81 27
-7.4840002 -1.973 -0.94599998 74 45 37
-7.4580002 -2.016 -0.99000001 20 10 9
-7.4590001 -2.0109999 -0.90600002 71 48 42
-7.4439998 -2.01 -0.88999999 255 220 181
-7.4419999 -2.0050001 -0.86900002 175 126 50
-7.5100002 -2.0650001 -0.86699998 59 16 7
-7.4949999 -2.063 -0.86000001 158 82 30
-7.474 -2.053 -0.87199998 152 89 36
-7.5050001 -2.0409999 -0.86000001 151 86 30
-7.4920001 -2.0450001 -0.85500002 114 60 24
-7.5079999 -2.043 -0.87099999 116 61 0
-7.5019999 -2.0420001 -0.866 155 90 32
-7.5120001 -2.006 -0.97299999 55 20 0
-7.506 -2.006 -0.98299998 15 1 0
-7.52 -2.0009999 -0.99800003 16 11 8
-7.5100002 -2.0239999 -0.99199998 25 8 1
-7.4920001 -2.049 -1.008 28 3 0
-7.4899998 -2.0439999 -1.031 54 12 0
-7.4949999 -2.046 -1.0420001 85 42 8
-7.507 -2.0439999 -1.016 41 21 10
-7.4959998 -2.043 -1.022 17 2 0
-7.5209999 -2.0409999 -0.917 130 91 60
-7.5229998 -2.036 -0.92699999 3 0 0
-7.5180001 -2.0510001 -0.92900002 42 13 9
-7.5139999 -2.04 -0.97799999 25 0 0
-7.494 -2.046 -0.97299999 24 16 13
-7.4920001 -2.0480001 -0.99199998 25 1 0
-7.5159998 -2.039 -0.97799999 24 7 0
-7.5149999 -2.046 -0.94700003 17 1 1
-7.5159998 -1.9960001 -1.023 8 3 0
-7.5190001 -2.007 -1.0319999 44 22 11
-7.5170002 -2.01 -1.04 50 23 12
-7.5170002 -2.036 -0.98199999 17 6 4
-7.4899998 -2.003 -1.052 28 11 3
-7.4990001 -2.013 -1.052 76 61 54
-7.5040002 -2.0150001 -1.045 31 11 2
-7.5110002 -2.0079999 -1.061 37 13 3
-7.5100002 -2.0179999 -1.043 47 21 8
-7.513 -2.0439999 -0.99299997 67 28 13
-7.4780002 -1.987 -0.98100001 15 4 2
-7.4780002 -1.9859999 -0.97799999 18 0 0
-7.4790001 -1.989 -0.98900002 20 2 2
-7.4850001 -1.9809999 -0.97500002 64 36 22
-7.4819999 -1.99 -0.986 33 4 0
-7.4850001 -2.0550001 -0.86500001 133 83 0
-7.5110002 -2.01 -0.96499997 41 17 7
-7.506 -1.983 -0.94099998 24 0 0
-7.4809999 -2.053 -0.95499998 96 61 41
-7.5110002 -2.0220001 -1.0089999 5 0 1
-7.4569998 -2.026 -1.01 8 0 0
-7.506 -2.043 -1.025 16 1 0
-7.4660001 -2.0309999 -0.91900003 74 26 3
-7.4660001 -2.0380001 -0.92299998 48 15 0
-7.4619999 -2.03 -0.92900002 22 7 2
-7.4749999 -2.062 -0.926 45 5 0
-7.4720001 -2.063 -0.91399997 45 17 6
-7.4699998 -2.062 -0.90899998 33 4 0
-7.4590001 -2.023 -0.91600001 22 0 0
-7.4450002 -2.0179999 -0.88999999 95 58 13
-7.4749999 -2.05 -0.97100002 39 15 13
-7.4710002 -2.052 -0.97100002 63 21 0
-7.4699998 -2.059 -0.91399997 150 99 70
-7.4640002 -2.0650001 -0.88 124 79 24
-7.454 -2.0179999 -0.97000003 62 22 10
-7.454 -2.0369999 -0.98000002 67 40 23
-7.4450002 -2.033 -0.972 35 9 0
-7.4770002 -1.984 -0.95099998 114 60 32
-7.4980001 -1.971 -0.95999998 76 47 31
-7.4689999 -2 -0.96399999 59 32 25
-7.4640002 -2.01 -0.97000003 54 28 11
-7.461 -2.01 -0.98699999 18 4 3
-7.454 -2.017 -0.87099999 145 102 49
-7.461 -2.01 -0.90399998 43 16 0
-7.4699998 -2.013 -0.87099999 99 41 4
-7.4590001 -2.0090001 -0.86799997 193 126 56
-7.5110002 -2.0610001 -0.87099999 142 79 26
-7.493 -2.0610001 -0.861 179 114 34
-7.5079999 -2.013 -0.98799998 88 51 32
-7.4980001 -2.046 -1.0470001 23 1 0
-7.5009999 -2.046 -1.046 13 0 0
-7.5229998 -2.0439999 -0.935 11 0 0
-7.52 -2.0320001 -0.92199999 19 1 0
-7.5159998 -2.052 -0.93000001 215 165 128
-7.4889998 -2.0450001 -0.97899997 60 35 13
-7.5149999 -1.999 -1.031 11 1 2
-7.5139999 -2.0239999 -0.96700001 133 97 61
-7.5040002 -2 -1.046 25 0 0
-7.4980001 -2.0450001 -0.991 50 25 5
-7.4809999 -1.99 -0.98799998 23 3 4
-7.4889998 -2.0439999 -1.017 57 39 27
-7.507 -2.0079999 -1.02 12 0 4
-7.4879999 -2.046 -1.049 70 50 39
-7.461 -2.0239999 -1.003 4 0 1
-7.4679999 -2.033 -1.046 37 7 0
-7.5100002 -2.0309999 -1.041 19 5 4
-7.461 -2.029 -0.93000001 21 4 0
-7.4660001 -2.0780001 -0.89700001 119 88 70
-7.4520001 -2.0250001 -0.98500001 15 0 0
-7.4559999 -2.016 -0.96700001 54 32 18
-7.4510002 -2.0369999 -0.97000003 50 26 0
-7.4650002 -2.0009999 -0.95599997 69 21 7
-7.494 -1.978 -0.96700001 23 6 0
-7.4749999 -2.023 -0.89700001 78 55 39
-7.4860001 -2.0469999 -0.85699999 179 135 88
-7.5149999 -2.0190001 -0.98100001 29 11 0
-7.5040002 -2.046 -1.013 20 2 0
-7.5019999 -2.043 -1.018 22 1 0
-7.5139999 -2.003 -1.036 95 66 52
-7.5009999 -1.994 -1.006 42 20 9
-7.4629998 -2.02 -1.034 17 11 0
-7.5089998 -2.0420001 -0.98799998 42 23 17
-7.4629998 -2.0739999 -0.898 202 164 55
-7.4920001 -1.976 -0.96499997 58 25 8
-7.4660001 -2.0090001 -0.96600002 82 62 55
-7.4619999 -2.006 -0.87199998 167 95 37
-7.513 -2.0039999 -1.003 29 17 19
-7.4860001 -2.0420001 -1.0369999 27 2 0
-7.5050001 -2.043 -1.03 24 11 3
-7.506 -2.0550001 -0.93000001 30 11 4
-7.5089998 -2.043 -0.99299997 72 57 50
-7.494 -2.043 -0.98199999 18 0 0
-7.5100002 -2.039 -1.0319999 53 20 11
-7.48 -1.99 -0.991 25 1 0
-7.4629998 -2.0179999 -0.86699998 235 170 78
0 0 0 1 0 0 0 1 0 0 0 1 0 0 0 0 0 735 1 0 0
