ply
format ascii 1.0
comment PCL generated
element vertex 91
property float x
property float y
property float z
property uchar red
property uchar green
property uchar blue
element camera 1
property float view_px
property float view_py
property float view_pz
property float x_axisx
property float x_axisy
property float x_axisz
property float y_axisx
property float y_axisy
property float y_axisz
property float z_axisx
property float z_axisy
property float z_axisz
property float focal
property float scalex
property float scaley
property float centerx
property float centery
property int viewportx
property int viewporty
property float k1
property float k2
end_header
5.1620002 11.345 -0.76700002 95 54 36
5.1620002 11.345 -0.755 124 68 19
5.152 11.346 -0.76899999 87 54 49
5.158 11.345 -0.76599997 89 64 44
5.1539998 11.339 -0.75700003 118 89 71
5.1599998 11.343 -0.75400001 53 25 14
5.1669998 11.343 -0.75800002 93 66 49
5.1599998 11.34 -0.759 136 87 54
5.1230001 11.324 -0.85299999 57 17 5
5.1220002 11.324 -0.84399998 49 6 0
5.1339998 11.325 -0.86000001 104 75 61
5.1220002 11.316 -0.89499998 89 47 22
5.119 11.324 -0.89300001 72 42 44
5.112 11.306 -0.89899999 197 165 142
5.119 11.308 -0.89899999 194 164 153
5.118 11.305 -0.89700001 190 137 87
5.1440001 11.327 -0.81599998 61 43 43
5.1409998 11.334 -0.80000001 88 45 13
5.1479998 11.329 -0.79400003 120 105 100
5.1570001 11.342 -0.78100002 80 60 36
5.151 11.332 -0.78399998 116 79 63
5.1469998 11.329 -0.78299999 108 85 77
5.1500001 11.333 -0.77399999 124 100 90
5.1389999 11.329 -0.77999997 106 67 36
5.1160002 11.32 -0.89099997 56 24 3
5.1160002 11.309 -0.88099998 138 109 95
5.1220002 11.305 -0.87800002 173 144 126
5.119 11.302 -0.88700002 168 141 124
5.1199999 11.314 -0.86299998 145 117 95
5.132 11.317 -0.86900002 56 42 41
5.1360002 11.317 -0.85699999 74 47 40
5.1279998 11.317 -0.86500001 103 72 43
5.1199999 11.306 -0.89099997 189 138 85
5.1339998 11.322 -0.81999999 84 66 46
5.1389999 11.322 -0.82499999 53 28 21
5.131 11.32 -0.82599998 62 42 31
5.1409998 11.329 -0.79500002 139 90 50
5.1430001 11.331 -0.78899997 146 97 57
5.1339998 11.328 -0.80800003 136 106 82
5.1360002 11.32 -0.84200001 81 53 50
5.152 11.336 -0.78299999 98 81 74
5.1539998 11.335 -0.778 55 33 22
5.1609998 11.341 -0.76599997 60 33 24
5.1599998 11.34 -0.76599997 110 68 43
5.1599998 11.34 -0.76300001 37 19 19
5.1259999 11.313 -0.86699998 136 134 145
5.1269999 11.316 -0.861 175 155 146
5.1170001 11.32 -0.88099998 52 21 3
5.1209998 11.316 -0.86699998 114 88 75
5.1290002 11.318 -0.83499998 103 84 70
5.1199999 11.314 -0.87300003 125 99 86
5.125 11.311 -0.87800002 130 130 140
5.1160002 11.308 -0.88999999 158 127 109
5.1350002 11.324 -0.82700002 97 69 66
5.1389999 11.328 -0.80699998 94 42 3
5.1329999 11.321 -0.84299999 88 60 36
5.1500001 11.339 -0.78100002 71 38 33
5.1560001 11.341 -0.76200002 73 51 40
5.1599998 11.337 -0.773 34 20 20
5.1529999 11.339 -0.764 166 114 77
5.152 11.338 -0.76499999 134 90 61
5.1259999 11.315 -0.85699999 131 128 135
5.1220002 11.316 -0.86500001 111 73 50
5.118 11.312 -0.88499999 133 84 43
5.1220002 11.316 -0.88800001 97 56 26
5.1350002 11.325 -0.81900001 119 64 23
5.1339998 11.322 -0.83099997 106 84 61
5.1399999 11.329 -0.801 114 62 25
5.1370001 11.326 -0.81300002 98 45 3
5.132 11.323 -0.83099997 80 27 0
5.1500001 11.34 -0.77700001 78 61 51
5.1479998 11.335 -0.778 187 138 97
5.1459999 11.333 -0.78399998 162 114 76
5.125 11.31 -0.87 142 113 97
5.1279998 11.319 -0.84299999 190 155 133
5.1259999 11.318 -0.85000002 127 93 68
5.1209998 11.307 -0.88499999 196 146 93
5.1209998 11.316 -0.87199998 117 78 49
5.1339998 11.324 -0.82499999 104 51 7
5.131 11.321 -0.83600003 64 32 11
5.151 11.334 -0.778 119 81 62
5.1529999 11.337 -0.76599997 99 71 59
5.1259999 11.319 -0.84899998 85 28 0
5.118 11.322 -0.88700002 112 74 51
5.125 11.314 -0.87599999 104 75 45
5.1300001 11.321 -0.83700001 91 36 0
5.1479998 11.337 -0.77100003 185 136 96
5.1290002 11.321 -0.84299999 91 32 0
5.125 11.317 -0.85500002 91 37 1
5.1259999 11.313 -0.875 85 50 18
5.1209998 11.32 -0.88 106 78 56
0 0 0 1 0 0 0 1 0 0 0 1 0 0 0 0 0 91 1 0 0
