ply
format ascii 1.0
comment PCL generated
element vertex 1258
property float x
property float y
property float z
property uchar red
property uchar green
property uchar blue
element camera 0
property float view_px
property float view_py
property float view_pz
property float x_axisx
property float x_axisy
property float x_axisz
property float y_axisx
property float y_axisy
property float y_axisz
property float z_axisx
property float z_axisy
property float z_axisz
property float focal
property float scalex
property float scaley
property float centerx
property float centery
property int viewportx
property int viewporty
property float k1
property float k2
end_header
4.3249998 4.0650001 -0.847 14 2 2
4.4109998 4.119 -0.81099999 21 1 0
4.408 4.1269999 -0.81400001 92 83 88
4.4070001 4.0830002 -0.86799997 103 93 94
4.4050002 4.086 -0.87099999 2 0 3
4.5710001 4.0679998 -0.32600001 243 249 237
4.5640001 4.0710001 -0.32300001 179 145 100
4.4299998 4.072 -0.25999999 64 43 42
4.7210002 4.165 -0.29699999 22 12 10
4.7210002 4.1659999 -0.292 35 21 18
4.723 4.1659999 -0.29499999 59 26 9
4.7199998 4.1630001 -0.30500001 30 12 12
4.744 4.1609998 -0.315 86 74 76
4.7189999 4.1739998 -0.25999999 242 250 252
4.7069998 4.164 -0.285 43 23 22
4.711 4.1680002 -0.285 63 19 10
4.4819999 4.1880002 -0.75 119 84 62
4.4850001 4.191 -0.75099999 19 5 4
4.473 4.1989999 -0.73699999 13 8 5
4.4720001 4.198 -0.73400003 7 0 0
4.507 4.132 -0.80500001 45 17 3
4.4990001 4.1360002 -0.81199998 22 1 0
4.4949999 4.1350002 -0.78899997 119 102 95
4.4920001 4.099 -0.81900001 41 23 21
4.48 4.0890002 -0.82099998 30 10 9
4.4860001 4.098 -0.83399999 17 3 2
4.507 4.1040001 -0.81999999 24 6 4
4.5599999 4.073 -0.82300001 21 0 0
4.5689998 4.0619998 -0.81800002 55 47 44
4.5110002 4.1170001 -0.815 27 7 6
4.5100002 4.1129999 -0.81199998 37 13 1
4.5630002 4.0679998 -0.815 40 27 21
4.566 4.0679998 -0.796 54 45 50
4.5640001 4.066 -0.81 178 160 156
4.573 4.0609999 -0.82800001 17 7 6
4.4920001 4.0440001 -0.80599999 120 100 89
4.4650002 4.052 -0.85900003 1 0 0
4.46 4.006 -0.84899998 30 16 16
4.4310002 4.046 -0.86900002 19 0 0
4.4310002 4.0510001 -0.85699999 91 68 54
4.415 4.0479999 -0.85600001 56 33 19
4.4099998 4.0440001 -0.866 11 1 0
4.434 4.0700002 -0.84100002 39 28 24
4.4200001 4.0630002 -0.85299999 9 0 1
4.4229999 4.0419998 -0.84899998 17 2 5
4.467 4.0650001 -0.84899998 11 5 5
4.48 4.0710001 -0.84500003 8 0 0
4.4510002 4.0510001 -0.85500002 1 0 0
4.4850001 4.1529999 -0.73199999 18 3 0
4.4749999 4.1199999 -0.759 73 68 72
4.4749999 4.0949998 -0.77999997 47 16 0
4.4679999 4.085 -0.78500003 48 19 1
4.3979998 4.1440001 -0.77399999 30 7 0
4.3839998 4.1389999 -0.76899999 13 2 0
4.447 4.0999999 -0.75999999 116 98 94
4.4559999 4.119 -0.76099998 138 124 123
4.4400001 4.1329999 -0.736 137 113 103
4.434 4.1350002 -0.73799998 209 181 169
4.4380002 4.1350002 -0.73699999 70 50 41
4.4349999 4.1399999 -0.73699999 108 89 83
4.4699998 4.1500001 -0.72799999 82 64 52
4.4689999 4.1459999 -0.73199999 126 93 76
4.4720001 4.2220001 -0.648 38 30 28
4.494 4.2280002 -0.66299999 60 58 63
4.4840002 4.2350001 -0.63 139 115 105
4.4850001 4.2309999 -0.62400001 147 100 70
4.395 4.1090002 -0.80299997 20 10 11
4.3889999 4.1129999 -0.80299997 5 0 1
4.474 4.2030001 -0.75 43 19 7
4.4650002 4.1830001 -0.69599998 118 100 96
4.4699998 4.1859999 -0.70200002 44 29 26
4.4720001 4.1739998 -0.69800001 19 3 3
4.4949999 4.1950002 -0.66799998 83 56 45
4.4959998 4.1739998 -0.69099998 85 71 62
4.467 4.2160001 -0.66799998 43 22 3
4.4499998 4.197 -0.67699999 31 17 14
4.4580002 4.1950002 -0.67699999 31 10 7
4.7020001 3.961 -0.85399997 223 200 184
4.5799999 3.9960001 -0.86299998 14 0 0
4.5929999 3.9920001 -0.80400002 110 87 79
4.678 4.072 -0.64399999 28 8 7
4.7729998 3.9719999 -0.79799998 75 41 6
4.7459998 3.9920001 -0.80599999 49 20 12
4.559 3.892 -0.85699999 27 9 0
4.5510001 3.852 -0.88700002 68 32 6
4.533 3.8710001 -0.866 32 14 10
4.5809999 3.974 -0.84799999 9 0 1
4.382 3.9760001 -0.86900002 15 3 3
4.3660002 3.869 -0.90799999 145 134 138
4.3540001 3.881 -0.89399999 10 5 9
4.362 3.8900001 -0.88999999 109 81 69
4.3319998 3.984 -0.88499999 23 8 5
4.3330002 3.9749999 -0.88099998 18 5 0
4.3579998 3.9549999 -0.86500001 14 0 2
4.3600001 3.931 -0.884 48 11 3
4.3540001 3.947 -0.88300002 131 121 120
4.4460001 3.9779999 -0.86000001 19 5 2
4.4450002 4.007 -0.88599998 16 0 0
4.4510002 3.9960001 -0.90899998 65 53 55
4.4640002 3.993 -0.88599998 103 80 72
4.473 3.9890001 -0.89200002 14 0 0
4.4710002 4.0079999 -0.884 19 1 0
4.474 3.957 -0.86400002 117 90 63
4.474 3.983 -0.89099997 19 3 3
4.4710002 3.9809999 -0.89200002 17 1 1
4.4330001 3.987 -0.88200003 98 71 60
4.4320002 3.973 -0.898 28 18 8
4.441 3.9849999 -0.88300002 167 157 156
4.4320002 3.9649999 -0.89399999 47 14 5
4.4099998 3.9419999 -0.866 76 45 27
4.4429998 3.924 -0.86799997 130 100 74
4.4289999 3.9289999 -0.88999999 14 0 0
4.4219999 3.8940001 -0.88599998 29 14 11
4.421 3.8940001 -0.884 23 5 3
4.428 3.927 -0.88700002 204 179 149
4.4429998 3.846 -0.88599998 37 16 11
4.467 3.8369999 -0.88999999 20 9 5
4.382 4.053 -0.898 89 65 55
4.382 4.0630002 -0.90499997 69 46 12
4.6230001 3.971 -0.72500002 103 88 85
4.6269999 3.977 -0.713 72 43 29
4.5809999 3.973 -0.73299998 255 227 178
4.5830002 3.9820001 -0.73199999 190 154 120
4.5430002 4.0510001 -0.64999998 16 2 0
4.585 3.9630001 -0.79299998 24 6 6
4.5679998 3.9990001 -0.79699999 80 59 54
4.5760002 3.9909999 -0.73199999 40 8 0
4.5619998 3.9719999 -0.73400003 49 30 24
4.4499998 3.9690001 -0.71499997 49 13 0
4.546 3.9909999 -0.755 64 64 76
4.559 4.007 -0.75400001 57 57 67
4.6079998 4.0180001 -0.73400003 37 18 14
4.6090002 4.0229998 -0.74000001 31 11 10
4.6110001 4.013 -0.72899997 51 27 17
4.6040001 4.0100002 -0.73000002 33 15 11
4.6199999 4.053 -0.755 139 120 113
4.6090002 4.0619998 -0.77399999 40 19 0
4.6199999 4.046 -0.76099998 53 29 19
4.6020002 4.079 -0.76200002 27 17 18
4.5900002 4.0229998 -0.70099998 125 114 112
4.5869999 4.0229998 -0.70499998 139 99 63
4.5700002 4.0489998 -0.73900002 26 7 0
4.572 4.0310001 -0.74900001 35 17 13
4.5760002 4.053 -0.73100001 11 1 2
4.6030002 4.0359998 -0.69800001 112 96 97
4.5869999 4.0479999 -0.71600002 32 3 0
4.586 4.039 -0.71600002 43 12 7
4.5890002 4.053 -0.71899998 79 63 63
4.645 4.0009999 -0.69300002 77 39 3
4.6570001 3.9979999 -0.70999998 21 8 2
4.619 4.0500002 -0.75400001 56 37 31
4.6209998 4.04 -0.75300002 146 131 128
4.6059999 4.0409999 -0.72899997 59 36 28
4.4970002 4.197 -0.74800003 58 31 24
4.4559999 4.1399999 -0.76800001 74 41 24
4.4450002 4.1399999 -0.77700001 51 24 17
4.4510002 4.1479998 -0.75199997 14 0 2
4.4590001 3.846 -0.73500001 152 124 120
4.4679999 3.895 -0.71200001 34 7 0
4.467 3.8859999 -0.722 45 12 3
4.5079999 3.8800001 -0.713 175 170 176
4.5609999 3.789 -0.75199997 165 137 123
4.5799999 3.747 -0.78799999 98 70 58
4.5349998 3.776 -0.75599998 79 47 34
4.546 3.7820001 -0.74699998 139 111 97
4.5250001 3.845 -0.74000001 23 6 0
4.5300002 3.846 -0.75 209 181 157
4.6539998 3.7620001 -0.741 178 166 166
4.6529999 3.7620001 -0.727 24 11 5
4.6329999 3.7950001 -0.72500002 53 31 17
4.6360002 3.7939999 -0.72399998 66 38 16
4.6589999 3.7690001 -0.73400003 39 25 16
4.6240001 3.777 -0.74900001 60 33 24
4.5869999 3.839 -0.76700002 11 0 0
4.6220002 3.9779999 -0.76300001 15 1 0
4.5929999 3.9849999 -0.74900001 118 99 93
4.6389999 3.8310001 -0.755 170 114 79
4.6020002 3.8199999 -0.75300002 53 13 3
4.6370001 3.8210001 -0.74900001 165 106 66
4.6170001 3.799 -0.72799999 26 17 18
4.5700002 3.809 -0.71700001 89 64 59
4.5349998 3.8399999 -0.74900001 194 168 153
4.5339999 3.845 -0.75099999 240 220 196
4.6329999 3.7820001 -0.68800002 57 47 48
4.6290002 3.78 -0.69400001 58 36 23
4.6110001 3.747 -0.70200002 68 43 23
4.6279998 3.7479999 -0.67699999 142 126 126
4.493 3.823 -0.60000002 130 100 76
4.4889998 3.9100001 -0.70200002 43 22 17
4.4910002 3.911 -0.708 19 2 0
4.48 3.9030001 -0.69300002 33 18 15
4.7010002 3.9590001 -0.78899997 56 49 30
4.625 3.99 -0.70300001 31 7 3
4.697 3.7409999 -0.64700001 45 17 6
4.7880001 3.947 -0.71899998 34 5 0
4.8119998 3.967 -0.75599998 79 51 27
4.8600001 3.95 -0.69 111 75 53
4.8150001 3.954 -0.736 89 62 55
4.7909999 3.9549999 -0.76099998 195 168 149
4.8070002 3.9790001 -0.764 45 19 2
4.7979999 3.974 -0.76599997 249 216 199
4.7810001 3.9530001 -0.80500001 60 59 65
4.777 3.9519999 -0.77600002 120 86 59
4.7930002 3.97 -0.76599997 49 20 4
4.8010001 3.9549999 -0.755 68 47 42
4.763 3.9649999 -0.76800001 159 137 126
4.7600002 3.9679999 -0.77499998 166 137 107
4.7729998 3.971 -0.78100002 109 74 44
4.77 3.9319999 -0.80400002 96 100 111
4.7090001 3.75 -0.63300002 38 20 20
4.6339998 3.7360001 -0.60299999 134 129 135
4.6350002 3.7349999 -0.59899998 153 136 126
4.6700001 3.7509999 -0.54100001 87 64 50
4.6669998 3.7420001 -0.53799999 35 12 0
4.6869998 3.7620001 -0.63599998 29 13 13
4.6669998 3.7969999 -0.74900001 28 18 17
4.6669998 3.802 -0.74699998 91 86 93
4.6609998 3.8099999 -0.74800003 29 15 12
4.664 3.8139999 -0.74900001 50 36 35
4.6430001 3.8110001 -0.78299999 13 0 0
4.632 3.8180001 -0.78299999 121 92 74
4.6409998 3.8180001 -0.78399998 20 5 0
4.6370001 3.8110001 -0.77700001 40 23 16
4.6539998 3.7820001 -0.72100002 50 14 0
4.6599998 3.786 -0.73100001 95 86 87
4.6420002 3.8380001 -0.79100001 48 19 1
4.652 3.8210001 -0.801 100 98 109
4.6240001 3.8340001 -0.80699998 148 134 131
4.618 3.8310001 -0.80599999 175 152 138
4.618 3.822 -0.81699997 93 98 104
4.619 3.819 -0.80400002 37 24 18
4.6329999 3.8559999 -0.83700001 106 106 114
4.783 3.9560001 -0.68300003 68 40 26
4.6669998 3.96 -0.60699999 47 29 19
4.6589999 3.954 -0.56800002 36 13 0
4.6729999 4.0640001 -0.63099998 88 68 59
4.671 4.0640001 -0.63300002 82 63 57
4.6750002 4.0640001 -0.62900001 111 91 82
4.6479998 3.974 -0.61400002 32 8 4
4.6490002 3.9909999 -0.59899998 47 31 31
4.6329999 3.9920001 -0.611 22 4 4
4.6389999 4.0110002 -0.64099997 43 26 18
4.7360001 3.9660001 -0.79100001 29 5 1
4.7399998 3.9679999 -0.792 103 65 44
4.7579999 4.1589999 -0.398 14 4 5
4.7579999 4.158 -0.39399999 15 3 3
4.777 4.1209998 -0.30000001 153 101 62
4.783 4.1220002 -0.31200001 151 93 55
4.777 4.1259999 -0.31 146 87 29
4.7690001 4.1300001 -0.308 173 147 122
4.7750001 4.1259999 -0.30399999 116 60 23
4.7719998 4.1279998 -0.30399999 202 164 145
4.7490001 4.132 -0.29100001 59 18 0
4.4980001 3.8989999 -0.447 50 30 19
4.493 3.8870001 -0.43900001 34 16 16
4.493 3.8859999 -0.44600001 40 16 16
4.7709999 3.964 -0.708 189 159 148
4.822 3.9719999 -0.69999999 84 51 36
4.546 4.0869999 -0.333 106 96 94
4.5599999 4.0560002 -0.347 90 64 49
4.6750002 4.0500002 -0.61400002 135 121 121
4.684 4.0599999 -0.57099998 43 25 25
4.6820002 4.0599999 -0.55900002 26 2 0
4.684 4.059 -0.57300001 27 11 11
4.6929998 4.0650001 -0.60100001 55 35 26
4.678 4.0710001 -0.588 149 117 92
4.6869998 4.0619998 -0.59399998 51 18 0
4.678 4.0469999 -0.57200003 28 4 0
4.7329998 4.0879998 -0.428 148 117 112
4.5619998 4.0710001 -0.354 55 23 8
4.5619998 4.0819998 -0.35299999 73 36 28
4.5910001 4.0960002 -0.36000001 143 101 77
4.5949998 4.0939999 -0.35800001 105 62 55
4.5879998 4.0999999 -0.34599999 121 110 114
4.5749998 4.0819998 -0.361 60 33 4
4.5910001 4.0710001 -0.36199999 219 168 125
4.6789999 4.0819998 -0.46700001 47 23 13
4.6830001 4.0770001 -0.48100001 27 11 11
4.743 4.099 -0.45500001 54 20 10
4.743 4.1009998 -0.456 58 35 27
4.7410002 4.092 -0.46000001 66 36 28
4.724 4.079 -0.509 141 107 79
4.7259998 4.0809999 -0.505 104 71 54
4.7249999 4.0819998 -0.46599999 96 55 33
4.8410001 3.9809999 -0.67699999 162 149 130
4.8429999 3.987 -0.68400002 208 202 186
4.8400002 3.983 -0.68000001 211 205 183
4.7329998 4.0830002 -0.435 65 30 10
4.7410002 4.0960002 -0.458 45 27 25
4.8260002 3.961 -0.66900003 214 174 125
4.8400002 3.9749999 -0.676 176 176 166
4.6550002 3.967 -0.565 65 29 5
4.6539998 3.9679999 -0.56699997 71 45 32
4.6110001 4.026 -0.55500001 50 15 0
4.6170001 4.026 -0.55699998 33 14 7
4.6090002 4.027 -0.53399998 129 122 129
4.6789999 3.954 -0.53600001 43 28 21
4.664 4.0430002 -0.58099997 94 62 37
4.651 4.0349998 -0.58399999 101 67 57
4.6589999 4.0380001 -0.574 58 29 15
4.6329999 4.0580001 -0.60699999 49 23 6
4.651 4.0349998 -0.59399998 56 24 9
4.6500001 4.0359998 -0.58999997 71 38 21
4.678 4.0879998 -0.61400002 26 8 8
4.6869998 4.0749998 -0.60699999 125 103 90
4.6240001 4.0510001 -0.634 171 134 90
4.6300001 4.052 -0.62300003 62 25 7
4.6389999 4.0549998 -0.61799997 37 5 0
4.6420002 4.0580001 -0.60500002 15 0 0
4.6370001 4.0409999 -0.62800002 75 53 42
4.6570001 4.0500002 -0.60900003 70 39 10
4.6690001 3.9530001 -0.56699997 31 12 6
4.6399999 4.0100002 -0.667 113 94 88
4.4819999 4.1950002 -0.75199997 15 1 0
4.4840002 4.171 -0.73100001 29 14 11
4.7490001 3.983 -0.79100001 57 41 28
4.4819999 4.23 -0.61799997 16 12 1
4.5159998 4.2199998 -0.648 29 15 14
4.6570001 3.98 -0.56800002 53 24 16
4.6620002 3.9809999 -0.56999999 46 28 16
4.6259999 4.0289998 -0.54400003 32 8 4
4.5840001 4.0799999 -0.56 110 64 31
4.5890002 4.0869999 -0.56199998 23 13 12
4.6789999 4.0739999 -0.57200003 36 20 20
4.5180001 4.2179999 -0.65799999 46 32 31
4.5149999 4.2090001 -0.60399997 46 31 26
4.5219998 4.21 -0.59299999 25 11 8
4.5209999 4.21 -0.59500003 36 21 14
4.7010002 4.1469998 -0.24699999 156 105 42
4.5580001 4.0879998 -0.329 44 19 12
4.7129998 4.1149998 -0.35600001 26 12 11
4.704 4.112 -0.35699999 33 19 18
4.717 4.118 -0.352 122 94 91
4.7189999 4.1199999 -0.35499999 57 33 31
4.743 4.1799998 -0.31299999 109 97 97
4.711 4.1290002 -0.39199999 10 4 6
4.7030001 4.1139998 -0.35299999 100 64 42
4.7090001 4.1220002 -0.35499999 97 42 3
4.723 4.1259999 -0.32499999 31 12 8
4.7189999 4.1199999 -0.347 27 9 5
4.7179999 4.131 -0.35100001 111 90 85
4.724 4.1350002 -0.352 83 57 44
4.7189999 4.1199999 -0.35800001 56 35 34
4.7579999 4.158 -0.368 46 32 32
4.7610002 4.1620002 -0.37 16 2 1
4.7129998 4.1290002 -0.38499999 10 1 4
4.724 4.1339998 -0.36899999 56 31 24
4.724 4.1399999 -0.35600001 33 9 0
4.7519999 4.132 -0.31299999 75 29 5
4.3990002 4.092 -0.35499999 26 5 2
4.7049999 4.1059999 -0.26199999 150 125 121
4.6989999 4.1129999 -0.264 66 43 35
4.697 4.1199999 -0.27000001 103 74 66
4.7280002 4.1300001 -0.29699999 184 156 134
4.7160001 4.1469998 -0.28600001 175 116 82
4.7210002 4.158 -0.30000001 31 11 12
4.7129998 4.1240001 -0.28200001 88 41 11
4.5120001 3.7609999 -0.45699999 14 0 0
4.5170002 3.7679999 -0.47499999 22 11 9
4.5190001 3.767 -0.47400001 35 20 15
4.4000001 4.0749998 -0.38800001 40 19 24
4.5009999 4.2589998 -0.43900001 67 37 13
4.6830001 4.1700001 -0.28 103 87 87
4.7210002 4.158 -0.30199999 26 10 10
4.5430002 4.29 -0.43700001 143 119 91
4.539 4.2849998 -0.433 147 126 97
4.5289998 4.2940001 -0.44400001 190 187 178
4.7540002 4.1370001 -0.41499999 46 29 21
4.7519999 4.145 -0.421 24 13 21
4.7550001 4.151 -0.41299999 120 107 101
4.7540002 4.1479998 -0.41999999 19 9 17
4.75 4.138 -0.44100001 41 29 31
4.6919999 4.099 -0.43200001 94 55 24
4.6849999 4.0910001 -0.44100001 101 59 34
4.6960001 4.1040001 -0.44400001 15 7 5
4.7470002 4.1230001 -0.435 56 32 22
4.7459998 4.1259999 -0.433 34 18 18
4.7080002 4.1230001 -0.40400001 16 7 10
4.6880002 4.0840001 -0.449 66 38 27
4.7179999 4.0780001 -0.447 135 83 43
4.7220001 4.1199999 -0.458 75 39 25
4.7340002 4.1279998 -0.44600001 102 61 31
4.7270002 4.1209998 -0.461 67 43 33
4.724 4.1209998 -0.463 51 13 0
4.757 4.1399999 -0.40200001 54 35 29
4.7579999 4.1560001 -0.40099999 17 6 10
4.6820002 4.0949998 -0.53899997 51 24 7
4.6750002 4.0799999 -0.528 44 31 14
4.724 4.1149998 -0.47799999 92 69 53
4.7290001 4.118 -0.491 39 23 23
4.7280002 4.085 -0.52399999 27 6 3
4.7290001 4.0910001 -0.51999998 10 1 4
4.7280002 4.0949998 -0.51800001 46 26 25
4.7129998 4.092 -0.53299999 27 15 17
4.698 4.0809999 -0.53899997 94 79 76
4.7059999 4.092 -0.53899997 74 36 17
4.6919999 4.0669999 -0.54100001 57 45 45
4.691 4.0689998 -0.53200001 28 10 6
4.7020001 4.0689998 -0.51999998 142 111 93
4.704 4.0799999 -0.51800001 80 44 12
4.6939998 4.1160002 -0.463 41 21 10
4.6880002 4.1100001 -0.46700001 66 43 35
4.7360001 4.1269999 -0.479 60 41 27
4.7410002 4.1259999 -0.47400001 32 14 2
4.7480001 4.125 -0.45300001 42 21 20
4.7420001 4.1139998 -0.45199999 106 96 97
4.6830001 4.053 -0.551 11 3 1
4.6830001 4.0510001 -0.55400002 36 12 10
4.6859999 4.0689998 -0.54900002 82 70 72
4.664 4.0840001 -0.45699999 132 117 112
4.6880002 4.0749998 -0.48199999 57 28 24
4.6939998 4.0760002 -0.484 38 18 17
4.677 4.0900002 -0.44400001 183 169 169
4.7049999 4.079 -0.45100001 154 143 147
4.5869999 4.0770001 -0.41299999 82 44 25
4.6059999 4.0780001 -0.463 44 17 8
4.6090002 4.0689998 -0.47799999 78 79 84
4.6059999 4.0760002 -0.45699999 21 3 0
4.5819998 4.066 -0.43399999 171 96 56
4.5910001 4.0760002 -0.42899999 93 49 20
4.5960002 4.072 -0.44100001 82 42 16
4.6950002 4.0840001 -0.46200001 150 120 96
4.704 4.0830002 -0.5 146 118 94
4.7160001 4.0819998 -0.5 75 42 11
4.71 4.086 -0.49700001 62 38 34
4.7080002 4.0799999 -0.505 74 39 19
4.7049999 4.0960002 -0.54400003 36 6 0
4.704 4.0960002 -0.54699999 41 13 2
4.7059999 4.1030002 -0.54100001 20 5 0
4.7020001 4.0929999 -0.54699999 44 16 4
4.5180001 4.1079998 -0.676 44 33 27
4.5640001 4.0510001 -0.64300001 25 6 2
4.566 4.053 -0.63800001 82 57 35
4.6129999 4.0040002 -0.62199998 70 47 39
4.5419998 4.0339999 -0.63200003 112 81 63
4.5430002 4.0430002 -0.62300003 82 57 52
4.5799999 4.0440001 -0.542 61 33 22
4.586 4.073 -0.62599999 56 18 5
4.5900002 4.072 -0.62900001 109 97 97
4.5679998 4.0630002 -0.63200003 66 44 21
4.5739999 4.059 -0.63 78 51 32
4.6170001 4.0890002 -0.55400002 97 58 27
4.6139998 4.0809999 -0.56400001 76 44 33
4.605 4.085 -0.55199999 19 12 19
4.6750002 4.0910001 -0.59399998 142 115 98
4.5149999 4.145 -0.676 161 124 106
4.5139999 4.138 -0.67799997 42 32 40
4.5120001 4.1469998 -0.66900003 75 60 41
4.513 4.1500001 -0.67000002 64 28 6
4.494 4.1440001 -0.67400002 122 103 97
4.4970002 4.1350002 -0.676 20 0 0
4.5 4.1139998 -0.69 35 21 20
4.4990001 4.1139998 -0.68699998 35 24 22
4.5120001 4.1100001 -0.68199998 4 0 0
4.6170001 4.0599999 -0.58600003 125 105 68
4.605 4.072 -0.57700002 43 28 31
4.6170001 4.0679998 -0.57499999 92 42 15
4.6129999 4.0650001 -0.625 53 30 16
4.6560001 4.0799999 -0.60500002 119 53 21
4.6529999 4.0669999 -0.59899998 104 63 35
4.6810002 4.0770001 -0.65399998 54 36 32
4.6799998 4.079 -0.64200002 40 20 22
4.6729999 4.0739999 -0.648 19 0 0
4.6669998 4.0770001 -0.63 27 0 0
4.5830002 4.0630002 -0.61500001 102 66 52
4.6230001 3.9990001 -0.699 17 7 5
4.5240002 3.9560001 -0.76700002 60 33 22
4.5300002 3.9619999 -0.77600002 43 16 7
4.5300002 3.967 -0.77499998 151 123 111
4.5489998 4 -0.73400003 115 90 83
4.5599999 3.944 -0.764 182 172 173
4.5580001 3.9560001 -0.75300002 133 140 150
4.586 3.971 -0.79799998 27 7 6
4.5819998 3.961 -0.82200003 22 8 5
4.4460001 3.9360001 -0.75700003 50 23 6
4.4400001 3.95 -0.74699998 64 41 27
4.5040002 3.941 -0.741 90 62 48
4.506 3.938 -0.74400002 111 76 56
4.6030002 4.0300002 -0.65899998 54 21 12
4.5960002 4.0310001 -0.63599998 184 147 128
4.6129999 4.0250001 -0.63800001 25 10 0
4.631 4.0149999 -0.65100002 26 11 4
4.625 4.0289998 -0.65600002 38 21 14
4.6220002 4.0370002 -0.64600003 42 17 20
4.6440001 4.0159998 -0.59899998 31 6 0
4.6469998 4.0110002 -0.60100001 38 11 0
4.6459999 4.0300002 -0.616 32 11 6
4.6459999 4 -0.62699997 28 5 0
4.6409998 4.027 -0.625 91 77 74
4.6409998 4.0300002 -0.62 23 3 2
4.4619999 3.9089999 -0.77600002 123 91 76
4.678 4.052 -0.56599998 30 5 0
4.6810002 4.0479999 -0.551 17 0 0
4.6560001 4.086 -0.58899999 53 26 15
4.6810002 4.0879998 -0.56900001 51 27 17
4.652 4.0799999 -0.57200003 47 31 31
4.4380002 4.1490002 -0.75199997 43 19 17
4.4619999 4.2290001 -0.63599998 27 12 9
4.4569998 4.2350001 -0.625 37 16 11
4.4419999 4.1139998 -0.741 108 80 66
4.4520001 4.1259999 -0.73799998 245 213 174
4.4429998 4.1110001 -0.741 147 125 114
4.4660001 4.1999998 -0.72899997 42 34 31
4.4679999 4.191 -0.72799999 26 12 9
4.4679999 4.1589999 -0.72299999 45 18 7
4.598 4.0669999 -0.50999999 59 29 19
4.5999999 4.0669999 -0.523 27 12 5
4.6919999 4.072 -0.55800003 85 67 65
4.678 4.052 -0.55500001 31 11 12
4.573 4.066 -0.56699997 15 4 2
4.5900002 4.053 -0.56199998 39 25 22
4.592 4.0900002 -0.54699999 24 5 0
4.5819998 4.046 -0.54799998 25 10 5
4.585 4.0479999 -0.56099999 21 5 5
4.506 3.849 -0.60900003 65 25 0
4.4650002 4.1430001 -0.76300001 31 11 10
4.4710002 4.125 -0.79100001 42 17 10
4.4809999 4.1040001 -0.77399999 52 35 28
4.461 4.1209998 -0.787 15 1 0
4.4580002 4.1209998 -0.78299999 31 0 0
4.447 4.132 -0.773 41 14 7
4.4569998 4.1220002 -0.77999997 126 100 87
4.6659999 3.783 -0.88499999 115 95 88
4.579 3.7349999 -0.85399997 42 22 21
4.5710001 3.7279999 -0.85699999 21 12 13
4.5830002 3.75 -0.85500002 20 3 0
4.6719999 3.931 -0.861 77 31 16
4.71 3.9660001 -0.83499998 150 126 122
4.6389999 3.911 -0.88 158 140 138
4.658 3.918 -0.87599999 19 3 3
4.6269999 3.898 -0.85399997 12 1 0
4.6300001 3.8440001 -0.86199999 13 0 0
4.6290002 3.836 -0.85500002 23 6 0
4.5110002 3.7920001 -0.84600002 25 16 11
4.5100002 3.7980001 -0.85000002 15 5 3
4.6160002 3.7939999 -0.83999997 65 46 40
4.5999999 3.8099999 -0.82800001 18 9 10
4.5970001 3.8110001 -0.829 154 130 118
4.599 3.7639999 -0.80500001 29 10 4
4.5949998 3.7650001 -0.79000002 66 56 46
4.592 3.77 -0.78399998 117 84 67
4.6149998 3.8929999 -0.83399999 134 119 124
4.5830002 3.8150001 -0.82999998 22 7 4
4.5679998 3.8180001 -0.83600003 143 136 143
4.572 3.816 -0.82700002 165 139 126
4.6329999 3.868 -0.83999997 48 30 26
4.6259999 3.8640001 -0.83700001 11 3 1
4.671 3.8069999 -0.87900001 18 7 3
4.6700001 3.809 -0.875 31 21 19
4.671 3.8039999 -0.88 33 14 7
4.6760001 3.8039999 -0.89300001 31 14 6
4.6690001 3.812 -0.87199998 67 55 55
4.6599998 3.8469999 -0.83399999 84 83 91
4.6719999 3.852 -0.84200001 82 57 35
4.6760001 3.849 -0.84500003 159 136 118
4.6630001 3.8540001 -0.83700001 81 84 93
4.6789999 3.855 -0.84299999 20 12 9
4.5939999 3.848 -0.85299999 22 8 7
4.5910001 3.8039999 -0.81900001 162 144 134
4.5780001 3.793 -0.82099998 134 116 96
4.5970001 3.7869999 -0.81099999 121 104 86
4.5910001 3.812 -0.82999998 10 2 0
4.5739999 3.77 -0.81999999 166 152 143
4.572 3.7679999 -0.824 42 13 0
4.5630002 3.783 -0.83200002 44 22 8
4.5630002 3.7750001 -0.82800001 35 20 17
4.6360002 3.7820001 -0.85600001 137 123 120
4.6420002 3.802 -0.83600003 81 66 61
4.631 3.816 -0.85500002 77 45 30
4.6220002 3.8099999 -0.84500003 13 4 0
4.5799999 3.8050001 -0.90499997 49 26 18
4.664 3.869 -0.83999997 10 0 0
4.6030002 3.858 -0.80699998 35 18 10
4.6030002 3.8670001 -0.81199998 23 13 14
4.6420002 3.8199999 -0.83700001 100 64 42
4.6479998 3.826 -0.83999997 37 17 10
4.6420002 3.8369999 -0.829 95 95 105
4.6230001 3.8010001 -0.82999998 179 165 162
4.6139998 3.8010001 -0.82499999 24 5 0
4.6399999 3.809 -0.82999998 64 36 24
4.6440001 3.8080001 -0.833 173 138 116
4.6350002 3.8239999 -0.78399998 133 127 129
4.6479998 3.825 -0.79900002 37 9 0
4.6339998 3.823 -0.76599997 163 161 166
4.6009998 3.826 -0.78600001 45 19 6
4.5970001 3.816 -0.77600002 67 49 45
4.6199999 3.8180001 -0.77999997 120 88 63
4.5939999 3.8239999 -0.77700001 25 15 16
4.6059999 3.825 -0.796 22 3 0
4.6479998 3.836 -0.81599998 94 89 93
4.638 3.812 -0.82800001 53 26 19
4.6529999 3.826 -0.80900002 101 104 113
4.6090002 4.0170002 -0.77999997 167 152 149
4.599 4.0079999 -0.75 98 63 44
4.6170001 3.98 -0.77899998 14 0 0
4.5869999 3.9990001 -0.792 90 80 81
4.5949998 3.9890001 -0.74400002 51 33 29
4.6389999 3.865 -0.84100002 39 21 11
4.6469998 3.902 -0.84399998 85 63 50
4.6479998 3.878 -0.84299999 12 7 4
4.638 3.8710001 -0.83999997 137 114 98
4.6669998 3.924 -0.84600002 118 72 56
4.6539998 3.904 -0.852 56 22 10
4.651 3.9200001 -0.84899998 165 137 113
4.6880002 3.934 -0.84200001 173 142 114
4.678 3.8399999 -0.88599998 19 1 1
4.6789999 3.845 -0.88599998 152 103 62
4.6789999 3.8469999 -0.88700002 172 150 137
4.6869998 3.845 -0.86900002 44 22 9
4.6830001 3.8399999 -0.87900001 32 26 26
4.697 3.865 -0.87 50 26 16
4.6900001 3.8599999 -0.85000002 136 110 97
4.6919999 3.9300001 -0.81 80 52 38
4.6570001 3.796 -0.85100001 33 22 20
4.6830001 3.8380001 -0.85799998 15 6 1
4.678 3.8380001 -0.85699999 14 6 4
4.6599998 3.8440001 -0.82499999 92 96 105
4.6739998 3.822 -0.889 29 14 17
4.678 3.8239999 -0.87 18 10 8
4.5669999 3.9679999 -0.82200003 27 7 6
4.5609999 3.9649999 -0.81900001 26 8 4
4.5819998 4.0370002 -0.81099999 13 1 3
4.5879998 4.0289998 -0.80199999 109 102 109
4.5840001 4.0339999 -0.82099998 15 0 0
4.6079998 3.987 -0.83499998 22 8 7
4.5799999 3.993 -0.85399997 40 31 24
4.5819998 3.9449999 -0.82599998 169 151 147
4.6199999 3.914 -0.84299999 100 100 108
4.6009998 3.9820001 -0.852 111 99 99
4.6059999 3.9820001 -0.83600003 18 8 7
4.6139998 3.9059999 -0.852 61 59 64
4.7119999 3.9690001 -0.81800002 144 109 103
4.691 3.973 -0.81999999 89 64 44
4.7189999 3.96 -0.83399999 171 146 124
4.5240002 4.2210002 -0.57099998 96 94 105
4.5799999 4.0380001 -0.79100001 32 20 20
4.6040001 4.0359998 -0.79400003 15 0 0
4.5939999 4.0380001 -0.81999999 14 0 0
4.572 4.0689998 -0.773 42 25 18
4.5710001 4.0539999 -0.773 36 12 2
4.573 4.0479999 -0.75599998 13 1 3
4.5700002 4.0489998 -0.77700001 72 45 34
4.5939999 4.0050001 -0.80299997 22 9 3
4.5900002 4.0040002 -0.796 162 133 119
4.5999999 4.0009999 -0.81699997 109 96 90
4.4899998 4.052 -0.80699998 21 2 0
4.4879999 4.052 -0.80699998 43 15 4
4.4879999 4.046 -0.81599998 74 41 34
4.487 4.0599999 -0.83499998 62 49 43
4.473 4.0359998 -0.82200003 29 12 4
4.4840002 4.0679998 -0.83899999 16 0 0
4.474 4.0609999 -0.81099999 23 0 0
4.5949998 4.0770001 -0.787 70 38 25
4.5879998 4.0279999 -0.79900002 99 89 97
4.566 4.0489998 -0.77899998 56 33 27
4.5809999 4.0320001 -0.77999997 20 11 12
4.5809999 4.033 -0.77999997 49 22 11
4.6230001 4.0419998 -0.75800002 119 110 111
4.592 4.0300002 -0.82200003 14 4 2
4.592 4.0190001 -0.82200003 23 8 1
4.5279999 3.9760001 -0.82999998 81 81 91
4.5149999 4 -0.80400002 17 6 2
4.5279999 4.0089998 -0.80299997 87 89 101
4.527 4 -0.81199998 36 22 19
4.5500002 3.997 -0.80000001 24 10 9
4.46 4.0170002 -0.87599999 17 3 3
4.4580002 4.0159998 -0.87599999 26 12 12
4.461 4.0149999 -0.88 22 11 9
4.4720001 4 -0.83099997 1 1 1
4.461 4.0170002 -0.82200003 51 17 5
4.4699998 4.0250001 -0.82200003 2 1 0
4.5050001 4.0339999 -0.77700001 53 26 19
4.5 4.0359998 -0.77999997 45 20 15
4.4949999 4.0190001 -0.78200001 69 40 26
4.5250001 4.0050001 -0.77600002 75 77 89
4.533 4.0050001 -0.78500003 60 28 7
4.5489998 3.9920001 -0.78100002 31 6 1
4.494 3.994 -0.80299997 21 0 0
4.5209999 3.994 -0.81099999 12 0 0
4.513 3.9909999 -0.80900002 39 10 0
4.5170002 3.9860001 -0.81699997 23 11 11
4.4910002 3.9960001 -0.79400003 22 1 0
4.5539999 3.7639999 -0.23100001 221 170 141
4.5650001 3.7550001 -0.235 115 53 14
4.5580001 3.823 -0.244 250 236 175
4.559 3.816 -0.24600001 255 233 179
4.7610002 4.1370001 -0.28200001 93 38 0
4.7270002 4.1690001 -0.29100001 56 20 6
4.5609999 3.8 -0.26499999 111 67 54
4.5349998 3.829 -0.336 21 7 6
4.5349998 3.822 -0.33500001 122 71 50
4.5300002 3.8210001 -0.345 33 13 2
4.5359998 3.8169999 -0.315 23 12 8
4.5219998 3.756 -0.37799999 23 5 3
4.5190001 3.744 -0.39500001 22 8 8
4.5300002 3.7449999 -0.34099999 25 11 10
4.4039998 3.6140001 -0.382 59 35 23
4.4039998 3.6259999 -0.366 152 112 76
4.4070001 3.6029999 -0.38 78 52 39
4.4749999 3.8410001 -0.45300001 37 15 4
4.428 3.6830001 -0.583 109 73 49
4.4289999 3.6789999 -0.57499999 49 20 12
4.4590001 3.7739999 -0.77899998 71 53 41
4.4770002 3.78 -0.778 34 1 0
4.4619999 3.688 -0.64099997 246 223 205
4.4949999 3.7460001 -0.685 42 31 29
4.4770002 3.71 -0.63599998 13 3 4
4.6440001 3.7219999 -0.55699998 95 56 39
4.6279998 3.73 -0.574 33 11 0
4.5739999 3.73 -0.82700002 16 7 8
4.573 3.727 -0.82200003 10 2 0
4.5869999 3.7409999 -0.82300001 133 85 45
4.573 3.7260001 -0.81800002 12 4 2
4.5689998 3.7130001 -0.82499999 139 135 136
4.572 3.7179999 -0.82599998 4 0 0
4.573 3.7190001 -0.82499999 29 20 21
4.4369998 3.6830001 -0.56199998 17 0 0
4.4710002 3.707 -0.56099999 78 28 5
4.4809999 3.6719999 -0.55199999 23 5 1
4.4549999 3.668 -0.55299997 38 22 22
4.4499998 3.6659999 -0.55599999 132 96 70
4.4629998 3.6700001 -0.46900001 57 30 19
4.4400001 3.6760001 -0.48100001 107 98 101
4.4829998 3.6530001 -0.493 33 13 12
4.5089998 3.7360001 -0.46399999 120 106 105
4.513 3.747 -0.46000001 21 9 9
4.4910002 3.6889999 -0.465 46 14 3
4.4980001 3.6830001 -0.454 53 35 33
4.494 3.6819999 -0.45500001 46 24 13
4.513 3.7420001 -0.42699999 83 50 33
4.5149999 3.747 -0.42699999 29 13 13
4.5139999 3.668 -0.47299999 112 84 72
4.513 3.671 -0.47400001 36 26 25
4.4879999 3.6900001 -0.509 149 130 124
4.513 3.6719999 -0.47799999 71 61 60
4.5050001 3.777 -0.47400001 38 23 18
4.5050001 3.777 -0.48100001 27 8 2
4.5219998 3.753 -0.505 15 1 0
4.526 3.7479999 -0.50199997 19 5 5
4.527 3.7479999 -0.50400001 18 4 4
4.5219998 3.7550001 -0.51999998 51 8 0
4.526 3.7509999 -0.52499998 22 1 0
4.526 3.7479999 -0.51200002 12 0 0
4.5100002 3.76 -0.52999997 33 14 8
4.52 3.763 -0.46799999 37 25 25
4.5209999 3.7479999 -0.49700001 25 10 13
4.5139999 3.7490001 -0.493 33 18 21
4.5170002 3.7520001 -0.46000001 12 3 4
4.513 3.756 -0.44400001 9 0 0
4.507 3.757 -0.45500001 71 51 24
4.5120001 3.757 -0.449 21 5 5
4.5120001 3.753 -0.44600001 32 11 10
4.5079999 3.7479999 -0.454 80 34 18
4.513 3.7539999 -0.44400001 14 0 0
4.6300001 3.7620001 -0.62300003 61 34 13
4.506 3.8329999 -0.61299998 77 56 39
4.5050001 3.796 -0.64300001 169 137 112
4.4829998 3.7190001 -0.65499997 14 3 0
4.4829998 3.7130001 -0.66299999 8 2 6
4.4829998 3.7149999 -0.66100001 17 5 7
4.4850001 3.7279999 -0.66399997 34 23 19
4.4949999 3.76 -0.54000002 84 48 26
4.4949999 3.76 -0.52899998 54 28 13
4.5009999 3.7550001 -0.54500002 15 6 7
4.4899998 3.7639999 -0.56900001 15 1 0
4.48 3.793 -0.52200001 42 24 14
4.4759998 3.8010001 -0.514 65 37 23
4.4910002 3.7750001 -0.52100003 50 35 32
4.4809999 3.802 -0.498 50 12 0
4.4689999 3.806 -0.50599998 146 121 114
4.4640002 3.8080001 -0.51599997 37 26 22
4.5050001 3.6700001 -0.542 101 74 63
4.4910002 3.665 -0.54299998 40 18 5
4.4959998 3.665 -0.53299999 90 56 31
4.612 3.737 -0.58600003 149 138 142
4.6620002 3.7520001 -0.54900002 30 11 5
4.6550002 3.7550001 -0.54400003 29 10 4
4.6370001 3.7520001 -0.54400003 26 3 0
4.645 3.7520001 -0.59299999 23 4 0
4.638 3.7550001 -0.59299999 46 17 9
4.6399999 3.7520001 -0.58899999 94 72 59
4.6420002 3.7490001 -0.66000003 42 19 5
4.4980001 3.779 -0.51499999 27 12 7
4.5 3.76 -0.49900001 147 137 110
4.5 3.7609999 -0.5 61 46 41
4.4959998 3.7639999 -0.51200002 42 27 24
4.5 3.7609999 -0.50400001 52 37 32
4.4959998 3.7609999 -0.514 76 33 14
4.4819999 3.823 -0.52700001 17 7 8
4.4819999 3.8169999 -0.52700001 17 2 0
4.493 3.7709999 -0.57999998 29 1 0
4.494 3.8429999 -0.62099999 30 10 1
4.4590001 3.8399999 -0.602 58 29 13
4.4650002 3.846 -0.59600002 30 1 0
4.434 3.826 -0.61699998 78 77 82
4.4450002 3.8570001 -0.64200002 152 128 116
4.4330001 3.8299999 -0.62599999 10 1 4
4.4549999 3.7420001 -0.66399997 95 75 68
4.4499998 3.7479999 -0.66399997 84 42 28
4.4549999 3.7490001 -0.66900003 35 21 20
4.4580002 3.7509999 -0.67299998 26 12 11
4.4850001 3.7260001 -0.66500002 12 0 0
4.467 3.8629999 -0.58499998 44 41 48
4.2800002 3.7390001 -0.82599998 19 1 0
4.4780002 3.6819999 -0.514 16 4 8
4.4840002 3.6819999 -0.50999999 42 24 22
4.4520001 3.6670001 -0.50300002 14 8 10
4.4549999 3.6830001 -0.57999998 49 26 20
4.4629998 3.7060001 -0.56900001 37 10 1
4.243 3.7539999 -0.71700001 37 4 0
4.2080002 3.668 -0.70099998 34 17 10
4.211 3.6719999 -0.70899999 21 6 0
4.2119999 3.671 -0.708 17 2 0
4.2529998 3.697 -0.68400002 60 32 20
4.2519999 3.6989999 -0.68099999 41 13 1
4.243 3.7079999 -0.66900003 47 24 18
4.244 3.707 -0.67199999 57 32 27
4.243 3.714 -0.68900001 75 49 34
4.2690001 3.6949999 -0.61699998 152 102 69
4.2649999 3.717 -0.62699997 37 19 9
4.2290001 3.6930001 -0.63599998 58 38 29
4.224 3.7090001 -0.61799997 99 43 16
4.2550001 3.681 -0.63800001 115 96 89
4.2519999 3.6949999 -0.66600001 83 58 51
4.2540002 3.6900001 -0.65499997 141 117 105
4.2340002 3.6930001 -0.63700002 172 150 137
4.2189999 3.6849999 -0.62300003 112 68 39
4.2280002 3.6719999 -0.60100001 139 81 43
4.2350001 3.668 -0.61699998 127 69 19
4.1789999 3.6719999 -0.66500002 75 48 37
4.1859999 3.6670001 -0.64099997 32 13 9
4.1929998 4.0599999 -0.495 63 32 27
4.4530001 3.9119999 -0.35600001 26 16 17
4.4819999 3.822 -0.57499999 43 20 6
4.4759998 3.842 -0.60900003 70 73 78
4.4780002 3.8340001 -0.61699998 56 39 31
4.454 3.8499999 -0.63800001 38 24 11
4.6560001 4.007 -0.59299999 90 52 39
4.6570001 3.997 -0.58600003 71 56 53
4.664 4.0040002 -0.60299999 39 15 5
4.6589999 3.973 -0.61400002 26 8 4
4.6729999 3.9960001 -0.59600002 162 123 106
4.6719999 3.993 -0.60600001 102 87 82
4.652 3.9979999 -0.597 33 13 6
4.5180001 3.9119999 -0.583 68 43 21
4.5819998 4.0219998 -0.62300003 74 47 40
4.5929999 4.0139999 -0.62400001 41 23 21
4.6020002 4.0100002 -0.61699998 40 18 5
4.6069999 4.0050001 -0.61500001 43 17 4
4.5929999 4.0180001 -0.62800002 56 43 24
4.4460001 3.987 -0.69700003 65 64 72
4.5830002 4.0339999 -0.63599998 178 129 97
4.5700002 4.0409999 -0.63300002 25 5 0
4.5510001 4.0599999 -0.639 37 22 17
4.632 3.9690001 -0.60500002 31 14 7
4.6240001 4.0079999 -0.60399997 19 6 0
4.6199999 4.0029998 -0.61000001 25 12 6
4.6459999 3.98 -0.60100001 43 14 0
4.6350002 3.967 -0.60299999 25 9 10
4.5910001 4.0819998 -0.565 32 18 15
4.6550002 4.0650001 -0.523 31 15 15
4.6139998 4.0479999 -0.52999997 73 44 36
4.5700002 4.0549998 -0.54900002 84 49 29
4.5650001 4.0479999 -0.54000002 51 33 31
4.4660001 3.8770001 -0.64700001 48 51 58
4.5219998 3.9660001 -0.787 116 85 57
4.427 3.8940001 -0.84200001 43 9 0
4.4039998 3.8889999 -0.833 47 22 15
4.4400001 3.892 -0.81999999 75 73 84
4.5050001 3.915 -0.73000002 42 24 14
4.4829998 3.937 -0.74800003 56 24 11
4.461 3.937 -0.745 22 7 0
4.4569998 4.0110002 -0.80500001 10 0 0
4.4549999 3.9990001 -0.80800003 136 112 100
4.4650002 4.0159998 -0.79100001 42 12 2
4.4489999 3.96 -0.76300001 35 7 0
4.4460001 3.96 -0.76700002 54 22 9
4.4619999 3.9630001 -0.78100002 59 19 7
4.4489999 3.973 -0.79699999 62 26 10
4.5019999 3.9319999 -0.71799999 146 126 115
4.5 3.9360001 -0.722 43 30 24
4.4980001 3.9419999 -0.71899998 25 10 5
4.4650002 3.9119999 -0.69800001 34 19 16
4.5009999 4.1609998 -0.704 39 13 0
4.473 4.152 -0.72500002 60 32 10
4.4749999 4.151 -0.727 109 92 84
4.5009999 4.1789999 -0.671 51 24 13
4.507 4.1539998 -0.67199999 104 85 71
4.4809999 4.1539998 -0.68000001 141 116 111
4.4749999 4.1609998 -0.68300003 69 46 40
4.4790001 4.1370001 -0.68400002 148 114 89
4.4809999 4.1409998 -0.68599999 31 13 11
4.4959998 4.191 -0.65700001 44 24 17
4.493 4.1849999 -0.66100001 66 44 33
4.4710002 4.1890001 -0.65600002 47 10 0
4.507 4.1960001 -0.63700002 49 30 16
4.4850001 4.1999998 -0.64200002 76 56 49
4.4910002 4.1989999 -0.64499998 69 45 35
4.487 4.1989999 -0.64600003 108 87 66
4.5549998 3.9749999 -0.73699999 84 61 55
4.5630002 3.9820001 -0.73400003 58 40 36
4.5669999 3.9790001 -0.73199999 93 91 96
4.5689998 3.9890001 -0.73299998 27 0 0
4.572 3.99 -0.73199999 35 5 0
4.4439998 4.0040002 -0.80500001 52 19 2
4.4530001 4.0170002 -0.79299998 126 115 119
4.4369998 4.0209999 -0.79500002 53 25 13
4.4369998 3.947 -0.80000001 31 13 9
4.4089999 4.0009999 -0.80699998 5 0 1
4.4169998 4.0079999 -0.81400001 24 4 0
4.4099998 3.9990001 -0.80500001 124 120 119
4.5879998 4.072 -0.75099999 45 13 2
4.6129999 4.0689998 -0.75300002 205 169 143
4.618 4.0570002 -0.75300002 26 8 4
4.4390001 4.1030002 -0.78500003 28 16 16
4.4510002 4.0770001 -0.78600001 123 93 67
4.427 4.1079998 -0.764 177 157 148
4.427 4.066 -0.80900002 27 14 6
4.415 4.079 -0.829 44 29 26
4.4180002 4.0939999 -0.84200001 253 232 213
4.4219999 4.0669999 -0.84899998 14 0 0
4.4109998 4.0749998 -0.85900003 108 99 102
4.4190001 4.105 -0.76899999 80 57 49
4.4190001 4.1020002 -0.77499998 155 132 126
4.4330001 4.1020002 -0.77499998 61 23 2
4.3899999 4.1350002 -0.77700001 10 0 0
4.3779998 4.1279998 -0.79799998 26 13 4
4.388 4.1329999 -0.77600002 12 1 0
4.3860002 4.131 -0.77499998 24 10 7
4.421 4.1539998 -0.76800001 121 92 76
4.4089999 4.1110001 -0.77200001 120 109 103
4.4299998 4.1079998 -0.796 11 1 2
4.4439998 4.1090002 -0.79299998 204 183 180
4.4320002 4.105 -0.78299999 39 18 17
4.4359999 4.0650001 -0.78899997 48 35 29
4.348 4.0570002 -0.829 19 8 6
4.3410001 4.04 -0.745 141 132 137
4.3439999 4.04 -0.741 98 91 98
4.3579998 4.026 -0.75300002 62 47 44
4.368 4.0349998 -0.82499999 53 30 22
4.4910002 3.8499999 -0.574 52 24 3
4.4029999 4.0300002 -0.59100002 26 14 16
4.4109998 4 -0.62599999 135 95 70
4.4569998 3.826 -0.59899998 42 16 15
4.243 3.9879999 -0.58200002 42 28 27
4.2199998 3.9960001 -0.59299999 45 29 29
4.2199998 3.9890001 -0.58600003 40 22 20
4.1869998 3.678 -0.59299999 100 55 32
4.2490001 3.717 -0.60500002 63 27 15
4.2470002 3.7160001 -0.60699999 79 38 6
4.447 3.8699999 -0.65700001 147 102 61
4.428 3.6730001 -0.59899998 38 12 0
4.4250002 3.7179999 -0.61799997 45 18 11
4.4429998 3.6700001 -0.47499999 47 33 30
4.3210001 3.9920001 -0.708 187 152 122
4.2329998 3.9949999 -0.68199998 43 22 17
4.2290001 3.9960001 -0.67900002 133 123 121
4.237 3.9960001 -0.69 142 130 130
4.2189999 3.9960001 -0.67699999 20 6 5
4.2189999 4 -0.65499997 16 1 4
4.2670002 3.9760001 -0.66600001 77 35 21
4.402 4.0050001 -0.602 73 58 51
4.4000001 4.0079999 -0.59399998 147 111 77
4.3990002 4.0219998 -0.58200002 25 9 9
4.3590002 3.9449999 -0.773 137 120 113
4.3790002 3.9330001 -0.77700001 26 1 0
4.3730001 3.9289999 -0.77899998 77 32 1
4.3779998 3.934 -0.77600002 25 7 5
4.3850002 3.9070001 -0.78100002 161 142 138
4.4619999 3.8959999 -0.74199998 21 6 0
4.454 3.904 -0.755 67 33 21
4.4320002 3.9200001 -0.77200001 111 69 44
4.4200001 3.928 -0.773 121 111 110
4.4520001 3.908 -0.77399999 38 16 3
4.4809999 3.8540001 -0.838 17 7 6
4.4819999 3.8110001 -0.84600002 14 4 3
4.2820001 3.868 -0.833 185 153 132
4.3260002 3.848 -0.85500002 136 128 126
4.2950001 3.8829999 -0.85100001 125 99 82
4.2859998 3.8859999 -0.84299999 170 143 132
4.2969999 3.898 -0.82200003 237 204 185
4.2950001 3.8789999 -0.80400002 61 46 43
4.349 3.8770001 -0.83099997 76 60 60
4.3470001 3.881 -0.824 21 10 8
4.3410001 3.8900001 -0.83200002 34 14 7
4.3870001 3.9089999 -0.84500003 17 2 0
4.3709998 3.9230001 -0.84399998 60 31 23
4.369 3.915 -0.85299999 67 34 29
4.3660002 3.8829999 -0.79500002 187 139 101
4.3699999 3.881 -0.79500002 57 31 16
4.3530002 3.8540001 -0.88800001 28 13 10
4.362 3.8340001 -0.89300001 32 9 1
4.421 3.858 -0.81099999 31 12 6
4.4250002 3.8659999 -0.81599998 27 13 12
4.3899999 3.8469999 -0.824 56 35 30
4.3889999 3.8570001 -0.80900002 21 10 6
4.3959999 3.846 -0.838 84 54 26
4.3940001 3.846 -0.84299999 229 201 180
4.3940001 3.8770001 -0.79299998 26 11 8
4.3959999 3.872 -0.80299997 75 38 12
4.4000001 3.8989999 -0.81099999 30 7 0
4.3990002 3.898 -0.80900002 29 16 7
4.4260001 3.868 -0.80900002 129 115 114
4.3800001 3.8510001 -0.847 97 73 61
4.3790002 3.8529999 -0.84100002 144 113 93
4.3769999 3.8559999 -0.84500003 14 0 0
4.3010001 3.892 -0.792 38 14 4
4.302 3.8900001 -0.801 76 47 33
4.2979999 3.892 -0.79299998 212 185 166
4.4460001 3.849 -0.80000001 27 14 6
4.4629998 3.825 -0.82700002 22 11 7
4.4590001 3.8299999 -0.824 12 4 1
4.4520001 3.8 -0.72100002 70 73 80
4.4520001 3.8069999 -0.72799999 49 26 18
4.4590001 3.7709999 -0.76499999 9 0 1
4.447 3.793 -0.773 41 32 37
4.454 3.7809999 -0.77899998 115 89 72
4.447 3.812 -0.74900001 34 15 9
4.2690001 3.925 -0.71399999 10 5 11
4.2709999 3.9330001 -0.76599997 50 17 10
4.3060002 3.9119999 -0.76499999 116 86 52
4.303 3.911 -0.76599997 86 54 29
4.2800002 3.9649999 -0.74699998 31 10 5
4.283 3.9630001 -0.75199997 26 7 0
4.2049999 3.964 -0.74699998 24 14 15
4.2589998 3.908 -0.77600002 209 173 139
4.4320002 3.9260001 -0.792 24 0 0
4.395 3.8970001 -0.79799998 38 4 0
4.4380002 3.8789999 -0.79299998 70 42 28
4.4520001 3.8800001 -0.79500002 75 53 32
4.4169998 3.9300001 -0.77200001 47 32 29
4.4190001 3.9289999 -0.77200001 49 35 32
4.3899999 3.9349999 -0.76800001 14 0 0
4.3979998 3.9389999 -0.77200001 36 18 16
4.3759999 3.8900001 -0.79000002 44 18 3
4.3699999 3.908 -0.78200001 122 103 71
4.3410001 3.937 -0.81599998 111 59 37
4.3340001 3.9170001 -0.81099999 49 9 1
4.3270001 3.9360001 -0.815 80 24 0
4.3379998 3.9230001 -0.80800003 33 10 4
4.323 3.925 -0.80599999 84 59 54
4.329 3.9200001 -0.80500001 125 99 84
4.3499999 3.914 -0.824 75 23 1
4.329 3.9159999 -0.80299997 90 56 29
4.3579998 3.911 -0.78399998 131 102 70
4.309 3.904 -0.778 63 44 37
4.302 3.8989999 -0.79000002 37 14 8
4.3270001 3.9319999 -0.77499998 83 56 49
4.3559999 3.869 -0.81300002 71 53 49
4.355 3.8670001 -0.81599998 86 66 59
4.355 3.868 -0.81599998 122 95 88
4.3800001 3.8559999 -0.81599998 92 56 34
4.3319998 3.9389999 -0.76700002 94 51 35
4.3439999 3.9360001 -0.77899998 103 67 51
4.2810001 3.8929999 -0.85799998 47 33 33
4.257 3.882 -0.824 30 5 0
4.2059999 3.9579999 -0.722 60 21 4
4.1880002 3.9760001 -0.71899998 16 7 0
4.184 3.984 -0.778 85 74 78
4.171 3.983 -0.76700002 191 191 199
4.1700001 3.9820001 -0.76499999 10 1 2
4.171 3.983 -0.76599997 10 0 0
4.1810002 3.9860001 -0.76099998 188 138 85
4.1880002 3.987 -0.764 164 126 105
4.1859999 3.9849999 -0.75700003 97 44 2
4.2740002 3.9230001 -0.84899998 16 10 10
4.2729998 3.9200001 -0.84500003 189 150 121
4.2740002 3.918 -0.84899998 5 0 0
4.2639999 3.915 -0.83899999 17 8 9
4.2600002 3.908 -0.82300001 68 41 30
4.309 3.97 -0.78500003 202 151 124
4.3179998 3.9389999 -0.74400002 66 46 47
4.2719998 3.9360001 -0.76599997 35 1 0
4.2540002 3.9560001 -0.69800001 22 8 5
4.2420001 3.961 -0.63499999 17 7 6
4.427 3.842 -0.64700001 38 9 1
4.4260001 3.846 -0.64999998 23 0 0
4.3959999 3.984 -0.64899999 51 31 30
4.3369999 4.0040002 -0.69700003 66 34 23
4.3990002 3.977 -0.66900003 13 2 0
4.395 3.984 -0.66000003 16 1 0
4.401 3.9860001 -0.662 30 13 6
4.3340001 3.9920001 -0.68699998 63 39 29
4.224 3.9519999 -0.602 45 27 23
4.2319999 3.957 -0.60399997 63 42 37
4.2020001 3.95 -0.602 64 28 12
4.2179999 3.951 -0.60100001 89 53 39
4.2290001 3.957 -0.62599999 54 43 41
4.2350001 3.9590001 -0.634 158 140 130
4.2340002 3.9649999 -0.62099999 73 27 4
4.1440001 3.983 -0.61500001 44 13 0
4.2589998 3.934 -0.66100001 46 18 6
4.2519999 3.937 -0.65200001 30 9 6
4.2140002 3.961 -0.699 56 21 1
4.2389998 3.9719999 -0.60100001 52 8 0
4.2480001 3.98 -0.62800002 101 91 89
4.2459998 3.9690001 -0.63099998 60 34 17
4.2410002 3.9719999 -0.62400001 80 34 19
4.23 3.96 -0.61500001 53 21 8
4.401 3.997 -0.62599999 119 114 121
4.4640002 3.8640001 -0.72799999 12 1 0
4.448 3.829 -0.70700002 71 40 22
4.4530001 3.8169999 -0.72399998 24 12 12
4.4499998 3.8150001 -0.73100001 11 1 0
4.4499998 3.8239999 -0.73100001 26 2 2
4.447 3.8080001 -0.68099999 123 114 115
4.454 3.8010001 -0.68800002 27 0 0
4.4460001 3.809 -0.67500001 112 110 111
4.4450002 3.813 -0.67699999 60 21 4
4.4530001 3.7839999 -0.68599999 125 98 87
4.4559999 3.7969999 -0.69400001 48 23 16
4.3319998 4.072 -0.83999997 10 2 0
4.3670001 4.118 -0.79500002 13 3 2
4.375 4.1209998 -0.796 21 11 10
4.3899999 4.1209998 -0.78399998 37 19 17
4.3610001 4.0560002 -0.833 19 3 3
4.3319998 4.0040002 -0.82700002 2 0 1
4.3309999 4.0040002 -0.829 3 3 3
4.3260002 3.9990001 -0.82099998 7 1 1
4.3210001 4.0009999 -0.83099997 8 4 3
4.4299998 3.961 -0.76499999 32 16 16
4.4200001 3.9660001 -0.77499998 30 13 3
4.427 3.9630001 -0.77499998 9 0 0
4.395 3.9779999 -0.86400002 31 3 0
4.4169998 3.9690001 -0.82800001 21 1 0
4.3870001 4.0250001 -0.82700002 43 24 18
4.4060001 4.0170002 -0.83399999 18 4 4
4.3649998 3.9979999 -0.81400001 120 84 68
4.3709998 4.0149999 -0.82300001 37 10 1
4.4239998 4.0250001 -0.83200002 12 2 1
4.414 4.0190001 -0.83899999 31 3 0
4.4390001 3.961 -0.73299998 148 131 124
4.3829999 4.1290002 -0.84600002 27 11 11
4.3699999 4.118 -0.84299999 5 1 0
4.421 4.0510001 -0.875 35 24 18
4.4829998 4.1139998 -0.84200001 9 0 1
4.5440001 4.1989999 -0.51700002 54 25 17
4.5539999 4.2189999 -0.50400001 26 9 0
4.5669999 4.2199998 -0.486 90 49 17
4.2140002 4.1490002 -0.361 178 156 142
4.1890001 4.1479998 -0.36500001 31 8 2
4.2010002 4.1490002 -0.359 195 139 90
4.211 4.1500001 -0.36300001 212 186 173
4.4530001 4.223 -0.61799997 29 13 13
4.5689998 4.0640001 -0.551 89 80 81
4.5700002 4.0599999 -0.55599999 27 4 0
4.5669999 4.0689998 -0.54100001 42 24 20
4.5939999 4.0689998 -0.51999998 17 2 0
4.586 4.0749998 -0.50400001 87 82 88
4.5890002 4.0770001 -0.465 69 48 43
4.5900002 4.0960002 -0.546 34 14 7
4.592 4.0869999 -0.546 99 81 71
4.5869999 4.0890002 -0.54699999 136 122 119
4.5419998 4.1760001 -0.491 158 106 59
4.546 4.1760001 -0.484 105 51 17
4.5450001 4.1760001 -0.491 69 34 15
4.5500002 4.177 -0.48500001 80 58 47
4.1939998 3.983 -0.51499999 144 100 71
4.1479998 4.0089998 -0.48300001 82 50 29
4.1939998 4.1020002 -0.36700001 178 138 112
4.257 3.9649999 -0.56 105 70 42
4.25 3.9530001 -0.56599998 42 25 18
4.2410002 3.9779999 -0.55800003 41 29 29
4.237 3.984 -0.58200002 147 124 110
4.4959998 3.944 -0.71499997 151 84 42
4.5370002 3.8210001 -0.32300001 37 14 6
4.5380001 3.8299999 -0.317 134 128 132
4.4640002 3.835 -0.35100001 38 12 0
4.4749999 3.8410001 -0.40900001 76 43 24
4.5139999 3.7509999 -0.43700001 10 0 0
4.513 3.747 -0.442 11 0 1
4.48 3.6830001 -0.46599999 91 68 62
4.5170002 3.744 -0.42500001 10 0 0
4.6139998 3.763 -0.55500001 49 10 5
4.5300002 3.7479999 -0.34099999 13 0 0
4.5289998 3.7479999 -0.345 20 6 6
4.408 4.0809999 -0.303 52 42 33
4.4180002 4.066 -0.27599999 114 91 57
4.4829998 3.9330001 -0.31999999 147 138 131
4.4349999 3.898 -0.35699999 102 82 75
4.3860002 4.033 -0.52899998 22 4 2
4.388 4.0229998 -0.52700001 136 125 123
4.3940001 4.0250001 -0.55299997 23 4 0
4.3969998 4.0279999 -0.56 16 2 1
4.4050002 4.0219998 -0.56099999 25 6 0
4.4000001 4.0310001 -0.56400001 27 16 14
4.6880002 3.961 -0.48100001 154 128 113
4.559 4.0679998 -0.32699999 97 66 38
4.559 4.0689998 -0.32600001 107 72 40
4.4239998 4.0929999 -0.28099999 85 49 25
4.408 4.0830002 -0.31 23 5 1
4.408 4.1059999 -0.27700001 70 45 38
4.3990002 4.0960002 -0.28099999 44 24 15
4.4099998 4.0960002 -0.28099999 91 67 65
4.3969998 4.0949998 -0.29699999 36 18 14
4.395 4.0890002 -0.30000001 30 15 18
4.5939999 4.0609999 -0.359 72 45 26
4.6950002 4.0949998 -0.48800001 81 48 29
4.6919999 4.0840001 -0.51099998 98 41 12
4.1690001 4.1230001 -0.35100001 184 153 109
4.539 3.7550001 -0.317 69 27 13
4.5339999 3.7520001 -0.32499999 13 3 2
4.5450001 3.7249999 -0.29899999 53 22 28
4.5450001 3.7249999 -0.296 59 28 33
4.5370002 3.74 -0.30500001 24 13 11
4.5380001 3.747 -0.308 26 7 0
4.5580001 3.7950001 -0.24699999 195 180 159
4.5510001 3.8 -0.242 190 143 97
4.5580001 3.7969999 -0.24699999 78 46 25
4.5430002 3.77 -0.255 128 68 34
4.5609999 3.8039999 -0.248 51 20 0
4.5359998 3.8380001 -0.26800001 61 25 11
4.5440001 3.6960001 -0.271 56 37 20
4.7080002 3.7279999 -0.55199999 213 169 94
4.7319999 3.7550001 -0.58399999 87 74 66
4.7329998 3.7590001 -0.57499999 139 104 85
4.6329999 3.7449999 -0.62699997 17 3 2
4.7220001 3.7579999 -0.59600002 32 11 6
4.7119999 3.753 -0.60799998 128 103 96
4.184 3.642 -0.63700002 50 30 23
4.2069998 3.684 -0.67000002 61 33 19
4.1999998 3.6670001 -0.662 90 67 53
4.1950002 3.655 -0.611 178 117 62
4.2259998 3.674 -0.63700002 56 38 24
4.2309999 3.6819999 -0.634 49 21 7
4.2550001 3.697 -0.69999999 90 61 47
4.257 3.6960001 -0.69800001 70 57 48
4.454 4.1960001 -0.71600002 38 20 16
4.4640002 4.2160001 -0.713 32 17 14
4.461 4.217 -0.68599999 87 53 28
4.448 4.2020001 -0.69800001 34 16 14
4.4720001 4.1999998 -0.70300001 35 18 10
4.487 4.1849999 -0.71700001 44 23 22
4.349 4.125 -0.86000001 194 142 84
4.3439999 4.1209998 -0.866 54 19 0
4.1750002 4.0760002 -0.56 65 37 26
4.1820002 4.0679998 -0.52499998 44 26 12
4.1539998 4.0209999 -0.57499999 69 33 19
4.3130002 3.971 -0.74699998 108 54 10
4.2379999 3.997 -0.699 48 12 0
4.2340002 3.9990001 -0.704 87 39 19
4.2249999 3.994 -0.69400001 9 0 3
4.2290001 3.9960001 -0.70899999 73 30 13
4.21 4 -0.71399999 83 74 79
4.1830001 4.0219998 -0.58700001 113 103 101
4.197 4.0190001 -0.54799998 21 6 1
4.197 4.0380001 -0.57300001 27 6 1
4.1950002 4.0430002 -0.56699997 189 166 148
4.1859999 4.04 -0.57099998 96 74 63
4.303 3.8800001 -0.86900002 38 18 11
4.2930002 3.8599999 -0.88 139 98 66
4.322 3.8870001 -0.88999999 48 13 0
4.322 4.0079999 -0.86199999 37 27 25
4.223 3.757 -0.72799999 82 49 32
4.2220001 3.7590001 -0.745 125 96 78
4.2420001 3.7320001 -0.71499997 41 19 6
4.1750002 3.9790001 -0.68199998 80 34 19
4.184 3.983 -0.676 40 21 17
