ply
format ascii 1.0
comment PCL generated
element vertex 101
property float x
property float y
property float z
property uchar red
property uchar green
property uchar blue
element camera 1
property float view_px
property float view_py
property float view_pz
property float x_axisx
property float x_axisy
property float x_axisz
property float y_axisx
property float y_axisy
property float y_axisz
property float z_axisx
property float z_axisy
property float z_axisz
property float focal
property float scalex
property float scaley
property float centerx
property float centery
property int viewportx
property int viewporty
property float k1
property float k2
end_header
-10.842 -4.2940001 -0.54100001 190 90 28
-10.842 -4.2810001 -0.54100001 159 93 41
-10.843 -4.2909999 -0.53200001 153 87 29
-10.841 -4.2880001 -0.54400003 132 55 9
-10.844 -4.2979999 -0.54299998 160 106 70
-10.847 -4.3039999 -0.54500002 176 92 32
-10.828 -4.3010001 -0.56800002 86 45 17
-10.837 -4.3080001 -0.57300001 66 24 8
-10.829 -4.3099999 -0.574 80 38 14
-10.832 -4.3080001 -0.56999999 53 10 0
-10.81 -4.2839999 -0.56699997 67 30 1
-10.804 -4.29 -0.56800002 113 70 19
-10.804 -4.2839999 -0.56699997 122 91 24
-10.82 -4.2740002 -0.55900002 176 129 83
-10.81 -4.2729998 -0.55900002 57 11 0
-10.842 -4.283 -0.55400002 112 83 25
-10.834 -4.323 -0.52899998 186 87 30
-10.81 -4.323 -0.52899998 186 125 68
-10.829 -4.3299999 -0.537 234 166 103
-10.82 -4.323 -0.52899998 190 96 42
-10.813 -4.2969999 -0.56900001 74 40 31
-10.809 -4.303 -0.56900001 115 31 0
-10.82 -4.3080001 -0.56900001 70 25 6
-10.81 -4.3169999 -0.55900002 148 62 13
-10.814 -4.3070002 -0.56400001 82 37 18
-10.802 -4.2950001 -0.56300002 139 57 10
-10.808 -4.3010001 -0.56699997 92 68 4
-10.827 -4.2859998 -0.55900002 87 35 0
-10.838 -4.3000002 -0.55900002 165 74 21
-10.817 -4.302 -0.53100002 206 140 92
-10.805 -4.3099999 -0.53500003 146 116 54
-10.81 -4.296 -0.53500003 193 163 99
-10.817 -4.2870002 -0.53299999 147 94 40
-10.825 -4.3130002 -0.523 168 95 26
-10.841 -4.3080001 -0.53399998 145 89 30
-10.846 -4.3099999 -0.53500003 170 76 15
-10.818 -4.2729998 -0.546 188 137 84
-10.814 -4.2740002 -0.55500001 117 80 51
-10.806 -4.3169999 -0.551 154 119 100
-10.812 -4.3200002 -0.55599999 101 60 30
-10.814 -4.322 -0.55500001 131 92 51
-10.834 -4.283 -0.55500001 81 43 30
-10.83 -4.2789998 -0.551 196 142 82
-10.808 -4.3060002 -0.55800003 95 58 49
-10.836 -4.2969999 -0.55900002 124 74 41
-10.845 -4.302 -0.551 131 78 46
-10.837 -4.303 -0.55299997 179 124 67
-10.835 -4.329 -0.54000002 187 115 75
-10.833 -4.3260002 -0.53500003 174 90 28
-10.84 -4.3239999 -0.537 164 74 12
-10.831 -4.3249998 -0.55599999 79 19 0
-10.827 -4.3270001 -0.53600001 165 87 25
-10.845 -4.3010001 -0.53500003 176 124 84
-10.842 -4.3119998 -0.53399998 203 105 44
-10.841 -4.3130002 -0.54100001 174 85 25
-10.823 -4.2940001 -0.53100002 222 152 101
-10.83 -4.2820001 -0.53500003 173 115 67
-10.818 -4.2839999 -0.53500003 139 113 52
-10.822 -4.3130002 -0.52999997 197 132 74
-10.806 -4.2930002 -0.55000001 168 83 29
-10.807 -4.2839999 -0.55900002 167 123 84
-10.823 -4.296 -0.56699997 63 17 0
-10.815 -4.3239999 -0.54500002 147 94 42
-10.813 -4.3210001 -0.54500002 142 76 16
-10.817 -4.3260002 -0.54699999 121 58 7
-10.824 -4.322 -0.55699998 185 130 100
-10.829 -4.3280001 -0.55400002 143 80 37
-10.827 -4.3299999 -0.55299997 151 88 34
-10.824 -4.3189998 -0.55900002 90 36 12
-10.821 -4.3169999 -0.56 89 48 26
-10.826 -4.3119998 -0.565 72 30 14
-10.806 -4.303 -0.551 115 74 28
-10.808 -4.2989998 -0.54900002 157 95 54
-10.809 -4.2979999 -0.546 82 33 0
-10.841 -4.2950001 -0.55400002 199 141 95
-10.835 -4.3239999 -0.546 217 136 93
-10.838 -4.3189998 -0.53399998 204 148 89
-10.819 -4.2940001 -0.53299999 131 77 41
-10.808 -4.3169999 -0.542 148 97 42
-10.841 -4.3140001 -0.537 163 106 61
-10.842 -4.2989998 -0.53399998 188 125 81
-10.826 -4.2740002 -0.54299998 127 77 50
-10.827 -4.302 -0.52999997 177 109 44
-10.811 -4.2779999 -0.55199999 175 113 56
-10.817 -4.2870002 -0.537 137 91 75
-10.816 -4.3210001 -0.55900002 155 103 55
-10.84 -4.303 -0.55000001 167 85 37
-10.828 -4.3280001 -0.54699999 179 112 69
-10.822 -4.309 -0.56800002 155 108 78
-10.833 -4.3099999 -0.54900002 188 97 40
-10.809 -4.2989998 -0.54000002 182 116 68
-10.822 -4.2950001 -0.53100002 223 129 68
-10.804 -4.309 -0.54900002 139 103 53
-10.81 -4.3200002 -0.54100001 210 152 102
-10.845 -4.302 -0.537 168 73 9
-10.821 -4.3280001 -0.53799999 209 117 52
-10.843 -4.296 -0.53600001 218 133 78
-10.813 -4.2909999 -0.54000002 191 121 69
-10.82 -4.3260002 -0.54900002 180 90 30
-10.836 -4.296 -0.53399998 188 137 94
-10.829 -4.3060002 -0.55900002 160 68 17
0 0 0 1 0 0 0 1 0 0 0 1 0 0 0 0 0 101 1 0 0
