ply
format ascii 1.0
comment PCL generated
element vertex 573
property float x
property float y
property float z
property uchar red
property uchar green
property uchar blue
element camera 1
property float view_px
property float view_py
property float view_pz
property float x_axisx
property float x_axisy
property float x_axisz
property float y_axisx
property float y_axisy
property float y_axisz
property float z_axisx
property float z_axisy
property float z_axisz
property float focal
property float scalex
property float scaley
property float centerx
property float centery
property int viewportx
property int viewporty
property float k1
property float k2
end_header
-3.8099999 -4.5110002 -0.90200001 43 6 0
-3.8269999 -4.52 -0.90700001 96 34 9
-3.826 -4.5209999 -0.89499998 170 89 23
-3.8299999 -4.5209999 -0.89700001 222 146 84
-3.7820001 -4.4559999 -0.92400002 118 78 53
-3.7839999 -4.4619999 -0.92199999 142 106 90
-3.7809999 -4.4510002 -0.921 86 43 9
-3.7820001 -4.4580002 -0.92199999 61 24 6
-3.8469999 -4.4699998 -1.025 52 26 3
-3.845 -4.4689999 -1.025 46 19 0
-3.845 -4.4699998 -1.023 45 16 0
-3.849 -4.4699998 -1.029 58 30 6
-3.8 -4.4359999 -0.99299997 114 94 83
-3.7880001 -4.4250002 -0.98900002 87 59 45
-3.7939999 -4.4330001 -0.98500001 30 5 0
-3.7780001 -4.4549999 -0.917 125 88 69
-3.7739999 -4.4559999 -0.91299999 121 86 67
-3.766 -4.4450002 -0.92299998 39 5 0
-3.7709999 -4.4689999 -0.97500002 51 2 0
-3.7750001 -4.4679999 -0.99400002 50 24 7
-3.7650001 -4.4629998 -0.97399998 255 186 96
-3.7709999 -4.4569998 -0.991 132 82 33
-3.77 -4.448 -0.93000001 74 51 45
-3.766 -4.4510002 -0.92799997 49 27 16
-3.7750001 -4.4520001 -0.92699999 42 4 0
-3.8 -4.4359999 -1.007 15 0 0
-3.7980001 -4.434 -1.005 103 78 71
-3.8239999 -4.4660001 -1.0089999 105 87 83
-3.8399999 -4.4790001 -1.018 96 92 91
-3.8310001 -4.4770002 -1.0039999 44 16 4
-3.832 -4.4819999 -1 58 9 0
-3.8340001 -4.4959998 -1.016 77 40 24
-3.7839999 -4.4759998 -0.98199999 208 130 55
-3.7820001 -4.4629998 -0.92199999 139 106 87
-3.7869999 -4.4650002 -0.92500001 131 99 74
-3.8139999 -4.5359998 -0.91399997 50 32 22
-3.819 -4.5380001 -0.91100001 64 42 31
-3.8150001 -4.533 -0.903 69 51 47
-3.832 -4.5149999 -0.93199998 48 6 0
-3.832 -4.5120001 -0.93699998 82 36 20
-3.8150001 -4.5050001 -0.93099999 41 12 0
-3.825 -4.5170002 -0.92500001 90 40 13
-3.8340001 -4.5240002 -0.89999998 96 34 0
-3.8199999 -4.5289998 -0.898 81 36 15
-3.8210001 -4.5349998 -0.90399998 67 49 45
-3.8210001 -4.533 -0.90200001 175 133 93
-3.7909999 -4.4710002 -1.002 52 27 22
-3.766 -4.4569998 -1 187 127 54
-3.819 -4.5079999 -1.045 38 18 11
-3.8299999 -4.5100002 -1.045 80 33 5
-3.8150001 -4.5139999 -1.044 18 0 0
-3.8410001 -4.5219998 -1.025 39 11 7
-3.8469999 -4.5170002 -1.02 31 7 3
-3.8440001 -4.5300002 -1.031 66 40 27
-3.842 -4.5110002 -1.003 103 68 36
-3.846 -4.5170002 -1.0039999 93 52 30
-3.846 -4.48 -1.026 25 6 0
-3.823 -4.4450002 -1.036 30 5 0
-3.825 -4.4450002 -1.041 32 9 1
-3.8269999 -4.447 -1.0369999 65 20 0
-3.8010001 -4.4390001 -0.99800003 36 11 4
-3.8069999 -4.4489999 -0.99900001 33 18 13
-3.7969999 -4.4330001 -0.99599999 38 15 7
-3.822 -4.4450002 -1.034 39 16 2
-3.783 -4.4419999 -1.0140001 54 12 0
-3.78 -4.4419999 -1.013 47 0 0
-3.7739999 -4.4439998 -1.021 80 14 0
-3.79 -4.4330001 -1.005 66 42 32
-3.822 -4.4549999 -1.028 110 91 85
-3.7980001 -4.473 -1.0140001 38 13 8
-3.7880001 -4.4689999 -1.022 32 3 0
-3.7969999 -4.4720001 -1.024 102 57 34
-3.799 -4.4720001 -1.017 27 0 0
-3.839 -4.5110002 -1.045 25 2 0
-3.8410001 -4.5300002 -1.039 65 37 26
-3.8329999 -4.5339999 -1.045 133 75 29
-3.7750001 -4.4580002 -0.921 28 4 0
-3.7739999 -4.4679999 -0.93699998 210 125 42
-3.8380001 -4.5089998 -0.94700003 94 55 38
-3.836 -4.5229998 -0.958 44 16 4
-3.809 -4.4879999 -0.95300001 79 33 7
-3.796 -4.4790001 -0.93900001 142 114 90
-3.8080001 -4.4660001 -0.954 91 38 6
-3.7869999 -4.4710002 -0.92299998 82 55 34
-3.79 -4.467 -0.93300003 65 46 31
-3.7850001 -4.4580002 -0.93300003 136 54 4
-3.812 -4.46 -0.97299999 40 5 1
-3.803 -4.4520001 -0.96700001 90 66 54
-3.8399999 -4.5170002 -0.98799998 99 78 73
-3.842 -4.4980001 -0.98500001 26 12 11
-3.8150001 -4.5320001 -0.90700001 34 15 9
-3.816 -4.5320001 -0.91900003 21 3 0
-3.823 -4.5359998 -0.93300003 43 3 0
-3.8239999 -4.5370002 -0.94 57 36 17
-3.8199999 -4.5419998 -0.93800002 77 56 39
-3.8299999 -4.5250001 -0.90100002 132 69 25
-3.819 -4.52 -0.90200001 54 16 0
-3.8429999 -4.4749999 -1.044 61 31 5
-3.7709999 -4.4689999 -0.972 72 20 0
-3.78 -4.4759998 -0.96700001 111 41 5
-3.7709999 -4.4699998 -0.96700001 175 123 84
-3.7690001 -4.4549999 -0.98299998 245 188 99
-3.7709999 -4.4530001 -0.991 30 11 4
-3.773 -4.4450002 -0.98199999 53 34 27
-3.77 -4.4549999 -0.99000001 149 89 26
-3.8310001 -4.5120001 -0.94099998 112 65 45
-3.8310001 -4.513 -0.94700003 68 24 0
-3.8169999 -4.4439998 -1.0420001 34 15 1
-3.812 -4.4450002 -1.0420001 44 0 0
-3.812 -4.4450002 -1.045 35 4 1
-3.7880001 -4.428 -0.99699998 34 10 0
-3.7869999 -4.4429998 -1.018 40 5 1
-3.8299999 -4.4850001 -1.0039999 133 66 23
-3.8380001 -4.4899998 -1.022 29 5 1
-3.825 -4.4720001 -1.016 116 97 91
-3.799 -4.4790001 -1.006 56 28 17
-3.7939999 -4.4720001 -1.006 65 38 31
-3.816 -4.448 -1.031 69 24 1
-3.819 -4.4450002 -1.036 38 19 5
-3.813 -4.4489999 -1.034 83 17 0
-3.8399999 -4.5089998 -1.044 132 75 48
-3.8410001 -4.5079999 -1.045 119 62 33
-3.839 -4.5240002 -1.029 38 11 4
-3.8380001 -4.5079999 -1.04 56 7 0
-3.8380001 -4.5089998 -1.045 102 50 26
-3.8369999 -4.507 -1.045 82 40 28
-3.8380001 -4.5050001 -1.044 114 74 49
-3.8369999 -4.5289998 -1.035 86 37 7
-3.779 -4.454 -0.92500001 196 154 138
-3.783 -4.4590001 -0.926 81 41 16
-3.7920001 -4.48 -0.93800002 56 28 6
-3.79 -4.4699998 -0.94800001 28 8 0
-3.786 -4.4780002 -0.95999998 39 19 8
-3.777 -4.448 -0.94700003 28 5 0
-3.835 -4.5089998 -0.97600001 29 2 0
-3.8329999 -4.5100002 -0.972 50 15 9
-3.8340001 -4.5050001 -0.97100002 126 103 87
-3.822 -4.493 -0.96700001 122 81 61
-3.819 -4.4899998 -0.97000003 70 33 24
-3.8410001 -4.4959998 -0.977 44 19 14
-3.812 -4.4619999 -0.97000003 59 26 17
-3.8329999 -4.4759998 -0.99699998 31 10 7
-3.8139999 -4.4650002 -0.977 42 9 4
-3.829 -4.4770002 -1.003 25 1 0
-3.8080001 -4.4569998 -0.986 85 52 45
-3.8050001 -4.4520001 -0.98400003 28 10 8
-3.8280001 -4.5190001 -0.92500001 51 6 0
-3.825 -4.5209999 -0.91399997 54 0 0
-3.825 -4.5250001 -0.93699998 36 3 0
-3.8280001 -4.533 -1.043 133 81 57
-3.825 -4.5320001 -1.04 110 63 47
-3.816 -4.5359998 -1.036 140 89 62
-3.8199999 -4.533 -1.038 79 40 25
-3.835 -4.5300002 -1.0420001 78 42 20
-3.832 -4.5100002 -1.045 81 36 15
-3.826 -4.5240002 -0.90799999 69 12 0
-3.816 -4.5209999 -0.898 72 27 6
-3.8069999 -4.52 -0.90399998 57 9 0
-3.813 -4.526 -0.90100002 152 105 75
-3.7939999 -4.527 -0.92500001 248 174 77
-3.7939999 -4.5289998 -0.93199998 255 185 83
-3.7920001 -4.5300002 -0.93300003 250 179 71
-3.793 -4.527 -0.92699999 224 147 57
-3.8169999 -4.5190001 -0.90799999 51 17 7
-3.8099999 -4.5149999 -0.90799999 49 7 0
-3.839 -4.4629998 -1.045 41 9 0
-3.842 -4.461 -1.045 55 24 6
-3.8340001 -4.461 -1.045 95 86 87
-3.7709999 -4.4689999 -0.96700001 180 120 83
-3.7709999 -4.4650002 -0.95599997 152 76 24
-3.766 -4.4530001 -0.95599997 22 7 4
-3.78 -4.4629998 -1.002 102 57 28
-3.7750001 -4.448 -0.98699999 52 30 19
-3.779 -4.4349999 -0.98799998 82 62 51
-3.7750001 -4.448 -0.99699998 159 99 45
-3.786 -4.4359999 -0.98100001 49 35 35
-3.7679999 -4.4580002 -0.977 160 91 14
-3.773 -4.448 -1 180 115 47
-3.7679999 -4.4559999 -0.99900001 192 127 47
-3.7750001 -4.4439998 -1.008 175 115 55
-3.7750001 -4.4450002 -1.0039999 206 141 85
-3.8369999 -4.507 -1.024 44 17 10
-3.8329999 -4.5050001 -1.046 61 41 34
-3.8299999 -4.48 -1.046 134 120 119
-3.799 -4.467 -1.025 57 21 5
-3.8069999 -4.4640002 -1.031 148 142 142
-3.812 -4.4650002 -1.043 74 30 5
-3.812 -4.4619999 -1.044 57 19 6
-3.819 -4.494 -1.044 49 17 2
-3.8210001 -4.4879999 -1.043 48 20 6
-3.819 -4.494 -1.044 49 17 2
-3.819 -4.493 -1.043 39 12 3
-3.8199999 -4.4899998 -1.0420001 42 16 1
-3.8399999 -4.526 -1.025 19 0 0
-3.8399999 -4.526 -1.022 43 22 21
-3.836 -4.4920001 -1.03 52 25 6
-3.839 -4.527 -0.99699998 42 16 15
-3.8199999 -4.526 -0.95700002 41 14 7
-3.832 -4.5219998 -0.96200001 47 20 9
-3.809 -4.4689999 -0.96100003 73 23 0
-3.8340001 -4.5029998 -0.97299999 129 106 88
-3.8280001 -4.4990001 -0.96799999 108 88 81
-3.8210001 -4.5019999 -0.95099998 65 33 20
-3.829 -4.5050001 -0.95200002 86 51 31
-3.8310001 -4.5089998 -0.94599998 135 90 59
-3.8440001 -4.4710002 -1.041 61 33 19
-3.819 -4.4439998 -1.039 33 14 0
-3.8280001 -4.447 -1.041 94 48 24
-3.8269999 -4.4499998 -1.045 93 38 7
-3.7909999 -4.4299998 -0.98699999 61 37 27
-3.773 -4.4439998 -1.017 154 87 32
-3.7909999 -4.4299998 -0.99400002 60 36 24
-3.79 -4.4460001 -1.021 27 2 0
-3.812 -4.4499998 -1.0369999 91 25 0
-3.789 -4.4520001 -1.022 58 21 3
-3.8099999 -4.4720001 -0.98799998 9 0 1
-3.8269999 -4.448 -1.0369999 114 60 26
-3.839 -4.4629998 -1.043 60 23 5
-3.8429999 -4.473 -1.023 23 5 1
-3.8269999 -4.4720001 -1.023 33 0 0
-3.8429999 -4.4710002 -1.024 54 21 2
-3.822 -4.4689999 -1.017 105 63 39
-3.8139999 -4.4629998 -1.016 124 116 114
-3.8310001 -4.4660001 -1.03 57 34 26
-3.842 -4.4759998 -1.034 50 19 1
-3.8399999 -4.4770002 -1.041 49 22 5
-3.839 -4.4780002 -1.04 53 21 0
-3.839 -4.513 -0.99800003 76 31 2
-3.8329999 -4.5 -0.995 44 11 0
-3.8299999 -4.4920001 -0.995 54 23 5
-3.802 -4.4749999 -0.986 6 0 0
-3.8010001 -4.4829998 -0.977 42 19 11
-3.8180001 -4.4899998 -0.98699999 45 18 11
-3.8039999 -4.473 -1.018 25 5 4
-3.8399999 -4.5250001 -1.029 46 18 7
-3.8310001 -4.5289998 -1.031 108 59 42
-3.832 -4.5310001 -1.038 86 32 8
-3.842 -4.5240002 -1.016 101 56 33
-3.8429999 -4.5190001 -1.013 30 5 1
-3.8429999 -4.5190001 -1.0089999 41 12 4
-3.839 -4.5089998 -1.016 91 72 66
-3.7939999 -4.473 -0.99900001 94 84 83
-3.7969999 -4.4749999 -1.001 40 19 16
-3.7950001 -4.474 -0.99699998 18 0 0
-3.793 -4.4720001 -0.99199998 15 0 0
-3.812 -4.4520001 -1.038 88 23 1
-3.813 -4.4510002 -1.04 68 23 0
-3.7809999 -4.4569998 -0.92900002 143 101 85
-3.783 -4.4650002 -0.92500001 77 49 27
-3.786 -4.4629998 -0.92900002 118 87 59
-3.796 -4.4359999 -0.99000001 121 68 34
-3.789 -4.4660001 -0.935 84 42 20
-3.789 -4.4580002 -0.949 77 26 7
-3.832 -4.5180001 -0.97399998 55 28 19
-3.8329999 -4.5180001 -0.96100003 27 0 0
-3.8399999 -4.5009999 -0.97899997 52 25 14
-3.836 -4.507 -0.97899997 97 50 20
-3.8139999 -4.4990001 -0.95700002 50 26 14
-3.8110001 -4.494 -0.95899999 59 23 9
-3.813 -4.5 -0.95999998 43 25 5
-3.8139999 -4.5029998 -0.94499999 31 17 8
-3.812 -4.527 -0.91000003 225 134 53
-3.7969999 -4.526 -0.92299998 255 190 85
-3.826 -4.5209999 -0.92900002 44 0 0
-3.8299999 -4.513 -0.94400001 64 19 0
-3.825 -4.5320001 -1.038 77 38 23
-3.8199999 -4.533 -0.91000003 74 50 40
-3.8180001 -4.5250001 -0.898 47 2 0
-3.7690001 -4.461 -0.96700001 231 163 82
-3.7750001 -4.4679999 -0.95700002 47 13 3
-3.7850001 -4.4390001 -1.0039999 87 68 54
-3.7820001 -4.441 -1.005 60 11 0
-3.7850001 -4.4369998 -1.001 51 28 14
-3.7679999 -4.461 -0.972 153 83 14
-3.7720001 -4.4520001 -0.96200001 32 14 2
-3.7690001 -4.4549999 -0.98000002 206 154 52
-3.7750001 -4.4460001 -1.001 100 39 0
-3.7780001 -4.4439998 -1.001 109 48 4
-3.8269999 -4.5050001 -1.045 30 5 0
-3.8210001 -4.5040002 -1.045 46 16 6
-3.8210001 -4.5019999 -1.045 54 18 2
-3.8239999 -4.4829998 -1.045 13 3 4
-3.8299999 -4.474 -1.046 122 111 109
-3.826 -4.4559999 -1.045 63 25 2
-3.816 -4.4749999 -1.041 33 10 4
-3.8199999 -4.4759998 -1.0420001 46 16 6
-3.8110001 -4.4780002 -1.03 22 4 4
-3.836 -4.4809999 -1.0420001 81 40 20
-3.8239999 -4.5310001 -1.01 151 77 16
-3.8299999 -4.527 -0.99699998 126 85 63
-3.7980001 -4.5300002 -0.95099998 157 80 24
-3.7920001 -4.5250001 -0.954 32 1 0
-3.7980001 -4.5320001 -0.95499998 74 52 38
-3.8169999 -4.527 -0.954 47 19 7
-3.803 -4.5359998 -0.95700002 145 87 65
-3.8110001 -4.527 -0.958 24 1 0
-3.793 -4.5320001 -0.963 47 10 1
-3.7920001 -4.5339999 -0.96600002 77 25 3
-3.8150001 -4.5250001 -0.96799999 34 17 10
-3.813 -4.5250001 -0.96399999 55 6 0
-3.799 -4.474 -0.99000001 9 0 1
-3.8099999 -4.4650002 -0.96200001 53 11 0
-3.8399999 -4.507 -0.95499998 75 34 16
-3.835 -4.5120001 -0.954 30 5 1
-3.8210001 -4.506 -0.94199997 111 81 57
-3.848 -4.4699998 -1.03 53 25 3
-3.846 -4.4689999 -1.03 58 31 14
-3.8180001 -4.4439998 -1.044 26 7 0
-3.813 -4.4460001 -1.045 27 4 0
-3.826 -4.4460001 -1.043 39 10 0
-3.8039999 -4.4460001 -0.99400002 101 68 51
-3.777 -4.4429998 -1.01 87 34 3
-3.7750001 -4.4439998 -1.017 113 47 12
-3.786 -4.4569998 -1.017 15 0 0
-3.7920001 -4.454 -1.024 63 18 0
-3.812 -4.4520001 -1.036 139 64 32
-3.8010001 -4.4619999 -1.025 25 4 1
-3.8 -4.4650002 -1.025 45 13 2
-3.813 -4.4590001 -1.0420001 71 24 6
-3.8340001 -4.467 -1.045 97 87 86
-3.8429999 -4.4689999 -1.026 52 26 9
-3.8380001 -4.5100002 -0.99900001 98 47 4
-3.829 -4.494 -0.99800003 58 29 11
-3.8329999 -4.4980001 -0.991 9 1 0
-3.779 -4.4629998 -1.015 130 82 59
-3.806 -4.48 -1.008 19 1 0
-3.8180001 -4.5079999 -1.044 34 11 3
-3.819 -4.507 -1.043 43 23 16
-3.8139999 -4.4780002 -1.005 20 6 3
-3.835 -4.5310001 -1.04 82 29 0
-3.825 -4.5310001 -1.034 79 43 29
-3.8410001 -4.5149999 -1.01 126 100 77
-3.7939999 -4.4759998 -0.98699999 62 21 0
-3.793 -4.4770002 -0.98400003 91 42 10
-3.8139999 -4.4460001 -1.04 32 4 0
-3.7780001 -4.4619999 -0.92699999 22 8 0
-3.7969999 -4.4510002 -0.97600001 26 5 0
-3.8 -4.5229998 -0.93599999 110 78 63
-3.8039999 -4.5120001 -0.93699998 84 48 16
-3.7939999 -4.4780002 -0.95200002 98 66 45
-3.7780001 -4.4429998 -0.963 23 8 5
-3.7820001 -4.4419999 -0.95999998 90 64 49
-3.7869999 -4.4559999 -0.94800001 46 12 0
-3.776 -4.4629998 -0.94400001 160 84 22
-3.8099999 -4.4569998 -1.01 131 121 120
-3.803 -4.4510002 -1.013 27 4 0
-3.8099999 -4.4640002 -0.99000001 36 13 7
-3.8340001 -4.5120001 -0.97500002 61 24 8
-3.836 -4.5159998 -0.98699999 42 14 3
-3.8050001 -4.4829998 -0.958 60 27 12
-3.7920001 -4.4860001 -0.96499997 24 7 0
-3.7869999 -4.4790001 -0.96899998 28 8 0
-3.7969999 -4.4850001 -0.97299999 39 9 0
-3.8110001 -4.506 -0.96600002 103 67 43
-3.7969999 -4.4889998 -0.96700001 101 74 57
-3.822 -4.493 -0.96899998 60 21 6
-3.825 -4.4959998 -0.97299999 132 78 40
-3.822 -4.4860001 -0.98400003 39 4 0
-3.8080001 -4.5300002 -0.92000002 212 121 38
-3.799 -4.527 -0.92699999 234 160 65
-3.8080001 -4.5320001 -0.93800002 157 82 17
-3.825 -4.5219998 -0.92400002 73 27 1
-3.826 -4.5209999 -0.91000003 146 87 69
-3.7969999 -4.526 -0.92699999 249 180 77
-3.809 -4.5139999 -0.91600001 64 17 0
-3.809 -4.5110002 -0.92900002 110 74 42
-3.8150001 -4.5149999 -0.92699999 117 86 58
-3.789 -4.4679999 -0.99599999 39 17 6
-3.8210001 -4.4460001 -1.045 24 3 0
-3.7709999 -4.4530001 -0.995 169 101 26
-3.816 -4.5079999 -1.031 48 20 8
-3.812 -4.5120001 -1.025 143 93 58
-3.8239999 -4.5029998 -1.045 36 8 5
-3.826 -4.494 -1.045 54 17 1
-3.8299999 -4.4970002 -1.045 60 18 2
-3.803 -4.4710002 -1.024 149 102 76
-3.8099999 -4.5050001 -1.026 41 7 0
-3.8269999 -4.5310001 -1.012 47 15 0
-3.8099999 -4.5349998 -0.94300002 19 1 0
-3.806 -4.5339999 -0.94700003 43 18 13
-3.819 -4.526 -0.94400001 31 0 0
-3.8299999 -4.5170002 -0.95200002 47 25 12
-3.802 -4.533 -0.95099998 95 68 59
-3.812 -4.5250001 -0.96799999 85 34 3
-3.8080001 -4.526 -0.97600001 158 94 48
-3.8110001 -4.5250001 -0.97799999 124 62 21
-3.7939999 -4.5320001 -0.96700001 50 20 9
-3.829 -4.5040002 -0.958 82 34 11
-3.8239999 -4.5040002 -0.94999999 55 23 8
-3.802 -4.5289998 -0.94 38 12 0
-3.803 -4.5300002 -0.94300002 66 20 0
-3.8 -4.5300002 -0.94700003 102 59 27
-3.7980001 -4.5229998 -0.95099998 31 3 0
-3.8010001 -4.5209999 -0.94999999 71 3 0
-3.7939999 -4.5229998 -0.95999998 180 94 37
-3.796 -4.5300002 -0.95700002 20 5 2
-3.846 -4.4699998 -1.035 56 27 9
-3.822 -4.4439998 -1.043 20 0 1
-3.7880001 -4.441 -1.012 34 0 0
-3.777 -4.4429998 -1.007 114 55 13
-3.813 -4.447 -1.044 27 7 0
-3.823 -4.4510002 -1.044 114 55 15
-3.8169999 -4.4569998 -1.043 77 31 7
-3.8150001 -4.461 -1.044 48 17 0
-3.832 -4.4699998 -1.045 63 24 9
-3.8310001 -4.4679999 -1.045 68 24 0
-3.8150001 -4.474 -1.038 40 10 8
-3.8399999 -4.4770002 -1.035 60 24 0
-3.846 -4.4720001 -1.033 56 26 2
-3.835 -4.5250001 -1.008 31 6 0
-3.8080001 -4.5009999 -0.99000001 36 16 9
-3.816 -4.4910002 -0.98100001 58 32 15
-3.8080001 -4.474 -0.977 13 3 1
-3.799 -4.527 -0.96899998 83 24 0
-3.8099999 -4.5120001 -0.97600001 217 134 40
-3.7980001 -4.4549999 -1.021 54 18 2
-3.8180001 -4.5089998 -1.043 38 15 7
-3.8099999 -4.4819999 -1.0039999 39 22 14
-3.8310001 -4.5050001 -1.006 120 103 96
-3.7869999 -4.4450002 -0.97299999 51 37 37
-3.8210001 -4.5019999 -0.954 53 19 10
-3.7939999 -4.4749999 -0.94599998 36 12 0
-3.7750001 -4.4380002 -0.98100001 119 96 88
-3.7750001 -4.4489999 -0.95499998 40 25 28
-3.8110001 -4.4660001 -0.986 50 16 7
-3.8069999 -4.4829998 -0.958 28 11 4
-3.8169999 -4.4889998 -0.97399998 78 48 38
-3.8150001 -4.4889998 -0.972 33 2 0
-3.829 -4.4899998 -0.98699999 87 51 29
-3.812 -4.5310001 -0.93300003 24 8 8
-3.823 -4.5089998 -0.93599999 72 20 0
-3.8180001 -4.5100002 -0.93199998 38 10 0
-3.7939999 -4.527 -0.92799997 243 173 78
-3.8050001 -4.5120001 -0.91000003 67 20 0
-3.7709999 -4.4559999 -0.97500002 255 198 108
-3.8199999 -4.4559999 -1.043 74 30 5
-3.826 -4.4510002 -1.045 106 50 17
-3.8329999 -4.4980001 -1.045 73 31 7
-3.835 -4.4980001 -1.044 59 18 0
-3.819 -4.5079999 -1.038 38 14 4
-3.8280001 -4.5029998 -1.045 18 0 0
-3.826 -4.473 -1.045 18 0 0
-3.8239999 -4.4660001 -1.045 9 0 0
-3.813 -4.4829998 -1.017 161 99 60
-3.8110001 -4.4990001 -1.018 53 6 0
-3.8099999 -4.5 -1.0140001 83 29 5
-3.802 -4.4720001 -1.022 175 125 102
-3.819 -4.4920001 -1.036 47 10 1
-3.8110001 -4.4809999 -1.025 90 30 2
-3.832 -4.4819999 -1.043 67 26 4
-3.829 -4.5289998 -1.025 24 0 0
-3.813 -4.5310001 -0.94599998 72 25 5
-3.806 -4.527 -0.96799999 74 26 4
-3.79 -4.5310001 -0.96399999 45 8 0
-3.8199999 -4.533 -1.015 190 113 45
-3.806 -4.5250001 -1.021 89 52 23
-3.823 -4.5300002 -1.008 175 95 32
-3.806 -4.5159998 -1.021 21 6 0
-3.8110001 -4.5159998 -1.022 26 9 1
-3.8269999 -4.5100002 -0.94300002 110 79 61
-3.826 -4.506 -0.949 74 45 29
-3.8010001 -4.52 -0.94599998 111 27 0
-3.7939999 -4.5250001 -0.95300001 128 96 83
-3.845 -4.4689999 -1.034 54 26 14
-3.79 -4.4439998 -1.017 37 6 3
-3.793 -4.4439998 -1.013 36 9 2
-3.7809999 -4.4419999 -1.008 47 0 0
-3.8169999 -4.467 -1.045 26 2 0
-3.8199999 -4.461 -1.045 57 21 7
-3.8239999 -4.4640002 -1.045 19 0 0
-3.8199999 -4.4619999 -1.045 43 9 0
-3.8299999 -4.4660001 -1.045 70 33 6
-3.832 -4.4660001 -1.045 81 37 8
-3.8410001 -4.4689999 -1.0319999 46 20 7
-3.832 -4.527 -1.013 77 51 38
-3.8099999 -4.4679999 -0.97299999 32 0 0
-3.8139999 -4.5009999 -0.96899998 24 5 1
-3.8139999 -4.5100002 -0.95700002 19 4 0
-3.813 -4.507 -0.98199999 177 90 19
-3.7880001 -4.4660001 -1.013 43 10 3
-3.829 -4.487 -1.003 131 65 7
-3.813 -4.4980001 -1.011 56 8 0
-3.819 -4.5339999 -1.034 113 68 49
-3.8080001 -4.4580002 -1.016 13 0 0
-3.7880001 -4.447 -0.96899998 134 114 103
-3.806 -4.5120001 -0.92799997 41 23 13
-3.7839999 -4.4510002 -0.963 134 111 97
-3.776 -4.448 -0.96499997 78 44 32
-3.786 -4.4590001 -0.94499999 32 8 4
-3.7780001 -4.4590001 -0.94400001 57 40 22
-3.799 -4.4559999 -0.963 84 38 12
-3.773 -4.454 -0.97500002 173 118 51
-3.793 -4.474 -0.98900002 62 43 37
-3.7820001 -4.428 -0.99400002 125 98 81
-3.7709999 -4.4660001 -0.96499997 126 61 31
-3.8369999 -4.5050001 -1.041 91 57 45
-3.8269999 -4.4809999 -1.045 26 6 0
-3.8269999 -4.474 -1.045 23 0 0
-3.813 -4.4819999 -1.025 56 18 0
-3.8080001 -4.5019999 -1 190 109 27
-3.793 -4.527 -0.958 23 0 0
-3.799 -4.5050001 -1.017 117 98 92
-3.822 -4.5310001 -1.022 123 59 31
-3.7980001 -4.5250001 -0.949 149 117 96
-3.8010001 -4.4489999 -1.008 62 30 15
-3.7980001 -4.4450002 -1.013 120 101 97
-3.7980001 -4.4510002 -1.017 14 0 0
-3.8180001 -4.4650002 -1.045 95 59 43
-3.813 -4.473 -1.0319999 52 9 3
-3.8310001 -4.4650002 -1.045 70 30 4
-3.8440001 -4.4679999 -1.029 45 19 4
-3.832 -4.526 -1.002 103 56 30
-3.8310001 -4.527 -1.018 21 2 0
-3.8150001 -4.5219998 -0.99800003 141 111 87
-3.8199999 -4.526 -1.006 119 59 31
-3.8150001 -4.5190001 -1.013 55 36 29
-3.832 -4.5120001 -0.96600002 43 6 0
-3.8039999 -4.5100002 -0.94199997 48 26 15
-3.823 -4.5289998 -1.0039999 183 110 57
-3.809 -4.5120001 -0.98299998 198 127 65
-3.8150001 -4.5019999 -0.98299998 130 57 6
-3.8180001 -4.5219998 -0.97600001 84 40 15
-3.813 -4.5240002 -0.97600001 87 30 1
-3.8180001 -4.5209999 -0.97299999 85 35 10
-3.819 -4.5209999 -0.98199999 95 62 47
-3.825 -4.5229998 -0.986 59 27 12
-3.8269999 -4.527 -1 41 11 1
-3.7809999 -4.4640002 -1.0039999 78 42 26
-3.8039999 -4.4530001 -1.0089999 28 0 0
-3.806 -4.4559999 -1.0140001 27 13 12
-3.796 -4.4520001 -1.0190001 57 21 7
-3.806 -4.4720001 -0.96600002 60 15 0
-3.8099999 -4.5300002 -0.93400002 63 36 19
-3.832 -4.4959998 -1.044 55 16 0
-3.8299999 -4.5009999 -1.045 57 24 9
-3.816 -4.4980001 -1.022 56 17 2
-3.8099999 -4.5250001 -0.97299999 152 82 31
-3.829 -4.5289998 -1.01 16 0 0
-3.8139999 -4.526 -1.024 32 5 0
-3.8310001 -4.527 -1.008 103 72 51
-3.8239999 -4.5180001 -0.97600001 27 0 0
-3.8210001 -4.5190001 -0.97299999 85 37 17
-3.812 -4.4990001 -0.99900001 116 41 0
-3.8310001 -4.5159998 -0.96700001 36 16 5
-3.823 -4.52 -0.96499997 58 33 28
-3.822 -4.5279999 -1.0039999 178 107 61
-3.8110001 -4.5209999 -0.97799999 74 43 15
-3.8139999 -4.5170002 -0.98199999 36 9 0
-3.8010001 -4.5159998 -1.016 18 7 3
-3.8039999 -4.513 -1.0140001 118 64 52
-3.822 -4.5209999 -0.99299997 82 39 22
-3.776 -4.4710002 -0.96100003 137 67 18
-3.7809999 -4.4569998 -0.94 27 0 0
-3.7839999 -4.4569998 -0.94499999 76 28 5
-3.823 -4.526 -1.001 132 70 33
-3.8 -4.527 -0.93099999 183 104 29
-3.8329999 -4.494 -1.035 73 33 8
-3.8310001 -4.5009999 -1.045 55 21 11
-3.826 -4.5279999 -1.005 155 74 18
-3.8269999 -4.527 -1.001 159 78 23
-3.813 -4.5209999 -1.017 21 3 1
-3.8210001 -4.527 -1.005 116 56 22
-3.8110001 -4.5100002 -0.98100001 217 139 67
-3.7909999 -4.447 -1.02 29 5 1
-3.7950001 -4.4510002 -1.0190001 51 17 7
-3.7869999 -4.4499998 -0.96600002 93 34 16
-3.776 -4.4720001 -0.96499997 36 16 9
-3.8069999 -4.5100002 -0.99400002 205 118 38
-3.825 -4.5279999 -1.003 200 121 62
-3.812 -4.4990001 -0.99599999 128 53 0
-3.8069999 -4.5100002 -0.991 212 125 45
-3.8080001 -4.5120001 -1.005 91 45 30
-3.809 -4.5089998 -1.001 105 45 17
0 0 0 1 0 0 0 1 0 0 0 1 0 0 0 0 0 573 1 0 0
