ply
format ascii 1.0
comment PCL generated
element vertex 1222
property float x
property float y
property float z
property uchar red
property uchar green
property uchar blue
element camera 0
property float view_px
property float view_py
property float view_pz
property float x_axisx
property float x_axisy
property float x_axisz
property float y_axisx
property float y_axisy
property float y_axisz
property float z_axisx
property float z_axisy
property float z_axisz
property float focal
property float scalex
property float scaley
property float centerx
property float centery
property int viewportx
property int viewporty
property float k1
property float k2
end_header
-6.0079999 2.701 -0.96100003 228 163 97
-5.9790001 2.77 -0.84100002 47 14 0
-5.9819999 2.773 -0.83399999 44 8 0
-5.9829998 2.777 -0.84200001 48 25 11
-5.9809999 2.7880001 -0.83099997 86 50 28
-5.9829998 2.7750001 -0.833 89 50 33
-6.039 2.7820001 -1.058 20 11 6
-6.033 2.786 -1.05 40 29 23
-6.0349998 2.799 -1.056 86 72 59
-6.033 2.7920001 -1.058 22 4 2
-6.0419998 2.8099999 -0.73299998 132 104 83
-6.0250001 2.813 -0.72799999 130 98 85
-6.0489998 2.812 -0.72299999 90 37 3
-6.0320001 2.767 -1.0599999 76 45 25
-6.0359998 2.77 -1.0599999 62 31 11
-6.027 2.7709999 -1.062 146 105 75
-6.0339999 2.7679999 -1.059 44 15 1
-6.0380001 2.74 -0.88200003 124 77 51
-6.0359998 2.7360001 -0.90200001 53 15 2
-6.0250001 2.7279999 -0.88200003 108 52 17
-6.0300002 2.7539999 -0.74000001 255 226 144
-6.0300002 2.7479999 -0.72799999 127 84 42
-6.0349998 2.753 -0.73500001 237 204 150
-6.0339999 2.7539999 -0.73799998 241 211 125
-6.04 2.757 -0.73799998 255 241 192
-6.0430002 2.7620001 -0.72799999 255 238 141
-6.0419998 2.7609999 -0.73299998 244 220 122
-6.0780001 2.78 -0.829 237 168 111
-6.0760002 2.7839999 -0.83600003 126 64 7
-6.0879998 2.7980001 -0.833 173 109 63
-6.0040002 2.701 -0.95300001 129 70 12
-5.9879999 2.7 -0.963 115 59 22
-5.993 2.7049999 -0.954 157 134 120
-5.9990001 2.704 -0.95200002 56 23 8
-6.0100002 2.707 -0.94999999 178 115 46
-6.0300002 2.7950001 -1.0549999 39 25 16
-6.027 2.7869999 -1.059 92 56 24
-6.0170002 2.7920001 -1.045 96 73 59
-6.027 2.796 -1.051 15 1 0
-6.026 2.7869999 -1.056 254 216 167
-6.0250001 2.7839999 -1.058 58 25 8
-5.9780002 2.8069999 -0.77100003 65 29 15
-5.9710002 2.8050001 -0.77399999 126 85 53
-5.9819999 2.8039999 -0.79100001 132 94 71
-5.9770002 2.7739999 -0.81599998 57 38 32
-6.0240002 2.7290001 -0.87800002 62 14 0
-6.0110002 2.727 -0.88599998 105 47 10
-6.02 2.7490001 -0.727 247 205 129
-6.0489998 2.783 -0.708 247 185 110
-6.0450001 2.7780001 -0.70999998 133 71 10
-6.0310001 2.7839999 -0.70200002 137 69 6
-6.026 2.7650001 -0.70899999 176 148 100
-5.9829998 2.7850001 -0.745 138 87 22
-5.973 2.7939999 -0.75099999 211 140 88
-5.9889998 2.796 -0.75 189 114 59
-6.006 2.704 -0.97500002 80 15 0
-6.0050001 2.7049999 -1.058 146 100 50
-6.0019999 2.688 -1.049 186 127 71
-6.0029998 2.6860001 -1.052 144 86 36
-6 2.6860001 -1.056 183 122 77
-6 2.694 -1.059 102 55 13
-6.0370002 2.733 -1.0190001 186 152 124
-6.0409999 2.7420001 -1.031 169 134 102
-6.0229998 2.727 -1.027 44 10 1
-6.0469999 2.7479999 -1.017 187 114 63
-6.0450001 2.7550001 -1.025 125 81 44
-6.0469999 2.766 -0.73500001 175 127 29
-6.046 2.7650001 -0.73400003 200 152 52
-6.0419998 2.7620001 -0.73900002 185 147 108
-6.0469999 2.773 -0.72100002 210 151 81
-6.0580001 2.789 -0.71600002 117 59 0
-6.0219998 2.7249999 -0.89600003 112 51 33
-6.0009999 2.701 -0.95700002 191 134 79
-5.9899998 2.7079999 -0.949 135 117 117
-6.0089998 2.7060001 -0.95700002 213 141 82
-5.9899998 2.78 -0.93400002 79 68 50
-5.993 2.7709999 -0.912 117 86 68
-5.9970002 2.7690001 -0.92799997 148 90 53
-5.9889998 2.7679999 -0.90200001 40 1 0
-5.9899998 2.7609999 -0.90600002 16 0 0
-6.0500002 2.826 -0.84899998 51 15 0
-6.033 2.829 -0.86400002 236 196 171
-6.0310001 2.8280001 -0.85600001 143 93 68
-6.033 2.826 -0.86299998 68 29 12
-6.0029998 2.7379999 -0.90399998 149 70 13
-5.9970002 2.7420001 -0.89200002 108 54 26
-5.9899998 2.7279999 -0.88999999 120 76 41
-6.0019999 2.744 -0.90600002 228 148 97
-5.994 2.757 -0.90100002 83 32 11
-5.9860001 2.809 -0.75999999 37 12 5
-6.0320001 2.8099999 -0.727 141 109 86
-6.0170002 2.809 -0.72500002 153 148 154
-6.0219998 2.809 -0.71700001 159 156 163
-6.052 2.7839999 -0.71700001 186 130 47
-6.0349998 2.783 -0.70899999 151 84 5
-6.0380001 2.799 -0.713 81 32 0
-6.0289998 2.7850001 -0.70200002 131 61 0
-6.0580001 2.799 -0.71799999 185 133 94
-6.0479999 2.8080001 -0.71899998 217 168 110
-6.0110002 2.803 -0.71600002 66 20 4
-6.0149999 2.779 -0.71399999 127 98 64
-6.0009999 2.7980001 -0.71700001 155 114 48
-6.0159998 2.8010001 -0.71700001 124 118 122
-6.0050001 2.8050001 -0.73400003 91 40 9
-6.0240002 2.8039999 -0.71399999 163 100 57
-6.0279999 2.796 -1.048 39 25 14
-6.0250001 2.799 -1.046 92 66 53
-5.9749999 2.806 -0.77200001 152 122 60
-5.9840002 2.8099999 -0.76300001 33 9 0
-5.9889998 2.789 -0.83899999 80 63 53
-5.9660001 2.7950001 -0.787 140 80 46
-5.96 2.7980001 -0.778 94 72 59
-6.0380001 2.7579999 -0.73400003 170 142 43
-5.9990001 2.7980001 -0.722 138 111 58
-6.0019999 2.7980001 -0.72000003 146 104 64
-6.0749998 2.819 -0.83200002 124 79 48
-6.0819998 2.8099999 -0.833 77 33 6
-6.079 2.813 -0.829 120 74 50
-6.0019999 2.704 -1.0549999 193 142 89
-6.0050001 2.7090001 -1.056 230 178 120
-6.0240002 2.7290001 -1.022 43 14 6
-6.0419998 2.7650001 -0.86699998 138 96 71
-6.0489998 2.763 -0.85699999 59 10 0
-6.0580001 2.773 -0.87400001 53 2 0
-6.052 2.793 -0.71799999 105 44 0
-6.039 2.7690001 -0.72100002 197 136 69
-6.0450001 2.7690001 -0.72600001 167 123 78
-6.0180001 2.727 -0.89399999 137 72 30
-6.0819998 2.78 -0.82200003 200 127 58
-6.0760002 2.776 -0.824 236 166 106
-6.0840001 2.816 -0.81800002 159 82 36
-6.0710001 2.8239999 -0.83600003 145 89 32
-6.0240002 2.7390001 -0.98000002 178 92 41
-6.0219998 2.7249999 -0.97299999 245 185 89
-6.0190001 2.7320001 -0.98500001 215 142 74
-6.039 2.7290001 -0.96899998 172 111 80
-6.0409999 2.721 -0.96399999 183 96 25
-6.046 2.717 -0.96799999 203 115 41
-5.9819999 2.7750001 -0.84299999 53 25 11
-5.9910002 2.7739999 -0.86199999 186 163 147
-5.9910002 2.76 -0.90100002 88 34 8
-5.993 2.7490001 -0.88700002 60 30 19
-6.013 2.7290001 -0.89600003 138 85 45
-5.9949999 2.7 -0.96399999 123 78 37
-6.0019999 2.701 -0.95999998 153 74 5
-6.0479999 2.733 -0.95099998 43 4 0
-6.052 2.7360001 -0.95200002 234 169 115
-6.0469999 2.7390001 -0.92799997 127 81 66
-6.0469999 2.7260001 -0.95599997 122 78 49
-6.0159998 2.717 -0.97100002 106 67 34
-6.0029998 2.7179999 -0.98699999 71 10 0
-6.0089998 2.7030001 -0.96100003 239 168 104
-6.0089998 2.707 -0.958 182 112 53
-6.0089998 2.7090001 -0.95899999 176 98 34
-5.9819999 2.7079999 -0.958 85 36 19
-6.0359998 2.76 -0.83999997 181 139 115
-6.052 2.7639999 -0.83899999 42 22 13
-5.994 2.806 -0.77499998 54 15 0
-6.007 2.7980001 -0.81 100 44 17
-6.0009999 2.7969999 -0.80800003 114 100 99
-6.0079999 2.7969999 -0.801 156 98 58
-6.0170002 2.8 -0.81900001 217 157 123
-6.0380001 2.813 -0.83099997 210 170 118
-6.0409999 2.816 -0.82200003 84 43 23
-6.0450001 2.822 -0.82499999 151 109 49
-6.0219998 2.8039999 -0.829 66 57 40
-6.0469999 2.822 -0.838 133 98 79
-6.0599999 2.8299999 -0.83399999 104 60 35
-6.0549998 2.8239999 -0.82700002 210 141 84
-6.0500002 2.8199999 -0.86500001 88 47 19
-6.0440001 2.8180001 -0.86699998 35 8 0
-5.994 2.7620001 -0.89700001 110 81 51
-6.0149999 2.8099999 -0.73299998 124 118 122
-6.0180001 2.809 -0.74400002 142 122 111
-6.0469999 2.78 -0.713 253 192 112
-6.0380001 2.806 -0.71899998 92 61 41
-6.0180001 2.7920001 -0.71899998 70 40 30
-5.9549999 2.7650001 -0.76599997 152 124 100
-5.9619999 2.7609999 -0.75199997 154 71 17
-5.974 2.7520001 -0.77200001 167 116 71
-5.9580002 2.793 -0.77399999 107 58 28
-5.9580002 2.79 -0.77100003 133 103 41
-5.9879999 2.7839999 -0.745 106 38 17
-5.9990001 2.79 -0.73100001 203 158 103
-6 2.78 -0.73500001 154 86 25
-6.0510001 2.78 -0.741 126 89 0
-6.0419998 2.7709999 -0.74699998 59 28 0
-6.0419998 2.7650001 -0.745 153 99 53
-6.0669999 2.825 -0.83899999 32 3 0
-6.0180001 2.7869999 -1.044 27 9 5
-5.9819999 2.8080001 -0.76300001 72 49 35
-5.9780002 2.803 -0.76300001 86 58 37
-6.0279999 2.8150001 -0.86699998 91 76 79
-5.9980001 2.7869999 -0.85000002 155 129 116
-5.9980001 2.786 -0.86199999 70 29 7
-5.954 2.7880001 -0.77899998 94 50 25
-5.9660001 2.76 -0.77899998 191 124 79
-5.974 2.7550001 -0.78500003 204 129 72
-5.9660001 2.763 -0.76899999 143 74 19
-5.9920001 2.7520001 -0.78600001 183 127 80
-5.9990001 2.756 -0.76200002 209 141 76
-5.9809999 2.753 -0.77700001 217 148 70
-5.9720001 2.757 -0.759 133 58 1
-5.9819999 2.756 -0.75599998 233 167 109
-6.033 2.766 -0.76899999 65 34 14
-6.0180001 2.7639999 -0.77100003 128 80 40
-6.0289998 2.7679999 -0.76700002 199 149 86
-6.0310001 2.76 -0.741 242 202 132
-6.0279999 2.75 -0.72000003 154 103 56
-6.0320001 2.7539999 -0.72600001 252 236 187
-5.9770002 2.7720001 -0.74299997 122 41 0
-5.974 2.7839999 -0.75199997 155 111 40
-5.9629998 2.7679999 -0.755 177 80 9
-5.9710002 2.79 -0.75300002 131 62 5
-6.0019999 2.796 -0.79900002 86 48 25
-5.994 2.79 -0.83399999 146 77 12
-6.0440001 2.753 -1.0190001 197 121 71
-6.0250001 2.7620001 -1.053 135 103 82
-6.0170002 2.7420001 -1.058 110 65 26
-6.0209999 2.74 -1.0599999 83 38 5
-6.0619998 2.7939999 -0.87 92 47 14
-6.0609999 2.793 -0.87599999 160 102 65
-6.066 2.796 -0.87400001 115 62 28
-6.0440001 2.79 -0.71499997 156 113 70
-6.0469999 2.767 -0.73400003 228 183 90
-6.0040002 2.721 -1.002 69 22 4
-6.0079999 2.7219999 -1.006 63 16 0
-6.0289998 2.7390001 -1.005 105 45 11
-6.0339999 2.743 -1.015 210 130 57
-6.0289998 2.7379999 -1.01 161 93 46
-6.033 2.763 -0.72299999 227 211 113
-6.0440001 2.763 -0.72899997 178 143 115
-6.053 2.7809999 -0.72500002 217 161 78
-6.046 2.7679999 -0.73000002 255 249 156
-6.0510001 2.7579999 -0.93199998 52 14 0
-6.046 2.7509999 -0.92400002 88 62 47
-6.0489998 2.7709999 -0.87199998 54 18 2
-6.0560002 2.78 -0.89300001 122 71 40
-6.0619998 2.7939999 -0.87599999 164 108 75
-6.0650001 2.8010001 -0.87400001 67 12 0
-6.0679998 2.8 -0.87300003 115 66 34
-6.0630002 2.812 -0.87199998 195 154 122
-6.0669999 2.806 -0.86699998 73 18 0
-6.079 2.8039999 -0.81099999 62 12 0
-6.059 2.7920001 -0.71600002 162 99 46
-6.059 2.7909999 -0.73699999 175 124 61
-6.0770001 2.79 -0.83600003 248 175 122
-6.079 2.7920001 -0.833 127 76 45
-6.0240002 2.7379999 -0.98799998 155 84 38
-6.039 2.734 -0.972 112 45 2
-6.0450001 2.7360001 -0.972 108 79 61
-6.0450001 2.721 -0.96399999 255 178 110
-6.059 2.7449999 -0.972 130 93 64
-6.052 2.744 -0.97500002 200 153 125
-6.059 2.823 -0.84299999 113 76 57
-6.0159998 2.73 -0.88300002 98 41 11
-6.0050001 2.7 -0.96100003 251 181 112
-6.0040002 2.7090001 -0.94599998 255 209 145
-5.994 2.714 -0.949 108 51 22
-5.994 2.7190001 -0.949 176 137 108
-6.0409999 2.721 -0.96100003 204 120 48
-6.0370002 2.7260001 -0.95200002 177 91 30
-6.039 2.723 -0.95899999 190 107 39
-6.0430002 2.734 -0.94599998 114 98 85
-6.0359998 2.723 -0.96200001 174 137 118
-6.0170002 2.7360001 -0.90700001 111 51 23
-6.0100002 2.7379999 -0.90799999 125 43 0
-5.9920001 2.7820001 -0.92699999 56 37 31
-5.9970002 2.7880001 -0.91399997 141 123 113
-5.9949999 2.6989999 -1.052 164 107 52
-5.9990001 2.6949999 -1.053 177 120 67
-5.9879999 2.701 -1.05 162 123 106
-5.994 2.688 -1.058 218 157 113
-6 2.6930001 -1.0549999 116 64 16
-6 2.6860001 -1.053 173 108 54
-6.0190001 2.7590001 -0.83899999 246 187 129
-6.0089998 2.7490001 -0.83200002 160 124 102
-6.0159998 2.7409999 -0.84799999 217 132 75
-5.9829998 2.809 -0.76300001 41 18 10
-6.0209999 2.8050001 -0.83700001 94 23 0
-6.0209999 2.8 -0.82200003 138 80 43
-6.026 2.8010001 -0.82599998 108 59 27
-6.0339999 2.806 -0.82800001 124 88 62
-6.053 2.8210001 -0.82300001 140 102 83
-5.9949999 2.802 -0.76999998 98 62 50
-6.0219998 2.776 -0.70499998 255 242 197
-6.0170002 2.766 -0.70599997 227 202 145
-5.954 2.7709999 -0.764 152 68 22
-5.9790001 2.7909999 -0.80400002 52 32 25
-5.973 2.7880001 -0.796 126 58 23
-6.0029998 2.7620001 -0.76899999 211 174 129
-6.0009999 2.796 -0.76300001 82 34 0
-6.0079999 2.8069999 -0.74299997 196 160 136
-6.007 2.803 -0.741 107 96 100
-5.994 2.7950001 -0.75300002 202 134 73
-6.0500002 2.7720001 -0.736 205 161 98
-6.0279999 2.809 -0.72100002 117 81 55
-6.0229998 2.8 -0.71600002 206 161 106
-6.0279999 2.7809999 -1.0599999 32 3 0
-6.0339999 2.7780001 -1.0599999 68 33 3
-6.0359998 2.777 -1.058 134 129 126
-6.0310001 2.7720001 -1.048 51 18 0
-6.079 2.809 -0.84200001 202 151 98
-6.0599999 2.809 -0.92400002 52 31 12
-6.0500002 2.8210001 -0.91799998 33 9 0
-6.0560002 2.809 -0.91600001 255 196 137
-5.9699998 2.7980001 -0.78299999 108 71 53
-6.0029998 2.7869999 -0.84299999 73 40 21
-5.9569998 2.7909999 -0.77899998 61 32 14
-5.961 2.79 -0.78200001 104 68 52
-5.9770002 2.7650001 -0.82200003 84 70 61
-5.987 2.757 -0.82700002 230 173 102
-5.9840002 2.7650001 -0.82999998 96 46 23
-5.98 2.763 -0.81599998 41 17 13
-5.9879999 2.756 -0.81900001 133 59 0
-5.9809999 2.7620001 -0.81300002 152 117 97
-5.9949999 2.7709999 -0.88999999 61 6 3
-6.0339999 2.763 -0.85399997 137 87 60
-6.0310001 2.7590001 -0.85900003 180 136 111
-5.9889998 2.7520001 -0.79900002 171 103 40
-5.9920001 2.7620001 -0.79500002 224 162 111
-6.0100002 2.763 -0.80800003 59 27 4
-5.9660001 2.76 -0.755 130 51 0
-5.9660001 2.763 -0.759 255 189 112
-6.0219998 2.7650001 -0.77499998 214 156 106
-6.0229998 2.7650001 -0.78799999 136 98 79
-6.0310001 2.777 -0.77200001 36 8 0
-6.0310001 2.7820001 -0.76499999 77 32 3
-6.0370002 2.7739999 -0.75199997 30 4 0
-5.9990001 2.796 -0.72500002 255 213 155
-5.994 2.7690001 -0.78799999 154 101 61
-6.0289998 2.7709999 -0.80800003 182 132 99
-6.04 2.7780001 -0.81400001 95 53 29
-6.0279999 2.7750001 -0.79699999 138 72 12
-5.994 2.796 -0.79799998 68 41 30
-5.993 2.7969999 -0.79000002 83 17 0
-5.9889998 2.7909999 -0.81599998 118 109 110
-6.0669999 2.826 -0.83399999 250 194 137
-6.0679998 2.819 -0.829 218 169 102
-6.0380001 2.75 -1.007 109 34 0
-6.0040002 2.7090001 -1.0599999 211 164 110
-6.0029998 2.7149999 -1.059 255 205 146
-5.9970002 2.7190001 -1.057 152 134 132
-6.02 2.7390001 -1.043 195 146 106
-6.0209999 2.74 -1.04 87 41 5
-6.0289998 2.737 -1.03 83 37 13
-6.0349998 2.767 -1.0420001 90 57 24
-6.0339999 2.7679999 -1.04 192 158 110
-6.0310001 2.7460001 -1.033 61 38 24
-6.0349998 2.7509999 -1.031 95 51 0
-6.0339999 2.7590001 -1.046 66 31 11
-6.04 2.743 -1.027 103 62 30
-6.0209999 2.74 -1.046 91 42 2
-6.0219998 2.744 -1.0470001 82 38 9
-6.0219998 2.743 -1.044 78 33 2
-6.02 2.75 -1.05 60 22 1
-6.0679998 2.7809999 -0.838 255 179 107
-6.0599999 2.776 -0.833 57 21 9
-6.059 2.7869999 -0.815 134 75 19
-6.0580001 2.786 -0.80400002 219 148 70
-6.0609999 2.789 -0.81300002 154 74 23
-6.0599999 2.7839999 -0.82099998 97 68 60
-6.0549998 2.783 -0.81900001 104 51 17
-6.0489998 2.7809999 -0.81199998 183 103 40
-6.0799999 2.7869999 -0.82499999 241 169 97
-6.0739999 2.7950001 -0.81099999 133 73 36
-6.0500002 2.7939999 -0.73900002 158 104 30
-6.046 2.8050001 -0.736 255 222 146
-6.0500002 2.799 -0.73299998 92 43 0
-6.0440001 2.7750001 -0.71499997 151 89 14
-6.04 2.7720001 -0.71899998 255 222 133
-6.0489998 2.7780001 -0.72100002 168 108 36
-6.0430002 2.796 -0.71700001 96 38 0
-6.0570002 2.7880001 -0.71799999 123 65 1
-6.0549998 2.7850001 -0.72399998 212 148 84
-6.0229998 2.7980001 -0.75300002 223 184 153
-6.0190001 2.793 -0.755 98 49 9
-6.0250001 2.799 -0.755 91 51 26
-6.013 2.7349999 -0.99199998 68 29 14
-6.007 2.733 -0.99199998 52 9 2
-6.0300002 2.7639999 -0.71499997 215 188 117
-6.0310001 2.7739999 -0.71100003 125 101 67
-6.0349998 2.7639999 -0.72399998 193 176 88
-6.0440001 2.763 -0.73100001 254 234 137
-6.0489998 2.7679999 -0.93300003 176 97 41
-6.046 2.767 -0.92799997 98 38 1
-6.046 2.7679999 -0.86500001 52 8 0
-6.0539999 2.7880001 -0.90100002 186 150 128
-6.0510001 2.7850001 -0.90600002 193 130 61
-6.053 2.789 -0.912 113 69 44
-6.053 2.7909999 -0.90799999 150 80 18
-6.0339999 2.743 -0.97899997 80 20 0
-6.0770001 2.8139999 -0.83700001 49 11 0
-5.994 2.733 -0.88099998 146 103 69
-6.006 2.737 -0.89999998 111 35 1
-6.0050001 2.7360001 -0.898 183 104 65
-5.9990001 2.733 -0.89200002 139 55 8
-6.0009999 2.733 -0.89200002 194 111 57
-6.033 2.7409999 -0.88999999 93 15 0
-6.0019999 2.7019999 -0.96899998 73 12 0
-5.9990001 2.76 -0.92299998 65 17 0
-6 2.7119999 -0.94800001 158 142 143
-6.0310001 2.7279999 -0.94099998 128 64 20
-6.0170002 2.721 -0.97000003 130 115 112
-6.0050001 2.723 -0.98199999 217 164 114
-6.0050001 2.717 -0.977 64 35 19
-6.0359998 2.744 -0.91600001 87 50 8
-6.0380001 2.74 -0.903 184 139 98
-6.0370002 2.737 -0.90399998 174 130 91
-6.0149999 2.737 -0.91600001 179 119 82
-6 2.756 -0.90600002 102 67 47
-5.9980001 2.803 -0.92199999 154 108 59
-5.993 2.793 -0.92799997 246 190 129
-6 2.802 -0.91299999 175 132 97
-5.993 2.707 -0.97100002 148 60 0
-5.9959998 2.7030001 -1.053 180 125 69
-5.9949999 2.7079999 -1.0549999 164 109 55
-5.9850001 2.6989999 -1.0549999 175 114 57
-6.0539999 2.819 -0.87300003 197 161 125
-6.0089998 2.7950001 -0.85799998 152 134 132
-6.033 2.763 -0.82999998 101 58 39
-6.04 2.7650001 -0.833 80 48 37
-6.0120001 2.756 -0.83099997 138 67 25
-6.0339999 2.8080001 -0.83700001 90 30 2
-6.0310001 2.806 -0.84299999 37 0 0
-6.0549998 2.812 -0.92299998 109 64 43
-6.0570002 2.8069999 -0.92000002 195 159 135
-6.0050001 2.79 -0.75700003 108 56 9
-6.0100002 2.802 -0.72899997 233 185 145
-6.0139999 2.8 -0.71799999 112 60 23
-6.0029998 2.776 -0.71899998 255 232 188
-6.006 2.786 -0.722 169 126 73
-5.9970002 2.767 -0.71799999 201 135 83
-5.9499998 2.776 -0.77499998 145 72 21
-5.9749999 2.8039999 -0.77999997 181 139 115
-5.9660001 2.7880001 -0.78899997 181 110 68
-5.9689999 2.783 -0.79100001 130 67 26
-6.0089998 2.76 -0.81300002 84 46 27
-6.0190001 2.7579999 -0.81400001 221 162 84
-6.0089998 2.7679999 -0.77899998 163 103 49
-6.0139999 2.7709999 -0.78899997 212 146 88
-6.053 2.7809999 -0.727 255 197 119
-6.0539999 2.7850001 -0.72600001 162 98 37
-6.052 2.78 -0.73400003 221 184 96
-6.0539999 2.79 -0.73900002 255 212 120
-6.053 2.786 -0.74199998 247 210 122
-6.0310001 2.7980001 -0.71600002 109 47 0
-6.0349998 2.767 -1.039 50 26 16
-6.0300002 2.773 -1.03 65 29 7
-6.0349998 2.7720001 -1.057 47 16 0
-6.0339999 2.7679999 -1.056 40 11 0
-6.0310001 2.7820001 -1.059 63 30 0
-6.04 2.806 -0.87900001 23 2 0
-6.0250001 2.7820001 -1.039 110 74 52
-6.02 2.7820001 -1.046 55 16 9
-5.9679999 2.7909999 -0.76099998 145 86 54
-5.9679999 2.799 -0.77100003 90 56 44
-5.98 2.77 -0.80199999 164 84 31
-5.9749999 2.7709999 -0.79400003 157 81 32
-5.9819999 2.767 -0.80000001 37 14 6
-5.9640002 2.7650001 -0.764 153 125 103
-6.0250001 2.8010001 -0.89099997 195 168 159
-6.027 2.806 -0.90399998 173 144 130
-6.0300002 2.8039999 -0.89899999 42 15 4
-6.0310001 2.8080001 -0.903 30 6 6
-6.0079999 2.8110001 -0.92799997 112 56 23
-6.0029998 2.809 -0.92299998 88 62 49
-6 2.813 -0.93599999 123 68 37
-6.0469999 2.8 -0.89999998 163 138 116
-6.053 2.7939999 -0.90700001 99 59 34
-5.9809999 2.753 -0.78299999 93 47 24
-5.9990001 2.7590001 -0.81 56 33 25
-5.994 2.76 -0.81099999 153 94 54
-5.9829998 2.7550001 -0.76999998 212 140 64
-5.9809999 2.7550001 -0.76899999 190 113 43
-5.9850001 2.7550001 -0.77100003 255 211 129
-6.0300002 2.763 -0.74299997 253 213 144
-6.0279999 2.767 -0.74400002 151 103 29
-6.02 2.7550001 -0.73299998 249 211 130
-6.0040002 2.7550001 -0.73500001 250 200 129
-6.007 2.7579999 -0.73500001 99 54 21
-5.993 2.7720001 -0.74000001 61 36 16
-5.9990001 2.7720001 -0.73400003 118 76 51
-6.0110002 2.76 -0.72000003 238 192 130
-6.0229998 2.7690001 -0.80199999 64 22 0
-6.0349998 2.78 -0.81 191 137 90
-5.9829998 2.7880001 -0.81900001 81 43 24
-6.006 2.7909999 -0.82200003 126 90 74
-6.0209999 2.773 -1.016 33 6 0
-6.0170002 2.773 -1.0039999 101 61 36
-6.0300002 2.7709999 -0.99800003 45 9 0
-6.0029998 2.707 -1.056 198 147 90
-5.9990001 2.701 -1.0599999 79 38 8
-6.027 2.7409999 -1.035 119 83 59
-6.026 2.7320001 -1.027 88 43 12
-6.0320001 2.734 -1.024 81 38 6
-6.0409999 2.7590001 -1.021 91 58 27
-6.0359998 2.7609999 -1.049 75 43 28
-6.0320001 2.766 -1.056 128 97 77
-6.0349998 2.763 -1.044 58 25 6
-6.033 2.7590001 -1.039 158 93 51
-6.0669999 2.7969999 -0.866 112 40 2
-6.0609999 2.777 -0.84899998 68 27 5
-6.073 2.7939999 -0.81099999 134 76 36
-6.0380001 2.773 -0.81599998 171 124 98
-6.0560002 2.7750001 -0.83899999 121 54 9
-6.0469999 2.786 -0.81 100 64 40
-6.0669999 2.799 -0.80599999 139 90 50
-6.066 2.796 -0.80800003 175 125 88
-6.0570002 2.7880001 -0.80299997 204 136 71
-6.0380001 2.7969999 -0.74800003 43 14 0
-6.0689998 2.8039999 -0.80299997 113 61 22
-6.0700002 2.789 -0.81900001 138 80 43
-6.0489998 2.7750001 -0.824 214 136 62
-6.0679998 2.7809999 -0.83499998 172 88 18
-6.0770001 2.799 -0.81999999 241 180 97
-6.0489998 2.7739999 -0.72899997 243 227 139
-6.0349998 2.7780001 -0.70899999 169 137 98
-6.0560002 2.7920001 -0.72000003 209 146 102
-6.0170002 2.7939999 -0.79500002 248 193 136
-6.013 2.7969999 -0.78799999 64 23 3
-5.9959998 2.7980001 -0.78500003 121 72 39
-6.0029998 2.7950001 -0.78299999 156 80 20
-6 2.727 -1.007 149 126 108
-5.9990001 2.7279999 -1.028 122 81 61
-6.0380001 2.7539999 -1 189 159 133
-6.0240002 2.7980001 -1.041 62 47 40
-6.0240002 2.7839999 -1.029 145 128 121
-6.02 2.8 -1.0369999 72 46 33
-6.0510001 2.8110001 -0.92900002 140 98 73
-6.0450001 2.813 -0.926 42 12 2
-6.0409999 2.7709999 -0.91399997 56 37 31
-6.046 2.7750001 -0.898 118 71 1
-6.0440001 2.773 -0.89399999 173 123 74
-6.0469999 2.7750001 -0.89300001 151 113 94
-6.039 2.767 -0.90499997 60 40 31
-6.0370002 2.7579999 -0.89999998 229 169 107
-6.0380001 2.756 -0.90799999 180 123 80
-6.0489998 2.753 -0.94 103 65 42
-6.046 2.74 -0.935 103 81 67
-6.059 2.7409999 -0.95499998 196 133 80
-6.0419998 2.763 -0.861 131 81 46
-6.0300002 2.7520001 -0.87400001 225 164 101
-6.0300002 2.7579999 -0.86400002 163 118 95
-6.0539999 2.7720001 -0.86699998 82 30 9
-6.053 2.793 -0.90700001 204 131 76
-6.0770001 2.799 -0.84299999 107 55 5
-6.0739999 2.7969999 -0.84299999 141 82 48
-6.0739999 2.803 -0.84799999 201 116 61
-6.0749998 2.7909999 -0.83700001 193 113 52
-6.0479999 2.7709999 -0.95899999 174 148 135
-6.053 2.767 -0.96600002 66 18 0
-6.0609999 2.7720001 -0.95700002 35 18 2
-6.0440001 2.77 -0.95300001 64 26 7
-6.0370002 2.779 -0.98100001 51 9 0
-6.0370002 2.7780001 -0.98000002 46 8 0
-6.0560002 2.753 -0.97100002 158 107 62
-6.0380001 2.76 -0.98000002 78 39 22
-6.0580001 2.76 -0.95899999 133 113 104
-6.0539999 2.7639999 -0.96600002 78 27 0
-6.0469999 2.73 -0.954 92 47 24
-6.0349998 2.7709999 -0.95499998 101 41 17
-6.0570002 2.8180001 -0.85500002 47 19 7
-6.0100002 2.7709999 -0.79100001 255 186 118
-6.006 2.7490001 -0.81599998 146 96 43
-5.994 2.743 -0.88499999 130 111 105
-5.9920001 2.7650001 -0.87900001 67 23 10
-5.993 2.7690001 -0.85699999 39 10 2
-6.0019999 2.7590001 -0.85799998 120 73 45
-6.0019999 2.7539999 -0.88099998 255 203 161
-6.0110002 2.7420001 -0.852 183 92 22
-6.0089998 2.7490001 -0.86699998 173 103 52
-6.046 2.7390001 -0.93900001 102 84 70
-6.0450001 2.7360001 -0.94599998 102 88 77
-5.9809999 2.73 -0.96200001 61 24 0
-5.9860001 2.737 -0.97299999 163 131 116
-5.9749999 2.724 -0.96899998 205 150 94
-6.0050001 2.7550001 -0.91600001 37 0 0
-6.0040002 2.7149999 -0.94800001 171 126 61
-6.0190001 2.7179999 -0.95200002 31 6 2
-6.0120001 2.717 -0.96499997 222 138 68
-6.0289998 2.7320001 -0.92799997 163 128 109
-6.0349998 2.733 -0.93300003 166 110 73
-6.0380001 2.7420001 -0.92699999 198 141 98
-6.0320001 2.7409999 -0.91900003 96 48 25
-6.0359998 2.743 -0.917 129 91 46
-6.0380001 2.75 -0.91500002 103 43 9
-6.0190001 2.8010001 -0.889 159 132 123
-6.0159998 2.8080001 -0.86400002 40 6 0
-6.013 2.806 -0.86500001 127 115 115
-6.02 2.8039999 -0.87 172 136 112
-6.0240002 2.8 -0.875 58 21 12
-6.033 2.8110001 -0.90499997 52 20 7
-5.9949999 2.7720001 -0.89099997 49 19 9
-5.9980001 2.779 -0.89999998 210 172 151
-5.9959998 2.776 -0.87199998 83 50 35
-5.9970002 2.7850001 -0.89999998 108 73 53
-5.9990001 2.7880001 -0.89600003 49 16 0
-5.9990001 2.779 -0.89499998 58 40 38
-5.9959998 2.7750001 -0.90600002 89 57 32
-5.9990001 2.779 -0.88999999 175 157 153
-6.0029998 2.806 -0.92000002 106 62 33
-6.0120001 2.7980001 -0.91500002 90 56 29
-6.0029998 2.7839999 -0.95200002 89 35 0
-6.0029998 2.7750001 -0.93699998 135 92 58
-6 2.7820001 -0.93599999 107 50 21
-5.9899998 2.812 -0.93400002 41 11 1
-5.9990001 2.8150001 -0.94700003 46 19 0
-5.9949999 2.687 -1.051 195 132 78
-5.9910002 2.688 -1.056 163 105 57
-6.0089998 2.7920001 -0.85299999 62 35 24
-6.0380001 2.8139999 -0.84100002 59 36 18
-5.973 2.8010001 -0.76800001 71 56 51
-6.0079999 2.8010001 -0.72899997 131 82 49
-6 2.77 -0.722 166 109 66
-6.0029998 2.7750001 -0.72299999 130 71 15
-6.0489998 2.809 -0.72399998 117 57 7
-5.9499998 2.7690001 -0.773 98 54 19
-5.9629998 2.767 -0.78100002 176 130 104
-5.974 2.7939999 -0.79500002 181 143 107
-5.9899998 2.7920001 -0.79900002 60 17 1
-5.9530001 2.7820001 -0.77999997 170 133 104
-6.026 2.7620001 -0.82200003 232 168 94
-6.027 2.7650001 -0.83099997 109 59 26
-5.9990001 2.796 -0.76200002 72 28 3
-5.9920001 2.803 -0.778 62 25 6
-6.0050001 2.7679999 -0.77700001 100 66 41
-6.027 2.7880001 -0.75800002 80 39 19
-6.046 2.767 -0.73900002 170 144 70
-6.0479999 2.7739999 -0.73900002 150 98 48
-6.0500002 2.7750001 -0.736 227 183 108
-6.053 2.7850001 -0.74000001 160 123 35
-6.0219998 2.799 -0.71700001 192 148 77
-6.0419998 2.803 -0.88700002 107 79 55
-6.0170002 2.786 -1.029 92 51 23
-6.0100002 2.793 -1.027 97 70 53
-6.013 2.7880001 -1.027 54 11 4
-6.027 2.789 -1.0420001 178 164 163
-5.9970002 2.7490001 -1.0599999 137 88 48
-5.9970002 2.7539999 -1.059 196 135 78
-5.9959998 2.7590001 -1.0599999 255 196 136
-5.9699998 2.789 -0.75599998 121 45 0
-5.9759998 2.796 -0.755 112 82 58
-5.9650002 2.7909999 -0.76599997 245 216 112
-5.961 2.779 -0.76499999 64 32 21
-6.0359998 2.803 -0.88 43 16 7
-5.9840002 2.7780001 -0.83099997 130 87 55
-5.9959998 2.77 -0.866 45 8 0
-5.994 2.7720001 -0.91299999 83 55 34
-6.0120001 2.7579999 -0.824 92 21 0
-5.9840002 2.76 -0.80000001 238 174 100
-5.9879999 2.757 -0.801 141 76 12
-5.9790001 2.756 -0.76800001 192 113 46
-5.9829998 2.757 -0.76499999 181 103 28
-5.9840002 2.7539999 -0.77600002 240 177 97
-5.9710002 2.7639999 -0.75400001 239 152 83
-6.0300002 2.773 -0.78100002 45 13 0
-6.0300002 2.77 -0.77399999 66 35 15
-6.006 2.77 -0.74199998 247 213 150
-5.98 2.77 -0.74599999 216 123 62
-6.0240002 2.7639999 -0.71200001 238 213 133
-6.0050001 2.79 -0.81999999 64 15 0
-6.0149999 2.7969999 -0.824 61 23 4
-6.0009999 2.7880001 -0.82700002 93 56 38
-6.0609999 2.819 -0.824 255 234 167
-6.0689998 2.8169999 -0.82700002 231 160 98
-6.0669999 2.8150001 -0.81999999 120 58 7
-6.0760002 2.8139999 -0.81999999 109 63 40
-6.0819998 2.7980001 -0.83499998 67 46 29
-6.02 2.7379999 -1 105 67 31
-6.026 2.7409999 -0.99900001 105 35 0
-6.0250001 2.7690001 -1.016 47 21 6
-6.0359998 2.7650001 -1.013 201 139 92
-6.0250001 2.77 -1.018 43 17 4
-6.0219998 2.779 -1.025 72 31 3
-6.0320001 2.77 -1.025 45 21 9
-5.9850001 2.7490001 -0.96499997 100 87 79
-5.9689999 2.723 -0.94700003 83 64 58
-6.0279999 2.7449999 -0.99000001 106 67 36
-5.9959998 2.711 -1.056 154 99 43
-6.0110002 2.733 -1.024 102 60 36
-6.0040002 2.7249999 -1.0319999 36 9 0
-6.0110002 2.7360001 -1.039 200 165 145
-6.0139999 2.737 -1.04 148 102 68
-6.0190001 2.7390001 -1.043 159 103 56
-6.0229998 2.7420001 -1.04 77 36 6
-6.0380001 2.7639999 -1.022 107 73 38
-6.0209999 2.7409999 -1.05 102 56 20
-6.0209999 2.7409999 -1.053 98 54 17
-6.0029998 2.7449999 -1.057 57 20 0
-5.9980001 2.737 -1.04 191 124 81
-5.9980001 2.7420001 -1.034 158 130 116
-5.9889998 2.744 -1.0420001 127 115 117
-6.0019999 2.7409999 -1.048 146 107 78
-6.007 2.74 -1.044 189 125 64
-5.9910002 2.747 -1.054 95 48 2
-5.9949999 2.7420001 -1.056 128 116 118
-5.9980001 2.756 -1.056 73 57 57
-6.0349998 2.763 -1.041 58 26 1
-6.0300002 2.7709999 -1.043 61 40 35
-6.0539999 2.796 -0.87400001 90 46 17
-6.046 2.8039999 -0.87699997 48 17 12
-6.0580001 2.8010001 -0.87199998 123 79 52
-6.0370002 2.7520001 -0.89700001 151 94 39
-6.0359998 2.7550001 -0.89099997 45 22 8
-6.033 2.7520001 -0.88499999 116 70 37
-6.033 2.793 -0.81 97 57 31
-6.0300002 2.789 -0.79400003 101 56 27
-6.0279999 2.793 -0.80500001 119 67 19
-6.0489998 2.7920001 -0.80699998 155 78 36
-6.0689998 2.7909999 -0.81699997 143 85 45
-6.0370002 2.7690001 -0.82200003 129 81 58
-6.0349998 2.7720001 -0.81699997 113 69 44
-6.039 2.7690001 -0.82300001 102 67 48
-6.0819998 2.806 -0.82300001 130 59 7
-6.0500002 2.7780001 -0.72600001 184 119 29
-6.0310001 2.7839999 -0.77200001 108 58 33
-6.026 2.786 -0.76200002 82 40 15
-6.0170002 2.7920001 -0.778 79 41 22
-6.0310001 2.7920001 -0.78399998 51 23 1
-6.0079999 2.7980001 -0.77399999 48 17 0
-6.0159998 2.7880001 -0.77100003 84 30 0
-6.0229998 2.789 -0.77399999 57 42 39
-6.0300002 2.7920001 -0.78600001 103 52 25
-6.0229998 2.793 -0.79799998 143 94 53
-6.0159998 2.796 -0.80599999 96 59 33
-6.006 2.7479999 -1.0140001 40 3 0
-6.0079999 2.7509999 -1.0039999 83 46 28
-6.0009999 2.7579999 -1.021 111 66 43
-5.994 2.74 -0.99000001 143 104 71
-6.0009999 2.757 -0.99299997 63 27 5
-6.0050001 2.756 -0.91900003 146 60 0
-6.0009999 2.7579999 -0.92699999 46 8 0
-6.046 2.747 -0.97399998 92 65 54
-6.0570002 2.8099999 -0.92500001 97 52 29
-6.0310001 2.7850001 -0.93699998 38 10 0
-6.0190001 2.8 -0.94499999 143 101 76
-6.0180001 2.783 -0.949 117 62 32
-6.039 2.79 -0.935 100 63 54
-6.0479999 2.8010001 -0.94599998 81 43 22
-6.0409999 2.783 -0.93699998 93 67 50
-6.0250001 2.7750001 -0.95200002 37 7 0
-6.04 2.799 -0.93599999 44 16 4
-6.0110002 2.7950001 -0.94800001 76 19 0
-6.027 2.7709999 -0.99400002 62 35 14
-6.0409999 2.77 -0.90700001 165 89 31
-6.0479999 2.767 -0.93900001 163 77 26
-6.0440001 2.777 -0.93099999 99 54 25
-6.027 2.799 -0.90200001 44 23 18
-6.0450001 2.806 -0.87800002 36 12 2
-6.0430002 2.802 -0.88499999 30 10 1
-6.0669999 2.802 -0.86900002 68 15 0
-6.0609999 2.8139999 -0.86000001 58 32 19
-6.059 2.813 -0.87300003 146 108 71
-6.066 2.8099999 -0.86400002 29 9 0
-6.072 2.8050001 -0.84899998 148 98 65
-6.0780001 2.8039999 -0.84399998 184 133 76
-6.0409999 2.7539999 -1.01 180 117 66
-6.0359998 2.7620001 -1.003 192 163 147
-6.0469999 2.7290001 -0.958 62 29 12
-6.0570002 2.8199999 -0.85100001 50 21 7
-6.0120001 2.7639999 -0.80599999 75 38 19
-5.9860001 2.7609999 -0.83700001 165 111 83
-5.9860001 2.7620001 -0.83999997 86 46 20
-5.9910002 2.7609999 -0.83600003 102 68 41
-6.0040002 2.753 -0.838 141 100 78
-5.994 2.76 -0.83499998 48 1 0
-5.9860001 2.766 -0.84500003 204 158 134
-6 2.763 -0.84600002 120 84 62
-6.0040002 2.757 -0.847 135 64 18
-6.006 2.7460001 -0.833 162 131 113
-6.0190001 2.7460001 -0.85600001 183 106 62
-6.0029998 2.7320001 -0.88999999 136 57 1
-6.0029998 2.734 -0.89399999 142 60 10
-6.0029998 2.733 -0.884 145 70 30
-6.0250001 2.7379999 -0.88300002 128 75 44
-6.0219998 2.74 -0.88099998 70 24 0
-6.0250001 2.7320001 -0.89700001 146 82 38
-6.027 2.7379999 -0.90399998 155 117 96
-6.0229998 2.734 -0.89899999 159 121 100
-6.0489998 2.7509999 -0.94300002 47 10 0
-6 2.7149999 -0.97799999 44 11 2
-5.9910002 2.7119999 -0.977 181 119 78
-5.9970002 2.7620001 -0.949 78 37 7
-6.0019999 2.7590001 -0.912 124 50 15
-6.0019999 2.7160001 -0.94800001 141 125 125
-6.0009999 2.7190001 -0.94999999 64 17 0
-6.0040002 2.7279999 -0.95300001 135 104 76
-6.0120001 2.7260001 -0.95499998 204 152 105
-6.0359998 2.727 -0.949 146 69 17
-6.0190001 2.7260001 -0.95200002 94 53 31
-6.007 2.737 -0.95300001 61 33 21
-6.0180001 2.737 -0.91600001 166 106 69
-6 2.724 -0.95200002 211 160 94
-5.9990001 2.75 -0.96100003 89 49 23
-6.006 2.714 -0.97500002 196 132 60
-6.0089998 2.711 -0.96100003 179 97 21
-6.0380001 2.7420001 -0.903 180 135 94
-6.039 2.757 -0.912 137 58 0
-6.0380001 2.7639999 -0.91100001 79 60 53
-6.0120001 2.796 -0.87199998 48 16 5
-5.9990001 2.7820001 -0.87099999 33 12 11
-6.0009999 2.7820001 -0.875 37 0 0
-5.9980001 2.777 -0.88999999 88 40 18
-6.0100002 2.802 -0.92199999 140 90 57
-6.0139999 2.8010001 -0.92500001 124 77 49
-5.987 2.72 -0.94999999 142 113 99
-5.987 2.717 -0.97600001 103 53 28
-5.98 2.7130001 -0.96700001 45 15 7
-5.9879999 2.714 -0.97399998 139 78 33
-5.9910002 2.6960001 -1.052 168 108 48
-5.9970002 2.7019999 -1.059 125 77 31
-6.0440001 2.812 -0.87099999 57 33 23
-6.0479999 2.809 -0.90100002 102 74 62
-6.0469999 2.816 -0.917 67 43 33
-6.0479999 2.809 -0.91000003 44 17 8
-6.0450001 2.8110001 -0.91399997 54 27 18
-6.04 2.7650001 -0.83499998 63 30 13
-5.9920001 2.7550001 -0.82300001 160 90 18
-6.0190001 2.8 -0.81999999 133 84 51
-6.0510001 2.816 -0.91799998 39 12 3
-6.0430002 2.8150001 -0.917 36 12 2
-6.04 2.8099999 -0.917 44 16 4
-5.974 2.8039999 -0.76999998 112 67 44
-5.9809999 2.799 -0.759 140 100 75
-6.0009999 2.7950001 -0.79000002 214 127 60
-6.0339999 2.8010001 -0.81900001 110 65 32
-6.0040002 2.7950001 -0.73400003 158 121 94
-6.0079999 2.7909999 -0.72000003 173 128 69
-5.9660001 2.789 -0.764 255 239 129
-6.02 2.7620001 -0.81300002 208 156 99
-6.0219998 2.7620001 -0.82099998 185 126 68
-6.0019999 2.796 -0.77899998 55 29 14
-5.9920001 2.8010001 -0.77999997 64 28 16
-5.9889998 2.7820001 -0.84100002 66 31 1
-6.0289998 2.7850001 -0.75700003 74 33 15
-6.0450001 2.786 -0.74199998 71 27 0
-6.052 2.7820001 -0.736 235 198 107
-6.052 2.7809999 -0.73299998 255 224 136
-6.027 2.753 -1.049 34 2 0
-6.0209999 2.7409999 -1.056 97 53 16
-6.0209999 2.7420001 -1.054 210 157 113
-6.046 2.8 -0.94 82 46 24
-6.0100002 2.776 -1.011 95 67 45
-6.0050001 2.7679999 -0.99400002 110 93 77
-6.0089998 2.763 -1.001 43 4 0
-5.9899998 2.7490001 -1.059 81 39 1
-5.994 2.753 -1.054 170 137 102
-5.9549999 2.7809999 -0.76700002 92 50 28
-5.9689999 2.786 -0.75700003 255 195 131
-6.0380001 2.8050001 -0.87900001 40 14 0
-5.987 2.76 -0.81199998 164 123 101
-5.9860001 2.789 -0.81400001 48 28 21
-5.9840002 2.7820001 -0.81999999 165 134 106
-5.9819999 2.783 -0.81300002 115 42 0
-6.0380001 2.8099999 -0.93199998 60 31 17
-6.046 2.803 -0.94099998 73 32 10
-6.0469999 2.8050001 -0.93599999 94 52 30
-6.006 2.803 -0.95499998 70 46 36
-6.007 2.8010001 -0.95300001 103 55 33
-5.9990001 2.7750001 -0.87900001 146 99 83
-6.0050001 2.789 -0.861 62 19 3
-6.0089998 2.7460001 -0.87199998 114 41 0
-6.0029998 2.7620001 -0.86299998 240 174 114
-6.0370002 2.753 -0.903 225 172 130
-6.0300002 2.7520001 -0.87699997 215 151 90
-5.9879999 2.7550001 -0.796 116 40 0
-5.9780002 2.7590001 -0.79000002 250 180 118
-5.9819999 2.76 -0.75400001 237 175 114
-5.9850001 2.7650001 -0.75599998 205 139 65
-6.0289998 2.7709999 -0.778 102 69 62
-6.0250001 2.7720001 -0.79000002 78 27 10
-6.052 2.7880001 -0.80299997 161 95 63
-6.0279999 2.786 -0.80000001 132 83 53
-6.0219998 2.7620001 -0.73799998 255 226 135
-6.0250001 2.7639999 -0.74000001 186 149 60
-5.9910002 2.7739999 -0.74800003 234 162 78
-5.9959998 2.776 -0.75300002 127 50 0
-6.0120001 2.76 -0.71899998 255 216 155
-6.013 2.796 -0.81999999 39 12 1
-6.0120001 2.7920001 -0.82800001 61 40 19
-5.9990001 2.7869999 -0.83399999 54 13 0
-6.0609999 2.803 -0.80699998 167 112 45
-6.0580001 2.812 -0.81 210 151 81
-6.0609999 2.8180001 -0.81400001 119 62 19
-6.0149999 2.7739999 -1.012 57 15 0
-6.0079999 2.7420001 -1.006 158 116 91
-6.02 2.7379999 -0.995 166 129 110
-6.0310001 2.747 -1.005 70 25 4
-6.0320001 2.75 -1.002 158 94 0
-6.0159998 2.783 -1.025 53 43 34
-5.9980001 2.79 -0.94599998 151 95 70
-6.0320001 2.7780001 -0.98299998 50 17 0
-6.027 2.7709999 -0.99199998 53 24 8
-6.0050001 2.7409999 -1.053 145 108 82
-6.0040002 2.73 -1.025 165 143 130
-6.0300002 2.733 -1.0190001 150 85 43
-6.026 2.734 -1.017 142 69 18
-6.0359998 2.7609999 -1.03 84 65 58
-6.027 2.737 -1.012 175 94 38
-6.02 2.7390001 -1.048 219 168 125
-5.993 2.7449999 -1.059 103 64 33
-5.9970002 2.7449999 -1.058 147 103 68
-6.0050001 2.733 -1.034 70 38 17
-5.9959998 2.7409999 -1.045 129 95 68
-5.9819999 2.793 -0.93599999 37 13 1
-6.0310001 2.8080001 -0.847 92 84 65
-6.0289998 2.8050001 -0.84799999 109 72 63
-6.0539999 2.8180001 -0.815 159 92 47
-6.0539999 2.803 -0.81199998 181 127 99
-6.0500002 2.806 -0.81900001 255 225 171
-6.0570002 2.7839999 -0.86500001 123 82 60
-6.059 2.779 -0.85699999 89 48 28
-6.0500002 2.7739999 -0.83200002 27 8 1
-6.0359998 2.766 -0.82700002 109 68 46
-6.0430002 2.7690001 -0.82999998 171 112 78
-6.0229998 2.789 -0.77899998 37 26 24
-5.9920001 2.7420001 -0.97399998 109 70 53
-6.0050001 2.75 -0.97299999 183 142 124
-6.0040002 2.7360001 -1.018 99 51 28
-6.039 2.776 -0.94199997 99 66 51
-6.0430002 2.7620001 -0.97399998 78 39 24
-6.0440001 2.763 -0.97100002 59 16 0
-6.0500002 2.806 -0.93300003 62 25 0
-6.0229998 2.7709999 -0.97899997 58 28 26
-6.0289998 2.7739999 -0.97899997 48 18 8
-6.0079999 2.7609999 -1 121 77 48
-6.0029998 2.7609999 -0.99199998 68 36 15
-6.0250001 2.7679999 -1.013 49 23 8
-6.0339999 2.7609999 -1 163 135 121
-6.0300002 2.753 -0.98400003 66 31 11
-6.0450001 2.77 -0.884 130 80 43
-6.0419998 2.767 -0.889 143 95 47
-6.0479999 2.767 -0.93699998 163 81 25
-6.0469999 2.7650001 -0.94400001 143 61 13
-6.0409999 2.733 -0.94599998 106 87 73
-6.0510001 2.789 -0.88800001 82 46 24
-6.0500002 2.806 -0.83200002 62 27 8
-6.059 2.789 -0.83099997 173 106 61
-6.0510001 2.803 -0.82599998 172 113 79
-6.0689998 2.8169999 -0.83999997 65 29 13
-6.0619998 2.812 -0.85000002 61 27 15
-6.0669999 2.8069999 -0.85500002 213 158 117
-6.0780001 2.803 -0.84399998 138 59 2
-6.0749998 2.7820001 -0.83200002 147 77 25
-6.0450001 2.7309999 -0.963 101 69 54
-6.0359998 2.7639999 -1.01 187 129 89
-6.0570002 2.757 -0.96100003 176 123 79
-6.0560002 2.7520001 -0.96700001 86 32 0
-6.059 2.7449999 -0.95899999 186 134 94
-6.0560002 2.753 -0.95999998 102 43 0
-6.052 2.7379999 -0.958 57 29 15
-6.0100002 2.796 -0.86199999 66 44 33
-6.0240002 2.7520001 -0.86299998 215 140 59
-6.0279999 2.7620001 -0.84200001 202 173 155
-6.0479999 2.7490001 -0.94300002 57 20 2
-6.0500002 2.753 -0.94800001 206 157 127
-6.053 2.7579999 -0.95599997 229 171 125
-5.9970002 2.7279999 -0.99599999 49 13 1
-6.006 2.7349999 -0.99599999 42 4 0
-5.9920001 2.717 -0.98299998 46 10 0
-5.973 2.717 -0.95599997 177 117 81
-5.9780002 2.714 -0.96200001 229 161 126
-5.9699998 2.717 -0.96399999 146 135 131
-5.9749999 2.7160001 -0.96700001 167 150 142
-5.9699998 2.717 -0.95099998 104 85 79
-5.974 2.72 -0.972 50 36 27
-6.007 2.7780001 -0.95200002 173 140 131
-6.0170002 2.7720001 -0.95300001 52 16 2
-6.0089998 2.7679999 -0.95999998 175 141 129
-5.9970002 2.7609999 -0.94800001 85 49 25
-5.9910002 2.7460001 -0.96200001 139 98 76
-6.0019999 2.753 -0.949 122 82 57
-6.026 2.7309999 -0.935 146 78 29
-6.026 2.7309999 -0.93099999 127 61 29
-6.0250001 2.7349999 -0.94599998 67 34 3
-6.0209999 2.7420001 -0.93900001 113 53 27
-6.026 2.7309999 -0.93900001 140 111 95
-6.0240002 2.7379999 -0.912 52 13 0
-6.0450001 2.7479999 -0.92900002 103 86 76
-6.007 2.7449999 -0.912 203 111 44
-6.0079999 2.7520001 -0.92000002 236 160 100
-6.0089998 2.789 -0.88599998 67 38 20
-6.0149999 2.796 -0.87300003 88 46 24
-6.0219998 2.7909999 -0.898 36 16 9
-6.0120001 2.789 -0.89099997 160 129 111
-5.9980001 2.783 -0.90799999 190 134 83
-5.993 2.698 -1.052 169 110 52
-5.9899998 2.6889999 -1.054 169 112 57
-6.0339999 2.8050001 -0.87300003 75 32 0
-6.0609999 2.8069999 -0.87300003 81 49 24
-6.0149999 2.7950001 -0.83200002 76 38 15
-6.0310001 2.8 -0.81900001 159 98 43
-6.0040002 2.757 -0.87699997 134 82 45
-5.9720001 2.802 -0.77100003 173 100 65
-6.0170002 2.796 -0.81099999 88 47 17
-6.0279999 2.777 -0.80000001 161 90 34
-6.0359998 2.8 -0.74699998 138 109 67
-6.0229998 2.8039999 -0.73699999 78 45 28
-6.0370002 2.802 -0.736 142 110 89
-5.974 2.7839999 -0.79500002 90 30 0
-5.9790001 2.7820001 -0.80199999 97 37 1
-5.9720001 2.779 -0.79299998 79 50 34
-5.9710002 2.7780001 -0.792 62 35 5
-5.9759998 2.776 -0.796 88 26 3
-5.9749999 2.7739999 -0.79500002 95 29 3
-5.9499998 2.7739999 -0.78200001 79 49 25
-6.0180001 2.7620001 -0.82599998 178 108 39
-5.9910002 2.7709999 -0.75800002 227 146 83
-6.0019999 2.76 -0.76499999 255 210 158
-6.007 2.7690001 -0.764 74 37 19
-6.0409999 2.7780001 -0.74400002 78 34 0
-6.0159998 2.7739999 -0.764 168 98 62
-6.0229998 2.7750001 -0.75099999 228 174 100
-6.013 2.7739999 -0.76200002 176 106 72
-6.026 2.7679999 -0.77700001 118 64 28
-6.0320001 2.7620001 -1.051 69 34 14
-6.0359998 2.766 -1.029 229 171 108
-6.0450001 2.8010001 -0.94 58 17 0
-6.046 2.783 -0.92299998 93 49 20
-6.046 2.7850001 -0.91799998 84 42 17
-6.0110002 2.7620001 -1.013 150 108 86
-6.0089998 2.7639999 -1.0190001 134 73 26
-5.9980001 2.7579999 -1.0420001 175 143 122
-5.9959998 2.753 -1.05 151 115 79
-6.0040002 2.7579999 -1.0319999 181 116 62
-5.9990001 2.753 -1.0420001 155 116 85
-5.9699998 2.786 -0.75599998 230 176 116
-6.0359998 2.802 -0.88499999 25 4 0
-5.98 2.783 -0.80900002 133 61 21
-6.0110002 2.8010001 -0.92199999 143 96 66
-6.0190001 2.796 -0.91799998 50 18 3
-6.0359998 2.806 -0.91299999 40 12 1
-6.006 2.803 -0.95200002 50 22 10
-6.007 2.803 -0.94700003 39 5 0
-6.007 2.806 -0.93900001 71 37 9
-6.0050001 2.7909999 -0.86500001 67 48 41
-6.0029998 2.7620001 -0.866 192 118 55
-6.0050001 2.7590001 -0.86299998 126 77 44
-5.9809999 2.7690001 -0.74900001 199 101 30
-6.0289998 2.78 -0.77999997 200 167 152
-6.0170002 2.7650001 -0.73799998 174 95 26
-6.0079999 2.763 -0.72399998 190 129 48
-5.9920001 2.7590001 -0.77899998 68 33 5
-5.9920001 2.7590001 -0.77600002 161 124 98
-5.9970002 2.7609999 -0.77100003 77 41 19
-6.066 2.8150001 -0.81699997 126 69 16
-6.0289998 2.763 -0.98900002 118 94 82
-5.9980001 2.7620001 -0.97600001 124 111 95
-5.987 2.7969999 -0.96499997 112 49 14
-5.9850001 2.7920001 -0.963 92 41 10
-5.993 2.7869999 -0.96799999 40 12 0
-5.9990001 2.7880001 -0.96700001 164 87 17
-6.0019999 2.8039999 -0.958 53 27 12
-6.0079999 2.7869999 -0.95300001 89 62 45
-6.0019999 2.7539999 -1.039 163 125 102
-6.0209999 2.7360001 -1.012 198 122 62
-6.0159998 2.7290001 -1.0140001 146 116 92
-6.0170002 2.744 -1.054 134 88 52
-6.0170002 2.7409999 -1.0549999 140 92 52
-6.0089998 2.767 -1.025 134 93 71
-5.9949999 2.743 -1.048 235 187 141
-5.9910002 2.7969999 -0.93099999 128 82 46
-6.039 2.8169999 -0.84500003 141 94 68
-6.066 2.786 -0.84100002 175 94 31
-6.0689998 2.7880001 -0.83899999 143 58 1
-6.0370002 2.8 -0.81699997 149 101 61
-6.0370002 2.7739999 -0.815 146 100 74
-6.0479999 2.77 -0.83399999 24 5 0
-6.046 2.773 -0.82599998 129 87 45
-6.0380001 2.767 -0.82800001 71 26 3
-6.0809999 2.7950001 -0.82700002 197 135 78
-6.0809999 2.7939999 -0.82800001 101 48 14
-5.9920001 2.737 -0.98500001 145 115 91
-6.0050001 2.7420001 -1.021 35 17 7
-6.0050001 2.7590001 -1.027 173 110 56
-6.0029998 2.73 -1.021 153 133 122
-6.0029998 2.7539999 -0.93800002 82 60 46
-6.0339999 2.7750001 -0.97500002 114 88 73
-6.0510001 2.809 -0.93099999 74 33 5
-6.0539999 2.8039999 -0.92299998 114 61 21
-6.0560002 2.803 -0.91900003 142 100 75
-6.0489998 2.7980001 -0.926 116 72 43
-6.0190001 2.767 -0.96700001 64 19 0
-6.0310001 2.75 -0.99699998 179 144 116
-6.0409999 2.7639999 -0.88099998 119 81 60
-6.053 2.7609999 -0.95499998 144 111 96
-6.053 2.7690001 -0.95700002 88 52 18
-6.0469999 2.766 -0.94999999 101 59 43
-6.04 2.733 -0.94400001 88 62 49
-6.0510001 2.7909999 -0.884 79 37 13
-6.0710001 2.819 -0.83700001 88 47 27
-6.0710001 2.806 -0.84200001 73 16 0
-6.0700002 2.8099999 -0.83999997 88 43 20
-6.066 2.8099999 -0.84600002 55 11 2
-6.072 2.803 -0.824 133 90 56
-6.066 2.789 -0.85699999 157 104 60
-6.0630002 2.8110001 -0.85100001 189 146 111
-6.0689998 2.8050001 -0.852 67 27 17
-6.0669999 2.8050001 -0.86299998 81 25 2
-6.0809999 2.793 -0.82999998 136 78 40
-6.053 2.7390001 -0.963 105 78 67
-6.0120001 2.8 -0.85299999 76 38 19
-5.9899998 2.714 -0.97799999 90 39 8
-5.993 2.733 -0.99000001 106 64 39
-5.9829998 2.7290001 -0.97899997 59 21 8
-5.9790001 2.724 -0.977 99 62 35
-5.9720001 2.72 -0.949 36 17 11
-5.9790001 2.73 -0.94999999 129 68 39
-5.9879999 2.733 -0.94800001 161 126 106
-5.9759998 2.72 -0.96200001 84 24 0
-5.9850001 2.7190001 -0.97500002 130 77 35
-5.9860001 2.7309999 -0.94499999 145 104 84
-5.9980001 2.76 -0.93800002 87 49 36
-5.9850001 2.786 -0.95599997 24 6 0
-5.9850001 2.793 -0.94099998 109 49 15
-5.9829998 2.793 -0.95099998 62 15 0
-6.0300002 2.73 -0.93699998 123 58 18
-6.0380001 2.7590001 -0.90899998 85 29 4
-6.0149999 2.7920001 -0.884 56 37 30
-6.0170002 2.786 -0.89700001 36 9 2
-6.0040002 2.796 -0.91399997 167 111 62
-5.9889998 2.71 -0.97100002 163 87 35
-5.9949999 2.691 -1.052 184 119 63
-6.0419998 2.8150001 -0.86799997 39 11 0
-6.0229998 2.7620001 -0.852 123 78 45
-6.013 2.7750001 -0.759 138 68 32
-5.9689999 2.796 -0.76800001 86 54 43
-6.0219998 2.8099999 -0.73400003 107 83 55
-5.9749999 2.7939999 -0.79500002 68 27 9
-5.973 2.8 -0.787 67 43 33
-5.9759998 2.7750001 -0.796 118 51 24
-5.9629998 2.7739999 -0.78500003 230 145 81
-6.0300002 2.77 -0.81699997 102 58 31
-6.0370002 2.7869999 -0.74800003 75 39 13
-6.0320001 2.7579999 -1.0470001 141 107 82
-6.0320001 2.7690001 -1.031 40 16 6
-6.0359998 2.767 -1.027 157 120 93
-6.0469999 2.786 -0.91900003 104 60 33
-6.0469999 2.796 -0.92799997 68 23 2
-6.0419998 2.779 -0.91799998 44 10 0
-6.052 2.8 -0.91100001 238 163 105
-6.0100002 2.7839999 -1.033 177 156 151
-6.0050001 2.7739999 -1.0369999 65 38 27
-5.9809999 2.777 -0.80900002 46 16 6
-5.98 2.7839999 -0.80800003 132 61 17
-6.039 2.8069999 -0.92900002 41 14 5
-6.0019999 2.7850001 -0.86799997 53 11 0
-6.007 2.7379999 -0.87800002 146 73 32
-6.0380001 2.7520001 -0.90899998 153 105 67
-5.9850001 2.7550001 -0.77399999 255 205 119
-5.9990001 2.7590001 -0.76599997 244 180 109
-6.0289998 2.78 -0.77700001 41 9 0
-6.0219998 2.7690001 -0.74400002 246 209 118
-6.0019999 2.766 -0.72299999 181 120 53
-5.9990001 2.767 -0.977 74 37 21
-5.98 2.7980001 -0.95599997 206 167 138
-5.9949999 2.7950001 -0.96200001 54 23 5
-5.9910002 2.7980001 -0.963 70 42 28
-5.9819999 2.8099999 -0.95099998 146 105 77
-6.0009999 2.7920001 -0.96100003 197 112 55
-6.0180001 2.7409999 -1.051 136 85 40
-6.007 2.7679999 -1.031 34 6 0
-5.9949999 2.7509999 -1.048 243 191 143
-5.9889998 2.8 -0.93199998 182 91 34
-5.9899998 2.796 -0.93199998 147 86 39
-6.0300002 2.8080001 -0.85600001 54 20 11
-6.0159998 2.744 -0.87699997 127 60 18
-6.0029998 2.744 -0.87900001 155 105 68
-6.053 2.77 -0.85399997 106 64 48
-5.9889998 2.7360001 -0.98199999 39 5 0
-6.0469999 2.8010001 -0.93400002 97 61 39
-6.0370002 2.733 -0.93900001 93 39 5
-6.0669999 2.793 -0.84600002 100 44 9
-6.0700002 2.7939999 -0.83999997 253 197 84
-5.9829998 2.723 -0.98299998 144 138 138
-5.98 2.8039999 -0.93300003 156 101 80
-5.9879999 2.809 -0.94099998 111 68 49
-6.006 2.7460001 -0.912 199 113 56
-6.0089998 2.7460001 -0.91500002 164 137 126
-5.9949999 2.737 -0.94999999 44 30 30
-6.0040002 2.744 -0.95099998 75 36 5
-6.0149999 2.74 -0.926 142 119 101
-6.0240002 2.733 -0.93199998 123 49 2
-6.0219998 2.7349999 -0.93099999 176 94 36
-6.02 2.737 -0.92799997 136 56 3
-6.0240002 2.7349999 -0.92699999 141 83 46
-6.0009999 2.7539999 -0.96499997 141 120 99
-5.9990001 2.7539999 -0.97000003 160 143 133
-5.98 2.7980001 -0.95300001 226 182 155
-5.9840002 2.7909999 -0.95599997 114 64 31
-5.9949999 2.7909999 -0.94700003 182 131 110
-5.993 2.79 -0.96600002 153 66 0
-6.033 2.7709999 -0.954 84 61 45
-5.993 2.727 -0.99000001 64 22 6
-5.9910002 2.7219999 -0.98400003 135 126 119
-5.9949999 2.7249999 -0.98799998 78 26 4
-5.9949999 2.7179999 -0.98299998 94 49 30
-6.0079999 2.7869999 -0.91100001 141 99 83
-6.0380001 2.8139999 -0.86799997 53 20 5
-6.026 2.7950001 -0.81400001 168 105 38
-6.0310001 2.8069999 -0.73199999 155 114 62
-5.9679999 2.7809999 -0.75800002 208 145 39
-5.9660001 2.7720001 -0.78799999 120 79 57
-6.0250001 2.786 -0.76599997 51 12 0
-6.0539999 2.7969999 -0.917 120 76 49
-6.0149999 2.77 -1.046 92 59 40
-6.0120001 2.7869999 -1.039 43 9 0
-5.98 2.783 -0.80800003 106 40 5
-6.0190001 2.802 -0.93400002 31 4 0
-6.033 2.799 -0.92299998 36 7 0
-5.9990001 2.803 -0.95700002 46 19 8
-5.9970002 2.8039999 -0.95499998 167 152 147
-6.0019999 2.8050001 -0.95300001 40 12 0
-5.9959998 2.776 -0.86699998 23 2 1
-6.0100002 2.7509999 -0.85900003 215 121 47
-6.0229998 2.7679999 -0.74400002 254 209 116
-6.0190001 2.76 -0.72100002 242 200 118
-6.0180001 2.7950001 -0.80599999 136 69 16
-6.0739999 2.796 -0.81400001 128 80 44
-5.9970002 2.7620001 -0.97500002 75 65 66
-6.0100002 2.766 -0.97399998 46 1 0
