ply
format ascii 1.0
comment PCL generated
element vertex 1187
property float x
property float y
property float z
property uchar red
property uchar green
property uchar blue
element camera 0
property float view_px
property float view_py
property float view_pz
property float x_axisx
property float x_axisy
property float x_axisz
property float y_axisx
property float y_axisy
property float y_axisz
property float z_axisx
property float z_axisy
property float z_axisz
property float focal
property float scalex
property float scaley
property float centerx
property float centery
property int viewportx
property int viewporty
property float k1
property float k2
end_header
-5.1020002 7.6659999 -1.068 122 46 10
-5.1279998 7.6789999 -1.073 92 56 24
-5.1209998 7.6869998 -1.0700001 157 108 65
-5.1630001 7.6729999 -1.0599999 139 104 74
-5.1680002 7.665 -1.059 170 118 81
-5.1069999 7.7360001 -1.044 37 5 0
-5.1680002 7.7550001 -1.045 117 70 40
-5.1599998 7.75 -1.043 96 28 0
-5.1669998 7.7519999 -1.048 64 26 5
-5.1700001 7.757 -1.036 224 148 88
-5.1760001 7.7410002 -1.044 196 141 100
-5.1620002 7.6589999 -0.86699998 119 86 67
-5.1659999 7.6560001 -0.85799998 86 25 0
-5.1719999 7.6609998 -0.87599999 150 75 33
-5.2049999 7.7160001 -0.91000003 79 49 25
-5.2059999 7.711 -0.90899998 90 64 47
-5.2010002 7.7080002 -0.91799998 197 153 124
-5.2529998 7.6849999 -0.88200003 101 48 14
-5.25 7.677 -0.884 164 118 84
-5.243 7.684 -0.884 114 87 68
-5.0819998 7.5710001 -0.55500001 136 72 36
-5.0780001 7.5739999 -0.54400003 140 96 69
-5.2950001 7.598 -0.77399999 236 192 93
-5.296 7.6009998 -0.77499998 255 233 200
-5.2919998 7.6020002 -0.76099998 194 129 61
-5.2189999 7.7800002 -0.55299997 170 110 60
-5.2930002 7.5949998 -0.77899998 122 121 90
-5.198 7.6290002 -0.88300002 128 91 65
-5.2179999 7.638 -0.88700002 139 85 41
-5.2509999 7.6459999 -0.88 254 192 117
-5.2470002 7.6479998 -0.88499999 167 109 46
-5.2379999 7.651 -0.88599998 67 25 3
-5.2389998 7.671 -0.88300002 124 75 43
-5.244 7.6739998 -0.88499999 196 125 71
-5.244 7.6609998 -0.88 159 105 61
-5.1929998 7.6550002 -1.067 255 163 76
-5.1880002 7.6599998 -1.043 178 106 47
-5.191 7.6500001 -1.066 225 164 120
-5.2680001 7.5929999 -0.80400002 110 62 26
-5.0869999 7.5689998 -0.56800002 115 61 17
-5.085 7.5609999 -0.56800002 147 100 72
-5.1919999 7.7389998 -0.77100003 142 72 20
-5.1550002 7.7030001 -0.80699998 124 87 58
-5.1560001 7.7189999 -0.81599998 230 183 137
-5.1479998 7.7220001 -0.815 165 97 58
-5.1420002 7.717 -0.82499999 133 97 65
-5.2509999 7.691 -0.88599998 86 47 18
-5.2350001 7.697 -0.89499998 128 96 71
-5.21 7.7600002 -0.73100001 121 83 60
-5.211 7.7670002 -0.73199999 207 147 84
-5.2080002 7.7620001 -0.73199999 136 99 80
-5.2119999 7.7649999 -0.72899997 101 55 29
-5.2319999 7.6360002 -0.77700001 136 92 57
-5.2280002 7.6399999 -0.78100002 165 126 87
-5.2329998 7.6459999 -0.78399998 181 99 39
-5.2189999 7.6459999 -0.787 173 97 45
-5.2319999 7.6469998 -0.787 139 112 85
-5.3010001 7.6079998 -0.78399998 162 108 62
-5.2969999 7.6100001 -0.78399998 237 204 150
-5.2750001 7.5840001 -0.78200001 187 146 90
-5.2449999 7.6139998 -0.76899999 186 104 31
-5.2480001 7.8080001 -0.57999998 154 73 30
-5.2420001 7.8039999 -0.583 154 87 42
-5.1110001 7.6420002 -1.0599999 113 52 23
-5.0780001 7.5869999 -0.53299999 123 97 80
-5.0840001 7.5840001 -0.53299999 165 105 45
-5.0739999 7.573 -0.551 151 75 25
-5.066 7.5760002 -0.551 139 86 44
-5.1490002 7.625 -1.062 217 157 97
-5.0710001 7.6079998 -0.53600001 187 138 106
-5.0830002 7.5749998 -0.54400003 207 129 54
-5.237 7.79 -0.55699998 172 111 67
-5.1630001 7.6459999 -1.068 110 63 33
-5.1669998 7.6459999 -1.066 103 35 0
-5.152 7.6490002 -1.0650001 83 34 1
-5.1609998 7.6459999 -1.067 91 37 3
-5.1030002 7.7160001 -0.50300002 226 131 51
-5.0999999 7.7319999 -0.505 247 191 132
-5.1020002 7.7220001 -0.505 193 139 77
-5.1069999 7.7080002 -0.50400001 127 81 47
-5.098 7.7080002 -0.51099998 212 106 32
-5.1230001 7.723 -0.50099999 233 155 73
-5.1259999 7.7199998 -0.50300002 181 133 85
-5.1240001 7.927 -0.63099998 105 62 30
-5.1230001 7.9320002 -0.63499999 120 74 41
-5.1350002 7.928 -0.648 173 128 97
-5.1389999 7.9130001 -0.63499999 54 23 5
-5.158 7.7579999 -0.884 51 25 12
-5.1479998 7.7690001 -0.884 109 82 65
-5.1630001 7.7639999 -0.87599999 201 151 116
-5.0890002 7.7319999 -0.84500003 169 137 114
-5.1360002 7.7459998 -1.015 122 58 14
-5.1469998 7.7329998 -1.029 69 46 30
-5.138 7.7519999 -1.022 185 106 39
-5.152 7.7509999 -1.033 186 111 56
-5.1110001 7.8740001 -0.66000003 86 42 17
-5.1069999 7.8800001 -0.65200001 131 93 70
-5.1110001 7.8709998 -0.653 106 75 57
-5.1149998 7.881 -0.64200002 105 59 35
-5.099 7.901 -0.59799999 229 157 85
-5.0949998 7.902 -0.602 218 166 116
-5.105 7.9229999 -0.67699999 74 31 12
-5.1160002 7.9330001 -0.67699999 86 59 52
-5.1160002 7.9380002 -0.68300003 105 69 45
-5.1090002 7.9310002 -0.67400002 63 47 31
-5.0949998 7.9260001 -0.65399998 107 84 66
-5.0960002 7.9260001 -0.63999999 77 42 14
-5.079 7.8930001 -0.61799997 84 54 30
-5.0770001 7.888 -0.61500001 171 119 69
-5.0819998 7.809 -0.83899999 194 155 124
-5.132 7.717 -0.71200001 70 26 0
-5.1350002 7.717 -0.71100003 76 54 40
-5.131 7.7179999 -0.70700002 97 34 0
-5.1399999 7.7259998 -0.69199997 60 32 29
-5.204 7.7729998 -0.676 118 88 60
-5.1989999 7.7810001 -0.67799997 78 50 38
-5.0939999 7.7379999 -0.52600002 176 136 101
-5.0929999 7.7399998 -0.53100002 131 91 81
-5.0970001 7.723 -0.50800002 94 53 21
-5.0560002 7.5910001 -0.565 128 69 27
-5.0580001 7.585 -0.57499999 138 57 4
-5.0799999 7.5630002 -0.56699997 157 124 93
-5.098 7.6009998 -0.66600001 122 81 59
-5.1009998 7.6020002 -0.66600001 104 81 49
-5.099 7.5999999 -0.65799999 63 30 11
-5.1009998 7.7680001 -0.53200001 106 75 70
-5.099 7.7620001 -0.52600002 95 75 64
-5.1059999 7.7680001 -0.52700001 90 61 45
-5.1170001 7.763 -0.51200002 143 65 3
-5.1999998 7.8060002 -0.55400002 208 163 122
-5.204 7.8049998 -0.55299997 112 63 33
-5.197 7.8010001 -0.551 155 132 114
-5.2129998 7.8249998 -0.56599998 40 10 0
-5.2080002 7.8340001 -0.57499999 99 48 17
-5.1950002 7.8260002 -0.58700001 76 57 53
-5.1999998 7.8239999 -0.59299999 146 111 105
-5.1950002 7.8130002 -0.56199998 82 44 33
-5.1939998 7.8179998 -0.565 76 39 30
-5.0939999 7.7490001 -0.51999998 155 115 90
-5.1009998 7.756 -0.52100003 105 68 42
-5.0949998 7.7420001 -0.51599997 191 131 79
-5.1849999 7.79 -0.55800003 147 123 113
-5.118 7.8850002 -0.70599997 64 39 17
-5.1069999 7.8730001 -0.70499998 83 49 39
-5.1030002 7.875 -0.71899998 137 82 41
-5.1100001 7.8800001 -0.72600001 108 77 48
-5.119 7.8870001 -0.70700002 97 61 27
-5.1009998 7.8730001 -0.70599997 87 53 26
-5.0430002 7.737 -1.0700001 120 72 23
-5.0650001 7.7420001 -1.0599999 206 132 67
-5.0619998 7.7389998 -1.0549999 238 149 67
-5.072 7.7340002 -1.046 148 101 49
-5.073 7.7010002 -1.061 156 86 27
-5.1799998 7.73 -1.033 231 173 125
-5.0949998 7.6290002 -1.049 159 112 82
-5.1009998 7.6339998 -1.051 153 112 82
-5.0939999 7.6459999 -1.039 43 25 15
-5.1009998 7.6430001 -1.046 158 98 44
-5.1160002 7.6620002 -0.92500001 164 80 20
-5.092 7.6739998 -0.972 93 53 41
-5.1090002 7.6890001 -0.95499998 137 110 83
-5.1069999 7.6960001 -0.95200002 134 100 73
-5.1090002 7.684 -0.94999999 176 124 84
-5.1110001 7.6820002 -0.95499998 171 148 132
-5.1100001 7.6880002 -0.94999999 152 128 124
-5.0929999 7.7470002 -0.85000002 83 51 38
-5.0960002 7.7540002 -0.86699998 192 156 130
-5.0879998 7.7550001 -0.84399998 177 136 106
-5.0479999 7.7389998 -1.053 99 83 83
-5.0689998 7.73 -1.044 173 146 129
-5.0560002 7.724 -1.043 177 135 95
-5.0679998 7.7119999 -1.034 206 158 110
-5.0689998 7.7179999 -1.039 227 161 85
-5.0679998 7.7249999 -1.044 150 130 121
-5.0830002 7.737 -1.04 230 139 68
-5.1139998 7.7220001 -1.035 162 115 87
-5.1279998 7.7270002 -1.033 41 8 0
-5.1110001 7.7189999 -1.031 189 132 89
-5.1020002 7.724 -1.034 200 146 99
-5.1170001 7.7210002 -0.99000001 107 71 45
-5.1149998 7.723 -0.97500002 83 44 11
-5.1139998 7.7199998 -0.97000003 113 54 14
-5.1149998 7.7350001 -0.97500002 67 31 19
-5.1209998 7.7379999 -1.003 56 37 20
-5.1230001 7.7350001 -1.001 130 93 66
-5.1160002 7.7420001 -1.002 105 66 35
-5.1139998 7.7459998 -1.001 177 105 46
-5.118 7.75 -1.011 201 163 140
-5.1220002 7.7459998 -1.0089999 168 132 98
-5.1160002 7.7360001 -0.97299999 183 112 48
-5.1160002 7.7389998 -0.96700001 157 151 161
-5.1170001 7.7399998 -0.97799999 151 149 160
-5.105 7.9239998 -0.62800002 166 130 114
-5.099 7.9299998 -0.63999999 104 88 89
-5.1230001 7.9349999 -0.67900002 51 20 0
-5.112 7.9359999 -0.67000002 146 116 108
-5.1220002 7.9299998 -0.67500001 99 81 59
-5.1079998 7.9380002 -0.66500002 109 65 54
-5.1030002 7.9400001 -0.66299999 96 63 56
-5.112 7.9380002 -0.66000003 43 9 0
-5.21 7.7909999 -0.55500001 227 159 86
-5.204 7.7849998 -0.55400002 202 138 76
-5.204 7.7950001 -0.55299997 129 76 44
-5.2140002 7.8099999 -0.55400002 169 92 4
-5.2280002 7.8039999 -0.55400002 133 81 41
-5.1329999 7.9250002 -0.65600002 66 33 16
-5.1329999 7.9180002 -0.65600002 93 47 23
-5.1350002 7.9289999 -0.64999998 107 63 38
-5.132 7.9299998 -0.653 65 28 9
-5.1170001 7.8400002 -0.80699998 171 131 105
-5.1149998 7.8369999 -0.81800002 44 12 1
-5.099 7.8319998 -0.80900002 67 32 10
-5.171 7.7519999 -0.81999999 103 81 57
-5.1869998 7.737 -0.82099998 166 144 103
-5.177 7.7389998 -0.82800001 154 109 76
-5.184 7.75 -0.79400003 90 53 34
-5.1820002 7.7550001 -0.79500002 78 42 20
-5.1079998 7.8150001 -0.74900001 220 143 87
-5.1149998 7.8210001 -0.72600001 163 118 89
-5.112 7.8179998 -0.75 177 106 54
-5.1149998 7.823 -0.73100001 165 118 92
-5.1919999 7.757 -0.778 97 58 25
-5.1890001 7.763 -0.78399998 46 13 6
-5.1960001 7.7579999 -0.78500003 65 35 27
-5.2030001 7.7670002 -0.76300001 67 26 4
-5.1950002 7.763 -0.76099998 48 12 0
-5.1129999 7.7059999 -0.83700001 94 49 16
-5.1230001 7.7059999 -0.824 128 99 91
-5.119 7.7179999 -0.83999997 156 58 0
-5.1269999 7.711 -0.82599998 196 157 128
-5.1469998 7.7140002 -0.847 59 17 3
-5.1360002 7.7160001 -0.83200002 59 16 0
-5.1550002 7.6729999 -0.833 159 125 87
-5.1570001 7.6810002 -0.829 157 110 64
-5.086 7.823 -0.755 57 28 22
-5.086 7.836 -0.75400001 116 85 64
-5.0879998 7.8340001 -0.73900002 40 23 16
-5.0960002 7.7410002 -0.838 68 51 33
-5.1170001 7.7379999 -0.833 137 86 59
-5.099 7.75 -0.83700001 99 76 60
-5.092 7.7329998 -0.84299999 69 38 18
-5.2420001 7.6199999 -0.75700003 111 74 30
-5.1129999 7.6110001 -0.755 81 44 15
-5.2220001 7.6339998 -0.78500003 124 62 15
-5.1139998 7.612 -0.741 107 61 27
-5.1069999 7.6149998 -0.736 89 49 23
-5.1209998 7.6079998 -0.76800001 171 121 86
-5.1240001 7.631 -0.78200001 193 135 87
-5.119 7.625 -0.79400003 117 40 0
-5.1589999 7.7179999 -0.87699997 148 90 52
-5.1630001 7.7410002 -0.87900001 102 49 15
-5.1529999 7.7329998 -0.86199999 95 49 23
-5.1350002 7.743 -0.96100003 135 108 89
-5.1269999 7.744 -0.97100002 151 124 97
-5.1389999 7.7449999 -0.97399998 138 98 73
-5.1230001 7.7420001 -0.96700001 86 33 2
-5.1300001 7.7399998 -0.954 144 113 93
-5.1399999 7.7509999 -1.016 135 72 19
-5.1570001 7.756 -1.027 184 123 68
-5.1620002 7.6290002 -1.0549999 74 53 26
-5.0999999 7.664 -1.01 206 163 128
-5.1069999 7.671 -1.002 124 86 65
-5.1059999 7.6680002 -1.006 207 156 93
-5.092 7.6700001 -1.013 95 30 0
-5.098 7.6700001 -1.011 190 143 89
-5.1170001 7.6659999 -0.95899999 139 124 121
-5.1300001 7.6560001 -0.97100002 170 108 59
-5.1360002 7.6500001 -0.972 130 111 104
-5.1739998 7.6560001 -0.92299998 126 57 24
-5.1919999 7.6500001 -0.92199999 59 32 15
-5.1859999 7.6570001 -0.93099999 100 31 0
-5.1929998 7.651 -0.93300003 118 86 63
-5.0999999 7.744 -0.86699998 125 89 65
-5.1090002 7.7480001 -0.87900001 85 53 32
-5.1149998 7.7249999 -0.95300001 170 120 85
-5.1149998 7.7249999 -0.958 230 152 69
-5.1170001 7.691 -0.92900002 122 90 65
-5.1199999 7.6890001 -0.917 93 56 30
-5.1220002 7.6760001 -0.926 121 77 42
-5.1149998 7.6900001 -0.93400002 84 56 35
-5.1810002 7.6550002 -0.89499998 156 136 127
-5.184 7.6570001 -0.89899999 167 90 36
-5.1719999 7.652 -0.912 115 75 39
-5.1139998 7.724 -0.847 96 46 21
-5.0960002 7.7270002 -0.84600002 146 132 132
-5.1030002 7.7340002 -0.84600002 89 36 4
-5.1269999 7.7259998 -0.889 112 76 50
-5.125 7.7270002 -0.89600003 130 66 18
-5.1269999 7.717 -0.92900002 98 45 14
-5.131 7.7210002 -0.93599999 128 77 48
-5.1409998 7.7199998 -0.926 44 14 3
-5.1269999 7.7020001 -0.89200002 147 104 88
-5.1090002 7.697 -0.85900003 157 130 121
-5.1100001 7.6919999 -0.86199999 111 101 102
-5.1079998 7.691 -0.85600001 137 102 80
-5.0970001 7.7399998 -0.86000001 91 62 44
-5.1259999 7.7010002 -0.87400001 78 50 39
-5.1269999 7.6960001 -0.87800002 87 61 38
-5.1059999 7.6339998 -0.80500001 212 132 63
-5.1100001 7.631 -0.79900002 128 90 69
-5.1110001 7.6360002 -0.79500002 126 90 56
-5.119 7.6269999 -0.78200001 73 38 19
-5.1149998 7.631 -0.79400003 146 98 58
-5.1199999 7.6220002 -0.77200001 106 64 42
-5.119 7.6269999 -0.77700001 72 34 15
-5.1110001 7.6300001 -0.80699998 149 111 74
-5.112 7.6329999 -0.815 74 26 4
-5.138 7.658 -0.91900003 121 95 78
-5.1290002 7.6609998 -0.85600001 40 14 0
-5.1389999 7.6550002 -0.85600001 87 65 67
-5.132 7.6620002 -0.87300003 85 52 37
-5.1290002 7.6370001 -0.82599998 182 144 105
-5.1240001 7.6389999 -0.82599998 157 120 76
-5.1220002 7.645 -0.83499998 84 33 12
-5.1059999 7.5879998 -0.54400003 125 74 43
-5.1040001 7.5900002 -0.53799999 129 83 49
-5.237 7.8049998 -0.58999997 120 67 36
-5.2199998 7.822 -0.56400001 110 58 21
-5.0999999 7.8639998 -0.70300001 78 46 31
-5.098 7.8709998 -0.68699998 130 95 57
-5.1009998 7.868 -0.71899998 78 46 31
-5.1129999 7.8559999 -0.69800001 133 83 58
-5.1059999 7.8579998 -0.70499998 145 110 78
-5.1139998 7.855 -0.70200002 104 65 34
-5.119 7.848 -0.70200002 61 33 21
-5.132 7.7309999 -0.63999999 35 28 18
-5.119 7.7220001 -0.63499999 33 6 0
-5.1279998 7.7270002 -0.64099997 128 85 51
-5.2290001 7.77 -0.57700002 140 66 3
-5.2129998 7.7639999 -0.58399999 116 42 0
-5.237 7.6409998 -0.77499998 95 50 19
-5.2119999 7.7729998 -0.71100003 60 22 1
-5.2049999 7.7859998 -0.68099999 41 12 0
-5.152 7.638 -0.759 95 21 0
-5.1529999 7.645 -0.76200002 155 82 39
-5.1459999 7.638 -0.75300002 121 43 0
-5.158 7.6490002 -0.72100002 151 114 85
-5.1599998 7.6459999 -0.71899998 173 97 37
-5.158 7.6560001 -0.71600002 152 102 69
-5.1500001 7.632 -0.75300002 111 38 0
-5.131 7.7119999 -0.71499997 148 81 36
-5.1269999 7.7179999 -0.736 130 118 120
-5.145 7.6669998 -0.71499997 97 48 15
-5.151 7.6570001 -0.71200001 131 86 57
-5.1479998 7.6589999 -0.713 163 106 63
-5.132 7.7119999 -0.741 52 23 17
-5.1339998 7.71 -0.74299997 71 45 20
-5.1329999 7.7259998 -0.75199997 139 78 34
-5.1339998 7.71 -0.73699999 58 32 7
-5.1329999 7.7010002 -0.70999998 70 19 2
-5.2059999 7.7529998 -0.75199997 77 46 26
-5.1079998 7.6370001 -0.82800001 141 107 72
-5.1149998 7.6389999 -0.82499999 178 97 32
-5.1110001 7.6420002 -0.82599998 208 159 118
-5.0619998 7.6269999 -0.55599999 112 73 44
-5.1329999 7.9099998 -0.64399999 180 126 88
-5.1160002 7.7610002 -0.51099998 218 136 63
-5.112 7.7550001 -0.51099998 179 104 37
-5.0640001 7.6110001 -0.54000002 84 46 23
-5.0669999 7.6199999 -0.54299998 211 164 118
-5.0609999 7.6059999 -0.542 213 166 114
-5.1160002 7.6030002 -0.54100001 226 153 84
-5.1100001 7.612 -0.53500003 145 112 79
-5.1090002 7.6370001 -0.537 96 26 0
-5.112 7.6139998 -0.546 148 75 30
-5.0900002 7.6059999 -0.52899998 130 83 53
-5.1110001 7.6079998 -0.55400002 168 95 42
-5.1079998 7.6040001 -0.56199998 171 119 69
-5.0739999 7.7290001 -1.059 134 62 12
-5.0749998 7.7340002 -1.0650001 172 97 42
-5.1370001 7.6500001 -1.0599999 83 44 5
-5.1209998 7.6810002 -1.0700001 202 144 96
-5.1129999 7.6789999 -1.054 136 99 70
-5.1690001 7.7509999 -1.0549999 54 17 0
-5.1459999 7.6760001 -1.068 95 49 16
-5.1440001 7.6680002 -1.067 81 28 0
-5.1300001 7.6820002 -1.0700001 119 54 22
-5.1490002 7.6700001 -1.063 97 32 0
-5.1760001 7.6810002 -1.069 120 70 33
-5.1760001 7.7420001 -1.062 70 24 1
-5.1789999 7.7410002 -1.061 41 13 9
-5.1680002 7.7550001 -1.034 161 125 101
-5.2119999 7.7059999 -0.90600002 102 74 70
-5.2049999 7.7140002 -0.90600002 79 45 18
-5.1939998 7.7189999 -0.921 66 46 37
-5.1529999 7.652 -0.917 70 42 28
-5.164 7.6479998 -0.90700001 132 113 73
-5.151 7.6550002 -0.92799997 85 49 25
-5.1220002 7.6820002 -0.91000003 136 101 71
-5.1230001 7.697 -0.90700001 206 160 136
-5.1240001 7.677 -0.91799998 188 143 104
-5.25 7.6550002 -0.852 118 55 12
-5.2579999 7.6459999 -0.83899999 83 79 50
-5.283 7.5869999 -0.77499998 179 139 87
-5.0739999 7.5749998 -0.542 130 75 36
-5.2950001 7.5999999 -0.76999998 215 157 58
-5.2940001 7.598 -0.76999998 230 163 85
-5.29 7.5999999 -0.764 223 182 54
-5.29 7.6040001 -0.75999999 199 158 96
-5.2820001 7.612 -0.74900001 106 55 8
-5.2090001 7.6329999 -0.88300002 160 83 11
-5.1960001 7.651 -0.91900003 177 134 100
-5.1739998 7.6329999 -1.067 223 124 41
-5.2490001 7.6550002 -0.87900001 103 54 21
-5.2059999 7.6490002 -0.94099998 219 171 133
-5.1939998 7.6729999 -1.03 102 70 47
-5.1880002 7.6570001 -1.026 178 142 108
-5.1880002 7.6609998 -1.033 201 126 69
-5.2490001 7.6750002 -0.88599998 240 174 116
-5.2379999 7.6789999 -0.884 58 35 19
-5.2389998 7.6820002 -0.884 77 54 36
-5.2010002 7.6810002 -1.068 156 105 78
-5.1929998 7.6690001 -1.058 135 79 42
-5.092 7.585 -0.565 86 38 15
-5.098 7.5869999 -0.55900002 98 58 32
-5.0949998 7.579 -0.56400001 175 136 107
-5.0890002 7.5799999 -0.56800002 187 101 54
-5.1170001 7.6090002 -0.70300001 145 107 70
-5.1170001 7.6059999 -0.70999998 164 102 61
-5.1110001 7.6009998 -0.70599997 204 152 113
-5.1389999 7.6170001 -0.70300001 134 106 69
-5.1420002 7.6199999 -0.699 117 68 38
-5.131 7.619 -0.70099998 200 160 125
-5.1399999 7.6329999 -0.69700003 210 140 89
-5.0960002 7.599 -0.63 94 53 31
-5.099 7.6009998 -0.63300002 152 110 86
-5.0999999 7.6009998 -0.639 181 130 77
-5.1900001 7.7420001 -0.77999997 155 111 74
-5.1929998 7.743 -0.79000002 100 66 39
-5.1570001 7.7090001 -0.82099998 121 87 50
-5.2049999 7.7470002 -0.78399998 123 94 76
-5.2030001 7.7449999 -0.78299999 121 86 46
-5.1960001 7.7449999 -0.79299998 78 39 10
-5.237 7.6919999 -0.89399999 93 66 45
-5.2470002 7.6900001 -0.88700002 98 64 39
-5.217 7.6849999 -0.84600002 92 47 16
-5.2090001 7.6890001 -0.84200001 122 77 48
-5.2189999 7.684 -0.84200001 103 56 28
-5.1430001 7.7309999 -0.81900001 164 119 78
-5.1350002 7.724 -0.81900001 113 66 24
-5.2119999 7.763 -0.72000003 114 69 40
-5.2059999 7.7600002 -0.72500002 152 103 63
-5.1999998 7.7579999 -0.722 127 81 47
-5.217 7.7600002 -0.70300001 147 106 78
-5.2140002 7.6830001 -0.84299999 132 88 63
-5.2199998 7.6789999 -0.852 118 73 50
-5.2220001 7.6820002 -0.84600002 87 43 14
-5.2309999 7.6230001 -0.78899997 186 106 47
-5.29 7.612 -0.78200001 90 52 31
-5.283 7.6209998 -0.78500003 66 31 11
-5.2490001 7.5960002 -0.76899999 142 93 50
-5.2480001 7.5960002 -0.76499999 182 131 86
-5.1420002 7.6230001 -0.72799999 133 83 48
-5.1479998 7.6259999 -0.72600001 102 66 34
-5.1420002 7.6279998 -0.71499997 203 133 84
-5.2579999 7.5879998 -0.76499999 223 140 62
-5.2509999 7.5949998 -0.759 119 95 83
-5.2620001 7.6110001 -0.755 115 77 30
-5.2639999 7.6199999 -0.75700003 105 90 83
-5.2620001 7.618 -0.75800002 160 70 7
-5.2459998 7.8109999 -0.57499999 197 149 113
-5.105 7.6370001 -1.059 127 78 46
-5.1389999 7.6360002 -1.067 189 145 108
-5.138 7.6329999 -1.0650001 93 28 0
-5.1389999 7.6269999 -1.062 159 98 41
-5.1430001 7.6259999 -1.063 172 152 143
-5.131 7.6360002 -1.045 150 94 45
-5.1760001 7.6459999 -1.051 247 162 72
-5.2399998 7.7839999 -0.56 160 81 15
-5.1700001 7.631 -1.068 140 90 29
-5.1020002 7.691 -0.51099998 197 153 116
-5.0960002 7.711 -0.51200002 152 89 54
-5.0960002 7.704 -0.51800001 162 88 25
-5.151 7.7360001 -0.50800002 186 149 122
-5.1409998 7.7490001 -0.51200002 99 49 24
-5.1339998 7.7270002 -0.50199997 228 154 79
-5.039 7.7210002 -1.059 140 116 104
-5.1139998 7.711 -0.84100002 122 81 49
-5.1079998 7.6459999 -0.80400002 112 52 15
-5.1139998 7.6550002 -0.80299997 100 64 48
-5.1329999 7.6269999 -0.76200002 102 81 60
-5.1550002 7.631 -0.75999999 110 37 5
-5.1100001 7.632 -0.77399999 93 52 24
-5.1090002 7.6350002 -0.76099998 64 48 32
-5.112 7.638 -0.77600002 82 40 16
-5.112 7.6370001 -0.77499998 107 67 41
-5.165 7.7449999 -0.87400001 112 71 49
-5.1570001 7.7280002 -0.861 142 80 43
-5.1550002 7.7360001 -0.85799998 151 109 85
-5.1620002 7.7290001 -0.85399997 144 96 60
-5.1570001 7.7480001 -0.87599999 99 50 20
-5.1550002 7.7600002 -0.87699997 156 134 113
-5.1599998 7.7579999 -0.87900001 111 62 32
-5.1360002 7.7779999 -0.85399997 93 48 19
-5.138 7.7880001 -0.852 103 72 51
-5.138 7.7909999 -0.86199999 64 27 9
-5.1399999 7.77 -0.84799999 65 33 18
-5.1550002 7.7540002 -1.0319999 123 69 25
-5.1789999 7.7340002 -1.04 127 83 46
-5.1440001 7.8740001 -0.61199999 165 111 73
-5.1300001 7.8839998 -0.60900003 131 83 43
-5.1079998 7.8530002 -0.62400001 66 36 12
-5.1129999 7.848 -0.61900002 171 111 74
-5.1170001 7.8520002 -0.62400001 170 113 68
-5.0910001 7.8520002 -0.61900002 112 67 44
-5.1149998 7.8779998 -0.65399998 82 38 11
-5.1170001 7.8860002 -0.66100001 110 63 35
-5.1100001 7.8759999 -0.64499998 103 66 48
-5.1160002 7.8709998 -0.62699997 128 70 30
-5.1290002 7.8940001 -0.63700002 157 97 60
-5.118 7.8899999 -0.63800001 83 38 15
-5.1220002 7.8920002 -0.62300003 157 86 40
-5.118 7.8460002 -0.61699998 127 68 26
-5.1040001 7.8379998 -0.60000002 166 132 104
-5.1900001 7.8130002 -0.56900001 171 126 93
-5.1919999 7.816 -0.57200003 61 34 5
-5.1890001 7.8200002 -0.58399999 138 55 1
-5.1110001 7.8369999 -0.59600002 136 92 57
-5.1040001 7.8369999 -0.59600002 166 132 105
-5.105 7.849 -0.59500003 194 136 90
-5.1149998 7.8499999 -0.59500003 164 121 79
-5.119 7.9039998 -0.60699999 78 33 4
-5.1129999 7.8990002 -0.61799997 61 33 19
-5.105 7.9109998 -0.62199998 142 101 73
-5.0819998 7.9050002 -0.60799998 244 210 162
-5.1199999 7.9159999 -0.67900002 100 36 1
-5.1129999 7.8909998 -0.69099998 70 46 42
-5.1220002 7.8839998 -0.68800002 150 98 58
-5.1040001 7.9310002 -0.67000002 79 58 39
-5.0780001 7.8839998 -0.602 89 50 11
-5.086 7.895 -0.597 203 171 120
-5.0819998 7.882 -0.59899998 112 66 33
-5.1170001 7.882 -0.73400003 119 70 29
-5.1199999 7.8870001 -0.73199999 83 56 35
-5.0830002 7.8210001 -0.80699998 181 90 17
-5.0830002 7.8140001 -0.81599998 218 127 48
-5.0869999 7.822 -0.81400001 159 118 90
-5.0910001 7.8470001 -0.75700003 186 127 83
-5.0999999 7.8639998 -0.73000002 87 60 41
-5.1420002 7.7210002 -0.69599998 46 19 12
-5.21 7.7740002 -0.67500001 167 127 101
-5.2150002 7.7729998 -0.67500001 129 88 56
-5.2160001 7.7670002 -0.699 108 69 40
-5.2199998 7.7670002 -0.70200002 99 57 33
-5.21 7.7740002 -0.68300003 105 75 64
-5.1999998 7.7620001 -0.58099997 184 142 118
-5.2010002 7.7709999 -0.588 135 101 76
-5.191 7.757 -0.57200003 203 146 93
-5.1529999 7.651 -0.70200002 166 122 87
-5.0929999 7.7420001 -0.51999998 119 83 69
-5.0570002 7.5960002 -0.56699997 107 71 57
-5.0549998 7.6030002 -0.55299997 193 143 90
-5.0599999 7.5809999 -0.56400001 126 64 23
-5.0609999 7.579 -0.565 181 118 67
-5.0580001 7.5890002 -0.56300002 128 64 18
-5.0599999 7.5819998 -0.57200003 139 61 22
-5.1069999 7.6160002 -0.76300001 133 96 69
-5.1100001 7.6259999 -0.764 97 61 45
-5.0890002 7.6059999 -0.65899998 171 91 32
-5.059 7.6090002 -0.56400001 130 71 39
-5.0960002 7.7550001 -0.528 135 79 32
-5.0999999 7.7639999 -0.542 79 51 37
-5.099 7.7540002 -0.53399998 133 49 13
-5.0960002 7.7470002 -0.53200001 74 44 16
-5.1040001 7.7639999 -0.52399999 78 44 32
-5.1139998 7.763 -0.51300001 227 155 70
-5.2049999 7.8309999 -0.574 107 85 74
-5.198 7.776 -0.551 75 42 7
-5.1939998 7.7789998 -0.55199999 174 107 52
-5.1209998 7.7610002 -0.53200001 108 24 0
-5.1350002 7.757 -0.53500003 69 27 13
-5.138 7.7589998 -0.52700001 129 78 47
-5.1290002 7.7220001 -0.60600001 64 24 14
-5.125 7.7129998 -0.62 51 28 14
-5.1230001 7.723 -0.62199998 102 47 16
-5.1279998 7.7179999 -0.62 141 81 44
-5.1220002 7.8759999 -0.676 85 47 11
-5.119 7.881 -0.67699999 73 35 12
-5.119 7.8699999 -0.69099998 110 70 44
-5.1149998 7.881 -0.66100001 129 85 56
-5.052 7.7309999 -1.0700001 133 104 90
-5.073 7.7340002 -1.052 180 112 63
-5.0380001 7.724 -1.056 239 183 134
-5.086 7.7010002 -1.051 158 128 104
-5.0900002 7.691 -1.051 123 97 82
-5.0900002 7.7030001 -1.053 137 81 48
-5.1079998 7.7020001 -1.049 84 35 20
-5.1009998 7.704 -1.051 94 72 59
-5.0809999 7.6820002 -1.054 223 149 102
-5.0819998 7.697 -1.046 99 69 67
-5.0840001 7.671 -1.062 141 75 27
-5.0949998 7.6810002 -1.0549999 188 118 58
-5.0869999 7.6739998 -1.057 149 95 35
-5.0939999 7.6560001 -1.061 121 69 22
-5.079 7.7030001 -1.052 207 129 65
-5.1729999 7.7360001 -1.017 144 117 90
-5.1680002 7.7350001 -1.015 182 149 118
-5.1789999 7.7179999 -1.05 68 36 25
-5.1760001 7.7150002 -1.05 102 57 18
-5.1789999 7.6939998 -1.0599999 171 128 93
-5.0640001 7.7059999 -1.046 156 110 84
-5.073 7.7080002 -1.036 150 118 97
-5.0669999 7.7049999 -1.039 238 192 143
-5.079 7.7030001 -1.044 220 143 75
-5.0890002 7.6890001 -1.033 201 127 64
-5.0869999 7.6849999 -1.041 160 98 51
-5.059 7.7020001 -1.045 168 131 105
-5.0630002 7.7129998 -1.041 129 73 38
-5.0939999 7.677 -1.01 189 140 82
-5.0929999 7.678 -1.012 157 104 60
-5.098 7.6869998 -1.003 138 80 40
-5.0929999 7.6680002 -1.027 106 79 58
-5.0960002 7.6469998 -1.0650001 168 91 39
-5.1059999 7.6430001 -1.0470001 165 121 94
-5.0840001 7.6820002 -1.049 204 145 77
-5.0900002 7.678 -1.022 189 125 81
-5.105 7.7010002 -0.94499999 113 38 0
-5.0949998 7.7080002 -0.95099998 228 186 148
-5.112 7.6789999 -0.94800001 107 61 25
-5.1149998 7.6719999 -0.94800001 188 127 73
-5.1220002 7.664 -0.95599997 214 152 103
-5.125 7.664 -0.95499998 212 120 35
-5.1030002 7.711 -0.95599997 187 139 99
-5.1059999 7.6960001 -0.97299999 195 146 114
-5.1030002 7.6890001 -0.97399998 177 136 114
-5.0999999 7.6799998 -0.97299999 232 183 142
-5.098 7.6760001 -0.97399998 122 86 64
-5.098 7.6750002 -0.977 181 154 143
-5.1040001 7.677 -0.97299999 197 126 74
-5.1149998 7.7210002 -0.963 143 100 65
-5.1230001 7.7179999 -1.026 147 94 50
-5.0890002 7.7140002 -1.027 71 26 3
-5.086 7.73 -1.038 234 149 92
-5.085 7.737 -1.038 176 135 113
-5.0869999 7.7309999 -1.039 158 101 48
-5.1090002 7.7160001 -1.045 112 64 24
-5.0949998 7.7160001 -1.0549999 129 80 50
-5.1139998 7.724 -1.041 97 92 98
-5.1290002 7.7470002 -1.005 53 17 0
-5.1339998 7.7459998 -1.008 132 69 18
-5.1269999 7.7490001 -1.01 62 25 6
-5.1789999 7.7069998 -1.038 73 34 3
-5.1760001 7.7160001 -1.041 113 61 21
-5.164 7.7259998 -1.048 118 86 65
-5.1539998 7.7189999 -1.035 148 136 124
-5.1529999 7.7290001 -1.058 58 29 13
-5.1700001 7.7020001 -1.053 46 21 17
-5.1290002 7.7090001 -1.011 126 113 107
-5.1279998 7.7090001 -1 148 139 144
-5.0939999 7.6900001 -1.011 239 182 129
-5.0949998 7.6950002 -1.012 107 65 49
-5.0970001 7.6820002 -1.008 140 95 53
-5.105 7.691 -0.98400003 140 60 0
-5.1290002 7.723 -0.97500002 75 27 7
-5.132 7.704 -0.98000002 136 63 20
-5.1199999 7.724 -0.99199998 58 41 33
-5.131 7.7379999 -0.99900001 38 12 0
-5.1350002 7.7220001 -1.0089999 124 86 65
-5.1129999 7.7160001 -0.98000002 99 46 4
-5.1160002 7.7259998 -0.97500002 221 150 84
-5.1160002 7.7360001 -0.98000002 191 127 81
-5.098 7.9289999 -0.63499999 125 79 45
-5.1129999 7.9380002 -0.65499997 46 8 0
-5.1240001 7.9330001 -0.65100002 111 66 35
-5.099 7.9310002 -0.66299999 51 24 13
-5.1009998 7.9239998 -0.66399997 133 65 26
-5.2160001 7.796 -0.55500001 235 184 103
-5.223 7.8000002 -0.55500001 228 166 107
-5.2210002 7.7919998 -0.55400002 110 62 16
-5.2179999 7.7909999 -0.55400002 117 63 29
-5.2199998 7.7909999 -0.55400002 174 122 82
-5.2140002 7.8049998 -0.55400002 143 98 56
-5.2189999 7.79 -0.62400001 150 122 100
-5.2189999 7.7810001 -0.59200001 127 56 10
-5.2059999 7.7729998 -0.58700001 99 63 41
-5.2129998 7.7820001 -0.58999997 166 105 50
-5.138 7.7849998 -0.82300001 90 48 23
-5.1290002 7.79 -0.81999999 117 90 69
-5.1350002 7.7849998 -0.81400001 53 18 0
-5.132 7.7870002 -0.82300001 51 19 4
-5.1350002 7.7820001 -0.83200002 197 113 40
-5.1230001 7.836 -0.80400002 113 45 0
-5.118 7.8179998 -0.815 132 89 44
-5.1240001 7.8189998 -0.801 94 45 13
-5.1160002 7.8080001 -0.81699997 125 76 35
-5.1279998 7.8270001 -0.78799999 248 192 97
-5.125 7.8169999 -0.78600001 161 114 72
-5.1849999 7.7410002 -0.80299997 37 13 11
-5.1929998 7.7470002 -0.79299998 38 14 12
-5.184 7.75 -0.79799998 91 56 37
-5.184 7.7389998 -0.77499998 119 90 74
-5.1919999 7.7379999 -0.77700001 173 103 51
-5.1690001 7.7340002 -0.84600002 148 77 33
-5.1750002 7.7249999 -0.84799999 77 46 44
-5.2049999 7.7750001 -0.72799999 65 40 36
-5.2129998 7.7709999 -0.72500002 198 153 122
-5.2059999 7.7690001 -0.73000002 42 8 0
-5.1929998 7.7690001 -0.75099999 68 33 14
-5.1209998 7.8150001 -0.77700001 130 75 34
-5.1989999 7.7659998 -0.75599998 105 91 91
-5.1960001 7.7550001 -0.76599997 129 61 14
-5.1230001 7.882 -0.71399999 103 68 38
-5.1030002 7.8670001 -0.71100003 72 39 24
-5.1040001 7.7919998 -0.824 112 76 54
-5.092 7.7989998 -0.81400001 128 69 29
-5.0999999 7.7919998 -0.83600003 208 164 125
-5.1030002 7.796 -0.82700002 253 166 87
-5.0869999 7.8200002 -0.81999999 201 134 79
-5.1079998 7.8130002 -0.76099998 165 100 58
-5.1110001 7.7979999 -0.79100001 132 94 71
-5.1129999 7.8140001 -0.77600002 174 122 82
-5.1020002 7.8189998 -0.77200001 129 89 53
-5.1430001 7.7059999 -0.80400002 200 129 75
-5.1110001 7.6939998 -0.83200002 134 78 43
-5.118 7.6869998 -0.82099998 76 36 10
-5.105 7.6890001 -0.83700001 107 57 22
-5.1110001 7.698 -0.829 159 79 16
-5.158 7.7140002 -0.84100002 114 73 41
-5.1589999 7.7259998 -0.84399998 180 116 70
-5.1199999 7.6609998 -0.83499998 111 61 26
-5.1110001 7.6680002 -0.83200002 79 25 1
-5.119 7.6550002 -0.833 81 26 0
-5.1269999 7.6329999 -0.773 116 67 37
-5.151 7.6399999 -0.76800001 167 121 95
-5.125 7.6370001 -0.80400002 132 64 19
-5.1469998 7.6859999 -0.82300001 136 93 59
-5.1589999 7.6680002 -0.83200002 169 139 105
-5.1500001 7.6529999 -0.82800001 90 43 17
-5.1539998 7.6960001 -0.81999999 133 103 77
-5.151 7.6859999 -0.82700002 102 80 59
-5.1599998 7.697 -0.82599998 160 97 46
-5.1279998 7.7049999 -0.73199999 41 29 13
-5.1269999 7.711 -0.708 76 33 14
-5.1259999 7.7150002 -0.69999999 90 58 35
-5.086 7.8010001 -0.80199999 83 55 34
-5.092 7.8260002 -0.75400001 121 75 51
-5.0970001 7.7389998 -0.83999997 141 88 34
-5.0929999 7.7270002 -0.84200001 95 66 48
-5.125 7.678 -0.75999999 132 77 46
-5.1259999 7.6529999 -0.76599997 144 73 19
-5.1139998 7.6589999 -0.75800002 109 50 6
-5.2709999 7.5879998 -0.764 218 123 33
-5.2750001 7.5879998 -0.764 233 188 129
-5.263 7.586 -0.77399999 172 104 31
-5.1129999 7.6090002 -0.71700001 115 48 3
-5.1139998 7.6129999 -0.72799999 135 73 26
-5.1069999 7.6160002 -0.73100001 69 32 3
-5.151 7.638 -0.71799999 148 102 50
-5.151 7.6389999 -0.71600002 168 113 74
-5.1490002 7.632 -0.71200001 183 136 80
-5.1490002 7.6329999 -0.70700002 216 170 120
-5.1479998 7.6329999 -0.71499997 102 57 24
-5.1240001 7.6139998 -0.75800002 149 113 77
-5.1220002 7.625 -0.77600002 159 96 45
-5.2270002 7.6230001 -0.79699999 105 70 40
-5.171 7.638 -0.83200002 85 44 24
-5.2280002 7.6399999 -0.82999998 142 82 45
-5.224 7.652 -0.83399999 62 25 0
-5.2249999 7.6469998 -0.83600003 84 34 1
-5.2550001 7.618 -0.76700002 135 46 6
-5.257 7.6199999 -0.76899999 121 55 21
-5.2459998 7.625 -0.77200001 236 170 96
-5.1810002 7.6630001 -0.93699998 139 74 32
-5.1719999 7.6659999 -0.93300003 177 105 55
-5.1799998 7.658 -0.90899998 112 75 46
-5.2010002 7.6669998 -0.954 79 28 0
-5.2010002 7.6659999 -0.94300002 41 31 21
-5.1919999 7.6799998 -0.94099998 100 58 34
-5.21 7.6669998 -0.95300001 171 98 45
-5.1589999 7.7220001 -0.85600001 164 96 49
-5.1300001 7.7600002 -0.87599999 168 110 70
-5.1230001 7.7480001 -0.88800001 94 39 9
-5.1370001 7.7490001 -0.89700001 112 62 35
-5.1170001 7.756 -0.88 118 65 31
-5.1170001 7.7950001 -0.866 148 81 36
-5.1069999 7.7979999 -0.85900003 98 33 1
-5.1069999 7.7940001 -0.85900003 132 100 87
-5.1339998 7.7859998 -0.86699998 80 40 14
-5.1209998 7.7779999 -0.86500001 100 59 31
-5.1360002 7.7979999 -0.87199998 100 58 36
-5.132 7.7410002 -0.95599997 106 84 73
-5.131 7.7459998 -1 124 87 60
-5.1370001 7.743 -0.99400002 194 155 124
-5.1290002 7.6630001 -0.93800002 215 139 77
-5.1630001 7.6620002 -0.93099999 72 36 24
-5.1630001 7.6539998 -0.91799998 165 111 73
-5.1220002 7.6690001 -0.92199999 174 118 81
-5.1240001 7.665 -0.91900003 78 52 35
-5.1020002 7.7379999 -0.86299998 86 62 52
-5.1020002 7.7470002 -0.86900002 140 105 83
-5.1110001 7.7550001 -0.87800002 197 131 79
-5.099 7.7090001 -0.94700003 230 192 156
-5.1069999 7.717 -0.94199997 95 41 5
-5.1199999 7.724 -0.94099998 76 26 0
-5.118 7.7249999 -0.94499999 105 74 56
-5.1170001 7.7150002 -0.94 83 30 0
-5.1160002 7.7270002 -0.95499998 171 162 167
-5.1490002 7.6500001 -0.89600003 157 82 24
-5.1739998 7.7189999 -0.81699997 208 157 114
-5.1719999 7.7220001 -0.824 102 48 14
-5.165 7.724 -0.81900001 71 45 32
-5.1799998 7.7360001 -0.815 84 47 29
-5.1719999 7.7329998 -0.81699997 107 69 46
-5.1729999 7.7309999 -0.81800002 215 157 111
-5.1630001 7.6830001 -0.83899999 126 103 87
-5.1539998 7.6950002 -0.84899998 33 6 0
-5.1529999 7.6849999 -0.84899998 99 59 23
-5.1339998 7.7210002 -0.85500002 145 85 49
-5.1220002 7.7290001 -0.847 114 47 5
-5.1269999 7.7189999 -0.85100001 135 90 59
-5.1279998 7.7220001 -0.89499998 112 72 47
-5.1339998 7.7280002 -0.91000003 113 61 22
-5.1220002 7.737 -0.90399998 124 72 35
-5.1290002 7.7420001 -0.90399998 209 155 127
-5.131 7.6669998 -0.875 34 13 10
-5.1269999 7.6719999 -0.87300003 156 84 34
-5.1269999 7.6659999 -0.87 90 48 26
-5.1199999 7.7309999 -0.87 160 100 64
-5.132 7.7290001 -0.85500002 140 99 79
-5.152 7.7399998 -0.85000002 180 120 83
-5.1409998 7.7490001 -0.85600001 156 123 106
-5.1230001 7.6729999 -0.86400002 166 91 34
-5.1110001 7.6329999 -0.81800002 193 161 146
-5.105 7.704 -0.84500003 112 77 47
-5.1069999 7.691 -0.84899998 112 74 38
-5.151 7.6440001 -0.84399998 130 114 101
-5.1669998 7.6399999 -0.84100002 46 18 4
-5.1479998 7.6630001 -0.87 87 65 67
-5.1360002 7.6630001 -0.866 127 54 9
-5.1389999 7.664 -0.866 52 20 7
-5.132 7.6469998 -0.80199999 92 57 25
-5.131 7.6479998 -0.80800003 184 108 58
-5.1360002 7.6570001 -0.80299997 80 52 28
-5.1350002 7.6630001 -0.81300002 103 58 29
-5.1290002 7.664 -0.87099999 164 104 70
-5.1589999 7.645 -0.829 168 114 78
-5.1529999 7.6440001 -0.82700002 175 123 84
-5.1459999 7.6440001 -0.82499999 156 106 69
-5.1090002 7.5879998 -0.54799998 197 144 100
-5.1090002 7.645 -0.53799999 148 62 13
-5.1020002 7.6399999 -0.53799999 164 113 47
-5.099 7.6220002 -0.54299998 207 136 90
-5.2270002 7.79 -0.59299999 123 48 6
-5.2249999 7.7859998 -0.59299999 146 69 27
-5.2340002 7.8119998 -0.57599998 82 34 11
-5.2270002 7.8150001 -0.59899998 111 57 13
-5.2259998 7.8130002 -0.55800003 197 136 53
-5.2329998 7.7979999 -0.55500001 149 111 75
-5.2270002 7.7919998 -0.55299997 103 57 8
-5.105 7.8540001 -0.71200001 52 32 31
-5.119 7.8449998 -0.70899999 80 29 0
-5.1100001 7.8709998 -0.676 103 67 45
-5.1139998 7.8759999 -0.671 85 36 3
-5.2329998 7.7750001 -0.57999998 129 75 29
-5.2529998 7.6430001 -0.77200001 132 89 54
-5.2350001 7.6430001 -0.778 154 106 60
-5.2140002 7.7709999 -0.70499998 190 147 112
-5.1529999 7.6560001 -0.71700001 106 56 33
-5.1440001 7.6609998 -0.71799999 136 73 22
-5.1459999 7.6500001 -0.72000003 103 39 0
-5.138 7.6550002 -0.727 188 115 60
-5.1389999 7.665 -0.72500002 163 83 30
-5.1040001 7.7270002 -0.505 245 171 82
-5.2199998 7.776 -0.56 146 93 53
-5.2150002 7.7670002 -0.56699997 80 27 0
-5.2249999 7.7690001 -0.574 106 62 35
-5.1939998 7.8179998 -0.57200003 96 67 53
-5.2069998 7.7589998 -0.73100001 180 131 98
-5.197 7.7659998 -0.73100001 107 63 38
-5.1960001 7.7750001 -0.71399999 52 20 5
-5.1459999 7.7249999 -0.69 40 29 25
-5.1430001 7.7160001 -0.685 104 81 63
-5.2010002 7.7600002 -0.755 48 13 0
-5.119 7.6360002 -0.82300001 72 30 6
-5.1279998 7.664 -0.86900002 41 13 2
-5.1110001 7.6849999 -0.84100002 135 82 48
-5.1149998 7.6729999 -0.83399999 103 53 20
-5.1139998 7.6739998 -0.82999998 132 76 49
-5.1240001 7.6810002 -0.81900001 62 36 21
-5.1259999 7.684 -0.80800003 163 141 127
-5.1360002 7.7049999 -0.792 74 51 45
-5.1389999 7.7059999 -0.801 128 78 43
-5.0609999 7.619 -0.565 112 76 64
-5.066 7.6259999 -0.56 102 75 58
-5.0689998 7.6230001 -0.56900001 72 38 11
-5.0679998 7.612 -0.574 65 37 23
-5.0689998 7.632 -0.55199999 104 57 27
-5.1329999 7.724 -0.69300002 124 76 53
-5.125 7.717 -0.67799997 166 113 79
-5.1240001 7.7160001 -0.69400001 57 22 3
-5.118 7.75 -0.50599998 207 140 69
-5.1149998 7.7449999 -0.50599998 190 118 34
-5.2080002 7.776 -0.55800003 112 62 25
-5.0640001 7.6079998 -0.53799999 101 78 46
-5.0599999 7.6149998 -0.55000001 187 127 90
-5.098 7.598 -0.52899998 124 66 18
-5.1059999 7.6069999 -0.53399998 133 75 27
-5.0999999 7.6020002 -0.53299999 76 30 7
-5.098 7.605 -0.53399998 131 95 61
-5.0929999 7.6199999 -0.53399998 133 97 65
-5.0830002 7.5960002 -0.53100002 232 162 93
-5.0999999 7.598 -0.56300002 164 120 85
-5.177 7.724 -1.0599999 99 30 0
-5.1729999 7.7350001 -1.057 96 30 0
-5.1550002 7.7030001 -1.056 126 85 53
-5.0739999 7.7210002 -1.057 120 27 0
-5.119 7.6599998 -1.062 131 60 18
-5.1350002 7.6399999 -1.063 183 113 62
-5.1409998 7.6589999 -1.061 180 153 123
-5.1430001 7.6529999 -1.0599999 142 94 46
-5.0879998 7.664 -1.046 142 114 100
-5.1290002 7.671 -1.073 104 55 25
-5.1389999 7.6880002 -1.062 180 153 134
-5.1370001 7.7049999 -1.051 55 24 4
-5.1300001 7.6869998 -1.064 111 82 66
-5.1799998 7.6760001 -1.075 77 20 0
-5.178 7.6729999 -1.071 99 67 44
-5.0819998 7.7319999 -1.051 226 156 96
-5.1630001 7.7470002 -1.045 65 23 0
-5.1669998 7.744 -1.053 140 66 17
-5.1240001 7.7319999 -0.98900002 133 95 74
-5.1139998 7.7449999 -0.99900001 165 136 118
-5.171 7.7049999 -1.0039999 106 80 57
-5.1890001 7.7049999 -0.995 180 125 61
-5.1880002 7.6999998 -1 159 105 69
-5.1830001 7.7080002 -0.98400003 115 49 0
-5.164 7.7150002 -1.007 122 54 7
-5.165 7.71 -0.99000001 83 29 0
-5.165 7.71 -0.98000002 91 39 2
-5.1589999 7.7140002 -0.991 111 95 82
-5.2059999 7.711 -0.90499997 90 41 11
-5.2010002 7.71 -0.90600002 175 89 12
-5.2010002 7.7179999 -0.91299999 98 53 24
-5.1900001 7.7259998 -0.91900003 43 17 0
-5.1849999 7.6570001 -0.93599999 132 63 21
-5.1820002 7.6630001 -0.94499999 110 44 10
-5.1760001 7.6659999 -0.94999999 91 27 0
-5.184 7.6609998 -0.95099998 93 30 0
-5.1389999 7.6570001 -0.921 116 94 83
-5.152 7.6469998 -0.89999998 157 123 98
-5.152 7.6490002 -0.90200001 73 42 21
-5.1739998 7.6669998 -0.94400001 170 102 65
-5.1719999 7.677 -0.93900001 81 19 0
-5.191 7.6739998 -0.94099998 124 79 37
-5.2119999 7.6589999 -0.92400002 156 119 90
-5.2129998 7.6589999 -0.949 141 88 57
-5.2140002 7.6529999 -0.94700003 124 82 44
-5.2309999 7.6599998 -0.88700002 131 68 33
-5.2290001 7.6490002 -0.889 52 12 2
-5.2309999 7.6789999 -0.85100001 245 181 135
-5.2820001 7.586 -0.77399999 222 189 148
-5.2979999 7.6040001 -0.76899999 245 193 135
-5.2810001 7.598 -0.75199997 218 154 83
-5.263 7.5900002 -0.759 212 135 63
-5.2639999 7.6020002 -0.74900001 146 120 107
-5.2360001 7.6630001 -0.86400002 88 39 9
-5.1869998 7.6550002 -0.861 119 105 94
-5.1659999 7.6459999 -0.84299999 148 87 40
-5.21 7.664 -0.949 236 158 92
-5.2049999 7.6599998 -0.95599997 37 22 27
-5.2059999 7.652 -0.963 215 156 86
-5.2030001 7.6459999 -0.96399999 211 148 95
-5.1880002 7.658 -1.015 177 141 107
-5.1900001 7.6680002 -1.008 192 108 38
-5.204 7.6490002 -0.95899999 221 133 59
-5.1939998 7.6479998 -0.958 227 138 46
-5.2020001 7.6409998 -0.949 175 130 91
-5.2449999 7.6350002 -0.88099998 125 76 36
-5.2470002 7.6399999 -0.87900001 159 112 86
-5.2509999 7.638 -0.87 120 70 33
-5.2420001 7.6479998 -0.88499999 177 139 118
-5.243 7.6409998 -0.88 68 31 13
-5.1859999 7.6570001 -1.041 205 122 46
-5.1890001 7.665 -1.039 211 140 86
-5.1890001 7.665 -1.013 218 131 62
-5.2340002 7.6810002 -0.884 49 16 0
-5.2280002 7.6919999 -0.89399999 91 44 24
-5.1680002 7.6389999 -0.83700001 68 35 18
-5.2090001 7.652 -0.89099997 45 18 7
-5.2150002 7.645 -0.88599998 82 44 23
-5.2290001 7.6360002 -0.84100002 184 125 85
-5.283 7.5949998 -0.79400003 155 88 43
-5.2870002 7.612 -0.792 255 225 180
-5.2350001 7.631 -0.83399999 179 121 84
-5.2319999 7.6370001 -0.83200002 141 115 102
-5.1139998 7.6209998 -0.69099998 90 61 31
-5.1100001 7.6170001 -0.68400002 44 26 22
-5.0999999 7.6030002 -0.66900003 134 104 76
-5.2610002 7.5879998 -0.76099998 222 159 54
-5.1069999 7.618 -0.73400003 108 55 21
-5.1020002 7.619 -0.72299999 118 36 0
-5.0960002 7.6009998 -0.63599998 70 43 24
-5.243 7.6880002 -0.88800001 62 34 13
-5.138 7.7280002 -0.81599998 137 84 34
-5.1409998 7.7270002 -0.80800003 150 100 67
-5.1350002 7.7189999 -0.81300002 101 52 12
-5.1389999 7.724 -0.81 153 95 45
-5.1220002 7.7399998 -0.83700001 62 17 0
-5.125 7.7340002 -0.85399997 120 79 59
-5.1620002 7.7350001 -0.83399999 36 11 4
-5.1820002 7.7470002 -0.80199999 82 49 34
-5.2119999 7.763 -0.72399998 109 64 35
-5.2059999 7.7690001 -0.708 98 65 48
-5.2140002 7.7639999 -0.70599997 163 117 81
-5.2220001 7.6729999 -0.838 156 111 80
-5.237 7.6209998 -0.78200001 89 49 14
-5.2509999 7.5939999 -0.796 111 55 8
-5.2839999 7.6269999 -0.773 114 63 18
-5.2719998 7.6350002 -0.76899999 50 29 24
-5.2750001 7.6300001 -0.75599998 145 110 68
-5.2540002 7.599 -0.76200002 140 79 24
-5.2519999 7.5939999 -0.773 176 143 100
-5.1240001 7.6160002 -0.73799998 135 99 65
-5.1360002 7.6279998 -0.74000001 151 124 97
-5.1459999 7.6259999 -0.74599999 221 145 85
-5.1389999 7.6370001 -0.73900002 97 71 46
-5.1420002 7.631 -0.73100001 155 107 69
-5.1279998 7.6290002 -1.0599999 172 141 120
-5.1129999 7.6479998 -1.0549999 136 63 8
-5.1440001 7.625 -1.057 131 82 49
-5.1339998 7.638 -1.066 195 145 120
-5.1700001 7.6630001 -1.058 94 30 0
-5.178 7.6609998 -1.059 141 82 42
-5.1659999 7.6329999 -1.059 104 61 42
-5.1680002 7.638 -1.061 97 34 0
-5.184 7.6500001 -1.035 131 89 51
-5.1560001 7.6690001 -1.058 123 52 0
-5.0689998 7.573 -0.55299997 186 128 82
-5.1339998 7.6420002 -1.056 144 78 30
-5.2309999 7.777 -0.57200003 174 129 100
-5.1570001 7.6339998 -1.071 159 74 9
-5.145 7.7259998 -0.50300002 179 126 86
-5.1360002 7.7329998 -0.50199997 194 121 52
-5.1139998 7.724 -0.5 95 46 6
-5.1290002 7.7329998 -0.50599998 212 162 103
-5.1149998 7.7189999 -0.5 255 178 100
-5.1079998 7.724 -0.50300002 218 129 47
-5.1069999 7.6420002 -0.80500001 159 79 20
-5.1139998 7.6370001 -0.79100001 173 115 78
-5.1110001 7.6339998 -0.76499999 140 54 7
-5.1279998 7.7449999 -0.89700001 172 117 78
-5.1719999 7.723 -0.86000001 157 102 61
-5.1739998 7.7199998 -0.85299999 117 71 38
-5.1160002 7.7690001 -0.82200003 213 167 118
-5.1079998 7.7719998 -0.82499999 63 17 0
-5.1139998 7.763 -0.82499999 119 85 60
-5.1350002 7.7820001 -0.861 125 77 39
-5.1350002 7.783 -0.847 101 65 41
-5.1500001 7.7719998 -0.88 194 168 151
-5.1360002 7.796 -0.86799997 110 78 55
-5.1360002 7.8099999 -0.87 88 66 53
-5.132 7.8119998 -0.87599999 127 94 75
-5.1360002 7.8070002 -0.866 104 38 3
-5.1409998 7.8130002 -0.84899998 115 76 47
-5.1389999 7.8049998 -0.847 189 146 114
-5.1329999 7.8119998 -0.87199998 133 97 75
-5.1040001 7.8060002 -0.847 48 20 9
-5.098 7.7789998 -0.84600002 237 194 159
-5.1160002 7.7610002 -0.82700002 247 175 116
-5.1290002 7.7690001 -0.824 65 27 4
-5.1339998 7.756 -0.833 195 101 27
-5.1620002 7.7389998 -1.021 118 92 69
-5.0949998 7.875 -0.63200003 102 66 52
-5.0890002 7.8639998 -0.62599999 146 96 61
-5.099 7.8790002 -0.64399999 48 16 5
-5.132 7.8709998 -0.61799997 152 101 56
-5.125 7.8759999 -0.61699998 167 108 64
-5.1370001 7.8699999 -0.611 140 113 104
-5.1199999 7.8979998 -0.597 106 57 16
-5.112 7.8889999 -0.59100002 197 160 133
-5.1160002 7.8860002 -0.58999997 198 157 129
-5.1220002 7.8779998 -0.58899999 150 97 47
-5.1209998 7.8829999 -0.59399998 176 132 97
-5.1269999 7.9070001 -0.60299999 161 88 45
-5.1329999 7.9330001 -0.639 159 113 80
-5.1269999 7.8639998 -0.62099999 127 91 69
-5.1259999 7.8600001 -0.616 146 110 94
-5.1059999 7.8850002 -0.59299999 125 92 57
-5.1090002 7.875 -0.59500003 189 146 103
-5.1110001 7.8639998 -0.62800002 121 62 32
-5.1820002 7.8099999 -0.58399999 184 117 74
-5.1950002 7.8239999 -0.59100002 124 67 40
-5.1900001 7.8099999 -0.58999997 150 85 45
-5.1329999 7.8740001 -0.59799999 209 149 95
-5.1090002 7.8520002 -0.59500003 122 86 72
-5.1110001 7.8579998 -0.59600002 112 77 49
-5.112 7.8649998 -0.59399998 149 110 69
-5.1149998 7.8720002 -0.59299999 138 104 79
-5.1160002 7.8709998 -0.59799999 115 65 16
-5.1069999 7.868 -0.59200001 124 98 75
-5.099 7.8660002 -0.59500003 85 42 8
-5.0890002 7.8720002 -0.59299999 93 57 35
-5.0999999 7.901 -0.597 168 112 63
-5.1040001 7.8969998 -0.597 163 104 38
-5.0949998 7.902 -0.61500001 197 141 106
-5.0939999 7.8969998 -0.59600002 101 52 11
-5.059 7.605 -0.54500002 116 76 64
-5.1220002 7.908 -0.67299998 192 153 114
-5.1059999 7.8930001 -0.69700003 87 44 35
-5.1079998 7.8920002 -0.69300002 78 40 31
-5.1009998 7.8779998 -0.68599999 178 141 96
-5.1279998 7.9190001 -0.66500002 134 75 41
-5.0840001 7.9039998 -0.63099998 253 176 106
-5.0840001 7.895 -0.63200003 103 66 57
-5.085 7.9000001 -0.63999999 114 88 65
-5.1069999 7.8839998 -0.69499999 76 59 29
-5.1100001 7.8850002 -0.66000003 81 28 0
-5.1100001 7.881 -0.67000002 81 34 6
-5.1139998 7.8969998 -0.68099999 63 42 25
-5.1040001 7.882 -0.68099999 83 38 15
-5.0770001 7.8790002 -0.61400002 219 161 97
-5.0799999 7.8920002 -0.60799998 255 224 173
-5.1230001 7.881 -0.72299999 120 77 42
-5.1230001 7.8709998 -0.71899998 52 24 13
-5.086 7.8330002 -0.76099998 86 49 41
-5.092 7.8390002 -0.76200002 68 54 43
-5.092 7.8049998 -0.81900001 81 44 25
-5.1079998 7.8670001 -0.73500001 103 80 62
-5.119 7.8579998 -0.73699999 116 78 42
-5.1100001 7.8559999 -0.75300002 216 135 70
-5.1339998 7.71 -0.70499998 73 50 34
-5.2080002 7.7690001 -0.58600003 150 76 37
-5.119 7.7459998 -0.53500003 138 98 47
-5.1009998 7.697 -0.51499999 238 189 131
-5.1020002 7.691 -0.52700001 134 82 42
-5.0970001 7.7090001 -0.53299999 122 69 37
-5.0949998 7.7220001 -0.53500003 112 52 0
-5.1009998 7.7090001 -0.54000002 105 70 40
-5.0760002 7.632 -0.57099998 118 74 35
-5.0560002 7.5999999 -0.55599999 172 140 119
-5.1009998 7.6279998 -0.73400003 62 37 32
-5.1040001 7.6420002 -0.736 162 118 83
-5.105 7.6370001 -0.741 143 106 80
-5.0619998 7.598 -0.57300001 159 111 73
-5.0700002 7.6079998 -0.57499999 125 89 65
-5.1220002 7.7140002 -0.69199997 101 56 23
-5.059 7.6079998 -0.56400001 100 71 53
-5.1079998 7.756 -0.51800001 75 40 34
-5.1020002 7.7600002 -0.542 149 115 87
-5.0949998 7.724 -0.528 155 85 34
-5.191 7.7610002 -0.57700002 191 122 57
-5.1459999 7.7509999 -0.52399999 155 96 56
-5.1500001 7.7470002 -0.51700002 135 73 32
-5.1479998 7.7490001 -0.52499998 74 26 6
-5.1589999 7.7389998 -0.52499998 98 51 23
-5.118 7.7620001 -0.52499998 93 18 0
-5.1129999 7.7639999 -0.53100002 97 27 0
-5.1170001 7.7610002 -0.51599997 240 158 85
-5.191 7.763 -0.55199999 153 109 74
-5.1129999 7.763 -0.53600001 119 45 6
-5.1129999 7.7610002 -0.53600001 149 102 74
-5.125 7.73 -0.62099999 44 25 19
-5.119 7.7210002 -0.62800002 49 22 11
-5.1300001 7.7280002 -0.616 40 36 24
-5.0830002 7.8649998 -0.59899998 130 90 55
-5.0929999 7.8629999 -0.60100001 133 57 8
-5.0809999 7.8649998 -0.60100001 126 76 41
-5.099 7.8649998 -0.597 218 173 131
-5.0900002 7.8660002 -0.62599999 144 70 23
-5.119 7.8709998 -0.69199997 149 96 52
-5.1209998 7.8759999 -0.69700003 151 99 60
-5.1170001 7.8569999 -0.699 82 50 27
-5.059 7.7280002 -1.05 144 85 45
-5.0970001 7.6950002 -1.051 92 45 19
-5.0879998 7.6830001 -1.053 176 117 77
-5.1810002 7.6960001 -1.048 112 61 30
-5.1329999 7.6389999 -1.031 99 48 1
-5.1409998 7.6339998 -1.034 171 142 128
-5.1020002 7.6750002 -1.005 247 198 129
-5.1059999 7.6750002 -1.001 255 219 174
-5.0910001 7.665 -1.036 195 157 134
-5.0929999 7.677 -1.029 148 84 38
-5.0949998 7.6690001 -1.022 192 129 86
-5.0970001 7.6620002 -1.03 139 87 47
-5.1059999 7.6399999 -1.0599999 98 35 2
-5.105 7.638 -1.058 161 87 38
-5.1100001 7.6469998 -1.041 177 125 85
-5.0869999 7.6700001 -1.045 242 185 142
-5.098 7.6799998 -1.007 133 69 25
-5.1139998 7.6960001 -0.92900002 67 52 49
-5.1170001 7.6999998 -0.93000001 101 53 17
-5.119 7.7069998 -0.926 113 78 59
-5.1329999 7.6609998 -0.96399999 153 73 14
-5.1079998 7.6760001 -0.99299997 233 196 152
-5.1100001 7.6729999 -0.99699998 126 63 22
-5.132 7.6570001 -0.98199999 109 65 28
-5.1090002 7.6960001 -0.95999998 191 137 91
