ply
format ascii 1.0
comment PCL generated
element vertex 58
property float x
property float y
property float z
property uchar red
property uchar green
property uchar blue
element camera 1
property float view_px
property float view_py
property float view_pz
property float x_axisx
property float x_axisy
property float x_axisz
property float y_axisx
property float y_axisy
property float y_axisz
property float z_axisx
property float z_axisy
property float z_axisz
property float focal
property float scalex
property float scaley
property float centerx
property float centery
property int viewportx
property int viewporty
property float k1
property float k2
end_header
11.569 -6.717 -0.252 139 102 73
11.568 -6.7329998 -0.252 124 84 49
11.566 -6.7150002 -0.25400001 111 43 0
11.57 -6.7280002 -0.255 146 100 66
11.567 -6.7179999 -0.25999999 131 83 35
11.576 -6.7199998 -0.26899999 64 29 1
11.576 -6.7270002 -0.27000001 51 14 0
11.598 -6.6729999 -0.25099999 205 151 79
11.593 -6.678 -0.24699999 215 158 115
11.6 -6.6750002 -0.25400001 157 114 72
11.583 -6.7270002 -0.26499999 80 43 34
11.576 -6.7290001 -0.26199999 174 117 106
11.578 -6.6939998 -0.26899999 138 91 61
11.575 -6.6929998 -0.26699999 173 91 41
11.575 -6.711 -0.266 128 46 0
11.57 -6.7140002 -0.25999999 108 43 11
11.591 -6.691 -0.26300001 133 68 26
11.592 -6.6869998 -0.27200001 128 93 55
11.569 -6.7309999 -0.255 89 51 15
11.582 -6.7080002 -0.27000001 146 93 51
11.584 -6.6859999 -0.27700001 148 73 31
11.591 -6.6900001 -0.252 183 102 39
11.587 -6.6890001 -0.244 138 66 26
11.582 -6.71 -0.24699999 248 179 101
11.581 -6.6890001 -0.27000001 181 120 75
11.58 -6.6849999 -0.26699999 155 73 17
11.586 -6.6799998 -0.27200001 136 77 43
11.587 -6.677 -0.26699999 162 83 27
11.584 -6.6799998 -0.25799999 98 69 37
11.594 -6.6830001 -0.25999999 222 152 82
11.576 -6.6939998 -0.259 108 81 52
11.576 -6.6919999 -0.257 164 114 77
11.576 -6.6929998 -0.257 182 97 42
11.578 -6.7129998 -0.27000001 206 152 92
11.584 -6.7049999 -0.259 89 28 0
11.588 -6.677 -0.257 143 90 24
11.599 -6.671 -0.25299999 148 85 42
11.585 -6.6799998 -0.243 162 132 94
11.583 -6.6820002 -0.25 197 144 74
11.578 -6.7249999 -0.24699999 193 103 43
11.58 -6.7249999 -0.249 177 120 67
11.583 -6.684 -0.24600001 202 144 104
11.582 -6.6830001 -0.257 173 120 80
11.581 -6.6849999 -0.257 195 109 48
11.578 -6.6939998 -0.24699999 170 116 72
11.581 -6.7270002 -0.25299999 131 56 53
11.584 -6.6960001 -0.248 208 165 120
11.594 -6.6810002 -0.27000001 224 161 107
11.593 -6.678 -0.25799999 188 133 92
11.582 -6.7080002 -0.25600001 200 144 87
11.584 -6.6999998 -0.26199999 140 85 46
11.578 -6.7280002 -0.26199999 106 56 19
11.574 -6.7259998 -0.252 197 109 38
11.575 -6.711 -0.25799999 204 111 34
11.576 -6.698 -0.24600001 83 29 0
11.576 -6.7280002 -0.257 149 104 71
11.584 -6.6999998 -0.252 182 127 88
11.583 -6.6950002 -0.24600001 137 87 24
0 0 0 1 0 0 0 1 0 0 0 1 0 0 0 0 0 58 1 0 0
