ply
format ascii 1.0
comment PCL generated
element vertex 1355
property float x
property float y
property float z
property uchar red
property uchar green
property uchar blue
element camera 0
property float view_px
property float view_py
property float view_pz
property float x_axisx
property float x_axisy
property float x_axisz
property float y_axisx
property float y_axisy
property float y_axisz
property float z_axisx
property float z_axisy
property float z_axisz
property float focal
property float scalex
property float scaley
property float centerx
property float centery
property int viewportx
property int viewporty
property float k1
property float k2
end_header
-2.0309999 1.648 -1 198 169 151
-2.1210001 1.545 -1.0039999 174 127 75
-2.118 1.5319999 -1.008 144 134 135
-2.0179999 1.604 -1.002 32 22 21
-2.03 1.609 -1.011 211 146 78
-2.0139999 1.6109999 -0.98900002 131 111 100
-2.0239999 1.603 -1.011 135 72 19
-1.9960001 1.613 -1.003 50 22 0
-2.0109999 1.61 -1.002 130 88 64
-2 1.619 -0.95700002 86 59 42
-2.0109999 1.623 -0.95999998 78 34 7
-2.003 1.626 -0.96600002 11 0 0
-2.0109999 1.632 -0.97100002 55 38 31
-2.0539999 1.653 -0.86400002 180 154 61
-2.0899999 1.675 -0.74299997 126 106 97
-2.0409999 1.624 -0.926 84 40 3
-2.1140001 1.556 -0.98500001 126 80 47
-2.0840001 1.564 -1.068 96 70 45
-2.085 1.566 -1.061 135 103 80
-2.0829999 1.552 -1.071 54 24 13
-2.075 1.571 -1.075 111 98 79
-2.085 1.5650001 -1.058 123 88 60
-2.0929999 1.554 -1.039 186 130 73
-2.0840001 1.564 -1.041 87 63 53
-2.0409999 1.661 -1.018 160 126 78
-2.039 1.654 -1.016 149 80 38
-2.0450001 1.659 -1.03 96 81 76
-2.027 1.64 -1.029 34 20 20
-2.026 1.623 -1.017 80 38 0
-2.0639999 1.702 -0.98900002 255 194 122
-2.0680001 1.7 -1 147 109 70
-2.066 1.702 -0.99800003 191 150 106
-2.066 1.699 -0.991 165 101 40
-2.0109999 1.712 -0.89300001 77 62 57
-2.006 1.71 -0.90399998 36 22 21
-1.946 1.874 -0.98400003 228 176 118
-1.943 1.865 -0.97100002 101 57 12
-1.946 1.868 -0.96799999 200 150 101
-1.925 1.608 -0.79400003 84 57 10
-1.9299999 1.592 -0.787 134 91 74
-1.932 1.599 -0.79000002 79 28 7
-2.0090001 1.676 -0.88 162 130 105
-2.0090001 1.676 -0.88800001 165 132 113
-2.0469999 1.66 -0.87 86 63 55
-2.0380001 1.661 -0.87400001 150 110 75
-2.0320001 1.652 -0.87699997 86 56 45
-1.969 1.674 -0.80900002 74 55 48
-1.976 1.6720001 -0.796 105 65 39
-1.975 1.671 -0.79500002 51 20 0
-1.973 1.669 -0.80000001 162 121 91
-2.0079999 1.544 -0.82800001 104 67 38
-2.0120001 1.548 -0.838 117 102 73
-2.0120001 1.539 -0.83499998 99 81 79
-2.01 1.526 -0.81599998 63 39 1
-2.003 1.534 -0.80699998 75 60 53
-1.997 1.524 -0.80199999 95 68 25
-2.0339999 1.681 -0.84899998 56 34 20
-2.027 1.675 -0.84200001 76 65 59
-2.0380001 1.654 -0.86400002 200 153 65
-2.0550001 1.668 -0.861 109 98 92
-2.05 1.677 -0.81099999 190 139 92
-2.052 1.671 -0.80299997 70 52 32
-2.072 1.673 -0.80000001 192 133 65
-2.0550001 1.668 -0.81 161 113 65
-2.026 1.6720001 -0.83499998 97 67 33
-2.0090001 1.6849999 -0.833 81 60 43
-2.085 1.661 -0.755 207 147 87
-2.082 1.681 -0.75700003 32 10 0
-2.072 1.6799999 -0.759 46 9 0
-2.0079999 1.679 -0.78100002 137 117 93
-2.0550001 1.675 -0.71399999 83 55 41
-2.059 1.6670001 -0.71799999 191 156 102
-2.0669999 1.671 -0.74800003 131 83 35
-2.062 1.67 -0.74800003 174 126 80
-2.0710001 1.678 -0.76499999 134 101 92
-2.0580001 1.671 -0.76099998 67 48 41
-2.063 1.673 -0.78100002 237 197 128
-2.05 1.683 -0.78799999 64 45 31
-2.059 1.677 -0.79000002 149 102 58
-1.982 1.864 -0.96200001 118 79 46
-1.973 1.8660001 -0.96100003 162 81 16
-1.977 1.8710001 -0.96700001 195 125 53
-1.974 1.877 -0.97000003 148 76 17
-1.9680001 1.872 -0.96799999 175 100 42
-2.003 1.707 -0.87699997 98 57 35
-1.951 1.847 -0.95499998 237 200 129
-1.973 1.8049999 -0.99599999 78 29 0
-1.964 1.804 -0.99299997 140 104 78
-1.975 1.818 -0.99299997 135 76 44
-1.97 1.799 -0.99900001 150 103 73
-1.9809999 1.853 -0.97399998 92 71 54
-1.9529999 1.8660001 -0.963 157 110 56
-1.8890001 1.6440001 -0.73299998 245 199 113
-1.895 1.641 -0.72100002 162 109 67
-1.899 1.64 -0.73500001 102 72 46
-1.896 1.656 -0.74699998 228 197 107
-1.883 1.641 -0.727 101 57 22
-2.0539999 1.5829999 -0.80900002 253 223 125
-2.0539999 1.5779999 -0.80900002 253 218 124
-2.0539999 1.5880001 -0.80500001 246 216 120
-2.0550001 1.556 -0.87300003 73 62 42
-2.05 1.544 -0.87699997 21 7 4
-2.046 1.545 -0.88 24 9 4
-2.056 1.573 -0.87300003 101 87 50
-2.049 1.576 -0.86799997 69 55 26
-2.043 1.5779999 -0.87900001 86 64 43
-2.0409999 1.589 -0.861 161 133 122
-2.033 1.6440001 -0.87099999 58 43 38
-2.0320001 1.646 -0.85699999 157 112 71
-2.053 1.512 -0.77399999 132 88 41
-2.05 1.513 -0.76999998 120 74 24
-2.052 1.5190001 -0.77100003 104 64 29
-2.056 1.5369999 -0.78299999 76 54 43
-2.043 1.52 -0.76800001 117 74 32
-1.895 1.6210001 -0.74400002 119 71 33
-1.923 1.613 -0.76899999 219 160 104
-1.915 1.6160001 -0.759 205 146 90
-1.932 1.631 -0.759 107 66 36
-2.0380001 1.531 -0.77700001 97 54 0
-2.1199999 1.536 -0.97799999 194 148 98
-2.1159999 1.5369999 -1.015 127 85 47
-2.0880001 1.6390001 -0.73199999 122 83 54
-2.0769999 1.673 -0.73100001 108 74 28
-2.056 1.6720001 -0.72399998 167 118 60
-1.934 1.5650001 -1.011 125 87 66
-1.927 1.638 -0.83999997 232 194 132
-1.929 1.6289999 -0.83600003 64 40 28
-1.942 1.633 -0.85600001 85 33 0
-1.916 1.6390001 -0.83399999 227 181 129
-1.9450001 1.6289999 -0.84600002 99 71 67
-1.944 1.618 -0.84100002 53 28 23
-1.938 1.615 -0.83899999 91 63 42
-1.941 1.6160001 -0.81800002 106 55 10
-1.925 1.619 -0.81400001 28 8 0
-1.938 1.6059999 -0.815 29 6 0
-2.085 1.551 -1.063 144 107 80
-1.9680001 1.628 -1.0470001 38 15 1
-1.967 1.625 -1.043 74 46 32
-1.949 1.632 -1.048 63 25 12
-1.978 1.612 -1.048 42 14 0
-1.975 1.63 -1.0549999 119 101 97
-1.97 1.635 -1.056 69 44 24
-1.9529999 1.633 -1.0470001 107 72 44
-2.0079999 1.673 -1.085 99 62 43
-2.0079999 1.677 -1.087 85 62 56
-2 1.67 -1.082 98 79 73
-2.0090001 1.675 -1.086 67 37 26
-2.01 1.681 -1.087 109 102 94
-1.911 1.64 -0.83200002 101 59 11
-1.923 1.64 -0.81 30 5 0
-1.89 1.645 -0.73900002 162 111 66
-1.893 1.6390001 -0.71799999 228 176 126
-1.831 1.694 -1.013 121 107 98
-1.831 1.696 -1.015 142 129 120
-1.9349999 1.8609999 -1 218 184 156
-1.936 1.853 -0.99800003 116 72 37
-1.9400001 1.658 -1.061 138 102 70
-1.934 1.652 -1.058 220 177 126
-1.933 1.659 -1.063 59 26 9
-1.954 1.808 -1.0369999 56 21 2
-1.955 1.813 -1.031 146 113 82
-1.947 1.807 -1.023 129 109 100
-1.956 1.8099999 -1.034 209 165 126
-1.952 1.827 -1.021 197 137 77
-1.836 1.714 -1.026 215 172 104
-1.821 1.707 -1.024 188 156 118
-1.822 1.707 -1.024 253 220 187
-1.9529999 1.637 -1.046 62 36 11
-1.959 1.6390001 -1.044 82 55 44
-2.1070001 1.513 -1.007 191 148 106
-2.099 1.513 -1.01 180 143 116
-2.1059999 1.5039999 -1 152 125 106
-2.102 1.52 -1.018 142 99 67
-2.089 1.516 -1.023 163 117 68
-1.937 1.529 -0.97299999 138 97 69
-2.007 1.625 -0.89499998 128 74 40
-2.0090001 1.64 -0.89399999 82 52 41
-2.007 1.623 -0.90100002 148 115 106
-2.007 1.623 -0.87900001 117 117 115
-2.0020001 1.6440001 -0.87699997 166 131 101
-1.992 1.633 -0.88099998 255 235 185
-2.0109999 1.626 -0.91399997 83 44 13
-2.036 1.596 -0.91100001 143 75 30
-2.036 1.592 -0.90799999 55 24 3
-2.0139999 1.6289999 -0.91799998 215 168 114
-1.99 1.705 -0.89200002 137 98 69
-1.9859999 1.645 -0.87599999 195 143 83
-1.972 1.631 -0.87599999 99 57 19
-2.089 1.526 -0.99299997 124 116 114
-2.099 1.524 -0.97799999 120 119 114
-2.108 1.529 -0.98000002 37 10 3
-2.1110001 1.533 -0.97899997 141 140 138
-1.9400001 1.5930001 -0.78399998 84 34 11
-2.109 1.487 -0.96200001 216 172 101
-2.0550001 1.506 -0.77999997 87 54 39
-2.0539999 1.501 -0.78200001 124 97 68
-2.119 1.528 -0.97000003 230 184 124
-2.1140001 1.535 -0.977 115 109 97
-2.1140001 1.498 -0.963 136 89 33
-2.1199999 1.524 -0.97899997 120 75 36
-2.0710001 1.516 -0.99699998 53 44 29
-2.0650001 1.517 -1.0089999 117 105 105
-2.085 1.511 -1.007 157 96 51
-2.076 1.523 -0.99900001 141 133 131
-2.076 1.523 -0.99599999 155 142 125
-2.043 1.6289999 -0.921 149 99 50
-2.029 1.619 -0.93800002 78 29 0
-2.027 1.602 -0.935 55 44 38
-2.0280001 1.6109999 -0.93000001 75 48 37
-2.0350001 1.624 -0.93300003 77 41 17
-1.926 1.535 -0.99699998 137 84 52
-2.0409999 1.534 -1.021 177 132 65
-2.029 1.528 -1.018 110 96 87
-2.029 1.602 -1.022 144 101 56
-1.939 1.6 -0.79799998 101 45 22
-1.931 1.528 -0.98799998 63 52 34
-1.903 1.635 -0.94999999 116 106 104
-1.899 1.6339999 -0.94199997 157 110 64
-1.8940001 1.638 -0.94999999 146 88 48
-1.903 1.635 -0.94199997 160 109 52
-1.911 1.647 -0.96899998 131 121 120
-1.978 1.604 -1.024 133 83 24
-1.977 1.612 -1.023 130 112 108
-1.959 1.603 -1.024 119 100 93
-2.02 1.622 -0.94800001 36 13 0
-2.0250001 1.628 -0.94800001 94 72 59
-2.027 1.62 -0.94599998 195 161 136
-2.0320001 1.577 -0.89099997 128 80 58
-2.0320001 1.59 -0.90799999 78 60 50
-2.0239999 1.582 -0.90700001 138 112 95
-2.0250001 1.63 -1.0140001 95 43 0
-2.0139999 1.6210001 -0.95099998 112 83 75
-2.0220001 1.618 -1 187 156 138
-2.0339999 1.651 -1.0039999 85 75 74
-2.1110001 1.551 -0.98699999 127 74 34
-2.0880001 1.544 -0.99400002 99 59 24
-2.0220001 1.609 -1.007 109 78 58
-2.0090001 1.6109999 -1.006 24 5 1
-2.0090001 1.624 -0.98799998 147 121 108
-2.0190001 1.62 -0.99400002 119 99 88
-2.02 1.6339999 -0.991 86 73 64
-2.023 1.625 -0.99599999 60 28 17
-2.0880001 1.5599999 -1.0319999 150 141 136
-2.0769999 1.559 -1.039 104 65 24
-2.1110001 1.551 -0.99699998 143 96 66
-2.108 1.551 -1.001 74 21 0
-1.962 1.796 -1.043 104 56 16
-1.972 1.817 -1.0369999 38 14 2
-1.951 1.875 -0.98900002 245 207 145
-1.951 1.872 -0.99699998 227 186 120
-1.972 1.874 -0.99199998 239 206 165
-1.9529999 1.8710001 -0.99400002 237 192 125
-1.98 1.8150001 -1.041 153 114 71
-1.972 1.807 -1.0369999 136 111 104
-1.975 1.796 -1.045 116 78 33
-2.0150001 1.705 -0.90600002 109 61 23
-1.997 1.712 -0.91000003 136 105 84
-2.0090001 1.676 -0.89399999 141 109 86
-2.0109999 1.67 -0.88800001 143 112 92
-2.0039999 1.691 -0.898 140 96 67
-2.006 1.6849999 -0.90600002 134 112 99
-2.02 1.636 -0.949 204 153 108
-1.959 1.624 -0.76999998 49 22 11
-1.9529999 1.614 -0.76499999 79 41 30
-1.941 1.635 -0.75999999 69 42 21
-2.046 1.6670001 -0.71100003 134 97 71
-2.0480001 1.654 -0.71499997 210 157 81
-2.0439999 1.658 -0.72000003 78 45 26
-2.0450001 1.668 -0.71399999 191 135 98
-1.941 1.624 -0.77100003 136 99 80
-1.9400001 1.623 -0.77100003 89 52 26
-1.934 1.631 -0.76099998 114 74 49
-1.934 1.632 -0.755 112 72 47
-2.0550001 1.673 -0.722 230 178 120
-1.962 1.872 -0.96600002 214 138 80
-2.003 1.651 -0.88 43 13 3
-2.0020001 1.652 -0.88499999 76 39 10
-2.0239999 1.645 -0.87300003 46 12 3
-2.0220001 1.665 -0.88 136 88 52
-2.0109999 1.6619999 -0.89300001 90 44 11
-2.026 1.666 -0.87599999 145 97 59
-2.026 1.653 -0.87300003 47 11 0
-2.0409999 1.665 -0.87199998 151 85 25
-1.948 1.614 -0.83099997 129 114 109
-1.947 1.613 -0.81999999 51 29 16
-1.942 1.62 -0.83200002 112 106 116
-1.998 1.533 -0.80000001 82 56 7
-2 1.55 -0.80199999 240 198 150
-2.0020001 1.5369999 -0.80400002 160 145 140
-2.0050001 1.533 -0.79699999 197 168 160
-1.992 1.545 -0.78500003 143 96 52
-2.017 1.5470001 -0.84299999 63 40 9
-2.017 1.543 -0.83600003 77 63 63
-2.003 1.694 -0.89099997 148 117 96
-1.887 1.663 -0.95700002 107 71 45
-1.883 1.664 -0.96700001 122 91 73
-1.886 1.675 -0.97000003 73 36 9
-1.8940001 1.647 -0.96399999 114 81 48
-1.893 1.645 -0.95499998 143 96 42
-1.8940001 1.648 -0.96200001 121 83 46
-1.964 1.668 -0.86299998 92 66 43
-1.964 1.668 -0.85799998 115 81 56
-1.9630001 1.668 -0.85900003 112 82 58
-1.9 1.648 -0.94400001 175 125 72
-2.0120001 1.654 -0.93599999 96 31 0
-2.007 1.671 -0.92199999 25 12 4
-2.007 1.664 -0.93300003 80 42 5
-2.0109999 1.6849999 -0.94300002 24 3 0
-2.0380001 1.655 -0.861 149 106 51
-2.036 1.67 -0.84799999 163 132 103
-2.0510001 1.6670001 -0.85399997 103 64 33
-2.0420001 1.668 -0.85600001 86 53 22
-2.0480001 1.658 -0.81099999 141 91 40
-2.05 1.658 -0.80599999 127 77 26
-2.0539999 1.682 -0.796 144 96 58
-2.0480001 1.679 -0.78899997 104 86 72
-2.0510001 1.669 -0.81999999 178 128 75
-2.0439999 1.658 -0.82099998 131 76 19
-2.0439999 1.666 -0.82200003 131 79 29
-2.046 1.66 -0.81699997 133 80 30
-2.0320001 1.671 -0.83600003 85 73 75
-2.0810001 1.677 -0.75999999 36 17 10
-2.086 1.6849999 -0.73000002 138 102 76
-2.069 1.674 -0.75599998 149 121 118
-2.049 1.676 -0.71799999 114 86 38
-2.0439999 1.673 -0.713 62 53 12
-2.0769999 1.6799999 -0.74199998 155 124 121
-2.0639999 1.6619999 -0.796 225 167 104
-1.988 1.868 -0.96499997 167 116 71
-2.066 1.668 -0.78899997 156 104 44
-2.069 1.668 -0.77700001 55 26 12
-2.079 1.65 -0.75800002 140 85 21
-2.0810001 1.651 -0.75099999 135 86 28
-2.0769999 1.6569999 -0.77200001 83 68 63
-2.075 1.653 -0.773 80 63 56
-2.0810001 1.646 -0.74900001 156 112 47
-2.0039999 1.7079999 -0.87800002 84 43 23
-2.0009999 1.677 -0.87 127 79 33
-2.0009999 1.677 -0.86500001 87 43 0
-2.0020001 1.7079999 -0.87900001 98 54 29
-1.91 1.697 -0.935 113 87 70
-1.906 1.693 -0.93000001 77 48 32
-1.9069999 1.7 -0.94199997 87 61 38
-1.95 1.821 -1.006 131 97 60
-1.9529999 1.808 -1.006 80 43 14
-1.8430001 1.719 -1.033 140 118 107
-1.852 1.7180001 -1.0470001 33 11 0
-1.983 1.859 -0.96600002 49 28 11
-1.978 1.826 -0.99199998 220 162 122
-1.97 1.834 -0.98199999 183 137 85
-1.978 1.832 -0.99000001 197 143 107
-1.969 1.814 -0.99599999 101 53 5
-1.947 1.875 -0.99299997 236 197 130
-1.949 1.875 -0.98400003 249 204 139
-2.0799999 1.64 -0.72799999 146 86 24
-2.075 1.635 -0.73900002 61 37 25
-2.03 1.5650001 -0.87800002 69 34 12
-2.0550001 1.569 -0.861 90 75 70
-2.0550001 1.5650001 -0.87099999 36 14 3
-2.059 1.557 -0.86799997 229 187 115
-2.0439999 1.513 -0.76999998 130 83 41
-2.0439999 1.518 -0.76700002 163 120 77
-2.0109999 1.538 -0.81900001 59 35 9
-1.9 1.624 -0.741 140 81 23
-1.918 1.633 -0.73900002 167 109 71
-1.918 1.6339999 -0.73500001 108 46 5
-1.924 1.632 -0.75400001 96 51 28
-1.962 1.651 -0.78799999 119 103 90
-1.915 1.615 -0.76099998 157 100 45
-1.913 1.614 -0.75800002 125 76 33
-1.902 1.6339999 -0.72799999 51 12 0
-1.9069999 1.6339999 -0.73299998 71 25 0
-2.118 1.535 -0.977 169 123 71
-2.109 1.549 -1.015 101 48 6
-2.1110001 1.5369999 -1.021 86 47 14
-2.118 1.527 -1.006 126 116 117
-2.085 1.681 -0.72899997 87 56 27
-2.0829999 1.668 -0.73100001 255 212 126
-2.0810001 1.684 -0.736 121 86 64
-2.0580001 1.664 -0.72100002 125 85 34
-1.969 1.669 -0.80500001 122 81 51
-1.957 1.67 -0.80800003 122 80 38
-1.979 1.677 -0.792 132 84 35
-1.919 1.699 -0.91299999 109 83 66
-1.9119999 1.698 -0.912 44 21 3
-1.914 1.7029999 -0.90399998 75 50 30
-1.91 1.698 -0.90600002 92 66 43
-1.939 1.646 -0.83499998 68 32 0
-2.0840001 1.549 -1.068 146 113 78
-1.9349999 1.582 -1.036 34 7 0
-1.928 1.579 -1.0420001 161 156 163
-1.946 1.5829999 -1.041 115 98 88
-1.952 1.599 -1.027 98 56 18
-1.951 1.5930001 -1.026 75 37 0
-1.957 1.6109999 -1.0319999 105 67 28
-1.933 1.5829999 -1.033 151 145 149
-1.9349999 1.626 -0.82200003 207 166 120
-1.92 1.64 -0.82099998 81 50 19
-1.903 1.614 -0.778 53 27 12
-1.906 1.615 -0.78500003 116 88 74
-1.9 1.649 -0.74800003 238 200 115
-1.905 1.64 -0.74699998 118 109 102
-1.9170001 1.635 -0.73299998 95 37 0
-1.899 1.645 -0.755 120 87 54
-1.888 1.632 -0.73100001 167 110 67
-1.954 1.853 -0.958 255 236 156
-1.947 1.852 -0.96399999 30 16 7
-1.96 1.86 -1.0039999 176 123 73
-1.9069999 1.683 -1.01 127 69 23
-1.908 1.683 -1.0140001 114 78 52
-1.929 1.6799999 -1.003 166 121 66
-1.961 1.688 -1.028 84 57 36
-1.943 1.686 -1.033 72 41 21
-1.9450001 1.6900001 -1.039 46 18 0
-1.982 1.826 -1.034 209 174 142
-1.979 1.835 -1.029 123 76 34
-1.956 1.8 -1.033 118 78 42
-1.956 1.794 -1.035 108 86 72
-1.957 1.757 -1.0470001 166 128 83
-1.959 1.7589999 -1.0470001 100 72 50
-1.9579999 1.752 -1.0470001 154 115 74
-1.9529999 1.7589999 -1.051 70 44 31
-1.957 1.812 -1.0319999 215 164 133
-1.955 1.679 -1.048 211 150 87
-1.937 1.682 -1.0470001 125 80 51
-1.969 1.687 -1.041 235 164 84
-1.969 1.755 -1.045 149 110 69
-1.954 1.791 -1.033 123 107 94
-1.951 1.783 -1.035 149 115 70
-1.853 1.714 -1.034 65 26 0
-1.85 1.711 -1.057 86 49 22
-1.86 1.6950001 -1.057 154 92 35
-1.863 1.702 -1.056 142 100 75
-1.96 1.825 -1.026 144 106 61
-1.839 1.712 -1.024 248 204 129
-1.847 1.699 -1.029 33 19 6
-1.852 1.7079999 -1.035 151 83 22
-1.841 1.706 -1.024 174 110 49
-1.857 1.711 -1.038 174 126 90
-1.959 1.633 -1.029 46 18 0
-1.949 1.641 -1.03 113 99 98
-1.952 1.6339999 -1.0420001 79 53 40
-2.1070001 1.515 -1.0089999 161 122 81
-1.942 1.5140001 -1.027 91 76 71
-1.942 1.5089999 -1.027 41 25 0
-1.939 1.522 -1.033 90 63 42
-2.0840001 1.51 -1.0190001 182 131 86
-2.0009999 1.599 -0.92500001 219 192 181
-2.003 1.609 -0.94 76 42 17
-1.997 1.6109999 -0.93199998 123 90 57
-1.999 1.591 -0.926 138 85 41
-1.9529999 1.625 -0.85900003 27 3 0
-1.9529999 1.624 -0.85399997 124 73 10
-1.9579999 1.62 -0.86299998 128 79 20
-1.967 1.557 -0.99199998 130 104 87
-1.9450001 1.54 -0.98199999 218 141 63
-1.9529999 1.53 -0.99400002 142 97 55
-1.957 1.525 -0.995 114 84 58
-1.966 1.545 -0.98900002 86 78 75
-1.976 1.543 -0.99900001 154 150 139
-1.964 1.543 -0.995 87 82 78
-1.959 1.538 -0.99699998 143 91 54
-1.961 1.521 -0.99599999 93 57 41
-1.983 1.552 -1 255 208 154
-1.9910001 1.5470001 -1.001 239 175 77
-1.984 1.557 -1.003 255 213 158
-1.998 1.618 -0.88999999 42 13 0
-2.0009999 1.6619999 -0.91500002 58 23 4
-2.0009999 1.617 -0.89700001 55 25 1
-1.988 1.623 -0.89999998 97 83 82
-2.0020001 1.6160001 -0.89099997 83 46 19
-1.9579999 1.661 -0.86000001 138 98 62
-1.962 1.66 -0.866 107 65 27
-2.006 1.579 -0.89999998 86 81 62
-2.0009999 1.5829999 -0.89300001 54 34 25
-2.0090001 1.574 -0.92299998 136 96 61
-2.0090001 1.579 -0.91100001 139 98 80
-2.0339999 1.5319999 -0.77999997 132 90 52
-2.0339999 1.531 -0.77399999 109 63 11
-2.0409999 1.528 -0.77899998 120 77 26
-2.0380001 1.531 -0.78100002 148 106 56
-2.043 1.529 -0.787 124 83 39
-2.0350001 1.536 -0.78500003 109 67 29
-2.029 1.541 -0.78600001 129 86 41
-2.108 1.5039999 -0.96200001 212 157 77
-2.1129999 1.531 -0.977 159 140 126
-2.1199999 1.523 -0.97500002 208 172 160
-1.951 1.612 -0.76999998 74 31 14
-1.948 1.61 -0.78500003 143 110 65
-1.951 1.608 -0.76700002 87 45 21
-1.941 1.6 -0.787 230 169 86
-1.9529999 1.613 -0.79500002 84 47 28
-2.1070001 1.488 -0.96200001 164 114 51
-2.1059999 1.49 -0.972 74 55 41
-2.0350001 1.536 -0.78299999 140 98 58
-2.0510001 1.545 -0.78399998 125 81 52
-2.0580001 1.5089999 -0.77999997 196 148 100
-2.056 1.577 -0.84899998 77 60 53
-2.1129999 1.497 -0.96100003 160 113 57
-2.0929999 1.507 -1.003 37 23 20
-2.086 1.511 -1.0039999 72 48 38
-2.0810001 1.5140001 -0.99900001 52 25 16
-1.934 1.546 -1.008 51 32 26
-1.9299999 1.538 -0.99299997 161 116 83
-1.955 1.52 -1.013 76 58 48
-1.956 1.52 -1.015 144 124 115
-2.027 1.599 -1.0190001 178 108 57
-2.082 1.517 -1.03 63 32 14
-2.0710001 1.521 -1.035 155 99 64
-2.076 1.5319999 -1.049 156 108 72
-2.069 1.52 -1.035 171 111 74
-2.082 1.546 -1.071 167 131 99
-1.999 1.564 -0.80199999 99 61 24
-1.9960001 1.552 -0.79299998 159 114 73
-1.904 1.633 -0.95700002 122 117 114
-1.909 1.64 -0.95599997 125 75 22
-2.0250001 1.552 -1.018 117 95 84
-2.03 1.564 -1.015 92 59 40
-2.0179999 1.561 -1.027 124 82 40
-2.0309999 1.558 -1.0140001 78 45 26
-1.975 1.614 -1.023 41 12 0
-1.965 1.625 -1.021 97 83 74
-1.9400001 1.6569999 -0.97899997 50 17 0
-1.947 1.647 -0.97000003 84 52 27
-1.96 1.648 -0.977 76 45 25
-1.9960001 1.613 -1.008 47 23 19
-1.9119999 1.569 -1.035 43 24 18
-1.905 1.574 -1.028 110 84 67
-1.897 1.573 -1.033 216 194 181
-1.914 1.564 -1.036 140 112 91
-1.924 1.574 -1.045 63 29 2
-2.036 1.626 -0.93599999 99 70 52
-2.027 1.622 -1 211 147 86
-2.0250001 1.567 -0.88800001 124 90 63
-2.0369999 1.568 -0.884 77 47 23
-2.043 1.553 -0.87699997 92 69 61
-2.0320001 1.597 -0.87800002 43 20 12
-2.0439999 1.579 -0.88700002 35 12 0
-2.0239999 1.5829999 -0.91100001 148 121 102
-1.96 1.655 -1.05 71 36 8
-1.964 1.659 -1.053 90 49 19
-1.951 1.65 -1.038 71 35 19
-2.0309999 1.604 -0.88499999 55 41 38
-2.029 1.607 -0.87800002 116 92 58
-2.0339999 1.5930001 -0.87 79 56 15
-2.029 1.604 -0.86500001 112 73 44
-2.029 1.607 -0.87099999 74 56 44
-2.026 1.607 -0.87 134 124 125
-2.033 1.609 -0.89499998 63 39 3
-2.0309999 1.605 -0.889 102 79 45
-2.007 1.61 -0.88999999 92 74 60
-2.0109999 1.599 -0.88300002 31 2 0
-2.0009999 1.586 -0.89200002 96 73 67
-2.0109999 1.595 -0.89899999 44 17 0
-2.0369999 1.584 -0.88300002 91 51 15
-2.0350001 1.5880001 -0.89099997 177 142 102
-1.989 1.617 -0.949 157 128 96
-2.023 1.635 -0.995 151 100 55
-2.023 1.646 -0.98799998 109 61 21
-2.017 1.658 -0.99299997 126 78 30
-2.036 1.668 -1.006 180 138 114
-2.0309999 1.654 -1.005 161 126 104
-2.095 1.549 -1.039 129 99 63
-2.089 1.545 -1.04 113 85 63
-2.0999999 1.533 -1.036 79 50 34
-2.0190001 1.6160001 -1 155 137 127
-2.0009999 1.624 -0.991 116 74 52
-2.01 1.6160001 -0.99400002 157 140 110
-1.997 1.617 -1.003 163 135 111
-2 1.6289999 -0.97000003 225 188 161
-1.992 1.6339999 -0.986 52 21 0
-1.99 1.626 -0.96399999 92 46 13
-1.999 1.798 -1.073 92 46 12
-2 1.791 -1.076 138 108 80
-1.999 1.799 -1.085 140 94 58
-2.0020001 1.801 -1.079 161 97 51
-2.0009999 1.799 -1.0779999 154 106 66
-2.0039999 1.802 -1.073 167 102 62
-2.0050001 1.801 -1.071 178 119 75
-1.98 1.822 -1.041 175 140 100
-1.994 1.821 -1.058 226 189 145
-2.006 1.687 -0.90899998 21 4 0
-2.0079999 1.701 -0.90899998 66 39 30
-2.006 1.689 -0.91299999 28 14 5
-2.0039999 1.677 -0.912 162 139 123
-2.0550001 1.688 -0.991 124 102 81
-2.0079999 1.707 -0.898 112 66 17
-2.0009999 1.702 -0.91299999 26 12 9
-1.999 1.701 -0.91500002 169 96 28
-2.0109999 1.706 -0.93800002 224 150 79
-2.0050001 1.71 -0.93800002 127 127 125
-2.0109999 1.715 -0.93800002 230 161 94
-1.999 1.71 -0.93800002 139 96 61
-2.007 1.678 -0.89600003 54 39 34
-1.959 1.702 -0.99400002 143 89 53
-1.961 1.696 -0.99299997 124 109 104
-1.948 1.686 -1 109 64 45
-1.9579999 1.699 -0.98500001 140 102 66
-1.9119999 1.6160001 -0.755 200 142 92
-1.91 1.631 -0.74199998 83 52 31
-1.916 1.632 -0.74299997 156 100 63
-1.9579999 1.623 -0.76999998 54 27 18
-1.947 1.633 -0.773 21 2 0
-2.006 1.676 -0.77899998 69 47 24
-1.951 1.872 -0.97299999 237 191 132
-1.949 1.87 -0.977 230 191 132
-1.951 1.869 -0.96600002 215 162 110
-1.9529999 1.8710001 -0.97100002 235 197 135
-1.957 1.874 -0.97399998 25 8 0
-1.947 1.6109999 -0.76999998 126 88 67
-1.998 1.693 -0.89099997 158 109 43
-1.9859999 1.704 -0.89499998 140 103 77
-1.984 1.6950001 -0.89999998 162 100 53
-1.984 1.694 -0.903 189 131 85
-1.982 1.674 -0.90100002 203 138 84
-1.987 1.692 -0.903 72 39 20
-2.0280001 1.641 -0.87199998 44 29 26
-2.0280001 1.6670001 -0.875 216 172 137
-2.0339999 1.664 -0.87300003 162 109 69
-2.0350001 1.6720001 -0.87 49 26 0
-2.0120001 1.6619999 -0.89099997 166 121 90
-1.985 1.677 -0.80800003 85 57 35
-1.982 1.683 -0.82099998 92 70 47
-1.98 1.677 -0.792 169 121 72
-1.992 1.5470001 -0.787 79 31 0
-1.9960001 1.5470001 -0.79299998 90 42 2
-1.997 1.548 -0.78899997 119 67 20
-2.017 1.551 -0.847 78 66 68
-2.0209999 1.548 -0.84500003 90 84 86
-2.0050001 1.701 -0.89600003 29 12 5
-1.887 1.664 -0.95899999 97 60 34
-1.887 1.661 -0.96200001 124 85 46
-1.887 1.659 -0.96499997 137 98 59
-1.89 1.653 -0.95200002 129 118 114
-1.891 1.6619999 -0.95300001 99 61 25
-1.967 1.6670001 -0.87 60 37 21
-1.926 1.679 -0.91100001 119 80 37
-1.926 1.696 -0.91799998 52 26 11
-1.897 1.669 -0.94700003 130 101 83
-1.909 1.697 -0.912 158 120 97
-1.904 1.6950001 -0.91100001 137 101 79
-1.901 1.693 -0.92000002 160 119 97
-2.0120001 1.65 -0.94800001 30 7 0
-1.92 1.6950001 -0.91500002 172 145 118
-1.923 1.681 -0.912 159 116 73
-1.9809999 1.698 -0.91299999 64 32 17
-1.979 1.684 -0.917 68 57 53
-1.99 1.71 -0.91000003 205 145 83
-1.9859999 1.698 -0.92000002 101 64 38
-2.007 1.668 -0.94 60 35 28
-2.049 1.683 -0.85699999 93 74 60
-2.0450001 1.677 -0.85900003 70 50 39
-2.0480001 1.6720001 -0.80299997 252 206 154
-2.0439999 1.671 -0.801 58 36 23
-2.0209999 1.669 -0.82200003 184 143 115
-2.0150001 1.674 -0.81900001 254 208 123
-2.0339999 1.67 -0.81999999 18 7 3
-2.04 1.661 -0.83200002 170 117 51
-2.085 1.67 -0.74199998 178 110 45
-2.062 1.67 -0.75 115 71 32
-2.052 1.67 -0.75999999 34 17 7
-2.0669999 1.674 -0.764 223 151 66
-2.01 1.679 -0.82599998 17 0 0
-2.0020001 1.6799999 -0.80500001 243 203 141
-2.046 1.671 -0.70999998 146 101 46
-2.076 1.681 -0.73799998 167 119 71
-2.0280001 1.673 -0.78100002 118 75 30
-2.0250001 1.676 -0.78200001 139 95 48
-2.0420001 1.666 -0.77100003 123 93 67
-2.073 1.67 -0.796 198 145 77
-2.0680001 1.663 -0.78200001 138 91 37
-2.0610001 1.671 -0.76999998 20 0 0
-2.0799999 1.645 -0.73199999 67 41 28
-2.059 1.659 -0.73400003 185 135 82
-2.04 1.585 -0.77200001 132 88 39
-2.0409999 1.589 -0.78100002 247 210 158
-2.0469999 1.5930001 -0.78399998 139 95 60
-2.053 1.546 -0.78500003 54 25 11
-2.056 1.546 -0.79699999 29 16 10
-2.049 1.574 -0.78200001 109 65 40
-2.052 1.558 -0.79799998 177 141 93
-2.052 1.553 -0.81 52 24 13
-2.0580001 1.545 -0.81699997 217 171 94
-2.085 1.642 -0.74000001 85 44 14
-2.079 1.664 -0.77100003 118 76 26
-2.0799999 1.649 -0.75199997 126 77 8
-2.076 1.642 -0.75199997 104 57 11
-2.0780001 1.6339999 -0.73900002 49 27 13
-2.0009999 1.678 -0.88599998 89 56 25
-1.961 1.67 -0.85399997 142 110 87
-1.962 1.671 -0.85100001 73 38 6
-1.837 1.712 -1.0190001 101 58 13
-1.959 1.796 -1.006 28 14 13
-1.964 1.799 -1.005 43 31 31
-1.9400001 1.853 -0.97299999 130 128 129
-1.934 1.853 -0.986 164 123 91
-1.9349999 1.8559999 -0.98699999 122 81 49
-1.9349999 1.853 -0.991 112 73 44
-1.964 1.853 -0.96799999 32 3 0
-1.992 1.862 -0.96799999 163 84 17
-1.9910001 1.869 -0.97500002 106 107 101
-1.994 1.863 -0.97899997 199 144 80
-1.988 1.849 -0.991 131 73 23
-1.982 1.851 -0.98699999 134 80 33
-1.978 1.839 -0.99000001 127 78 38
-1.978 1.852 -0.98100001 155 115 80
-1.992 1.85 -0.99000001 130 66 18
-1.989 1.859 -0.977 169 107 46
-1.9529999 1.847 -0.95999998 223 196 117
-1.882 1.6339999 -0.73299998 77 31 0
-2.086 1.641 -0.71499997 158 135 121
-2.0650001 1.655 -0.74000001 192 145 101
-2.0569999 1.64 -0.78200001 75 42 25
-2.0539999 1.645 -0.79000002 58 30 18
-2.0669999 1.65 -0.78399998 155 90 34
-2.053 1.5470001 -0.87400001 28 15 9
-2.059 1.546 -0.86799997 201 145 86
-2.059 1.557 -0.87 245 191 127
-2.0090001 1.589 -0.88700002 173 146 127
-2.0039999 1.594 -0.86400002 143 114 70
-2.0109999 1.58 -0.88099998 36 30 30
-2.0420001 1.52 -0.76899999 81 38 6
-2.046 1.52 -0.77600002 55 15 0
-2.0569999 1.513 -0.77899998 184 154 118
-2.033 1.539 -0.78799999 135 93 45
-1.895 1.62 -0.73900002 138 94 47
-1.897 1.625 -0.736 167 108 48
-1.91 1.617 -0.755 154 101 51
-1.911 1.633 -0.736 111 56 17
-1.927 1.633 -0.75300002 77 37 11
-1.979 1.6569999 -0.79500002 66 38 27
-1.983 1.663 -0.78500003 221 175 115
-1.987 1.663 -0.78100002 173 122 65
-1.977 1.651 -0.79000002 141 74 19
-1.954 1.642 -0.77999997 139 93 67
-1.942 1.642 -0.77899998 202 151 106
-1.954 1.646 -0.78600001 87 53 28
-1.959 1.643 -0.77600002 114 68 44
-1.897 1.641 -0.72000003 129 76 34
-2.0510001 1.5140001 -0.79000002 224 158 98
-2.049 1.524 -0.80199999 90 70 61
-2.1210001 1.535 -0.97799999 240 205 124
-2.1110001 1.55 -0.99400002 137 87 52
-2.119 1.546 -0.98900002 105 68 16
-2.109 1.543 -0.99400002 169 111 61
-2.1099999 1.539 -0.991 103 67 17
-2.118 1.527 -0.99900001 76 48 27
-2.102 1.539 -1.028 88 53 23
-2.109 1.525 -1.016 69 27 3
-1.918 1.6390001 -0.83200002 142 95 51
-1.916 1.6390001 -0.83200002 230 183 129
-1.976 1.6720001 -0.80000001 54 12 0
-1.994 1.676 -0.78399998 235 191 128
-1.939 1.571 -1.02 141 135 139
-1.923 1.5700001 -1.03 178 177 175
-1.915 1.571 -1.0319999 182 155 138
-1.925 1.571 -1.0319999 163 136 115
-1.91 1.6289999 -0.78299999 133 97 65
-1.9119999 1.638 -0.78799999 176 134 86
-1.923 1.63 -0.79699999 39 10 2
-1.9220001 1.625 -0.79500002 64 33 12
-1.901 1.691 -0.92000002 139 104 85
-1.901 1.693 -0.91500002 117 103 92
-1.905 1.689 -0.917 173 99 34
-1.9069999 1.694 -0.91100001 135 98 71
-1.954 1.648 -0.87300003 140 89 46
-1.95 1.6440001 -0.86299998 126 124 129
-1.956 1.65 -0.86799997 133 110 104
-1.932 1.627 -0.83099997 89 69 58
-1.931 1.613 -0.80599999 92 60 37
-1.9220001 1.612 -0.79699999 72 23 0
-1.955 1.6289999 -0.82599998 58 13 0
-1.936 1.577 -1.045 30 20 18
-1.947 1.582 -1.0420001 131 126 130
-1.944 1.5779999 -1.043 183 122 67
-1.941 1.563 -1.007 49 22 5
-1.97 1.5779999 -1.049 70 49 46
-1.948 1.572 -1.044 74 50 46
-1.967 1.586 -1.049 67 49 45
-1.966 1.575 -1.0420001 120 110 119
-1.961 1.603 -1.035 148 106 66
-1.96 1.622 -1.033 131 89 47
-2.0120001 1.575 -1.064 104 60 21
-2.0179999 1.574 -1.062 137 84 32
-2.0139999 1.572 -1.069 132 82 47
-2 1.571 -1.0700001 75 37 1
-2.007 1.5700001 -1.069 202 161 133
-2.0050001 1.572 -1.064 71 27 2
-2.0050001 1.679 -1.087 86 81 77
-2.0090001 1.6799999 -1.087 107 100 92
-2.013 1.564 -1.071 122 78 41
-2.0090001 1.551 -1.071 218 175 122
-2.0239999 1.558 -1.0700001 85 49 25
-1.964 1.525 -1.016 199 146 78
-1.966 1.528 -1.0039999 65 38 17
-1.933 1.545 -1.015 115 83 58
-1.936 1.534 -1.017 113 90 74
-1.925 1.535 -1.028 63 33 25
-1.9910001 1.554 -1.058 92 50 12
-2.01 1.554 -1.067 134 110 98
-1.921 1.678 -0.91600001 107 64 21
-1.936 1.6720001 -0.92199999 115 67 21
-1.913 1.697 -0.921 132 93 54
-1.924 1.699 -0.921 132 97 77
-1.939 1.646 -0.82200003 109 66 13
-1.947 1.653 -0.82200003 75 56 49
-1.9400001 1.6440001 -0.80699998 155 112 70
-1.934 1.6390001 -0.815 49 21 9
-1.931 1.645 -0.78500003 167 118 62
-1.944 1.6440001 -0.787 172 118 58
-1.932 1.646 -0.77899998 163 122 76
-1.932 1.646 -0.778 140 103 59
-1.885 1.632 -0.72000003 179 124 60
-1.896 1.573 -1.028 68 45 31
-1.9220001 1.638 -1.036 109 95 92
-1.928 1.637 -1.038 148 119 111
-1.927 1.637 -1.035 51 23 11
-1.888 1.6210001 -0.75 97 70 61
-1.883 1.668 -0.977 156 121 91
-1.8839999 1.669 -0.97399998 130 95 67
-1.881 1.669 -0.98400003 81 40 8
-1.88 1.67 -1.0089999 103 65 46
-1.886 1.682 -1.001 148 113 81
-1.9119999 1.647 -1.04 147 103 58
-1.911 1.646 -1.029 165 119 70
-1.92 1.646 -1.0420001 195 151 106
-1.888 1.671 -0.98699999 60 22 0
-1.89 1.6720001 -0.98699999 61 19 0
-1.897 1.677 -0.98199999 62 36 19
-1.897 1.6849999 -1.002 121 81 45
-1.9 1.682 -0.97799999 157 78 19
-1.895 1.682 -0.97000003 42 20 6
-1.8940001 1.65 -0.972 128 89 50
-1.957 1.855 -0.95999998 255 244 162
-1.946 1.862 -0.99900001 181 115 54
-1.977 1.755 -1.036 126 89 60
-1.967 1.772 -1.035 135 120 115
-1.971 1.771 -1.034 108 97 93
-1.979 1.692 -1.025 131 101 73
-1.977 1.692 -1.023 130 100 74
-1.954 1.683 -1.021 68 36 21
-2.0050001 1.686 -1.0700001 168 126 86
-2.0050001 1.674 -1.0779999 90 61 45
-1.955 1.663 -1.051 89 54 26
-1.952 1.7869999 -1.0319999 176 135 91
-1.897 1.689 -1.012 109 102 109
-1.905 1.684 -1.031 71 52 37
-1.914 1.682 -1.02 64 32 11
-1.846 1.701 -1.0470001 158 109 76
-1.831 1.704 -1.026 148 125 107
-1.837 1.7079999 -1.021 129 124 128
-1.914 1.653 -1.051 135 121 112
-1.934 1.638 -1.039 129 48 0
-1.9529999 1.646 -1.024 88 83 87
-1.932 1.656 -1.061 202 164 115
-1.933 1.674 -1.0549999 79 40 9
-1.929 1.678 -1.053 143 117 102
-1.952 1.515 -1.029 151 146 142
-2.0799999 1.526 -0.99599999 213 156 103
-2.0780001 1.528 -1 173 129 94
-2.0780001 1.529 -1.003 164 142 129
-2.0810001 1.527 -0.99599999 58 15 0
-2.092 1.531 -1.028 228 203 181
-2.099 1.525 -1.021 60 34 21
-2.0869999 1.513 -1.018 218 166 116
-2.0929999 1.507 -1.006 51 37 34
-2.086 1.511 -1.013 170 116 70
-2.072 1.516 -1.015 128 102 85
-2.085 1.511 -1.013 183 125 79
-2.0829999 1.511 -1.028 183 133 82
-2.017 1.591 -0.93000001 143 108 80
-2.016 1.6109999 -0.93400002 37 17 6
-2.006 1.595 -0.93000001 82 50 27
-2.016 1.5880001 -0.93000001 134 95 64
-1.942 1.546 -0.97600001 33 18 11
-1.9450001 1.548 -0.98900002 128 71 16
-1.937 1.531 -0.977 153 116 89
-1.966 1.55 -0.991 120 105 98
-1.956 1.527 -0.995 255 216 164
-2.01 1.62 -0.88700002 109 53 16
-2.0079999 1.6210001 -0.88200003 111 110 108
-2.023 1.623 -0.92000002 149 113 55
-2.013 1.6160001 -0.89899999 128 117 115
-2.027 1.6210001 -0.90399998 45 37 35
-1.976 1.633 -0.86000001 214 140 65
-2.1070001 1.499 -0.963 94 45 2
-2.1110001 1.502 -0.958 160 111 55
-2.096 1.506 -0.991 19 16 7
-2.105 1.498 -0.97299999 182 139 96
-2.098 1.516 -0.98299998 111 77 49
-2.1070001 1.5 -0.96499997 141 94 50
-2.0050001 1.53 -0.80800003 96 73 29
-2.0090001 1.534 -0.81099999 79 62 54
-2.01 1.535 -0.79900002 47 14 5
-1.9450001 1.608 -0.792 247 190 109
-1.941 1.602 -0.79799998 122 77 44
-1.942 1.605 -0.79299998 208 146 73
-1.937 1.608 -0.80800003 125 78 32
-1.939 1.607 -0.80800003 110 59 12
-2.049 1.53 -0.80400002 86 46 10
-2.049 1.53 -0.801 106 66 31
-2.04 1.5319999 -0.78799999 117 78 39
-2.033 1.54 -0.79000002 158 117 73
-2.0339999 1.5420001 -0.796 90 51 10
-2.0569999 1.535 -0.80699998 145 99 24
-2.0639999 1.522 -0.792 225 185 100
-2.063 1.522 -0.79400003 248 206 120
-2.0539999 1.545 -0.80599999 40 20 11
-2.0580001 1.553 -0.866 248 202 125
-2.0539999 1.572 -0.86000001 138 112 85
-2.0929999 1.507 -0.99299997 103 75 53
-2.109 1.495 -0.98199999 43 26 19
-2.119 1.515 -0.98799998 101 71 47
-2.0209999 1.5829999 -0.93099999 79 67 51
-2.0220001 1.579 -0.926 73 38 10
-1.924 1.535 -0.99199998 123 86 60
-1.9119999 1.559 -1.024 22 4 0
-1.952 1.518 -1.016 88 72 59
-2.023 1.533 -1.036 128 107 102
-2.0220001 1.525 -1.033 45 31 22
-2.036 1.535 -1.026 177 130 76
-2.0409999 1.534 -1.027 222 178 115
-2.036 1.536 -1.026 149 104 49
-2.029 1.527 -1.023 35 4 0
-2.0699999 1.518 -1.028 203 139 95
-2.0780001 1.536 -1.05 172 126 100
-2.026 1.5599999 -1.069 81 40 18
-2.0380001 1.5650001 -1.062 106 71 43
-2.0450001 1.535 -1.023 59 49 48
-2.0450001 1.538 -1.025 64 41 25
-2.082 1.54 -1.0700001 198 167 138
-2.0020001 1.5599999 -0.81 144 105 64
-1.906 1.635 -0.94999999 103 99 96
-1.91 1.641 -0.95200002 81 48 13
-1.987 1.622 -1.02 98 77 56
-1.99 1.6339999 -1.012 236 206 170
-1.982 1.628 -1.022 128 104 76
-1.9680001 1.6109999 -1.027 142 119 103
-1.971 1.653 -0.99400002 131 121 120
-1.969 1.654 -0.99199998 137 100 71
-1.98 1.646 -0.986 113 81 56
-1.9349999 1.654 -0.97299999 40 20 11
-1.984 1.594 -1.036 108 50 26
-1.972 1.612 -1.0369999 123 109 98
-2.0190001 1.5930001 -1.028 144 98 64
-2.023 1.609 -1.026 64 26 5
-2.003 1.599 -1.022 139 94 53
-1.98 1.594 -1.027 148 122 107
-2.0339999 1.625 -0.93699998 60 23 4
-2.036 1.6289999 -0.93800002 144 111 94
-1.998 1.614 -0.93900001 129 95 60
-2.0190001 1.571 -0.89200002 47 25 11
-2.0309999 1.574 -0.889 116 89 60
-2.053 1.567 -0.875 55 46 13
-2.02 1.577 -0.921 143 101 61
-1.951 1.683 -1.015 58 25 8
-1.9680001 1.655 -1.049 98 57 29
-2.029 1.613 -0.90700001 8 2 4
-2.006 1.612 -0.89200002 89 71 61
-2.033 1.603 -0.89200002 124 100 62
-2.029 1.607 -0.86199999 80 44 10
-2.026 1.605 -0.86699998 186 143 109
-2.016 1.612 -0.88099998 108 44 0
-2.0109999 1.601 -0.88300002 159 93 33
-2.0350001 1.596 -0.903 103 73 47
-2.0109999 1.676 -1.074 93 65 44
-2.0120001 1.678 -1.061 80 58 44
-2.016 1.682 -1.059 99 89 80
-2.0120001 1.678 -1.059 35 8 0
-2.0139999 1.6799999 -1.057 96 75 58
-2.007 1.661 -1.067 149 107 67
-2.0109999 1.676 -1.076 88 50 31
-2.0380001 1.655 -1.023 55 15 0
-1.994 1.6160001 -0.95700002 124 99 79
-1.985 1.622 -0.95700002 157 118 77
-1.992 1.612 -0.92900002 92 56 30
-2.0179999 1.64 -0.98100001 64 38 23
-2.0150001 1.636 -0.98799998 143 117 90
-2.016 1.6390001 -0.96899998 207 172 150
-2.086 1.5470001 -1.044 153 138 133
-2.0039999 1.628 -0.986 161 100 56
-1.978 1.67 -0.90799999 91 46 25
-1.974 1.666 -0.91100001 50 32 10
-1.973 1.665 -0.89999998 130 134 133
-1.977 1.679 -0.92199999 73 52 49
-2.096 1.552 -1.023 80 40 14
-2.0769999 1.557 -1.069 27 2 0
-1.9960001 1.8049999 -1.064 128 118 117
-1.993 1.851 -1.007 122 81 29
-1.992 1.854 -1.001 165 116 58
-1.961 1.826 -1.024 149 110 67
-1.967 1.842 -1.024 242 197 140
-1.97 1.8430001 -1.028 195 150 93
-1.961 1.877 -0.97899997 91 58 39
-1.956 1.777 -1.041 163 125 78
-1.96 1.78 -1.041 145 122 108
-1.967 1.781 -1.052 173 146 116
-1.965 1.785 -1.0470001 142 104 59
-1.96 1.776 -1.051 219 172 126
-2.0020001 1.777 -1.084 121 81 46
-2.0009999 1.785 -1.0779999 210 172 107
-2.0009999 1.784 -1.0779999 193 159 95
-2.0580001 1.696 -0.986 142 116 83
-2.0380001 1.6900001 -0.99000001 133 121 107
-2.0450001 1.687 -0.99299997 77 47 19
-2.0090001 1.691 -0.926 81 69 47
-2.006 1.687 -0.92500001 37 9 6
-2.0050001 1.681 -0.926 28 0 0
-2.0009999 1.696 -0.92900002 32 4 0
-2.0009999 1.696 -0.92199999 23 9 6
-2.0050001 1.72 -0.93699998 123 115 113
-1.946 1.697 -0.93400002 193 150 115
-1.948 1.697 -0.92400002 152 98 36
-1.95 1.691 -0.926 117 74 42
-1.943 1.705 -0.93900001 25 8 1
-1.929 1.7180001 -0.935 252 207 142
-1.928 1.7180001 -0.93800002 242 192 133
-1.916 1.702 -0.95499998 161 125 99
-1.921 1.706 -0.94599998 14 0 0
-1.9069999 1.694 -0.95700002 93 67 50
-1.913 1.689 -0.96899998 165 95 36
-1.928 1.705 -0.95300001 34 14 7
-1.9349999 1.698 -0.96600002 16 5 3
-2.0090001 1.735 -0.95099998 190 136 72
-2.0050001 1.735 -0.94599998 194 138 79
-2.0020001 1.7410001 -0.94599998 148 105 63
-2.0079999 1.733 -0.94999999 228 174 114
-2.006 1.7309999 -0.94499999 56 19 1
-1.9529999 1.817 -1.013 128 110 100
-1.9529999 1.8279999 -1.008 130 108 95
-1.957 1.781 -1.031 126 109 99
-1.9630001 1.79 -1.03 193 143 80
-1.9579999 1.774 -1.041 171 133 84
-1.999 1.735 -0.95200002 49 24 17
-2 1.7359999 -0.94999999 54 30 20
-1.998 1.7359999 -0.949 52 28 18
-1.967 1.653 -0.977 163 139 127
-1.982 1.647 -0.98299998 80 49 18
-2.0039999 1.691 -0.89899999 199 168 148
-2.0250001 1.633 -0.95099998 89 69 58
-2.0139999 1.633 -0.95499998 83 37 3
-1.9170001 1.632 -0.74400002 185 132 98
-1.954 1.622 -0.77200001 51 24 17
-2.016 1.6289999 -0.79799998 122 66 31
-2.0090001 1.632 -0.80299997 50 9 3
-2.0079999 1.632 -0.80599999 175 134 90
-2.029 1.668 -0.77899998 171 126 84
-2.0710001 1.643 -0.74900001 67 24 7
-2.053 1.654 -0.74800003 46 22 10
-2.053 1.653 -0.75099999 49 25 13
-1.957 1.87 -0.96799999 230 191 126
-1.926 1.63 -0.80800003 90 54 28
-1.921 1.638 -0.81800002 61 34 5
-1.928 1.632 -0.81699997 105 69 43
-1.932 1.597 -0.78299999 115 91 53
-1.932 1.599 -0.78299999 112 80 42
-1.95 1.612 -0.76800001 72 31 11
-1.987 1.684 -0.90700001 255 218 166
-1.9859999 1.671 -0.89700001 147 148 150
-1.992 1.676 -0.903 169 121 85
-1.992 1.671 -0.88800001 83 35 0
-1.984 1.665 -0.88800001 81 60 43
-1.9910001 1.671 -0.88 144 101 59
-2.0369999 1.658 -0.86000001 154 109 50
-2.0469999 1.6670001 -0.85699999 247 198 158
-2.0369999 1.668 -0.87099999 138 92 68
-2.036 1.6720001 -0.86699998 192 169 151
-1.9960001 1.681 -0.79500002 158 114 75
-1.999 1.678 -0.80199999 114 61 7
-1.974 1.613 -0.85699999 185 131 67
-1.977 1.623 -0.86000001 250 197 131
-1.97 1.626 -0.87400001 130 91 58
-1.969 1.6160001 -0.85900003 88 81 71
-1.9630001 1.623 -0.87 96 50 1
-1.966 1.614 -0.85299999 169 110 50
-1.972 1.618 -0.852 139 104 82
-1.976 1.618 -0.85299999 189 110 41
-1.965 1.62 -0.861 86 58 44
-2.0280001 1.546 -0.84600002 51 24 13
-2.0439999 1.55 -0.86199999 194 149 66
-2.0350001 1.559 -0.86500001 184 141 99
-2.003 1.693 -0.89399999 169 138 118
-2.007 1.707 -0.89099997 107 57 24
-1.887 1.653 -0.97500002 179 142 100
-1.97 1.666 -0.86400002 122 87 55
-1.978 1.666 -0.86699998 44 25 18
-1.8940001 1.664 -0.95200002 75 43 28
-1.9 1.6569999 -0.95099998 145 93 33
-1.905 1.663 -0.94700003 169 134 94
-2.0109999 1.6569999 -0.94400001 113 49 11
-2.007 1.666 -0.94700003 94 61 42
-2.05 1.691 -1.008 82 35 0
-2.062 1.701 -1.001 110 72 35
-1.9960001 1.6900001 -0.972 174 148 135
-1.998 1.705 -0.95599997 57 19 6
-1.992 1.705 -0.963 176 148 134
-1.994 1.701 -0.98400003 126 90 54
-1.9349999 1.696 -0.92199999 79 45 20
-1.952 1.6950001 -0.91799998 140 88 49
-1.995 1.7 -0.91600001 187 126 71
-1.984 1.694 -0.90799999 47 36 34
-2.0050001 1.6720001 -0.93099999 136 112 100
-1.9809999 1.67 -0.92500001 158 101 58
-1.971 1.675 -0.94 189 134 80
-1.955 1.687 -0.93900001 43 11 0
-1.974 1.6849999 -0.93599999 46 13 4
-1.974 1.684 -0.92299998 130 111 104
-1.941 1.678 -0.92000002 178 141 99
-1.998 1.675 -0.866 95 69 46
-2.049 1.655 -0.80400002 80 30 3
-2.0469999 1.655 -0.80699998 115 67 18
-2.0439999 1.654 -0.81300002 63 32 11
-2.0439999 1.646 -0.80299997 41 5 0
-2.0469999 1.678 -0.86000001 63 43 32
-2.0350001 1.671 -0.792 124 81 38
-2.0439999 1.671 -0.79699999 68 46 32
-2.0420001 1.668 -0.80599999 47 29 17
-2.0350001 1.67 -0.79500002 71 31 0
-2.05 1.676 -0.81300002 152 103 60
-2.033 1.668 -0.824 12 1 0
-2.033 1.669 -0.83700001 30 13 5
-2.0409999 1.645 -0.82300001 55 27 15
-2.033 1.645 -0.83899999 30 1 0
-2.049 1.577 -0.77899998 128 109 105
-2.05 1.5779999 -0.78399998 240 201 110
-2.05 1.581 -0.778 205 172 77
-2.036 1.65 -0.79500002 100 64 40
-2.0209999 1.641 -0.80500001 106 89 61
-2.0179999 1.6390001 -0.801 30 18 4
-2.0309999 1.65 -0.80199999 132 76 27
-2.016 1.648 -0.79799998 102 82 71
-1.987 1.6799999 -0.829 240 198 158
-1.9910001 1.683 -0.82999998 237 201 127
-1.985 1.6849999 -0.82599998 149 127 104
-1.999 1.677 -0.83999997 35 16 1
-2 1.679 -0.829 87 66 47
-2.046 1.67 -0.71600002 144 91 49
-2.0450001 1.67 -0.713 162 110 63
-2.01 1.678 -0.78299999 74 52 31
-2.02 1.669 -0.81400001 251 220 130
-2.017 1.671 -0.80000001 80 59 56
-2.0680001 1.671 -0.74699998 165 114 67
-2.076 1.682 -0.736 114 64 15
-2.0569999 1.675 -0.73100001 90 61 47
-2.0510001 1.669 -0.77100003 112 77 47
-2.053 1.671 -0.78200001 180 144 110
-2.0669999 1.665 -0.79799998 218 160 97
-2.056 1.6720001 -0.78299999 87 37 12
-2.0539999 1.589 -0.79799998 223 186 95
-2.073 1.656 -0.77600002 45 26 20
-2.027 1.64 -0.84100002 80 50 40
-2.0150001 1.636 -0.85900003 89 47 22
-2.0179999 1.6440001 -0.84600002 131 100 72
-2.0550001 1.545 -0.796 25 11 8
-2.0469999 1.569 -0.77899998 104 45 1
-2.053 1.571 -0.80699998 68 49 34
-2.05 1.5650001 -0.82499999 58 43 36
-2.076 1.66 -0.77200001 136 92 47
-2.082 1.661 -0.759 164 102 41
-2.0780001 1.631 -0.73900002 46 26 15
-2.075 1.64 -0.745 70 42 30
-2.0009999 1.684 -0.89700001 94 60 33
-2.0020001 1.678 -0.85000002 109 66 23
-2.0220001 1.6720001 -0.85699999 225 187 138
-1.944 1.649 -0.83600003 232 186 136
-1.96 1.663 -0.85699999 167 123 86
-1.961 1.665 -0.85799998 61 35 20
-1.979 1.6799999 -0.824 243 201 117
-1.97 1.6720001 -0.81400001 97 62 32
-1.966 1.6720001 -0.80900002 64 45 38
-1.97 1.804 -1.0369999 162 124 101
-1.984 1.8049999 -1.046 28 3 0
-1.834 1.711 -1.016 154 98 39
-1.905 1.687 -0.972 175 95 34
-1.9119999 1.6849999 -0.977 78 60 56
-2.01 1.72 -0.94999999 147 103 64
-2.0079999 1.719 -0.94300002 174 111 60
-2.003 1.7359999 -0.94499999 178 150 129
-1.845 1.712 -1.043 147 112 74
-1.849 1.715 -1.046 160 116 51
-1.957 1.845 -0.96799999 152 102 31
-1.973 1.852 -0.98100001 134 123 103
-1.9859999 1.8660001 -0.96399999 140 89 32
-1.984 1.858 -0.97000003 102 103 97
-1.984 1.8660001 -0.98199999 140 92 54
-1.972 1.874 -0.99000001 251 210 156
-1.989 1.857 -0.99199998 200 154 95
-1.972 1.8279999 -0.99199998 237 176 131
-1.978 1.834 -0.99599999 100 60 24
-1.961 1.842 -0.98299998 139 103 81
-1.964 1.8380001 -0.986 209 163 104
-1.941 1.864 -0.986 218 167 122
-2.0780001 1.642 -0.73699999 58 30 18
-2.079 1.646 -0.736 85 49 25
-2.072 1.649 -0.745 66 33 2
-2.063 1.656 -0.74000001 115 66 23
-2.056 1.546 -0.86400002 33 9 0
-2.0569999 1.5089999 -0.78200001 244 193 110
-1.904 1.615 -0.77899998 100 84 51
-1.898 1.6160001 -0.76700002 130 83 65
-1.898 1.6210001 -0.76099998 94 67 46
-1.908 1.633 -0.73400003 81 31 0
-1.983 1.6569999 -0.78399998 155 98 43
-1.984 1.654 -0.78299999 143 91 44
-1.983 1.654 -0.78399998 124 73 26
-1.982 1.645 -0.787 51 19 4
-1.9529999 1.64 -0.77600002 162 114 76
-1.939 1.643 -0.78100002 142 97 58
-1.895 1.626 -0.73199999 194 138 77
-1.895 1.641 -0.71799999 213 165 119
-2.007 1.544 -0.79000002 142 97 64
-2.01 1.5420001 -0.792 98 60 24
-2.0020001 1.543 -0.79100001 162 109 65
-2.0079999 1.545 -0.78799999 160 113 83
-2.013 1.543 -0.78899997 81 52 22
-2.1159999 1.524 -1.001 128 98 90
-2.1040001 1.531 -1.029 87 68 53
-2.085 1.669 -0.73500001 210 162 77
-1.92 1.6390001 -0.82099998 55 26 0
-1.925 1.637 -0.81999999 48 21 0
-2.0039999 1.676 -0.77999997 136 117 102
-2.0309999 1.638 -0.829 136 102 77
-2.0190001 1.6440001 -0.81599998 127 111 86
-2.0090001 1.633 -0.81699997 120 80 54
-2.0309999 1.64 -0.82700002 143 109 84
-2.04 1.6440001 -0.81400001 181 137 100
-2.036 1.64 -0.82700002 79 51 39
-1.983 1.666 -0.87699997 120 83 57
-1.975 1.6619999 -0.87400001 153 124 90
-1.965 1.553 -1.003 110 46 2
-1.977 1.553 -1.005 122 65 22
-1.949 1.567 -1.017 91 49 7
-1.956 1.549 -1.017 47 9 0
-1.924 1.574 -1.041 160 155 161
-1.95 1.564 -0.99800003 62 35 16
-1.911 1.6339999 -0.78100002 255 210 156
-1.897 1.645 -0.75300002 130 91 52
-1.895 1.647 -0.75199997 57 21 0
-1.897 1.654 -0.74800003 247 220 131
-1.888 1.652 -0.75 72 32 7
-1.886 1.645 -0.73699999 88 36 0
-1.8890001 1.647 -0.74299997 161 113 67
-1.9 1.67 -0.94599998 103 88 59
-1.901 1.675 -0.94 107 103 100
-1.911 1.687 -0.93000001 99 75 63
-1.91 1.6950001 -0.91000003 79 56 38
-1.934 1.633 -0.84100002 51 20 0
-1.941 1.622 -0.82599998 41 15 2
-1.944 1.642 -0.847 32 7 0
-1.946 1.642 -0.84899998 30 1 0
-1.956 1.628 -0.81699997 182 148 113
-1.9630001 1.625 -0.81199998 58 41 34
-1.9450001 1.569 -1.049 42 22 15
-1.9299999 1.64 -1.027 106 81 61
-1.9349999 1.656 -1.0089999 110 71 40
-1.9450001 1.564 -1.0039999 59 31 10
-1.942 1.551 -1.005 178 136 98
-1.962 1.598 -1.027 38 20 0
-1.964 1.6109999 -1.035 47 27 16
-1.967 1.624 -1.041 49 26 18
-1.978 1.623 -1.049 115 106 107
-2.003 1.566 -1.053 227 180 138
-2.0109999 1.6799999 -1.086 104 95 88
-1.999 1.664 -1.066 41 11 0
-2.007 1.673 -1.073 133 109 99
-2.0079999 1.674 -1.082 80 43 24
-2.0079999 1.681 -1.084 99 94 90
-2.01 1.683 -1.081 102 97 93
-2.0139999 1.5700001 -1.071 151 106 77
-1.962 1.536 -1.053 89 27 6
-1.96 1.54 -1.057 120 109 107
-1.975 1.536 -1.05 16 3 0
-2.046 1.564 -1.071 192 139 97
-2.062 1.5700001 -1.079 149 140 135
-2.059 1.572 -1.0779999 23 12 8
-2.0580001 1.567 -1.072 55 53 40
-2.046 1.562 -1.069 230 186 139
-2.056 1.569 -1.072 118 108 99
-2.052 1.566 -1.069 93 39 11
-2.0480001 1.564 -1.067 228 179 136
-1.943 1.527 -1.036 53 16 0
-1.966 1.529 -1.012 118 96 83
-1.971 1.5319999 -1.024 118 108 99
-1.966 1.524 -1.027 97 62 34
-1.978 1.521 -1.035 63 40 22
-1.974 1.527 -1.0319999 64 49 44
-1.9809999 1.554 -1.066 75 34 2
-1.983 1.54 -1.05 174 131 99
-2.0050001 1.5700001 -1.069 98 56 34
-2.016 1.5549999 -1.0700001 104 58 34
-1.9630001 1.592 -1.031 144 110 82
-1.925 1.636 -0.80699998 29 6 0
-1.9069999 1.694 -0.92000002 119 84 65
-1.9069999 1.693 -0.92299998 102 67 45
-1.9220001 1.698 -0.921 77 44 13
-1.913 1.6289999 -0.78500003 57 25 0
-1.961 1.654 -0.83099997 59 41 37
-1.927 1.631 -0.76099998 70 28 6
-1.914 1.637 -0.77600002 135 92 57
-1.885 1.67 -0.972 80 45 17
-1.9 1.654 -1.008 126 95 74
-1.901 1.648 -0.99800003 99 99 99
-1.895 1.655 -1.01 188 150 111
-1.902 1.6569999 -1.0140001 126 94 73
-1.954 1.863 -1 177 138 95
-1.96 1.857 -1.01 170 125 86
-1.979 1.761 -1.0319999 80 48 33
-1.969 1.752 -1.049 125 84 40
-1.964 1.749 -1.053 123 84 43
-1.9630001 1.7539999 -1.054 63 35 21
-1.978 1.733 -1.049 149 114 94
-1.983 1.752 -1.034 38 28 29
-1.99 1.699 -1.022 61 29 8
-1.992 1.6900001 -1.025 90 38 1
-1.97 1.696 -0.99000001 175 123 65
-1.969 1.699 -0.986 128 114 113
-1.967 1.804 -1.0369999 95 51 24
-1.971 1.823 -1.024 116 65 20
-1.969 1.661 -1.056 64 29 1
-1.987 1.648 -1.053 189 128 74
-1.995 1.676 -1.063 108 72 40
-1.999 1.6849999 -1.048 136 127 130
-1.938 1.669 -1.048 78 39 8
-1.944 1.678 -1.045 97 48 7
-1.908 1.679 -1.005 117 86 57
-1.9119999 1.682 -1.017 70 35 13
-1.8430001 1.707 -1.026 191 127 63
-1.834 1.712 -1.018 152 112 60
-1.8430001 1.709 -1.025 144 87 42
-1.983 1.677 -1.034 175 131 82
-2.0050001 1.681 -1.038 187 127 64
-1.908 1.678 -1.048 137 128 131
-1.9069999 1.6849999 -1.044 130 93 67
-1.913 1.673 -1.056 133 122 120
-1.942 1.6799999 -1.046 113 62 19
-2.092 1.538 -1.036 121 87 59
-2.0810001 1.527 -0.99599999 58 15 0
-2.0710001 1.521 -1.005 52 20 7
-1.983 1.6210001 -0.94800001 218 178 127
-1.982 1.622 -0.93599999 134 99 77
-1.967 1.617 -0.93300003 124 84 58
-1.988 1.62 -0.93400002 133 89 42
-1.9529999 1.641 -0.96899998 92 45 1
-1.9579999 1.641 -0.96200001 102 84 70
-1.936 1.673 -0.93400002 110 76 66
-1.926 1.668 -0.94599998 57 39 29
-1.925 1.665 -0.94700003 139 121 109
-1.938 1.67 -0.94 64 31 0
-1.932 1.675 -0.93599999 83 50 41
-2.0090001 1.613 -0.93800002 73 35 14
-1.938 1.539 -0.97899997 106 55 8
-1.9349999 1.539 -0.98000002 138 96 56
-1.938 1.546 -0.98100001 115 112 97
-1.9680001 1.627 -0.87900001 137 100 56
-1.987 1.609 -0.92400002 169 138 110
