ply
format ascii 1.0
comment PCL generated
element vertex 91
property float x
property float y
property float z
property uchar red
property uchar green
property uchar blue
element camera 1
property float view_px
property float view_py
property float view_pz
property float x_axisx
property float x_axisy
property float x_axisz
property float y_axisx
property float y_axisy
property float y_axisz
property float z_axisx
property float z_axisy
property float z_axisz
property float focal
property float scalex
property float scaley
property float centerx
property float centery
property int viewportx
property int viewporty
property float k1
property float k2
end_header
7.1030002 1.876 -0.87400001 67 31 17
7.1110001 1.869 -0.88200003 109 82 71
7.098 1.868 -0.86799997 42 13 5
7.1030002 1.863 -0.88700002 76 61 54
7.1110001 1.869 -0.88300002 116 89 80
7.112 1.87 -0.884 46 18 7
7.1020002 1.862 -0.89300001 139 124 121
7.0900002 1.869 -0.86400002 44 11 2
7.092 1.859 -0.86900002 150 128 107
7.0949998 1.885 -0.86400002 106 67 36
7.0830002 1.862 -0.86400002 114 94 83
7.0840001 1.851 -0.86900002 111 84 67
7.0840001 1.85 -0.87099999 132 104 90
7.079 1.864 -0.85699999 51 25 10
7.0879998 1.8710001 -0.89499998 29 11 7
7.086 1.864 -0.89499998 124 101 85
7.1009998 1.888 -0.86699998 78 57 38
7.1079998 1.8940001 -0.86900002 204 183 162
7.0939999 1.887 -0.86299998 90 49 17
7.1020002 1.869 -0.87599999 39 6 0
7.1040001 1.87 -0.87800002 83 51 40
7.1100001 1.87 -0.88300002 66 38 26
7.1020002 1.877 -0.88 134 111 103
7.1020002 1.8940001 -0.88999999 131 112 98
7.0879998 1.883 -0.89499998 18 0 0
7.0910001 1.892 -0.89700001 148 101 59
7.1090002 1.895 -0.87199998 131 95 45
7.1090002 1.9 -0.87099999 213 176 158
7.1059999 1.892 -0.87599999 103 53 0
7.0929999 1.882 -0.86400002 67 31 15
7.0809999 1.878 -0.86500001 141 123 111
7.0749998 1.878 -0.88 103 99 113
7.0760002 1.8890001 -0.866 98 76 65
7.086 1.859 -0.86500001 104 89 82
7.086 1.885 -0.89600003 49 30 23
7.0840001 1.8839999 -0.88800001 137 118 111
7.0669999 1.896 -0.88200003 154 108 74
7.0640001 1.8890001 -0.88599998 115 100 97
7.085 1.877 -0.89499998 160 121 88
7.098 1.888 -0.86500001 51 15 0
7.098 1.883 -0.86699998 107 69 48
7.1020002 1.8890001 -0.86900002 116 78 59
7.1079998 1.892 -0.88099998 147 93 29
7.0939999 1.881 -0.866 65 35 24
7.086 1.851 -0.87099999 93 76 66
7.0830002 1.864 -0.88300002 101 86 79
7.0809999 1.868 -0.89099997 36 25 21
7.0669999 1.888 -0.88 118 101 94
7.086 1.875 -0.89499998 135 115 106
7.073 1.878 -0.88800001 49 35 32
7.1009998 1.891 -0.86799997 101 58 24
7.0999999 1.8839999 -0.86900002 62 45 27
7.0900002 1.896 -0.87 50 35 30
7.0999999 1.899 -0.86799997 180 140 115
7.0840001 1.8890001 -0.88300002 116 62 28
7.0890002 1.901 -0.88099998 111 111 123
7.0970001 1.901 -0.87800002 39 28 26
7.1059999 1.897 -0.87400001 214 175 146
7.0970001 1.899 -0.87199998 77 41 25
7.0910001 1.891 -0.89099997 29 15 12
7.099 1.8609999 -0.88599998 92 80 64
7.1009998 1.869 -0.87400001 35 5 0
7.0840001 1.869 -0.86299998 31 2 0
7.0879998 1.869 -0.86400002 54 20 11
7.0840001 1.883 -0.86699998 37 9 0
7.0819998 1.8890001 -0.86799997 146 77 22
7.0830002 1.891 -0.86900002 204 132 60
7.0760002 1.891 -0.875 70 55 50
7.0780001 1.88 -0.87599999 57 21 0
7.0970001 1.8839999 -0.866 96 54 29
7.0949998 1.888 -0.86400002 113 65 27
7.0869999 1.899 -0.87699997 42 28 27
7.0869999 1.8940001 -0.87199998 35 20 0
7.0949998 1.896 -0.88499999 31 17 14
7.0900002 1.8839999 -0.89099997 67 53 50
7.0890002 1.858 -0.87099999 104 93 87
7.0929999 1.859 -0.88599998 144 122 99
7.105 1.891 -0.88300002 215 150 70
7.085 1.868 -0.86299998 60 27 18
7.0999999 1.881 -0.87099999 148 132 117
7.0869999 1.862 -0.87099999 110 88 77
7.0929999 1.8839999 -0.86400002 143 96 66
7.086 1.888 -0.86699998 167 94 26
7.0949998 1.893 -0.86699998 156 116 90
7.105 1.8940001 -0.88300002 238 199 156
7.086 1.864 -0.87900001 144 121 103
7.0929999 1.883 -0.86400002 110 68 46
7.0770001 1.881 -0.875 93 52 20
7.0869999 1.888 -0.88700002 148 113 81
7.0970001 1.869 -0.88599998 141 132 117
7.092 1.891 -0.86699998 222 187 165
0 0 0 1 0 0 0 1 0 0 0 1 0 0 0 0 0 91 1 0 0
