ply
format ascii 1.0
comment PCL generated
element vertex 275
property float x
property float y
property float z
property uchar red
property uchar green
property uchar blue
element camera 1
property float view_px
property float view_py
property float view_pz
property float x_axisx
property float x_axisy
property float x_axisz
property float y_axisx
property float y_axisy
property float y_axisz
property float z_axisx
property float z_axisy
property float z_axisz
property float focal
property float scalex
property float scaley
property float centerx
property float centery
property int viewportx
property int viewporty
property float k1
property float k2
end_header
11.105 0.45100001 -0.121 132 82 29
11.105 0.46000001 -0.12 255 229 146
11.104 0.45300001 -0.134 152 116 84
11.119 0.46700001 -0.117 246 231 200
11.116 0.477 -0.118 195 151 88
11.114 0.47400001 -0.12 163 129 57
11.117 0.43099999 -0.138 87 49 10
11.11 0.42899999 -0.13 129 76 34
11.107 0.43200001 -0.134 142 103 38
11.126 0.417 -0.142 130 71 29
11.247 0.421 -0.155 42 23 19
11.241 0.421 -0.138 209 104 38
11.251 0.433 -0.154 187 82 16
11.242 0.405 -0.155 115 52 17
11.233 0.42199999 -0.163 94 33 4
11.238 0.40700001 -0.146 181 132 92
11.105 0.465 -0.134 253 215 179
11.105 0.461 -0.14 166 90 15
11.132 0.40000001 -0.116 118 72 46
11.122 0.405 -0.119 158 86 36
11.119 0.414 -0.104 104 48 1
11.121 0.414 -0.104 128 71 28
11.221 0.41100001 -0.142 140 83 40
11.233 0.42500001 -0.138 61 27 15
11.119 0.44600001 -0.108 181 112 55
11.134 0.44100001 -0.101 115 83 72
11.118 0.43200001 -0.1 118 67 24
11.133 0.463 -0.104 101 50 3
11.135 0.472 -0.112 138 88 35
11.138 0.46599999 -0.102 82 43 0
11.242 0.428 -0.13699999 153 86 43
11.105 0.43399999 -0.12800001 167 111 62
11.119 0.40900001 -0.124 74 39 20
11.126 0.40700001 -0.132 127 64 23
11.116 0.43900001 -0.146 75 41 16
11.107 0.44299999 -0.14399999 183 163 152
11.133 0.486 -0.116 98 55 12
11.143 0.47600001 -0.109 72 39 0
11.142 0.48300001 -0.116 82 46 0
11.15 0.45100001 -0.145 109 64 23
11.14 0.463 -0.156 79 27 3
11.146 0.43799999 -0.154 185 124 80
11.144 0.442 -0.15000001 130 94 58
11.122 0.417 -0.1 129 77 37
11.233 0.40900001 -0.142 129 73 24
11.234 0.40599999 -0.154 122 76 42
11.226 0.42300001 -0.16500001 126 68 31
11.231 0.412 -0.155 120 68 29
11.113 0.47400001 -0.121 206 159 105
11.105 0.48500001 -0.121 205 162 120
11.104 0.48800001 -0.12 157 121 61
11.106 0.46200001 -0.132 163 116 62
11.108 0.46200001 -0.121 153 104 46
11.119 0.463 -0.118 240 211 145
11.115 0.45899999 -0.117 206 189 161
11.109 0.44600001 -0.12 255 232 149
11.106 0.447 -0.13699999 123 65 25
11.232 0.479 -0.14399999 169 106 37
11.222 0.48300001 -0.146 69 32 3
11.232 0.47400001 -0.139 93 58 20
11.224 0.477 -0.146 69 33 0
11.238 0.46200001 -0.146 192 149 96
11.234 0.45199999 -0.146 178 104 55
11.239 0.45500001 -0.146 190 144 95
11.231 0.44100001 -0.142 79 50 32
11.237 0.41100001 -0.155 153 102 59
11.219 0.46900001 -0.175 86 57 43
11.238 0.46900001 -0.16599999 81 42 13
11.23 0.45899999 -0.17 105 49 12
11.234 0.463 -0.168 142 78 34
11.224 0.447 -0.164 134 71 27
11.233 0.45100001 -0.15700001 115 47 0
11.228 0.421 -0.16 120 87 70
11.243 0.433 -0.155 123 87 75
11.22 0.45899999 -0.17200001 98 58 32
11.195 0.456 -0.145 97 39 1
11.217 0.46200001 -0.152 146 96 71
11.22 0.454 -0.145 87 39 3
11.217 0.47799999 -0.15000001 156 109 53
11.23 0.43599999 -0.139 82 63 59
11.23 0.40900001 -0.154 186 89 38
11.123 0.48500001 -0.117 162 137 107
11.121 0.48300001 -0.118 152 96 35
11.124 0.49599999 -0.116 77 33 0
11.105 0.484 -0.12800001 142 95 51
11.106 0.47499999 -0.14 173 106 28
11.114 0.48800001 -0.133 93 43 8
11.112 0.48800001 -0.14 133 83 50
11.13 0.403 -0.13600001 71 42 28
11.133 0.417 -0.139 121 71 34
11.124 0.40400001 -0.126 51 26 19
11.229 0.48699999 -0.153 78 41 12
11.204 0.49000001 -0.153 164 118 59
11.233 0.47400001 -0.146 231 194 152
11.236 0.46799999 -0.146 159 119 70
11.118 0.417 -0.12 180 85 19
11.238 0.46200001 -0.15899999 119 76 33
11.243 0.42699999 -0.155 141 77 39
11.223 0.46900001 -0.167 157 94 43
11.218 0.47499999 -0.17299999 114 67 37
11.21 0.477 -0.153 165 118 62
11.211 0.47299999 -0.155 131 77 39
11.146 0.461 -0.118 156 105 60
11.146 0.47 -0.13500001 104 69 27
11.16 0.458 -0.122 113 33 0
11.142 0.45899999 -0.104 150 51 0
11.142 0.43599999 -0.104 132 71 26
11.16 0.45199999 -0.126 62 38 34
11.152 0.45100001 -0.12899999 139 102 58
11.147 0.456 -0.12899999 173 141 94
11.144 0.42199999 -0.121 149 69 10
11.154 0.433 -0.13699999 59 31 20
11.141 0.433 -0.133 218 162 101
11.214 0.46399999 -0.17200001 106 60 34
11.223 0.41299999 -0.156 99 52 24
11.143 0.46900001 -0.142 66 21 0
11.122 0.449 -0.14399999 240 180 130
11.138 0.43599999 -0.146 133 87 38
11.142 0.44 -0.15099999 231 149 91
11.205 0.44499999 -0.155 122 53 0
11.202 0.442 -0.148 134 104 70
11.202 0.43799999 -0.152 187 109 60
11.208 0.44400001 -0.153 130 76 29
11.218 0.43000001 -0.14399999 177 121 74
11.218 0.43399999 -0.15099999 138 76 37
11.217 0.41600001 -0.146 130 81 41
11.124 0.47400001 -0.117 206 189 159
11.129 0.49200001 -0.116 86 41 2
11.137 0.48500001 -0.119 165 103 46
11.115 0.48699999 -0.122 110 70 34
11.122 0.495 -0.122 76 31 0
11.13 0.40799999 -0.13600001 154 109 78
11.127 0.42500001 -0.142 162 94 59
11.138 0.43000001 -0.141 103 45 7
11.106 0.44800001 -0.127 245 176 85
11.106 0.44999999 -0.13 225 182 127
11.108 0.47099999 -0.126 255 237 205
11.107 0.456 -0.14399999 214 161 95
11.107 0.46599999 -0.124 255 238 168
11.233 0.48199999 -0.153 98 60 24
11.122 0.40599999 -0.122 106 30 0
11.129 0.40000001 -0.123 86 54 41
11.137 0.40700001 -0.117 125 65 15
11.117 0.419 -0.119 121 60 16
11.127 0.42300001 -0.101 142 74 25
11.133 0.414 -0.111 33 16 9
11.126 0.419 -0.105 114 63 16
11.239 0.45500001 -0.152 159 115 66
11.237 0.461 -0.152 191 145 95
11.235 0.46799999 -0.152 255 213 165
11.226 0.47099999 -0.146 117 45 0
11.244 0.41999999 -0.152 63 34 26
11.232 0.43799999 -0.145 137 91 58
11.246 0.42899999 -0.152 43 24 20
11.213 0.44999999 -0.164 88 50 11
11.2 0.486 -0.15899999 125 78 48
11.21 0.49200001 -0.164 177 140 70
11.202 0.48500001 -0.162 187 134 100
11.197 0.486 -0.155 159 108 63
11.215 0.49200001 -0.16 107 59 36
11.219 0.48800001 -0.16500001 132 100 77
11.219 0.48199999 -0.15000001 184 121 50
11.139 0.47400001 -0.12899999 255 229 177
11.14 0.48199999 -0.13500001 133 94 53
11.15 0.458 -0.122 255 232 179
11.166 0.43799999 -0.13699999 104 44 7
11.169 0.447 -0.13600001 51 23 19
11.174 0.43200001 -0.142 108 49 9
11.177 0.435 -0.139 85 43 5
11.174 0.433 -0.138 44 23 20
11.173 0.43399999 -0.138 114 77 58
11.168 0.447 -0.124 80 47 40
11.188 0.45300001 -0.138 108 70 51
11.185 0.458 -0.139 140 88 40
11.148 0.45699999 -0.116 103 71 22
11.143 0.46200001 -0.109 77 45 0
11.136 0.44299999 -0.105 190 90 28
11.169 0.42699999 -0.141 98 66 51
11.207 0.46399999 -0.164 96 64 13
11.205 0.47499999 -0.167 88 43 24
11.189 0.463 -0.148 146 77 12
11.225 0.43700001 -0.155 108 60 22
11.15 0.44999999 -0.141 150 105 76
11.132 0.46000001 -0.15800001 118 77 47
11.128 0.46900001 -0.156 111 61 34
11.121 0.45300001 -0.154 239 184 128
11.118 0.45199999 -0.149 250 212 175
11.112 0.45199999 -0.146 126 89 60
11.116 0.463 -0.149 255 220 179
11.22 0.417 -0.15000001 122 73 41
11.166 0.44299999 -0.132 153 86 33
11.155 0.44600001 -0.124 132 90 42
11.165 0.45100001 -0.123 93 59 21
11.218 0.43799999 -0.146 135 64 20
11.13 0.403 -0.13 181 130 85
11.117 0.44999999 -0.113 156 75 19
11.14 0.42500001 -0.13699999 126 76 49
11.122 0.449 -0.112 146 85 31
11.136 0.43599999 -0.104 129 86 41
11.14 0.43599999 -0.131 185 140 101
11.105 0.454 -0.124 240 186 126
11.106 0.46200001 -0.14399999 140 95 53
11.23 0.48100001 -0.15899999 140 105 75
11.137 0.40599999 -0.115 119 66 22
11.236 0.46799999 -0.15899999 94 51 9
11.226 0.458 -0.146 139 63 13
11.211 0.45500001 -0.153 182 106 57
11.218 0.45199999 -0.16599999 120 85 47
11.208 0.48500001 -0.155 227 167 97
11.189 0.463 -0.14300001 151 97 53
11.198 0.477 -0.156 152 116 82
11.223 0.48699999 -0.15700001 181 150 122
11.216 0.47999999 -0.16500001 101 67 40
11.123 0.49599999 -0.12899999 82 39 5
11.114 0.486 -0.14399999 151 89 42
11.139 0.47400001 -0.145 176 133 91
11.129 0.48699999 -0.139 164 114 61
11.177 0.454 -0.142 129 67 28
11.156 0.44600001 -0.121 120 90 56
11.188 0.45500001 -0.138 129 75 39
11.147 0.454 -0.111 29 7 0
11.131 0.456 -0.109 255 214 157
11.146 0.442 -0.133 98 67 46
11.157 0.43599999 -0.142 122 76 53
11.137 0.412 -0.132 153 106 64
11.209 0.461 -0.16 124 80 45
11.213 0.461 -0.167 153 111 95
11.236 0.42899999 -0.153 139 87 40
11.22 0.44100001 -0.15700001 109 48 1
11.107 0.44800001 -0.14 150 74 0
11.127 0.454 -0.15099999 105 57 17
11.21 0.442 -0.149 201 124 68
11.114 0.44400001 -0.118 164 105 49
11.113 0.44999999 -0.117 117 92 72
11.127 0.44100001 -0.105 149 94 40
11.117 0.42899999 -0.106 69 33 11
11.139 0.44 -0.124 141 69 19
11.114 0.43000001 -0.115 132 51 6
11.111 0.46399999 -0.146 184 143 111
11.114 0.46599999 -0.146 136 90 41
11.22 0.47799999 -0.16599999 106 64 14
11.127 0.40900001 -0.133 65 30 8
11.125 0.42500001 -0.141 111 79 64
11.119 0.426 -0.12899999 189 131 83
11.143 0.419 -0.114 110 34 2
11.212 0.47499999 -0.168 115 51 5
11.129 0.49200001 -0.13500001 144 106 69
11.135 0.486 -0.132 159 85 20
11.183 0.456 -0.145 124 50 1
11.14 0.45699999 -0.106 98 66 43
11.127 0.44299999 -0.106 112 80 59
11.155 0.433 -0.141 225 149 71
11.209 0.46399999 -0.16500001 82 46 22
11.139 0.43200001 -0.114 171 115 54
11.125 0.465 -0.153 77 40 21
11.111 0.45199999 -0.118 208 152 91
11.13 0.435 -0.105 132 81 36
11.107 0.461 -0.127 195 128 39
11.12 0.428 -0.133 86 54 33
11.226 0.42300001 -0.155 114 61 27
11.136 0.48800001 -0.12899999 135 92 49
11.13 0.49200001 -0.126 127 93 58
11.121 0.484 -0.149 137 81 44
11.114 0.47299999 -0.14399999 163 104 48
11.148 0.449 -0.115 98 64 19
11.158 0.43399999 -0.14399999 96 49 19
11.108 0.44999999 -0.145 111 65 15
11.129 0.47600001 -0.148 121 75 42
11.116 0.43599999 -0.114 138 60 14
11.109 0.47400001 -0.132 251 208 157
11.122 0.426 -0.132 114 52 13
11.132 0.47400001 -0.149 209 164 123
11.158 0.426 -0.141 93 53 28
11.122 0.46799999 -0.148 132 83 50
11.115 0.428 -0.122 133 58 19
0 0 0 1 0 0 0 1 0 0 0 1 0 0 0 0 0 275 1 0 0
