ply
format ascii 1.0
comment PCL generated
element vertex 1299
property float x
property float y
property float z
property uchar red
property uchar green
property uchar blue
element camera 0
property float view_px
property float view_py
property float view_pz
property float x_axisx
property float x_axisy
property float x_axisz
property float y_axisx
property float y_axisy
property float y_axisz
property float z_axisx
property float z_axisy
property float z_axisz
property float focal
property float scalex
property float scaley
property float centerx
property float centery
property int viewportx
property int viewporty
property float k1
property float k2
end_header
-12.836 2.454 -0.94599998 61 19 3
-12.839 2.461 -0.94700003 70 28 3
-12.831 2.4530001 -0.94 105 44 25
-12.845 2.444 -0.94700003 105 65 40
-12.845 2.428 -0.95099998 56 39 13
-12.85 2.4360001 -0.96399999 79 43 17
-12.843 2.395 -0.85900003 151 87 39
-12.857 2.4059999 -0.87599999 112 43 1
-12.888 2.45 -0.889 132 88 39
-12.888 2.4530001 -0.88300002 179 98 53
-12.889 2.454 -0.87900001 137 89 40
-12.897 2.4000001 -0.92799997 228 126 44
-12.889 2.402 -0.92000002 122 89 44
-12.898 2.404 -1.054 66 39 10
-12.897 2.402 -0.93199998 166 73 14
-12.895 2.4000001 -0.94099998 179 81 10
-12.886 2.3970001 -0.93300003 219 140 63
-12.865 2.4849999 -0.76099998 115 62 12
-12.809 2.5109999 -0.73799998 56 19 0
-12.813 2.5120001 -0.74199998 60 22 0
-12.79 2.5090001 -0.71399999 79 38 20
-12.793 2.349 -0.68199998 126 88 65
-12.792 2.3510001 -0.68300003 236 205 151
-12.844 2.3699999 -0.71600002 191 111 42
-12.845 2.3659999 -0.72399998 127 64 21
-12.848 2.3740001 -0.72399998 119 50 9
-12.866 2.493 -0.70999998 87 43 0
-12.81 2.5050001 -0.745 172 123 82
-12.81 2.4990001 -0.759 113 72 42
-12.812 2.5020001 -0.75800002 106 60 27
-12.805 2.4990001 -0.75300002 71 21 0
-12.852 2.5 -0.80199999 96 62 50
-12.866 2.494 -0.79400003 88 61 44
-12.853 2.494 -0.79699999 136 80 47
-12.844 2.4960001 -0.79000002 91 64 43
-12.814 2.5050001 -0.75599998 55 23 2
-12.822 2.4879999 -0.76800001 121 62 22
-12.814 2.5020001 -0.76700002 152 107 76
-12.814 2.5090001 -0.75 44 12 0
-12.877 2.4560001 -0.87800002 151 100 53
-12.874 2.4560001 -0.87900001 182 116 64
-12.868 2.4519999 -0.88300002 110 64 14
-12.871 2.4489999 -0.88700002 86 63 31
-12.887 2.464 -0.926 32 3 0
-12.884 2.4679999 -0.912 73 16 0
-12.894 2.477 -0.93199998 137 98 69
-12.883 2.4630001 -0.87800002 162 106 71
-12.887 2.464 -0.87 159 112 60
-12.94 2.5380001 -0.64700001 228 163 123
-12.923 2.5639999 -0.64200002 100 51 21
-12.924 2.552 -0.66500002 135 56 13
-12.915 2.552 -0.66900003 123 70 39
-12.923 2.5510001 -0.653 159 79 30
-12.926 2.5539999 -0.64700001 184 105 30
-12.923 2.55 -0.65600002 150 70 9
-12.91 2.539 -0.71700001 97 56 26
-12.913 2.5439999 -0.72299999 87 33 7
-12.929 2.5369999 -0.71200001 92 44 8
-12.911 2.5439999 -0.72299999 112 62 25
-12.904 2.575 -0.64499998 77 35 11
-12.893 2.5769999 -0.65700001 136 95 67
-12.882 2.575 -0.64499998 138 72 12
-12.895 2.5739999 -0.653 140 88 49
-12.892 2.5710001 -0.64099997 59 26 7
-12.87 2.5009999 -0.68000001 159 115 66
-12.873 2.503 -0.685 106 42 6
-12.879 2.4590001 -1.0470001 49 18 0
-12.879 2.4660001 -1.044 81 44 17
-12.881 2.454 -1.044 125 70 29
-12.883 2.45 -1.03 105 65 40
-12.887 2.4319999 -1.0470001 96 47 15
-12.856 2.497 -0.68800002 94 63 34
-12.788 2.3469999 -0.69999999 255 222 170
-12.782 2.3540001 -0.699 159 86 41
-12.786 2.346 -0.69099998 121 65 28
-12.788 2.3510001 -0.68800002 172 104 41
-12.796 2.51 -0.713 110 64 31
-12.783 2.5190001 -0.59200001 127 67 17
-12.956 2.5320001 -0.63 161 88 37
-12.945 2.543 -0.625 212 147 81
-12.863 2.497 -0.71399999 95 45 10
-12.864 2.497 -0.71100003 121 67 29
-12.863 2.497 -0.71799999 82 33 1
-12.86 2.5050001 -0.67900002 76 35 15
-12.873 2.507 -0.65700001 187 132 91
-12.932 2.543 -0.65700001 120 88 49
-12.923 2.566 -0.63200003 81 46 24
-12.909 2.5650001 -0.63800001 143 93 58
-12.915 2.5309999 -0.62800002 152 82 31
-12.937 2.5420001 -0.61799997 143 63 10
-12.93 2.5409999 -0.61799997 148 87 33
-12.937 2.552 -0.62400001 108 73 51
-12.808 2.5179999 -0.70899999 56 20 0
-12.788 2.5120001 -0.708 124 85 56
-12.798 2.5239999 -0.68900001 76 36 11
-12.793 2.513 -0.70899999 94 50 21
-12.796 2.52 -0.69199997 58 22 0
-12.795 2.52 -0.68900001 72 32 6
-12.889 2.5650001 -0.64300001 152 94 31
-12.952 2.516 -0.648 98 36 0
-12.804 2.3540001 -0.67900002 151 109 49
-12.814 2.359 -0.67299998 145 77 12
-12.8 2.3610001 -0.67699999 166 135 91
-12.946 2.52 -0.63099998 148 95 55
-12.933 2.5179999 -0.62800002 166 90 40
-12.932 2.5239999 -0.625 75 30 0
-12.814 2.3369999 -0.68400002 202 151 85
-12.817 2.3380001 -0.685 213 154 84
-12.792 2.3510001 -0.71600002 107 78 38
-12.791 2.3429999 -0.70700002 203 154 111
-12.795 2.346 -0.71200001 91 53 14
-12.799 2.3499999 -0.713 131 80 15
-12.846 2.451 -1.081 168 111 66
-12.842 2.454 -1.075 90 24 0
-12.852 2.454 -1.08 97 33 0
-12.836 2.405 -1.109 103 58 25
-12.826 2.408 -1.1109999 89 48 28
-12.83 2.4159999 -1.107 61 12 0
-12.789 2.3340001 -0.699 99 71 24
-12.852 2.3840001 -1.101 120 59 15
-12.843 2.4070001 -1.113 92 33 0
-12.827 2.4059999 -1.108 87 41 8
-12.83 2.405 -1.101 139 72 27
-12.843 2.431 -1.1160001 91 49 24
-12.866 2.3789999 -1.104 196 121 64
-12.872 2.411 -1.104 112 34 0
-12.9 2.4319999 -1.096 151 74 32
-12.868 2.4030001 -1.105 112 42 0
-12.9 2.4059999 -1.0779999 113 54 14
-12.893 2.4100001 -1.071 134 62 12
-12.836 2.4590001 -0.94099998 72 43 39
-12.828 2.4790001 -0.93400002 85 50 22
-12.838 2.4630001 -0.94199997 106 40 8
-12.855 2.365 -1.094 218 141 61
-12.853 2.375 -1.082 249 168 77
-12.846 2.3789999 -1.1 197 136 89
-12.85 2.3859999 -1.071 211 131 46
-12.839 2.4059999 -1.103 141 80 35
-12.83 2.401 -0.85100001 109 43 17
-12.822 2.3900001 -0.85000002 84 61 27
-12.832 2.398 -0.84299999 111 62 19
-12.82 2.3940001 -0.85600001 114 69 30
-12.828 2.388 -0.85399997 126 81 42
-12.828 2.388 -0.85500002 196 141 84
-12.813 2.3870001 -0.85799998 103 54 11
-12.822 2.388 -0.85699999 133 82 29
-12.899 2.405 -1.056 123 72 19
-12.895 2.4030001 -1.057 202 132 72
-12.893 2.402 -0.92699999 235 149 76
-12.892 2.4119999 -1.034 178 107 51
-12.889 2.401 -1.036 172 87 22
-12.882 2.4400001 -1.046 152 105 79
-12.874 2.487 -0.76499999 72 30 6
-12.923 2.5079999 -0.79699999 109 56 22
-12.922 2.5039999 -0.80500001 115 77 41
-12.917 2.4979999 -0.80400002 73 28 0
-12.868 2.493 -0.78899997 115 65 28
-12.885 2.467 -1.095 183 147 115
-12.875 2.454 -1.096 88 29 0
-12.879 2.4760001 -0.90700001 78 39 6
-12.877 2.4660001 -0.90700001 73 31 9
-12.89 2.4779999 -0.84600002 148 97 68
-12.896 2.4879999 -0.85500002 155 103 64
-12.899 2.49 -0.84500003 157 93 49
-12.867 2.497 -0.68800002 133 86 30
-12.863 2.5 -0.68900001 67 15 0
-12.866 2.5 -0.708 81 33 0
-12.804 2.5079999 -0.74299997 50 17 0
-12.797 2.507 -0.73500001 120 86 51
-12.799 2.5039999 -0.736 72 48 36
-12.797 2.5020001 -0.741 89 33 0
-12.861 2.503 -0.61400002 96 42 4
-12.864 2.497 -0.61699998 201 147 77
-12.873 2.5039999 -0.61299998 125 49 0
-12.801 2.4990001 -0.61199999 121 63 25
-12.815 2.4949999 -0.61500001 83 30 0
-12.858 2.4990001 -0.62199998 94 40 14
-12.859 2.4949999 -0.62400001 183 129 67
-12.881 2.4979999 -0.63300002 118 69 11
-12.87 2.4990001 -0.62300003 90 68 27
-12.872 2.5020001 -0.62300003 204 145 79
-12.799 2.358 -0.67900002 136 112 88
-12.815 2.3399999 -0.69599998 198 125 48
-12.789 2.346 -0.70499998 115 60 21
-12.791 2.352 -0.71100003 194 121 66
-12.789 2.345 -0.70099998 223 162 99
-12.783 2.3629999 -0.71100003 64 22 0
-12.865 2.48 -0.792 86 36 11
-12.864 2.4790001 -0.78100002 198 136 79
-12.868 2.4820001 -0.778 79 32 6
-12.862 2.477 -0.796 130 78 31
-12.854 2.474 -0.79000002 175 122 78
-12.859 2.48 -0.764 193 115 53
-12.865 2.4820001 -0.77700001 163 113 62
-12.85 2.4790001 -0.76999998 94 63 34
-12.855 2.4849999 -0.755 189 124 82
-12.872 2.4630001 -0.83600003 173 129 66
-12.887 2.47 -0.84299999 140 66 1
-12.875 2.47 -0.829 159 114 72
-12.835 2.3889999 -0.76300001 69 38 9
-12.834 2.3900001 -0.764 107 51 2
-12.834 2.3889999 -0.755 75 43 20
-12.824 2.385 -0.77399999 63 34 16
-12.816 2.391 -0.79000002 87 55 30
-12.816 2.3940001 -0.79000002 122 92 68
-12.817 2.3940001 -0.71899998 123 72 6
-12.814 2.385 -0.727 128 82 46
-12.82 2.3900001 -0.72799999 82 46 24
-12.814 2.4909999 -0.76700002 93 30 0
-12.814 2.487 -0.78799999 115 66 26
-12.804 2.494 -0.76800001 120 52 7
-12.83 2.402 -0.71700001 157 92 26
-12.815 2.398 -0.71100003 156 89 34
-12.818 2.4820001 -0.80900002 145 82 41
-12.827 2.473 -0.80199999 120 88 47
-12.852 2.4790001 -0.787 98 63 33
-12.83 2.471 -0.87199998 88 35 1
-12.834 2.4779999 -0.89099997 121 44 0
-12.837 2.4719999 -0.88 87 50 32
-12.837 2.48 -0.87800002 183 138 97
-12.818 2.3889999 -0.80000001 175 154 125
-12.821 2.391 -0.85699999 100 49 4
-12.829 2.391 -0.85699999 102 46 11
-12.827 2.398 -0.86400002 106 53 13
-12.807 2.4990001 -0.73900002 121 82 53
-12.801 2.5 -0.74599999 121 72 42
-12.823 2.493 -0.79400003 173 129 92
-12.817 2.4920001 -0.796 117 79 40
-12.81 2.4960001 -0.77499998 89 63 48
-12.812 2.5120001 -0.745 68 33 13
-12.808 2.5050001 -0.75099999 76 41 21
-12.841 2.5250001 -0.87300003 150 95 31
-12.836 2.5220001 -0.87099999 130 95 76
-12.829 2.5239999 -0.87 160 120 84
-12.884 2.4560001 -0.87300003 190 135 105
-12.918 2.5650001 -0.64499998 136 77 43
-12.923 2.5439999 -0.662 118 50 3
-12.906 2.539 -0.67500001 106 28 0
-12.917 2.5480001 -0.66399997 128 77 22
-12.916 2.526 -0.73000002 126 82 55
-12.918 2.5209999 -0.72799999 87 46 18
-12.925 2.5350001 -0.713 74 55 41
-12.906 2.5569999 -0.67500001 106 79 49
-12.891 2.553 -0.67299998 156 98 61
-12.88 2.5669999 -0.64700001 254 207 165
-12.88 2.552 -0.63099998 119 77 52
-12.879 2.5599999 -0.64700001 237 178 134
-12.912 2.5680001 -0.639 77 54 36
-12.919 2.526 -0.71700001 110 68 43
-12.935 2.516 -0.64600003 90 39 10
-12.898 2.444 -1.087 53 15 0
-12.899 2.4389999 -1.08 130 74 39
-12.883 2.45 -1.074 56 20 0
-12.904 2.438 -1.091 78 29 0
-12.901 2.4360001 -1.087 119 45 0
-12.861 2.4960001 -0.68900001 94 39 8
-12.865 2.4990001 -0.69199997 160 116 67
-12.793 2.513 -0.70599997 80 39 7
-12.806 2.5179999 -0.70499998 55 19 0
-12.811 2.5179999 -0.704 79 53 30
-12.809 2.5250001 -0.68800002 86 45 17
-12.791 2.3610001 -0.685 127 97 87
-12.786 2.55 -0.61500001 114 75 44
-12.779 2.549 -0.61199999 114 81 64
-12.794 2.5539999 -0.61199999 141 89 31
-12.798 2.5079999 -0.70499998 146 95 64
-12.796 2.5120001 -0.69999999 115 80 40
-12.794 2.5079999 -0.704 192 153 122
-12.809 2.51 -0.69199997 97 57 32
-12.794 2.513 -0.713 74 30 3
-12.771 2.5079999 -0.60699999 165 101 53
-12.77 2.513 -0.62199998 118 52 2
-12.784 2.5039999 -0.625 119 65 21
-12.778 2.5139999 -0.59299999 189 131 83
-12.948 2.5280001 -0.62400001 212 143 74
-12.943 2.5320001 -0.62400001 214 149 83
-12.858 2.4890001 -0.75599998 185 129 78
-12.815 2.5090001 -0.70499998 57 18 1
-12.868 2.503 -0.69 135 91 52
-12.867 2.5 -0.71200001 80 34 0
-12.866 2.5 -0.71499997 74 30 0
-12.865 2.494 -0.70200002 166 114 67
-12.874 2.5039999 -0.65600002 107 39 4
-12.88 2.5050001 -0.64700001 152 98 38
-12.875 2.5079999 -0.64999998 129 67 20
-12.873 2.5039999 -0.64200002 141 76 36
-12.926 2.5639999 -0.62900001 212 164 115
-12.784 2.5350001 -0.58999997 87 43 14
-12.766 2.5339999 -0.59500003 149 104 73
-12.796 2.5280001 -0.59200001 120 77 22
-12.793 2.5339999 -0.59200001 136 93 40
-12.929 2.549 -0.625 179 126 94
-12.924 2.527 -0.62300003 145 110 91
-12.922 2.5409999 -0.62400001 160 111 79
-12.8 2.552 -0.61500001 124 81 36
-12.794 2.552 -0.60299999 149 105 60
-12.872 2.5510001 -0.63200003 120 68 11
-12.852 2.5510001 -0.63999999 124 62 21
-12.853 2.5510001 -0.63200003 141 95 46
-12.86 2.536 -0.62199998 62 34 20
-12.803 2.5239999 -0.67299998 55 23 2
-12.785 2.3670001 -0.699 98 68 16
-12.908 2.563 -0.67400002 110 73 54
-12.915 2.5539999 -0.63300002 176 99 57
-12.902 2.5480001 -0.62699997 157 106 51
-12.92 2.523 -0.70999998 88 27 0
-12.909 2.549 -0.67299998 94 31 0
-12.861 2.5250001 -0.62099999 203 150 84
-12.871 2.5250001 -0.62400001 162 76 15
-12.885 2.5109999 -0.616 172 123 93
-12.895 2.5179999 -0.61900002 116 77 36
-12.809 2.365 -0.67400002 104 64 38
-12.822 2.345 -0.685 145 62 0
-12.799 2.3440001 -0.68199998 58 27 6
-12.793 2.3540001 -0.68300003 245 207 170
-12.805 2.3329999 -0.704 194 141 73
-12.81 2.339 -0.704 226 158 95
-12.822 2.345 -0.70899999 226 154 78
-12.804 2.3440001 -0.70999998 227 172 108
-12.82 2.4230001 -1.0700001 129 59 8
-12.824 2.428 -1.062 161 101 67
-12.816 2.425 -1.071 77 48 42
-12.83 2.411 -1.061 137 109 88
-12.824 2.4100001 -1.092 130 66 30
-12.837 2.4719999 -0.889 63 26 7
-12.845 2.5150001 -0.89200002 76 16 0
-12.854 2.5139999 -0.87199998 171 104 62
-12.871 2.411 -1.096 71 27 0
-12.879 2.4300001 -1.0930001 123 63 27
-12.873 2.411 -1.0880001 99 37 0
-12.897 2.405 -1.0779999 168 94 45
-12.875 2.3829999 -1.081 242 151 72
-12.874 2.3989999 -1.081 121 69 30
-12.841 2.427 -0.93400002 58 38 11
-12.84 2.4189999 -0.94 71 42 28
-12.845 2.4300001 -0.93699998 84 28 1
-12.839 2.421 -0.93599999 115 53 4
-12.876 2.4000001 -0.94599998 156 65 0
-12.894 2.4030001 -0.954 94 67 22
-12.869 2.398 -0.98400003 230 179 116
-12.867 2.3970001 -0.99699998 170 105 49
-12.86 2.3929999 -0.995 194 149 108
-12.851 2.375 -1.084 229 151 51
-12.841 2.392 -1.074 202 155 103
-12.837 2.4059999 -1.103 123 76 46
-12.843 2.4070001 -1.102 93 33 0
-12.888 2.494 -0.80599999 129 77 40
-12.909 2.5050001 -0.801 82 33 3
-12.895 2.503 -0.79100001 203 160 115
-12.824 2.398 -0.861 87 45 20
-12.851 2.401 -0.847 107 48 8
-12.849 2.3959999 -0.83600003 85 41 14
-12.849 2.398 -0.83200002 185 129 92
-12.874 2.4489999 -0.89999998 133 56 10
-12.867 2.4449999 -0.898 100 31 0
-12.888 2.447 -0.89200002 147 106 60
-12.874 2.4590001 -0.89499998 117 73 48
-12.883 2.4549999 -0.88300002 164 97 52
-12.877 2.4630001 -0.88200003 113 50 32
-12.879 2.4560001 -0.88 173 122 77
-12.843 2.411 -0.96200001 159 99 63
-12.847 2.405 -0.86900002 80 26 0
-12.856 2.4070001 -0.86299998 146 74 15
-12.891 2.411 -1.053 131 51 14
-12.892 2.4089999 -1.057 110 42 0
-12.893 2.4059999 -0.94199997 94 44 17
-12.884 2.402 -1.027 237 179 115
-12.878 2.4059999 -0.99400002 123 65 25
-12.869 2.3989999 -1.0039999 179 116 63
-12.881 2.401 -1.0319999 192 134 86
-12.87 2.4030001 -1.023 172 122 69
-12.895 2.4159999 -0.93900001 83 34 2
-12.888 2.4100001 -0.92199999 197 133 69
-12.888 2.415 -0.921 217 139 57
-12.878 2.45 -0.94999999 63 14 0
-12.885 2.4330001 -0.958 190 126 80
-12.883 2.428 -0.94199997 125 52 7
-12.89 2.4000001 -1.063 195 109 48
-12.892 2.3929999 -1.071 122 66 5
-12.852 2.4430001 -0.96499997 94 25 0
-12.852 2.4530001 -0.96399999 53 17 3
-12.893 2.4630001 -1.098 105 77 63
-12.888 2.464 -1.096 167 132 102
-12.882 2.46 -1.105 174 152 139
-12.882 2.4549999 -1.098 87 31 0
-12.866 2.4389999 -1.1059999 97 41 8
-12.845 2.467 -0.95099998 45 12 0
-12.848 2.4619999 -0.95099998 78 64 29
-12.867 2.484 -0.76899999 201 148 108
-12.9 2.4990001 -0.787 143 71 13
-12.897 2.4949999 -0.78500003 126 87 46
-12.917 2.5190001 -0.80500001 58 29 11
-12.92 2.513 -0.801 77 33 0
-12.911 2.5190001 -0.78899997 68 39 23
-12.911 2.5220001 -0.778 194 163 145
-12.906 2.516 -0.78299999 93 41 20
-12.854 2.4649999 -1.063 61 34 27
-12.858 2.4579999 -1.073 34 5 0
-12.876 2.45 -0.99900001 76 25 8
-12.87 2.4590001 -1.006 112 97 92
-12.887 2.444 -1.0089999 63 18 0
-12.831 2.49 -0.92799997 68 36 21
-12.829 2.49 -0.92400002 45 17 5
-12.823 2.4920001 -0.93000001 137 103 76
-12.845 2.5050001 -0.91799998 105 74 43
-12.841 2.4909999 -0.935 100 68 47
-12.891 2.497 -0.84399998 126 67 25
-12.898 2.493 -0.84799999 129 64 22
-12.873 2.4719999 -0.89999998 99 55 26
-12.87 2.477 -0.89999998 136 58 10
-12.867 2.4749999 -0.89399999 64 26 3
-12.893 2.4890001 -0.83399999 126 76 43
-12.886 2.4760001 -0.85299999 90 60 50
-12.857 2.4890001 -0.77100003 51 10 0
-12.859 2.4860001 -0.77499998 88 43 12
-12.846 2.5150001 -0.86699998 112 68 31
-12.861 2.5 -0.685 76 25 0
-12.875 2.51 -0.64200002 130 75 44
-12.87 2.5039999 -0.63700002 85 40 1
-12.867 2.5020001 -0.61500001 100 35 0
-12.79 2.4990001 -0.59899998 141 101 75
-12.796 2.3729999 -0.68599999 228 166 81
-12.806 2.3710001 -0.67799997 208 148 62
-12.803 2.375 -0.68599999 158 108 49
-12.942 2.5139999 -0.639 222 188 124
-12.873 2.507 -0.63700002 151 81 30
-12.801 2.3529999 -0.68000001 120 68 11
-12.813 2.3340001 -0.68900001 255 199 106
-12.815 2.3380001 -0.68800002 166 99 47
-12.799 2.3380001 -0.68300003 63 26 0
-12.801 2.3559999 -0.71899998 118 85 50
-12.805 2.3540001 -0.713 178 130 107
-12.818 2.3800001 -0.73799998 109 56 24
-12.8 2.3699999 -0.73299998 81 56 25
-12.822 2.3859999 -0.73199999 144 86 48
-12.846 2.3740001 -0.72500002 176 92 28
-12.841 2.3759999 -0.73000002 112 53 23
-12.804 2.382 -0.70099998 120 69 38
-12.799 2.3729999 -0.69 162 102 16
-12.805 2.3829999 -0.71200001 171 103 42
-12.797 2.3729999 -0.713 144 92 68
-12.828 2.395 -0.72600001 87 40 0
-12.834 2.3959999 -0.73000002 178 113 55
-12.844 2.3900001 -0.71700001 113 92 75
-12.939 2.5280001 -0.72000003 92 56 22
-12.845 2.4690001 -0.79400003 116 49 6
-12.835 2.3889999 -0.76599997 60 32 8
-12.834 2.3940001 -0.78500003 73 29 0
-12.835 2.392 -0.78399998 91 36 0
-12.827 2.388 -0.78200001 52 24 10
-12.831 2.3889999 -0.773 44 21 5
-12.829 2.3640001 -0.72399998 216 131 74
-12.84 2.369 -0.72500002 112 55 25
-12.827 2.3659999 -0.73100001 120 51 0
-12.811 2.388 -0.71700001 111 81 53
-12.809 2.3889999 -0.708 134 99 79
-12.831 2.395 -0.71200001 244 179 95
-12.826 2.391 -0.70999998 172 123 90
-12.816 2.4920001 -0.77100003 117 54 13
-12.829 2.388 -0.76999998 83 56 39
-12.834 2.3889999 -0.759 100 69 40
-12.817 2.3710001 -0.755 255 220 184
-12.831 2.375 -0.76899999 175 140 118
-12.817 2.378 -0.75800002 87 52 20
-12.828 2.375 -0.75800002 74 24 0
-12.863 2.49 -0.79000002 167 113 67
-12.838 2.48 -0.88200003 116 74 34
-12.828 2.503 -0.88 140 94 68
-12.84 2.4879999 -0.889 82 20 0
-12.807 2.4979999 -0.77600002 90 50 15
-12.82 2.487 -0.79299998 87 56 28
-12.825 2.4790001 -0.80500001 74 33 5
-12.839 2.4920001 -0.79299998 115 66 25
-12.836 2.4860001 -0.79900002 130 81 40
-12.803 2.4990001 -0.759 66 16 0
-12.801 2.5 -0.76499999 80 30 3
-12.8 2.507 -0.73900002 73 38 10
-12.804 2.5039999 -0.74699998 56 24 1
-12.836 2.517 -0.86799997 107 57 8
-12.843 2.5280001 -0.87699997 167 129 118
-12.873 2.4560001 -0.87300003 121 71 22
-12.863 2.454 -0.87699997 91 27 2
-12.865 2.4649999 -0.85399997 126 81 42
-12.86 2.4649999 -0.84799999 116 72 25
-12.854 2.457 -0.86799997 112 68 41
-12.88 2.467 -0.86799997 138 96 54
-12.871 2.483 -0.866 125 83 61
-12.879 2.48 -0.85399997 111 53 7
-12.885 2.464 -0.93000001 38 5 0
-12.884 2.451 -0.92500001 109 54 23
-12.912 2.559 -0.65200001 132 72 35
-12.931 2.533 -0.71200001 82 45 19
-12.939 2.54 -0.71399999 132 82 45
-12.936 2.5369999 -0.71399999 145 101 52
-12.938 2.533 -0.73799998 79 51 37
-12.916 2.5320001 -0.73400003 74 38 12
-12.812 2.523 -0.68300003 86 55 27
-12.809 2.5220001 -0.66900003 111 75 51
-12.807 2.52 -0.67000002 81 34 4
-12.881 2.5610001 -0.65200001 217 154 87
-12.882 2.5550001 -0.65200001 130 71 29
-12.881 2.549 -0.65600002 105 53 13
-12.883 2.5480001 -0.66100001 93 60 27
-12.885 2.563 -0.65499997 212 150 101
-12.901 2.516 -0.63599998 160 78 28
-12.913 2.516 -0.63800001 143 101 27
-12.9 2.5280001 -0.64499998 146 96 61
-12.915 2.5150001 -0.63 66 42 30
-12.921 2.5220001 -0.64200002 150 98 50
-12.922 2.5239999 -0.64600003 130 74 41
-12.911 2.5239999 -0.64099997 126 97 41
-12.914 2.5280001 -0.64399999 82 28 2
-12.907 2.533 -0.64999998 116 58 12
-12.914 2.5369999 -0.64899999 151 92 34
-12.912 2.5439999 -0.662 111 46 8
-12.915 2.5439999 -0.65799999 143 68 28
-12.89 2.454 -1.096 20 0 0
-12.93 2.53 -0.64999998 106 44 0
-12.934 2.5309999 -0.65200001 211 131 78
-12.791 2.513 -0.69800001 186 138 89
-12.8 2.516 -0.70700002 127 92 73
-12.803 2.5179999 -0.70099998 61 26 4
-12.77 2.5369999 -0.597 205 140 84
-12.804 2.5079999 -0.70999998 142 96 70
-12.794 2.5079999 -0.708 79 38 18
-12.788 2.51 -0.71399999 110 72 35
-12.778 2.549 -0.60299999 84 55 39
-12.94 2.5409999 -0.62099999 119 73 47
-12.816 2.503 -0.70499998 129 80 48
-12.865 2.5 -0.71799999 64 19 0
-12.867 2.5 -0.70499998 99 48 1
-12.878 2.5009999 -0.63999999 152 130 72
-12.885 2.526 -0.63999999 46 2 0
-12.889 2.5439999 -0.65399998 112 60 12
-12.857 2.506 -0.63099998 119 71 31
-12.799 2.5380001 -0.59200001 196 136 63
-12.928 2.5320001 -0.62099999 99 60 31
-12.919 2.5209999 -0.62099999 160 126 62
-12.804 2.5350001 -0.59299999 219 170 93
-12.808 2.5250001 -0.59299999 151 113 76
-12.802 2.5409999 -0.59299999 177 110 39
-12.851 2.5469999 -0.63499999 138 62 10
-12.824 2.543 -0.639 154 117 98
-12.818 2.536 -0.65399998 98 54 19
-12.826 2.5409999 -0.64700001 119 71 35
-12.804 2.5190001 -0.68000001 88 48 23
-12.795 2.5179999 -0.685 96 72 36
-12.795 2.5150001 -0.68900001 96 58 37
-12.871 2.55 -0.64300001 124 74 41
-12.854 2.54 -0.63200003 87 50 31
-12.872 2.533 -0.62300003 77 39 0
-12.785 2.546 -0.62099999 193 139 75
-12.804 2.5480001 -0.62099999 148 94 47
-12.768 2.536 -0.61699998 144 92 44
-12.768 2.5280001 -0.616 113 75 39
-12.768 2.517 -0.616 232 183 125
-12.773 2.5220001 -0.625 221 165 114
-12.786 2.369 -0.69199997 190 131 73
-12.907 2.5739999 -0.64999998 220 152 87
-12.911 2.575 -0.64200002 152 122 68
-12.908 2.572 -0.65100002 158 116 94
-12.907 2.575 -0.66900003 103 54 24
-12.918 2.5469999 -0.625 154 113 83
-12.903 2.5739999 -0.64300001 99 51 11
-12.932 2.53 -0.713 145 92 50
-12.895 2.553 -0.63499999 108 52 15
-12.89 2.51 -0.62 89 32 0
-12.888 2.51 -0.62400001 134 53 0
-12.828 2.346 -0.68400002 183 123 71
-12.819 2.365 -0.676 82 31 0
-12.797 2.3369999 -0.708 159 93 43
-12.827 2.4189999 -1.066 195 107 44
-12.826 2.425 -1.064 128 75 35
-12.851 2.404 -1.0599999 191 144 90
-12.845 2.4119999 -1.056 202 136 88
-12.824 2.4189999 -1.08 134 57 5
-12.837 2.404 -1.075 240 133 61
-12.826 2.415 -1.087 59 20 3
-12.826 2.4349999 -1.08 196 148 110
-12.821 2.431 -1.074 68 21 0
-12.831 2.4319999 -1.085 200 149 104
-12.839 2.4360001 -1.104 96 58 22
-12.84 2.4389999 -1.081 76 35 5
-12.842 2.447 -1.074 80 53 46
-12.833 2.405 -1.092 154 95 61
-12.838 2.4319999 -0.93099999 210 149 118
-12.831 2.4219999 -0.92299998 83 34 4
-12.832 2.4590001 -0.93099999 40 12 0
-12.835 2.4130001 -0.86699998 140 87 47
-12.827 2.425 -0.88300002 71 47 21
-12.83 2.4260001 -0.87400001 53 18 0
-12.832 2.5079999 -0.90200001 189 115 80
-12.826 2.51 -0.89099997 57 22 0
-12.829 2.52 -0.89200002 63 28 8
-12.849 2.5079999 -0.88200003 62 36 13
-12.855 2.507 -0.875 118 64 28
-12.844 2.424 -1.1160001 95 52 33
-12.87 2.408 -1.095 98 38 2
-12.87 2.421 -1.096 171 103 64
-12.871 2.392 -1.0930001 197 116 53
-12.878 2.4560001 -1.0880001 27 6 1
-12.878 2.46 -1.072 78 30 7
-12.872 2.4630001 -1.029 113 73 48
-12.884 2.45 -1.021 78 41 22
-12.866 2.4760001 -1.028 181 124 81
-12.866 2.4719999 -1.022 170 126 87
-12.842 2.4070001 -0.954 205 153 103
-12.839 2.4100001 -0.96600002 65 48 20
-12.864 2.3970001 -0.98500001 156 110 51
-12.833 2.4449999 -0.92400002 63 24 9
-12.851 2.382 -1.076 111 72 0
-12.848 2.392 -1.08 177 112 58
-12.846 2.3989999 -1.092 70 20 0
-12.84 2.3940001 -1.075 186 127 85
-12.85 2.3940001 -1.089 111 32 0
-12.85 2.385 -1.094 114 51 0
-12.865 2.5 -0.81800002 146 86 36
-12.856 2.507 -0.82300001 119 71 35
-12.869 2.4960001 -0.80699998 161 112 69
-12.879 2.5039999 -0.81400001 120 69 38
-12.877 2.4960001 -0.80599999 122 86 50
-12.882 2.4909999 -0.80199999 109 40 1
-12.882 2.427 -0.935 178 105 52
-12.874 2.4460001 -0.926 159 116 71
-12.882 2.444 -0.92199999 104 40 0
-12.88 2.4489999 -0.91799998 100 61 32
-12.873 2.4430001 -0.91500002 115 80 52
-12.864 2.4760001 -0.89999998 55 29 14
-12.858 2.4809999 -0.90399998 85 56 48
-12.859 2.4760001 -0.89899999 99 37 0
-12.824 2.398 -0.85799998 115 74 46
-12.831 2.405 -0.86000001 36 4 0
-12.852 2.438 -0.87300003 189 141 92
-12.854 2.45 -0.875 157 105 65
-12.859 2.454 -0.875 108 60 14
-12.85 2.405 -0.87400001 99 30 0
-12.847 2.3970001 -0.85500002 130 61 20
-12.842 2.395 -0.84899998 121 60 16
-12.837 2.395 -0.84899998 109 61 25
-12.831 2.405 -0.83399999 115 73 51
-12.847 2.4100001 -0.83899999 50 19 0
-12.887 2.4230001 -0.92199999 255 216 164
-12.886 2.4189999 -0.93300003 190 93 38
-12.848 2.4070001 -0.88599998 104 33 0
-12.859 2.4189999 -0.88999999 165 102 51
-12.859 2.4170001 -0.88499999 101 67 40
-12.864 2.444 -0.88599998 126 65 34
-12.852 2.428 -0.88300002 158 128 117
-12.884 2.4219999 -0.917 219 183 131
-12.863 2.4030001 -0.96799999 99 55 8
-12.862 2.4070001 -0.86500001 160 110 75
-12.892 2.4100001 -1.05 185 115 63
-12.886 2.4119999 -1.058 143 87 40
-12.883 2.415 -1.053 69 22 0
-12.872 2.404 -0.95499998 118 46 0
-12.859 2.398 -0.95599997 135 54 7
-12.883 2.402 -0.94599998 100 30 0
-12.878 2.4070001 -1 122 64 26
-12.885 2.4230001 -1.002 55 23 2
-12.88 2.4319999 -0.94599998 103 59 20
-12.879 2.3940001 -1.063 183 142 76
-12.879 2.441 -1.058 81 33 10
-12.872 2.45 -1.0599999 117 78 45
-12.888 2.438 -1.072 174 91 37
-12.888 2.4400001 -1.075 95 44 1
-12.846 2.4159999 -1.046 132 102 76
-12.889 2.4679999 -1.098 159 119 94
-12.871 2.4530001 -1.084 85 30 0
-12.869 2.4489999 -1.084 25 1 0
-12.84 2.467 -0.94499999 62 25 6
-12.886 2.434 -0.96899998 119 56 15
-12.879 2.454 -0.958 54 4 0
-12.868 2.4879999 -0.77200001 180 108 50
-12.885 2.5039999 -0.77399999 105 77 73
-12.929 2.5350001 -0.72799999 76 44 29
-12.896 2.4990001 -0.78799999 126 76 39
-12.903 2.507 -0.76800001 120 71 30
-12.885 2.5079999 -0.76700002 147 104 72
-12.891 2.51 -0.77200001 108 71 42
-12.905 2.5090001 -0.792 117 52 10
-12.917 2.523 -0.78299999 43 14 0
-12.861 2.4619999 -1.066 35 11 1
-12.864 2.47 -1.017 149 85 37
-12.863 2.473 -1.021 144 78 30
-12.863 2.4719999 -1.007 162 120 82
-12.882 2.474 -0.94 53 16 0
-12.882 2.474 -0.94599998 117 66 39
-12.881 2.4909999 -0.95499998 147 116 96
-12.886 2.4790001 -0.93099999 139 69 20
-12.881 2.477 -0.917 58 24 0
-12.879 2.4790001 -0.95200002 99 55 16
-12.834 2.49 -0.92199999 56 28 16
-12.833 2.487 -0.91399997 58 27 7
-12.831 2.4860001 -0.93199998 72 40 25
-12.826 2.4860001 -0.93199998 36 5 0
-12.871 2.4820001 -0.87599999 124 75 43
-12.869 2.484 -0.875 164 122 100
-12.865 2.48 -0.87099999 143 84 54
-12.867 2.4909999 -0.91500002 55 28 17
-12.863 2.477 -0.88200003 62 17 0
-12.88 2.4909999 -0.85600001 103 54 21
-12.852 2.5079999 -0.87199998 151 80 38
-12.845 2.497 -0.88 151 83 46
-12.852 2.506 -0.875 169 104 66
-12.897 2.5050001 -0.83899999 95 78 52
-12.896 2.5 -0.83999997 62 31 13
-12.884 2.4749999 -0.91600001 76 28 8
-12.916 2.5120001 -0.81599998 72 41 20
-12.917 2.5139999 -0.80599999 109 60 27
-12.919 2.507 -0.80699998 198 149 119
-12.905 2.5120001 -0.82099998 40 14 1
-12.902 2.497 -0.82800001 142 78 42
-12.897 2.5009999 -0.83399999 173 110 69
-12.88 2.467 -0.86500001 120 78 36
-12.892 2.4849999 -0.84899998 135 75 39
-12.883 2.4719999 -0.838 150 100 67
-12.881 2.484 -0.829 108 36 0
-12.871 2.4820001 -0.81699997 112 63 22
-12.88 2.5179999 -0.62300003 104 68 18
-12.897 2.526 -0.62099999 107 61 28
-12.873 2.5079999 -0.62 99 45 0
-12.783 2.5039999 -0.60699999 176 125 80
-12.789 2.5039999 -0.59399998 120 54 6
-12.782 2.5009999 -0.597 185 124 67
-12.824 2.378 -0.704 118 71 45
-12.839 2.388 -0.71100003 167 126 94
-12.835 2.3829999 -0.70999998 205 143 92
-12.812 2.382 -0.69999999 141 114 105
-12.814 2.3699999 -0.69099998 128 100 76
-12.823 2.3729999 -0.70200002 216 164 106
-12.927 2.513 -0.63800001 181 119 58
-12.859 2.5250001 -0.63099998 172 109 42
-12.838 2.365 -0.71600002 139 63 13
-12.819 2.358 -0.713 127 56 12
-12.835 2.3659999 -0.71399999 80 53 36
-12.813 2.3870001 -0.708 217 149 100
-12.828 2.368 -0.71100003 134 85 42
-12.795 2.3729999 -0.69999999 94 40 0
-12.796 2.3740001 -0.70499998 152 112 76
-12.792 2.3710001 -0.699 146 81 39
-12.829 2.388 -0.75400001 64 37 30
-12.827 2.385 -0.75700003 227 193 158
-12.838 2.3929999 -0.72600001 132 94 71
-12.864 2.4790001 -0.80299997 142 91 48
-12.868 2.4820001 -0.80599999 65 13 0
-12.829 2.3859999 -0.81699997 150 89 35
-12.828 2.391 -0.81699997 97 74 43
-12.842 2.4760001 -0.79400003 94 60 23
-12.86 2.4760001 -0.80599999 109 42 0
-12.858 2.4760001 -0.81 88 37 0
-12.856 2.477 -0.80699998 156 101 47
-12.822 2.362 -0.72600001 97 36 0
-12.809 2.385 -0.71600002 128 67 23
-12.806 2.3699999 -0.73000002 129 93 59
-12.834 2.3889999 -0.76999998 48 21 2
-12.833 2.388 -0.77399999 93 38 0
-12.826 2.385 -0.77100003 106 78 57
-12.836 2.3829999 -0.76099998 168 133 105
-12.862 2.4860001 -0.77899998 68 24 0
-12.838 2.48 -0.88599998 94 58 24
-12.842 2.4630001 -0.88999999 101 58 24
-12.831 2.4779999 -0.86900002 102 64 43
-12.833 2.4749999 -0.85100001 100 50 23
-12.831 2.4760001 -0.87 131 77 43
-12.847 2.4949999 -0.81199998 58 25 0
-12.838 2.4979999 -0.81400001 158 90 41
-12.854 2.4990001 -0.82099998 119 63 30
-12.801 2.5 -0.77100003 75 28 0
-12.804 2.5009999 -0.764 104 65 34
-12.842 2.494 -0.80299997 74 51 17
-12.832 2.49 -0.80400002 97 59 12
-12.826 2.4749999 -0.81800002 118 60 12
-12.818 2.483 -0.81199998 126 66 30
-12.845 2.4960001 -0.79900002 73 31 7
-12.828 2.52 -0.87699997 191 134 55
-12.875 2.4649999 -0.84899998 111 53 5
-12.878 2.467 -0.84100002 109 63 11
-12.877 2.467 -0.84500003 118 69 29
-12.884 2.467 -0.93699998 49 14 0
-12.91 2.5639999 -0.66500002 118 72 39
-12.922 2.5309999 -0.71100003 63 50 44
-12.928 2.5280001 -0.71899998 141 96 54
-12.916 2.533 -0.74599999 85 50 22
-12.916 2.5369999 -0.75 110 75 45
-12.819 2.5020001 -0.70200002 171 109 62
-12.892 2.513 -0.63499999 148 97 44
-12.899 2.526 -0.64099997 113 48 10
-12.909 2.546 -0.67199999 90 50 15
-12.903 2.5239999 -0.63999999 162 93 51
-12.899 2.543 -0.66000003 134 80 33
-12.888 2.46 -1.096 68 39 21
-12.886 2.438 -1.099 110 64 31
-12.887 2.4360001 -1.087 106 60 37
-12.892 2.434 -1.081 96 30 0
-12.808 2.513 -0.69499999 121 76 35
-12.802 2.5179999 -0.59200001 79 41 2
-12.8 2.526 -0.64399999 100 36 8
-12.787 2.5220001 -0.64600003 55 26 12
-12.791 2.526 -0.64600003 81 49 24
-12.8 2.5090001 -0.71100003 113 93 82
-12.764 2.529 -0.59899998 52 17 0
-12.764 2.5220001 -0.59399998 142 107 79
-12.777 2.5250001 -0.59299999 206 153 103
-12.764 2.52 -0.60399997 201 126 71
-12.764 2.5179999 -0.59500003 114 71 39
-12.768 2.516 -0.59899998 166 120 87
-12.775 2.5120001 -0.59399998 110 80 56
-12.776 2.5369999 -0.61699998 147 87 35
-12.783 2.549 -0.60699999 171 112 46
-12.855 2.4820001 -0.76300001 165 106 46
-12.865 2.5 -0.63200003 108 51 24
-12.876 2.51 -0.64399999 126 59 7
-12.892 2.5369999 -0.64399999 187 104 36
-12.857 2.5250001 -0.63099998 121 67 23
-12.858 2.5309999 -0.63999999 108 52 1
-12.857 2.5090001 -0.62199998 113 68 29
-12.829 2.5039999 -0.61500001 243 183 113
-12.832 2.5 -0.60900003 124 72 33
-12.827 2.507 -0.62199998 124 73 26
-12.841 2.5150001 -0.62099999 138 63 6
-12.833 2.5139999 -0.62099999 174 111 68
-12.835 2.5039999 -0.60500002 101 46 5
-12.928 2.5339999 -0.65600002 67 29 6
-12.791 2.5510001 -0.597 115 81 56
-12.792 2.553 -0.60900003 157 102 45
-12.791 2.543 -0.59100002 173 103 34
-12.792 2.5469999 -0.59500003 166 96 26
-12.803 2.5280001 -0.59299999 255 227 156
-12.806 2.5450001 -0.60600001 251 208 174
-12.811 2.5469999 -0.60900003 127 86 56
-12.797 2.5039999 -0.61400002 128 58 9
-12.806 2.5139999 -0.68900001 82 37 4
-12.801 2.5209999 -0.68300003 101 65 31
-12.796 2.5139999 -0.69599998 70 29 9
-12.867 2.5469999 -0.63700002 147 107 81
-12.868 2.5280001 -0.634 169 118 63
-12.863 2.5339999 -0.62300003 102 46 13
-12.811 2.5339999 -0.65100002 115 87 76
-12.813 2.533 -0.64099997 155 104 51
-12.813 2.5309999 -0.64700001 132 85 59
-12.767 2.527 -0.61299998 82 32 5
-12.774 2.5350001 -0.62199998 136 109 98
-12.785 2.543 -0.62199998 94 44 7
-12.769 2.533 -0.61199999 182 137 104
-12.786 2.3529999 -0.69400001 228 183 98
-12.898 2.5669999 -0.64200002 166 97 40
-12.888 2.54 -0.625 219 164 133
-12.82 2.365 -0.68099999 234 185 106
-12.811 2.3670001 -0.67500001 199 139 53
-12.796 2.3340001 -0.70499998 183 121 62
-12.819 2.424 -1.077 121 68 34
-12.821 2.431 -1.0700001 88 46 22
-12.829 2.4289999 -1.069 69 23 0
-12.829 2.425 -1.061 192 134 84
-12.832 2.4089999 -1.087 154 106 66
-12.827 2.4300001 -0.884 160 111 78
-12.826 2.4349999 -0.88099998 50 15 0
-12.836 2.4219999 -0.89200002 170 142 128
-12.842 2.4089999 -0.88499999 52 23 7
-12.83 2.4560001 -0.93099999 39 11 0
-12.83 2.4560001 -0.92699999 45 14 0
-12.833 2.405 -0.86400002 53 21 6
-12.842 2.46 -0.87900001 82 38 3
-12.844 2.4630001 -0.87099999 93 52 20
-12.848 2.5 -0.91000003 109 81 67
-12.853 2.5020001 -0.917 65 34 5
-12.845 2.5009999 -0.91100001 97 64 29
-12.847 2.493 -0.93199998 86 45 17
-12.847 2.5020001 -0.91900003 46 18 0
-12.9 2.506 -0.829 176 118 72
-12.845 2.4909999 -0.903 248 192 143
-12.84 2.5020001 -0.88599998 151 87 49
-12.833 2.483 -0.91000003 46 14 0
-12.823 2.4820001 -0.93300003 61 30 9
-12.832 2.4849999 -0.91900003 58 25 10
-12.839 2.5209999 -0.89300001 146 124 113
-12.836 2.5150001 -0.89399999 164 109 70
-12.849 2.438 -1.08 99 45 9
-12.876 2.4300001 -1.101 147 89 51
-12.873 2.427 -1.105 123 54 13
-12.866 2.4349999 -1.1059999 99 55 16
-12.873 2.388 -1.075 123 87 71
-12.877 2.431 -1.087 177 119 79
-12.877 2.4219999 -1.072 164 102 63
-12.84 2.4530001 -1.072 152 106 80
-12.843 2.4460001 -1.0700001 75 25 0
-12.868 2.4860001 -0.95899999 39 15 3
-12.867 2.4860001 -0.95499998 45 17 3
-12.871 2.49 -0.95599997 52 25 8
-12.857 2.4779999 -1.023 67 33 5
-12.854 2.4749999 -1.018 82 52 26
-12.854 2.4749999 -1.026 52 23 7
-12.862 2.471 -1.0369999 177 100 48
-12.849 2.47 -1.035 89 49 24
-12.879 2.448 -1.013 36 2 0
-12.872 2.4579999 -1.011 56 27 21
-12.861 2.4030001 -0.92000002 224 145 78
-12.87 2.411 -0.917 196 138 101
-12.87 2.4030001 -0.92199999 193 142 89
-12.85 2.451 -0.95099998 125 42 2
-12.848 2.4089999 -0.92900002 185 109 47
-12.85 2.402 -0.95200002 96 47 4
-12.843 2.3940001 -0.97299999 107 47 11
-12.864 2.3970001 -0.98900002 92 45 0
-12.831 2.4530001 -0.92000002 72 30 8
-12.831 2.4560001 -0.92400002 80 44 18
-12.835 2.4330001 -0.89099997 69 40 24
-12.839 2.4330001 -0.91100001 91 61 37
-12.834 2.48 -0.903 177 131 108
-12.874 2.404 -1.035 148 96 48
-12.875 2.4070001 -1.045 139 69 7
-12.842 2.402 -1.082 112 62 27
-12.889 2.4400001 -1.103 165 111 73
-12.85 2.4059999 -1.099 141 91 54
-12.903 2.5139999 -0.80500001 45 16 0
-12.883 2.4960001 -0.80800003 91 67 55
-12.878 2.4330001 -0.921 165 123 99
-12.86 2.4579999 -0.86900002 85 35 0
-12.875 2.45 -0.90100002 137 77 41
-12.843 2.395 -0.85900003 151 87 39
-12.838 2.3970001 -0.861 100 31 0
-12.844 2.4030001 -0.87099999 96 59 40
-12.845 2.405 -0.87900001 84 35 5
-12.844 2.3959999 -0.84600002 125 65 28
-12.852 2.402 -0.85399997 90 30 0
-12.86 2.414 -0.85699999 86 51 29
-12.854 2.4100001 -0.85799998 110 69 41
-12.853 2.414 -0.866 79 52 35
-12.835 2.4089999 -0.82800001 65 34 6
-12.835 2.4059999 -0.82700002 148 104 79
-12.831 2.3970001 -0.83700001 127 68 38
-12.881 2.405 -0.91500002 221 172 106
-12.865 2.4389999 -0.91299999 82 25 0
-12.87 2.4200001 -0.90799999 88 41 13
-12.889 2.4119999 -0.91799998 244 213 148
-12.887 2.4089999 -0.917 251 212 147
-12.857 2.4089999 -0.87300003 127 56 2
-12.844 2.4100001 -0.85600001 102 70 47
-12.876 2.398 -0.93099999 207 109 38
-12.89 2.408 -1.043 186 120 62
-12.878 2.424 -1.059 107 53 19
-12.858 2.4000001 -0.99900001 130 62 15
-12.85 2.4030001 -0.99400002 130 82 36
-12.883 2.4200001 -1 67 21 0
-12.881 2.4219999 -0.99400002 119 82 53
-12.882 2.4230001 -0.97500002 60 35 13
-12.868 2.4530001 -0.98799998 82 22 0
-12.869 2.4560001 -0.99699998 56 31 24
-12.884 2.398 -1.061 255 214 139
-12.853 2.4430001 -0.96100003 73 10 0
-12.876 2.494 -0.958 69 41 20
-12.878 2.4909999 -0.96200001 46 22 10
-12.872 2.4560001 -1.082 24 0 0
-12.854 2.454 -1.0779999 92 29 0
-12.839 2.3970001 -0.97600001 135 70 42
-12.855 2.4000001 -0.97500002 221 170 113
-12.894 2.411 -0.95499998 115 48 6
-12.88 2.4300001 -0.98000002 69 32 13
-12.878 2.4130001 -0.96100003 124 48 12
-12.879 2.4189999 -0.96899998 159 97 60
-12.871 2.497 -0.76599997 113 64 24
-12.937 2.5350001 -0.72000003 103 50 16
-12.935 2.5309999 -0.72399998 158 114 77
-12.929 2.5350001 -0.71799999 89 56 39
-12.927 2.526 -0.741 131 82 42
-12.933 2.53 -0.736 126 77 37
-12.923 2.5339999 -0.73699999 50 15 0
-12.899 2.5 -0.778 158 110 72
-12.906 2.5039999 -0.76999998 135 81 34
-12.9 2.5090001 -0.78200001 114 66 28
-12.917 2.5220001 -0.76800001 115 72 40
-12.917 2.5209999 -0.77399999 161 112 71
-12.915 2.517 -0.764 103 58 19
-12.922 2.516 -0.77600002 161 119 81
-12.919 2.53 -0.75400001 53 15 0
-12.918 2.5190001 -0.787 37 7 0
-12.922 2.5339999 -0.75099999 69 32 5
-12.853 2.4790001 -0.94999999 85 57 45
-12.862 2.4790001 -0.95700002 56 28 7
-12.867 2.464 -1.056 100 54 18
-12.858 2.4649999 -1.058 122 26 0
-12.87 2.4560001 -1.001 47 11 0
-12.885 2.474 -0.93699998 54 15 0
-12.839 2.487 -0.93800002 60 28 7
-12.85 2.487 -0.93599999 36 8 0
-12.844 2.477 -0.94300002 88 46 21
-12.889 2.506 -0.84100002 164 119 90
-12.874 2.5 -0.84500003 96 40 5
-12.894 2.51 -0.83600003 103 68 30
-12.888 2.523 -0.82700002 222 179 136
-12.863 2.483 -0.85100001 78 49 41
-12.845 2.4949999 -0.87199998 137 64 19
-12.839 2.507 -0.86500001 175 106 65
-12.873 2.4790001 -0.91500002 101 60 30
-12.873 2.4790001 -0.917 80 49 21
-12.872 2.477 -0.92199999 105 47 10
-12.883 2.477 -0.92900002 84 49 27
-12.876 2.477 -0.912 93 57 31
-12.896 2.5120001 -0.82800001 70 47 33
-12.892 2.513 -0.82599998 82 43 14
-12.875 2.5090001 -0.82499999 118 60 23
-12.883 2.516 -0.82700002 114 57 14
-12.912 2.5079999 -0.82200003 61 29 4
-12.916 2.503 -0.80699998 205 142 75
-12.865 2.4749999 -0.82200003 126 69 39
-12.801 2.5039999 -0.74199998 57 23 0
-12.777 2.5050001 -0.59899998 120 77 35
-12.779 2.506 -0.61500001 125 61 17
-12.841 2.3859999 -0.71399999 202 149 73
-12.82 2.385 -0.708 148 97 54
-12.915 2.5139999 -0.62199998 93 49 14
-12.926 2.516 -0.64200002 76 44 31
-12.801 2.3499999 -0.68099999 209 145 81
-12.813 2.336 -0.69099998 254 205 128
-12.811 2.3570001 -0.71499997 148 83 19
-12.815 2.3740001 -0.75400001 75 39 7
-12.829 2.375 -0.755 70 30 5
-12.828 2.381 -0.75400001 134 73 29
-12.836 2.3710001 -0.73100001 124 57 12
-12.808 2.3710001 -0.73500001 77 43 15
-12.802 2.3789999 -0.70200002 120 59 5
-12.791 2.3699999 -0.69199997 117 86 65
-12.8 2.3770001 -0.704 93 42 0
-12.84 2.3989999 -0.72100002 142 85 14
-12.837 2.3900001 -0.72500002 187 132 91
-12.837 2.4089999 -0.82499999 126 93 58
-12.843 2.4159999 -0.81999999 151 122 80
-12.845 2.4130001 -0.81999999 255 229 191
-12.849 2.4200001 -0.81800002 147 114 71
-12.854 2.4760001 -0.82099998 99 44 14
-12.864 2.477 -0.81800002 94 42 2
-12.841 2.3840001 -0.80500001 170 121 80
-12.832 2.3970001 -0.82700002 125 79 53
-12.803 2.5009999 -0.76099998 115 76 47
-12.832 2.385 -0.76899999 139 107 82
-12.823 2.5109999 -0.86799997 78 45 26
-12.827 2.51 -0.88 123 77 44
-12.832 2.434 -0.88499999 119 67 28
-12.831 2.3870001 -0.78899997 104 55 15
-12.835 2.503 -0.88200003 107 61 35
-12.841 2.5109999 -0.86500001 100 60 24
-12.844 2.494 -0.829 74 47 36
-12.847 2.4949999 -0.83700001 157 117 92
-12.805 2.5009999 -0.76800001 61 22 0
-12.822 2.4890001 -0.80900002 87 52 22
-12.818 2.4879999 -0.80800003 106 79 58
-12.832 2.48 -0.80299997 155 90 52
-12.826 2.4779999 -0.80900002 123 64 30
-12.827 2.4319999 -0.87699997 100 60 35
-12.829 2.4360001 -0.875 65 27 0
-12.829 2.527 -0.88800001 114 72 32
-12.828 2.5050001 -0.88 83 45 24
-12.85 2.4679999 -0.83600003 142 83 39
-12.843 2.4100001 -0.83399999 47 16 0
-12.827 2.5150001 -0.86699998 108 80 56
-12.879 2.46 -0.86799997 197 145 87
-12.873 2.4590001 -0.86799997 137 65 25
-12.876 2.4660001 -0.84100002 169 107 48
-12.882 2.471 -0.85100001 103 53 28
-12.859 2.461 -0.866 176 127 84
-12.859 2.464 -0.86199999 130 87 44
-12.858 2.477 -0.884 67 25 3
-12.848 2.484 -0.88 55 17 8
-12.856 2.48 -0.87599999 102 58 33
-12.896 2.543 -0.66399997 159 77 29
-12.89 2.553 -0.66600001 154 101 57
-12.89 2.447 -1.092 32 4 0
-12.886 2.447 -1.079 65 31 6
-12.887 2.434 -1.075 131 82 41
-12.887 2.4119999 -1.067 77 22 1
-12.805 2.5179999 -0.69800001 124 87 60
-12.808 2.5039999 -0.60699999 149 80 23
-12.812 2.5020001 -0.611 155 104 57
-12.808 2.5280001 -0.64200002 126 56 7
-12.812 2.5209999 -0.63300002 204 143 88
-12.79 2.5480001 -0.616 117 68 35
-12.856 2.4820001 -0.759 184 124 54
-12.881 2.5050001 -0.63499999 153 98 34
-12.896 2.543 -0.65399998 211 126 62
-12.89 2.5450001 -0.64600003 170 126 101
-12.856 2.5350001 -0.63800001 99 41 4
-12.866 2.543 -0.63599998 148 94 34
-12.853 2.5380001 -0.639 151 105 71
-12.838 2.5339999 -0.62400001 152 107 78
-12.827 2.5350001 -0.64300001 152 113 72
-12.816 2.4990001 -0.616 83 33 0
-12.809 2.5050001 -0.625 175 123 76
-12.812 2.5050001 -0.62199998 128 77 30
-12.807 2.5009999 -0.61799997 143 90 48
-12.827 2.523 -0.62800002 105 32 0
-12.844 2.5239999 -0.62400001 160 100 48
-12.845 2.5250001 -0.61699998 122 80 40
-12.849 2.517 -0.61699998 134 91 23
-12.931 2.5450001 -0.62300003 122 86 64
-12.808 2.5090001 -0.59600002 110 78 53
-12.828 2.506 -0.60600001 166 109 66
-12.81 2.5450001 -0.61900002 174 112 65
-12.836 2.533 -0.61699998 147 81 33
-12.795 2.52 -0.685 69 28 0
-12.869 2.5480001 -0.63599998 107 70 25
-12.798 2.53 -0.64600003 157 106 63
-12.781 2.529 -0.62199998 66 31 11
-12.771 2.536 -0.60399997 186 116 65
-12.769 2.5339999 -0.61699998 154 107 79
-12.772 2.5320001 -0.61900002 77 20 0
-12.886 2.533 -0.62900001 95 61 49
-12.837 2.382 -0.70999998 186 134 77
-12.791 2.355 -0.68400002 148 114 53
-12.789 2.3559999 -0.69099998 174 98 46
-12.811 2.355 -0.67799997 172 125 55
-12.844 2.3929999 -1.073 164 95 40
-12.828 2.4330001 -1.076 162 100 63
-12.839 2.434 -1.064 112 52 26
-12.841 2.4530001 -1.0549999 162 113 81
-12.827 2.4170001 -1.087 101 43 6
-12.841 2.4300001 -1.114 76 18 0
-12.834 2.421 -1.104 105 51 15
-12.833 2.4189999 -1.105 38 8 0
-12.818 2.4300001 -1.041 233 136 59
-12.832 2.431 -1.048 61 16 0
-12.832 2.4449999 -1.043 133 80 46
-12.834 2.418 -1.053 212 119 49
-12.838 2.4189999 -1.0369999 57 12 0
-12.823 2.415 -1.097 39 7 0
-12.832 2.4579999 -0.92799997 75 44 39
-12.835 2.4630001 -0.92500001 93 46 16
-12.839 2.421 -0.88300002 113 34 0
-12.841 2.4089999 -0.87800002 40 10 0
-12.841 2.47 -0.86699998 82 36 10
-12.848 2.4690001 -0.86299998 90 25 0
-12.837 2.4890001 -0.91900003 143 78 46
-12.842 2.5050001 -0.903 111 75 41
-12.845 2.5009999 -0.90700001 104 69 37
-12.835 2.483 -0.89999998 86 59 38
-12.829 2.4860001 -0.926 34 3 0
-12.827 2.4860001 -0.92799997 59 26 11
-12.845 2.4219999 -1.113 149 110 93
-12.864 2.3710001 -1.09 201 115 54
-12.854 2.437 -1.105 84 44 8
-12.848 2.4330001 -1.103 72 33 4
-12.854 2.4300001 -1.1 81 37 8
-12.893 2.4100001 -1.064 164 96 49
-12.89 2.4100001 -1.058 157 80 34
-12.872 2.3840001 -1.094 140 85 28
-12.869 2.4349999 -1.104 138 89 46
-12.863 2.4400001 -1.102 74 35 4
-12.856 2.4389999 -1.08 96 41 11
-12.886 2.405 -1.0700001 104 45 13
-12.885 2.392 -1.077 237 158 99
-12.878 2.3889999 -1.08 109 38 0
-12.846 2.471 -1.012 56 30 7
-12.829 2.434 -1.022 85 28 0
-12.838 2.4360001 -1.008 39 11 0
-12.834 2.4360001 -1.022 46 17 3
-12.839 2.4389999 -1.0039999 49 24 17
-12.841 2.4619999 -1.0470001 70 27 0
-12.838 2.46 -1.039 153 80 29
-12.843 2.4660001 -1.028 153 109 70
-12.853 2.4690001 -1.007 116 83 66
-12.849 2.4679999 -1.001 143 110 77
-12.858 2.467 -0.99699998 104 79 72
-12.865 2.4649999 -1.012 170 116 80
-12.845 2.4330001 -1.003 27 8 1
-12.85 2.4159999 -0.94 98 51 7
-12.859 2.402 -0.93800002 138 59 2
-12.859 2.398 -0.93300003 165 73 0
-12.851 2.4000001 -0.93000001 126 63 19
-12.843 2.4059999 -0.88200003 74 45 31
-12.842 2.4059999 -0.875 65 24 4
-12.864 2.3970001 -0.99299997 84 39 0
-12.85 2.4679999 -0.95499998 109 60 30
-12.861 2.3900001 -1.072 255 228 147
-12.861 2.3929999 -1.072 203 164 87
-12.86 2.4059999 -1.0549999 82 38 0
-12.881 2.4070001 -1.052 111 52 12
-12.881 2.401 -1.0599999 215 162 92
-12.835 2.405 -1.097 115 57 17
-12.833 2.4100001 -1.064 181 87 26
-12.867 2.5039999 -0.83200002 47 17 0
-12.904 2.5139999 -0.80299997 98 42 15
-12.904 2.5039999 -0.81199998 129 83 49
-12.887 2.5020001 -0.81900001 61 27 2
-12.91 2.5150001 -0.80299997 41 10 0
-12.884 2.4979999 -0.82200003 89 29 1
-12.886 2.5020001 -0.81699997 126 87 54
-12.88 2.4879999 -0.80900002 80 39 7
-12.865 2.483 -0.79799998 87 43 14
-12.884 2.4519999 -0.917 218 152 104
-12.87 2.457 -0.86900002 152 104 55
-12.873 2.4549999 -0.90200001 162 80 24
-12.873 2.45 -0.90600002 116 72 37
-12.84 2.398 -0.86299998 74 33 1
-12.844 2.395 -0.83200002 110 51 11
-12.84 2.3900001 -0.82099998 122 60 19
-12.839 2.395 -0.82999998 99 47 8
-12.853 2.4170001 -0.87699997 79 33 0
-12.842 2.4170001 -0.86799997 78 40 21
-12.857 2.4089999 -0.87099999 80 30 3
-12.847 2.4059999 -0.87900001 59 27 14
-12.848 2.4070001 -0.88099998 82 28 0
-12.879 2.4000001 -0.92500001 233 142 61
-12.869 2.425 -0.91600001 103 67 33
-12.859 2.4170001 -0.91000003 113 35 0
-12.887 2.4189999 -0.92000002 74 48 13
-12.851 2.4289999 -0.99000001 107 24 0
-12.849 2.4300001 -1.002 49 12 0
-12.852 2.427 -0.99900001 68 25 9
-12.841 2.411 -0.85000002 110 86 74
-12.835 2.4059999 -0.85799998 47 14 0
-12.888 2.4059999 -1.045 151 96 42
-12.886 2.4070001 -1.05 85 49 35
-12.888 2.4059999 -1.051 119 48 16
-12.883 2.4100001 -1.021 188 131 78
-12.888 2.4260001 -1.021 38 3 0
-12.879 2.414 -1.008 78 43 15
-12.882 2.434 -1 159 88 58
-12.865 2.4619999 -0.99199998 156 102 68
-12.865 2.464 -1 215 162 128
-12.851 2.4119999 -1.05 49 23 0
-12.833 2.427 -1.0190001 158 70 7
-12.869 2.4549999 -1.077 28 3 0
-12.861 2.4579999 -1.0700001 33 6 0
-12.855 2.4030001 -0.96600002 106 28 0
-12.886 2.4260001 -0.96399999 72 25 0
-12.874 2.4119999 -0.96600002 84 30 0
-12.871 2.4920001 -0.76599997 132 64 15
-12.93 2.5339999 -0.72799999 70 52 40
-12.923 2.5339999 -0.73299998 182 146 130
-12.903 2.5079999 -0.77499998 104 60 21
-12.915 2.5150001 -0.76899999 174 125 84
-12.912 2.5320001 -0.75199997 82 41 13
-12.915 2.5039999 -0.80000001 121 51 2
-12.911 2.5050001 -0.78799999 87 42 3
-12.918 2.517 -0.78899997 115 53 6
-12.919 2.5339999 -0.75400001 62 27 0
-12.933 2.533 -0.74299997 75 35 10
-12.919 2.529 -0.75099999 140 94 61
-12.871 2.4560001 -1.053 65 33 10
-12.866 2.4630001 -1.002 87 36 7
-12.884 2.471 -0.94099998 47 11 0
-12.854 2.4849999 -0.93000001 158 102 69
-12.86 2.4809999 -0.93099999 103 32 0
-12.86 2.4809999 -0.94800001 61 28 9
-12.875 2.4820001 -0.95200002 111 37 0
-12.878 2.48 -0.954 63 27 11
-12.879 2.4590001 -0.93300003 82 18 0
-12.88 2.4630001 -0.935 63 31 10
-12.869 2.4430001 -0.93300003 80 45 17
-12.869 2.4820001 -0.958 50 15 0
-12.853 2.4809999 -0.94599998 54 26 4
-12.835 2.48 -0.93699998 53 25 1
-12.884 2.5 -0.84200001 88 62 47
-12.894 2.4990001 -0.84299999 51 19 4
-12.863 2.484 -0.84899998 116 63 31
-12.864 2.5 -0.83899999 120 88 67
-12.856 2.494 -0.838 88 43 12
-12.858 2.4790001 -0.86799997 138 89 59
-12.864 2.4790001 -0.86799997 70 39 21
-12.868 2.4820001 -0.91399997 94 59 37
-12.866 2.477 -0.90200001 120 71 41
-12.885 2.474 -0.92199999 90 55 33
-12.916 2.5090001 -0.81099999 101 47 9
-12.885 2.5179999 -0.829 69 43 30
-12.876 2.5020001 -0.83700001 123 67 32
-12.881 2.503 -0.83600003 102 51 20
-12.902 2.5109999 -0.80900002 48 17 0
-12.889 2.516 -0.82700002 199 153 103
-12.894 2.513 -0.829 209 165 118
-12.89 2.513 -0.83099997 162 118 73
-12.9 2.51 -0.83200002 134 89 60
-12.873 2.5039999 -0.82999998 76 41 9
-12.86 2.503 -0.61699998 91 38 0
-12.781 2.5050001 -0.60299999 150 80 31
-12.824 2.3889999 -0.70899999 142 85 30
-12.814 2.369 -0.69300002 199 129 60
-12.796 2.3629999 -0.71700001 67 27 1
-12.81 2.3610001 -0.73000002 92 58 30
-12.823 2.378 -0.73799998 98 67 38
-12.819 2.3710001 -0.74699998 80 24 0
-12.827 2.392 -0.72899997 72 34 0
-12.829 2.385 -0.73299998 46 11 0
-12.803 2.3800001 -0.70899999 140 91 24
-12.818 2.3699999 -0.73500001 97 52 13
-12.819 2.3670001 -0.73100001 141 77 31
-12.809 2.3710001 -0.73799998 53 21 0
-12.84 2.3989999 -0.71799999 245 180 100
-12.834 2.398 -0.81699997 124 65 23
-12.845 2.4059999 -0.82800001 118 86 48
-12.842 2.4130001 -0.82300001 103 71 32
-12.835 2.4760001 -0.84399998 103 49 21
-12.837 2.4760001 -0.84600002 117 61 26
-12.844 2.3859999 -0.81400001 136 81 42
-12.847 2.3729999 -0.80599999 95 53 11
-12.842 2.3759999 -0.80400002 145 102 59
-12.847 2.3759999 -0.80199999 177 123 85
-12.841 2.3829999 -0.81199998 145 110 72
-12.827 2.3800001 -0.80699998 97 59 23
-12.836 2.385 -0.81400001 79 38 6
-12.822 2.4809999 -0.81800002 125 73 26
