ply
format ascii 1.0
comment PCL generated
element vertex 443
property float x
property float y
property float z
property uchar red
property uchar green
property uchar blue
element camera 1
property float view_px
property float view_py
property float view_pz
property float x_axisx
property float x_axisy
property float x_axisz
property float y_axisx
property float y_axisy
property float y_axisz
property float z_axisx
property float z_axisy
property float z_axisz
property float focal
property float scalex
property float scaley
property float centerx
property float centery
property int viewportx
property int viewporty
property float k1
property float k2
end_header
7.053 -3.4330001 -0.90799999 132 105 52
7.0549998 -3.438 -0.90799999 148 121 66
7.052 -3.4349999 -0.90899998 137 112 72
7.053 -3.437 -0.90700001 143 120 79
7.119 -3.4030001 -0.90899998 145 132 126
7.1279998 -3.4200001 -0.91299999 138 110 86
7.1090002 -3.4230001 -0.91299999 246 234 212
7.1230001 -3.424 -0.91299999 51 23 9
7.0879998 -3.448 -0.90399998 243 234 191
7.0809999 -3.437 -0.90200001 237 218 201
7.0890002 -3.45 -0.90200001 82 62 51
7.086 -3.4400001 -0.89999998 254 249 211
7.0500002 -3.427 -0.90600002 148 116 75
6.9879999 -3.378 -0.68099999 197 174 120
6.987 -3.3740001 -0.676 206 179 126
6.9899998 -3.3759999 -0.67799997 159 129 79
7.0739999 -3.4260001 -0.90200001 237 221 206
7.0739999 -3.4200001 -0.90799999 158 104 58
7.066 -3.4089999 -0.80800003 105 89 76
7.0650001 -3.401 -0.80500001 97 83 72
7.072 -3.4030001 -0.81 179 134 92
7.1009998 -3.428 -0.90700001 115 82 47
7.0999999 -3.425 -0.91000003 255 252 240
7.0869999 -3.4289999 -0.90799999 111 80 51
7.0890002 -3.427 -0.91100001 252 246 222
7.0960002 -3.447 -0.90600002 73 47 30
7.118 -3.402 -0.90499997 73 42 24
7.1220002 -3.4000001 -0.90600002 27 6 1
7.1220002 -3.402 -0.90799999 217 131 114
7.1269999 -3.401 -0.89700001 70 39 21
7.1279998 -3.4089999 -0.90200001 99 62 36
7.1149998 -3.437 -0.90499997 36 16 5
7.118 -3.4360001 -0.90499997 54 25 11
6.9840002 -3.3759999 -0.69800001 32 18 17
6.993 -3.368 -0.69 168 131 79
6.9980001 -3.375 -0.704 93 51 26
6.9959998 -3.3729999 -0.69599998 187 150 98
7.0739999 -3.3829999 -0.85600001 121 87 59
7.0879998 -3.385 -0.84799999 232 181 138
7.0799999 -3.3829999 -0.86000001 255 216 121
7.0710001 -3.378 -0.86900002 252 245 219
7.0819998 -3.385 -0.86799997 176 145 124
7.0679998 -3.3770001 -0.88 39 1 0
7.0500002 -3.4230001 -0.90799999 156 123 70
7.0510001 -3.425 -0.90700001 128 95 42
7.0900002 -3.444 -0.89499998 65 44 25
7.0970001 -3.4460001 -0.89399999 50 26 14
7.0929999 -3.447 -0.88499999 35 0 0
7.0679998 -3.4289999 -0.89200002 180 136 71
7.072 -3.381 -0.87300003 250 242 219
7.1090002 -3.431 -0.89099997 173 133 74
7.1129999 -3.424 -0.88 177 136 106
7.105 -3.4460001 -0.87599999 74 37 19
7.1220002 -3.431 -0.90200001 143 110 95
7.112 -3.4330001 -0.90399998 49 23 6
7.1040001 -3.4460001 -0.88099998 170 126 65
7.1009998 -3.447 -0.875 110 74 42
7.0040002 -3.3789999 -0.73100001 112 89 81
7.013 -3.3789999 -0.73799998 64 45 28
7.0009999 -3.3829999 -0.73299998 106 88 76
7.046 -3.3970001 -0.80599999 151 101 74
7.0560002 -3.4059999 -0.79000002 227 178 163
7.1079998 -3.4330001 -0.866 49 9 0
7.1100001 -3.428 -0.86500001 234 180 116
7.0780001 -3.3900001 -0.82099998 127 102 80
7.0739999 -3.3929999 -0.82200003 26 1 0
7.059 -3.3889999 -0.81800002 54 35 18
7.0749998 -3.3859999 -0.815 165 141 115
7.0749998 -3.401 -0.82300001 165 143 122
7.0780001 -3.3989999 -0.82300001 158 115 72
7.0760002 -3.3829999 -0.86500001 251 244 216
7.079 -3.3940001 -0.83099997 152 104 68
7.0710001 -3.3989999 -0.83600003 85 29 0
7.0180001 -3.382 -0.74800003 81 62 47
7.112 -3.395 -0.852 248 244 207
7.1069999 -3.392 -0.85299999 133 84 51
7.1059999 -3.3940001 -0.84399998 91 44 16
7.1139998 -3.3889999 -0.85799998 162 132 121
6.9990001 -3.3859999 -0.713 48 37 35
6.9889998 -3.385 -0.69499999 166 152 141
6.9980001 -3.3840001 -0.69499999 66 28 15
7.007 -3.3870001 -0.73299998 64 36 22
7.0079999 -3.3870001 -0.73699999 54 25 9
7.0949998 -3.4460001 -0.87900001 178 146 123
7.0510001 -3.427 -0.90600002 140 108 57
7.073 -3.4289999 -0.89700001 89 59 7
7.0679998 -3.392 -0.88800001 255 245 236
7.0760002 -3.3929999 -0.88200003 161 143 133
7.0819998 -3.4000001 -0.89300001 141 128 120
7.0749998 -3.402 -0.89300001 165 155 143
7.0689998 -3.378 -0.87300003 255 244 226
7.0700002 -3.382 -0.87300003 216 205 185
7.0630002 -3.3759999 -0.88099998 255 248 227
7.0700002 -3.3870001 -0.88200003 249 235 224
7.0630002 -3.381 -0.88999999 169 158 130
7.0560002 -3.381 -0.88599998 170 158 144
7.0549998 -3.378 -0.89099997 210 202 191
7.0609999 -3.404 -0.87699997 141 106 52
7.0689998 -3.3900001 -0.87699997 183 142 98
7.1009998 -3.405 -0.90600002 198 145 111
7.1259999 -3.4230001 -0.90899998 127 102 72
7.1160002 -3.418 -0.89899999 171 146 124
7.118 -3.4100001 -0.89600003 152 115 99
7.1230001 -3.402 -0.90399998 202 164 143
7.1240001 -3.398 -0.89700001 145 115 89
7.0970001 -3.4460001 -0.89899999 55 33 19
7.0970001 -3.4460001 -0.88999999 35 5 0
7.0960002 -3.4460001 -0.88800001 111 81 53
7.1030002 -3.4460001 -0.898 67 37 9
7.099 -3.3859999 -0.84399998 30 0 0
7.0900002 -3.3929999 -0.833 152 121 75
7.0939999 -3.3970001 -0.83899999 140 107 56
6.9790001 -3.3729999 -0.69599998 68 45 31
6.993 -3.3789999 -0.70999998 50 29 8
6.9819999 -3.3800001 -0.69599998 194 151 119
6.98 -3.3800001 -0.69199997 163 118 97
6.98 -3.3770001 -0.68800002 44 4 0
6.9790001 -3.3729999 -0.685 80 51 33
7.0500002 -3.3889999 -0.796 52 30 17
7.0510001 -3.3889999 -0.796 54 32 18
7.0469999 -3.378 -0.78899997 195 173 150
7.0609999 -3.3970001 -0.82200003 85 29 0
6.9899998 -3.3770001 -0.68099999 242 214 164
6.994 -3.3740001 -0.68400002 113 78 36
6.9879999 -3.3829999 -0.68900001 78 62 47
7.073 -3.3859999 -0.81199998 174 147 117
7.073 -3.381 -0.86799997 246 239 211
7.0739999 -3.398 -0.85900003 220 180 93
7.0749998 -3.398 -0.84600002 98 42 5
7.0749998 -3.402 -0.84600002 98 47 16
7.0830002 -3.3859999 -0.85100001 143 106 79
7.0819998 -3.3940001 -0.84500003 104 70 32
7.0830002 -3.3929999 -0.83499998 40 7 0
7.0739999 -3.398 -0.84100002 84 28 0
7.0799999 -3.3959999 -0.83600003 190 144 110
7.0840001 -3.3889999 -0.82099998 204 177 134
7.085 -3.3889999 -0.82499999 118 99 59
7.0890002 -3.3929999 -0.833 145 117 77
7.0749998 -3.395 -0.82599998 236 192 163
7.1059999 -3.391 -0.85699999 160 121 92
6.994 -3.3840001 -0.69999999 84 70 57
7.007 -3.3889999 -0.72500002 134 118 105
6.9949999 -3.382 -0.72500002 41 22 7
7 -3.381 -0.70300001 178 138 87
7 -3.385 -0.71200001 112 96 83
6.9899998 -3.378 -0.70099998 62 38 14
7.0999999 -3.4100001 -0.84899998 147 115 66
7.086 -3.418 -0.85699999 212 147 129
7.0890002 -3.4070001 -0.84299999 183 157 132
7.1020002 -3.425 -0.85799998 206 148 126
7.1139998 -3.4000001 -0.85100001 208 185 131
7.1110001 -3.3989999 -0.85000002 217 194 144
7.0970001 -3.427 -0.86299998 250 208 122
7.0890002 -3.4330001 -0.87199998 121 78 44
7.079 -3.4219999 -0.87099999 193 166 119
7.086 -3.4360001 -0.89099997 99 66 21
7.072 -3.4219999 -0.89899999 147 117 83
7.0679998 -3.3989999 -0.88599998 196 180 164
7.1100001 -3.421 -0.87099999 28 2 1
7.119 -3.411 -0.86299998 165 140 118
7.0609999 -3.3759999 -0.88300002 159 149 124
7.0489998 -3.424 -0.90600002 147 116 72
7.0689998 -3.411 -0.889 250 224 189
7.0710001 -3.4219999 -0.884 254 212 128
7.0830002 -3.4230001 -0.90700001 148 104 69
7.099 -3.4089999 -0.90499997 226 171 132
7.1069999 -3.4189999 -0.90799999 254 241 209
7.1129999 -3.424 -0.89600003 172 138 93
7.1269999 -3.4200001 -0.91000003 135 108 78
7.1240001 -3.398 -0.89399999 114 82 57
7.125 -3.4000001 -0.89300001 62 34 12
7.1160002 -3.4330001 -0.90499997 199 171 131
7.118 -3.427 -0.90700001 190 167 136
7.1030002 -3.441 -0.88999999 47 18 2
7.0029998 -3.3840001 -0.72799999 61 33 22
7.0190001 -3.3889999 -0.75099999 60 27 8
7.0250001 -3.392 -0.75 221 154 146
7.0900002 -3.3929999 -0.83600003 104 70 25
6.9910002 -3.368 -0.68699998 167 128 73
6.9829998 -3.365 -0.67500001 200 177 123
7.0489998 -3.395 -0.79900002 114 59 18
7.059 -3.3970001 -0.81699997 89 36 0
7.0570002 -3.3970001 -0.81199998 89 35 0
6.9889998 -3.369 -0.67400002 199 166 121
6.9899998 -3.3710001 -0.67699999 247 216 170
6.9910002 -3.3699999 -0.67900002 133 100 55
7.0539999 -3.3940001 -0.80800003 88 28 0
7.0510001 -3.3940001 -0.80299997 95 36 0
7.0669999 -3.385 -0.80299997 139 112 85
7.0580001 -3.392 -0.80500001 56 38 18
7.0560002 -3.3889999 -0.79500002 130 80 47
7.079 -3.388 -0.815 157 127 91
7.0819998 -3.3900001 -0.81900001 210 180 142
7.073 -3.3870001 -0.80500001 34 9 5
7.079 -3.392 -0.81699997 161 135 102
7.0739999 -3.3829999 -0.87300003 251 245 219
7.0679998 -3.381 -0.88 253 242 224
7.0749998 -3.3889999 -0.87 237 224 208
7.0780001 -3.405 -0.85000002 169 120 87
7.0749998 -3.425 -0.88300002 213 135 125
7.079 -3.4230001 -0.87699997 252 215 126
7.0819998 -3.428 -0.88 151 124 94
7.0879998 -3.402 -0.84100002 157 122 90
7.0929999 -3.4030001 -0.84399998 71 32 17
7.1139998 -3.3959999 -0.85100001 255 235 188
7.1160002 -3.395 -0.85900003 123 103 68
7.1170001 -3.4000001 -0.85399997 187 161 110
7.1199999 -3.4030001 -0.85500002 231 205 148
7.131 -3.405 -0.87099999 185 152 98
7.1259999 -3.3989999 -0.866 185 154 100
7.118 -3.402 -0.85299999 184 155 99
7.1160002 -3.4030001 -0.85299999 176 149 94
7.0830002 -3.392 -0.83099997 167 137 109
7.0120001 -3.3859999 -0.74199998 58 27 9
7.013 -3.3859999 -0.73699999 155 137 127
7.0180001 -3.385 -0.74400002 44 24 15
7.0580001 -3.3740001 -0.88599998 209 196 162
7.0570002 -3.375 -0.88999999 164 154 119
7.1240001 -3.401 -0.89099997 58 31 10
6.993 -3.385 -0.70999998 42 13 0
6.9899998 -3.3770001 -0.699 163 122 94
6.9879999 -3.382 -0.70499998 72 40 17
6.9920001 -3.382 -0.70999998 57 30 11
7.099 -3.4389999 -0.87300003 128 102 65
7.0890002 -3.4289999 -0.86900002 151 113 74
7.092 -3.431 -0.86799997 75 46 14
7.0960002 -3.427 -0.86400002 233 177 116
7.085 -3.4360001 -0.89399999 91 67 43
7.0830002 -3.4300001 -0.88700002 255 230 196
7.0679998 -3.4100001 -0.89399999 175 141 96
7.073 -3.404 -0.90200001 101 85 70
7.086 -3.4030001 -0.89399999 137 93 58
7.066 -3.382 -0.88 236 225 205
7.092 -3.4089999 -0.90399998 136 123 114
7.1100001 -3.4130001 -0.90700001 169 147 134
7.112 -3.3970001 -0.89700001 52 19 4
7.118 -3.395 -0.88700002 208 135 67
7.1030002 -3.4400001 -0.884 58 29 15
6.9959998 -3.381 -0.71899998 52 34 14
7.0300002 -3.3940001 -0.75199997 226 190 154
7.0250001 -3.388 -0.76099998 75 38 20
7.0419998 -3.3989999 -0.76800001 192 167 126
7.0479999 -3.392 -0.77499998 57 20 2
7.0489998 -3.3929999 -0.77899998 189 153 119
7.046 -3.392 -0.76300001 188 152 90
7.0469999 -3.391 -0.77200001 184 153 109
7.0640001 -3.381 -0.79000002 145 124 95
7.0619998 -3.3989999 -0.80400002 151 121 85
7.0689998 -3.4059999 -0.81699997 220 172 152
6.9819999 -3.3800001 -0.68900001 44 1 0
6.9850001 -3.3789999 -0.685 199 156 122
7.0640001 -3.3859999 -0.796 117 100 84
7.0689998 -3.385 -0.80599999 153 124 94
7.0760002 -3.3889999 -0.81 199 169 133
7.0760002 -3.3900001 -0.861 255 227 213
7.0830002 -3.3929999 -0.824 201 173 136
7.0809999 -3.4030001 -0.83499998 181 157 133
7.099 -3.402 -0.84600002 240 212 162
7.0219998 -3.388 -0.75599998 71 36 17
7.027 -3.3889999 -0.75700003 46 23 15
7.0190001 -3.385 -0.75199997 70 37 20
7.0380001 -3.3889999 -0.77999997 80 28 4
7.125 -3.3940001 -0.86500001 47 25 14
7.125 -3.401 -0.86799997 223 192 145
6.9840002 -3.3800001 -0.69999999 92 56 32
6.9850001 -3.3829999 -0.69999999 111 74 48
7.0009999 -3.3729999 -0.70499998 160 117 64
6.9970002 -3.3789999 -0.713 156 114 90
7.0149999 -3.388 -0.72899997 139 100 61
7.0539999 -3.372 -0.77200001 108 87 66
7.053 -3.3729999 -0.76300001 118 63 32
7.04 -3.3659999 -0.75599998 171 139 90
7.092 -3.4349999 -0.87199998 237 161 147
7.092 -3.4400001 -0.88099998 44 10 1
7.0809999 -3.428 -0.88599998 128 103 72
7.0939999 -3.4319999 -0.86799997 174 113 69
7.0749998 -3.414 -0.87599999 240 203 112
7.0700002 -3.4100001 -0.90399998 198 164 119
7.0710001 -3.4059999 -0.89200002 111 66 43
7.066 -3.3800001 -0.88200003 246 235 217
7.1139998 -3.4189999 -0.89300001 160 119 101
7.1139998 -3.4159999 -0.89300001 167 135 96
7.1220002 -3.3959999 -0.88800001 139 104 85
7.1209998 -3.4000001 -0.88700002 44 24 0
7.098 -3.404 -0.903 121 86 56
7.0939999 -3.4059999 -0.89899999 135 82 50
7.1069999 -3.437 -0.89700001 48 19 1
7.0079999 -3.3840001 -0.71600002 182 142 91
7.0320001 -3.392 -0.74400002 196 157 100
7.0279999 -3.3870001 -0.73199999 64 43 22
7.0500002 -3.3870001 -0.76800001 188 152 104
7.085 -3.402 -0.838 154 105 64
7.0869999 -3.3929999 -0.833 132 104 67
7.0570002 -3.395 -0.787 123 85 49
7.0630002 -3.3829999 -0.78799999 106 84 60
7.0599999 -3.3840001 -0.78600001 115 98 80
7.0739999 -3.3889999 -0.80699998 210 182 145
7.0669999 -3.3829999 -0.79400003 178 155 123
7.0710001 -3.3859999 -0.80900002 152 123 91
7.0970001 -3.402 -0.88099998 255 225 189
7.0739999 -3.398 -0.86500001 216 167 127
7.073 -3.395 -0.87300003 229 212 192
7.073 -3.414 -0.86799997 241 205 111
7.0770001 -3.405 -0.86199999 119 71 31
7.0739999 -3.4089999 -0.86900002 137 130 137
7.099 -3.3940001 -0.861 253 212 180
7.0799999 -3.408 -0.85900003 158 112 79
7.0890002 -3.3929999 -0.82999998 151 128 87
7.026 -3.3840001 -0.76099998 71 42 24
7.0349998 -3.3800001 -0.778 46 23 15
7.0159998 -3.385 -0.74699998 66 35 17
7.0310001 -3.3859999 -0.76899999 53 25 13
7.0450001 -3.391 -0.79400003 91 32 0
7.0430002 -3.3940001 -0.77399999 131 101 75
7.0430002 -3.392 -0.78500003 124 71 37
7.1230001 -3.405 -0.86900002 136 107 65
7.1040001 -3.3970001 -0.89200002 63 53 61
7.1100001 -3.3970001 -0.88200003 222 186 164
7.1009998 -3.3970001 -0.88 166 135 115
6.9829998 -3.3829999 -0.69599998 140 95 66
7 -3.368 -0.69099998 151 113 66
7.0029998 -3.375 -0.69700003 202 166 118
7.006 -3.372 -0.70099998 172 139 94
7.0219998 -3.385 -0.73900002 189 138 83
7.052 -3.378 -0.77100003 171 144 114
7.053 -3.3740001 -0.77100003 122 97 75
7.0560002 -3.3729999 -0.77600002 130 111 94
7.0869999 -3.4300001 -0.87400001 113 87 54
7.0869999 -3.4330001 -0.88 95 53 29
7.0890002 -3.4330001 -0.87599999 138 96 72
7.0819998 -3.4300001 -0.88999999 98 62 26
7.1079998 -3.414 -0.85699999 144 116 94
7.0650001 -3.378 -0.88300002 93 61 48
7.1160002 -3.4070001 -0.88800001 135 108 79
6.9990001 -3.3800001 -0.71600002 63 40 26
6.9959998 -3.385 -0.71499997 50 24 11
7.0409999 -3.3940001 -0.75599998 194 163 108
7.0359998 -3.3889999 -0.74699998 198 163 107
7.0419998 -3.3900001 -0.75599998 243 211 152
7.0440001 -3.391 -0.75999999 246 214 153
7.0339999 -3.382 -0.745 172 133 78
7.033 -3.3840001 -0.74400002 179 143 83
7.0539999 -3.3829999 -0.77600002 129 100 70
7.052 -3.382 -0.773 142 110 71
7.0450001 -3.385 -0.787 72 49 31
7.079 -3.391 -0.81400001 168 138 102
7.0630002 -3.3959999 -0.801 207 162 121
7.0570002 -3.4000001 -0.787 170 132 95
7.0679998 -3.392 -0.79900002 38 8 0
7.0710001 -3.385 -0.801 200 174 137
7.112 -3.4059999 -0.85500002 210 190 140
7.1069999 -3.3929999 -0.866 45 18 9
7.0799999 -3.395 -0.87699997 243 227 212
7.0900002 -3.3970001 -0.87199998 216 180 154
7.0749998 -3.402 -0.86500001 139 90 47
7.098 -3.395 -0.86699998 221 174 128
7.0970001 -3.4000001 -0.84399998 208 178 128
7.0289998 -3.3870001 -0.76599997 81 44 25
7.0430002 -3.392 -0.78899997 102 47 8
7.0500002 -3.3970001 -0.78600001 195 159 125
7.1030002 -3.4000001 -0.89399999 142 117 95
7.0040002 -3.3759999 -0.70099998 132 94 45
6.9990001 -3.372 -0.69099998 130 96 50
6.9970002 -3.372 -0.68800002 98 67 21
7.007 -3.3699999 -0.70200002 180 147 102
7.0170002 -3.3729999 -0.708 56 18 5
7.033 -3.368 -0.74599999 194 159 105
7.0279999 -3.3800001 -0.73799998 198 158 99
7.033 -3.372 -0.74599999 178 139 84
7.0190001 -3.368 -0.72899997 184 152 114
7.0170002 -3.368 -0.72600001 183 153 117
7.046 -3.388 -0.76300001 219 177 117
7.0170002 -3.385 -0.72899997 59 23 9
7.0149999 -3.378 -0.72000003 135 105 71
7.02 -3.378 -0.72600001 185 156 114
7.0479999 -3.3770001 -0.77399999 159 123 71
7.0500002 -3.381 -0.76700002 255 231 184
7.0570002 -3.382 -0.78100002 123 102 83
7.1149998 -3.408 -0.875 255 242 206
7.0939999 -3.438 -0.875 71 43 19
7.1030002 -3.4330001 -0.87900001 61 32 26
7.1110001 -3.4130001 -0.88499999 157 120 68
7.092 -3.4200001 -0.90899998 181 157 145
7.0879998 -3.4189999 -0.90600002 131 98 57
7.079 -3.4159999 -0.90600002 198 137 90
7.1220002 -3.398 -0.89399999 151 120 91
7.0019999 -3.381 -0.71899998 182 145 119
7.006 -3.3800001 -0.70999998 189 151 102
7.0370002 -3.392 -0.76099998 71 50 31
7.039 -3.3770001 -0.75 90 45 24
7.0430002 -3.381 -0.75800002 180 138 80
7.039 -3.369 -0.755 165 125 74
7.0320001 -3.375 -0.745 187 146 90
7.052 -3.391 -0.78100002 197 152 111
7.0760002 -3.402 -0.86199999 121 67 21
7.0739999 -3.402 -0.86900002 247 209 170
7.0359998 -3.3900001 -0.77200001 126 89 62
7.0050001 -3.375 -0.69999999 157 123 78
7.0089998 -3.3770001 -0.70899999 141 107 62
6.9959998 -3.3740001 -0.68900001 125 91 45
7.0089998 -3.369 -0.70499998 183 150 109
7.007 -3.3759999 -0.70599997 248 214 168
7.0279999 -3.3759999 -0.74299997 205 166 111
7.0349998 -3.369 -0.75 174 137 82
7.0380001 -3.3729999 -0.755 171 130 76
7.0479999 -3.385 -0.764 255 217 165
7.0560002 -3.3829999 -0.77899998 121 96 74
7.112 -3.3970001 -0.875 125 95 57
7.1149998 -3.398 -0.87900001 120 93 64
7.1129999 -3.4100001 -0.85699999 134 106 85
7.119 -3.398 -0.88499999 91 69 45
6.9980001 -3.3840001 -0.71899998 61 34 23
7.0380001 -3.3829999 -0.75099999 190 151 94
7.0300002 -3.3800001 -0.741 195 153 93
7.0640001 -3.3859999 -0.79299998 90 72 50
7.0419998 -3.3889999 -0.78500003 92 33 0
7.0760002 -3.405 -0.86500001 152 110 68
7.0890002 -3.3929999 -0.85799998 33 27 31
7.0370002 -3.3889999 -0.77600002 97 51 27
6.9959998 -3.3729999 -0.68599999 99 66 23
7.006 -3.3759999 -0.70499998 54 16 0
7.026 -3.3740001 -0.73900002 209 169 118
7.0209999 -3.369 -0.73199999 198 165 124
7.1110001 -3.3970001 -0.87 152 130 91
6.9990001 -3.3840001 -0.72299999 61 34 25
7.0159998 -3.3759999 -0.71899998 148 119 89
7.0079999 -3.3740001 -0.71399999 176 139 97
7.0180001 -3.3759999 -0.722 178 149 115
7.0679998 -3.3870001 -0.79900002 121 95 68
7.1059999 -3.398 -0.884 208 134 85
7.0320001 -3.3889999 -0.74400002 238 196 136
7.0430002 -3.372 -0.76300001 182 145 92
7.0219998 -3.378 -0.72899997 250 219 173
7.0240002 -3.3800001 -0.73299998 130 98 51
7.1110001 -3.3970001 -0.875 129 96 55
7.007 -3.3829999 -0.71399999 173 128 89
7.013 -3.3770001 -0.71399999 129 96 63
7.013 -3.3729999 -0.722 142 110 71
7.0209999 -3.385 -0.736 111 68 34
7.0089998 -3.3829999 -0.71799999 190 152 105
7.0110002 -3.372 -0.71899998 161 129 90
7.013 -3.3789999 -0.71799999 138 105 70
7.0100002 -3.3729999 -0.71600002 180 145 105
0 0 0 1 0 0 0 1 0 0 0 1 0 0 0 0 0 443 1 0 0
