ply
format ascii 1.0
comment PCL generated
element vertex 333
property float x
property float y
property float z
property uchar red
property uchar green
property uchar blue
element camera 1
property float view_px
property float view_py
property float view_pz
property float x_axisx
property float x_axisy
property float x_axisz
property float y_axisx
property float y_axisy
property float y_axisz
property float z_axisx
property float z_axisy
property float z_axisz
property float focal
property float scalex
property float scaley
property float centerx
property float centery
property int viewportx
property int viewporty
property float k1
property float k2
end_header
4.6079998 9.441 -0.78299999 44 17 0
4.6020002 9.4309998 -0.77899998 101 87 86
4.599 9.4350004 -0.77700001 130 94 68
4.612 9.4379997 -0.78200001 111 93 91
4.632 9.4790001 -0.74699998 18 0 0
4.6399999 9.4840002 -0.74699998 60 31 35
4.6339998 9.4849997 -0.74000001 66 29 3
4.6269999 9.4790001 -0.74599999 60 38 40
4.6360002 9.3800001 -0.81999999 22 4 0
4.645 9.3800001 -0.81599998 21 7 6
4.6539998 9.3839998 -0.82700002 89 41 39
4.6370001 9.382 -0.82499999 15 0 0
4.6360002 9.4750004 -0.824 20 0 0
4.619 9.474 -0.824 29 17 5
4.6230001 9.474 -0.82999998 88 55 38
4.625 9.4709997 -0.82099998 36 6 0
4.664 9.4350004 -0.81300002 14 3 1
4.6550002 9.4370003 -0.83600003 119 92 83
4.6659999 9.4309998 -0.81400001 13 0 0
4.625 9.4630003 -0.74299997 114 68 35
4.6259999 9.4680004 -0.73900002 147 104 72
4.632 9.4580002 -0.74299997 109 85 75
4.6259999 9.4379997 -0.79000002 117 105 105
4.6240001 9.4379997 -0.81400001 50 37 31
4.6300001 9.4320002 -0.81400001 41 29 17
4.6110001 9.4329996 -0.77700001 107 92 89
4.625 9.4359999 -0.78299999 9 0 0
4.632 9.3870001 -0.82200003 112 86 69
4.6370001 9.3830004 -0.81699997 77 56 51
4.651 9.3979998 -0.80900002 93 48 45
4.6560001 9.3929996 -0.81199998 55 44 42
4.6820002 9.4549999 -0.86799997 28 8 1
4.665 9.4720001 -0.86699998 25 7 5
4.665 9.4540005 -0.87300003 14 0 0
4.6269999 9.434 -0.81800002 14 4 3
4.632 9.415 -0.81699997 10 0 0
4.652 9.415 -0.81900001 94 67 56
4.6500001 9.4230003 -0.815 36 14 3
4.6570001 9.4160004 -0.82200003 19 7 7
4.6220002 9.467 -0.82200003 26 11 4
4.6399999 9.4799995 -0.73900002 55 37 27
4.638 9.4840002 -0.73500001 94 49 26
4.6230001 9.4759998 -0.75400001 106 61 28
4.6329999 9.4820004 -0.73500001 134 95 66
4.6220002 9.4689999 -0.74400002 109 63 29
4.619 9.4359999 -0.77399999 110 91 87
4.6129999 9.4429998 -0.77100003 130 91 62
4.625 9.4469995 -0.77600002 115 91 79
4.6269999 9.4530001 -0.77499998 108 80 58
4.671 9.4169998 -0.75400001 89 51 28
4.658 9.4119997 -0.75999999 45 30 27
4.6659999 9.4350004 -0.75199997 31 6 0
4.665 9.4029999 -0.74599999 80 50 26
4.6659999 9.3940001 -0.745 71 46 39
4.6539998 9.3900003 -0.74199998 34 11 5
4.6750002 9.4219999 -0.75199997 36 23 30
4.671 9.4110003 -0.75599998 82 53 39
4.6820002 9.3970003 -0.75700003 38 26 30
4.6750002 9.3909998 -0.75199997 113 97 97
4.6550002 9.3900003 -0.74900001 24 0 0
4.6729999 9.3920002 -0.75800002 25 0 0
4.6230001 9.4700003 -0.82499999 44 16 12
4.6360002 9.46 -0.82300001 14 0 0
4.6220002 9.441 -0.79000002 20 4 4
4.6360002 9.4519997 -0.852 77 61 61
4.645 9.46 -0.86199999 31 18 12
4.638 9.4460001 -0.866 89 72 65
4.6389999 9.4040003 -0.829 33 19 16
4.6469998 9.3929996 -0.82499999 22 11 9
4.6570001 9.4049997 -0.83399999 30 18 18
4.6529999 9.3900003 -0.838 9 0 0
4.6599998 9.408 -0.84200001 10 0 0
4.658 9.4530001 -0.847 45 16 2
4.6560001 9.4390001 -0.84500003 53 27 28
4.652 9.4510002 -0.84100002 32 4 0
4.658 9.4530001 -0.82700002 15 0 0
4.6539998 9.4750004 -0.86199999 30 6 0
4.6560001 9.4779997 -0.85299999 50 25 18
4.6669998 9.4169998 -0.89399999 37 26 32
4.665 9.415 -0.88099998 11 0 0
4.6620002 9.4209995 -0.898 133 111 100
4.6539998 9.4320002 -0.81999999 38 19 15
4.658 9.4429998 -0.81300002 17 3 2
4.6389999 9.4709997 -0.75 54 24 16
4.6399999 9.4630003 -0.74800003 49 20 4
4.6389999 9.4709997 -0.745 52 19 10
4.6290002 9.4490004 -0.778 25 8 1
4.6399999 9.4519997 -0.79000002 23 0 0
4.6389999 9.4499998 -0.78600001 25 6 2
4.6259999 9.4689999 -0.76200002 54 12 0
4.6389999 9.467 -0.75700003 29 4 0
4.6389999 9.4560003 -0.82300001 19 3 4
4.6339998 9.4399996 -0.824 74 45 47
4.652 9.4519997 -0.81900001 22 4 0
4.6420002 9.4630003 -0.81800002 36 14 3
4.6490002 9.4580002 -0.82499999 19 4 1
4.6479998 9.4510002 -0.81 48 29 23
4.6300001 9.434 -0.78100002 74 48 31
4.6370001 9.4370003 -0.78299999 19 4 1
4.631 9.4569998 -0.75 127 106 89
4.6409998 9.4569998 -0.755 35 7 0
4.6350002 9.4549999 -0.75999999 93 57 35
4.6279998 9.4589996 -0.759 106 70 54
4.6199999 9.4429998 -0.76700002 92 64 50
4.619 9.4350004 -0.76899999 21 10 8
4.6370001 9.4370003 -0.76899999 115 95 88
4.6040001 9.441 -0.77499998 117 78 49
4.605 9.4329996 -0.773 11 0 0
4.6760001 9.3929996 -0.75700003 38 20 20
4.6620002 9.3999996 -0.76599997 34 16 14
4.6490002 9.3950005 -0.764 19 0 0
4.652 9.3979998 -0.755 40 16 4
4.6350002 9.4090004 -0.764 62 34 23
4.651 9.3970003 -0.778 17 0 0
4.6529999 9.3999996 -0.76999998 30 7 1
4.6550002 9.4020004 -0.75800002 23 0 0
4.6620002 9.4420004 -0.79799998 13 0 0
4.6490002 9.4449997 -0.801 17 6 4
4.6259999 9.448 -0.81300002 142 125 115
4.6259999 9.4469995 -0.78200001 116 92 80
4.638 9.441 -0.861 43 16 7
4.6420002 9.4460001 -0.85299999 13 0 0
4.6329999 9.4309998 -0.866 12 0 0
4.6440001 9.4519997 -0.85299999 21 5 5
4.6440001 9.4540005 -0.86400002 36 23 17
4.6469998 9.4540005 -0.86799997 15 3 5
4.6459999 9.3909998 -0.81699997 33 19 18
4.651 9.3870001 -0.83099997 9 0 0
4.6750002 9.4289999 -0.80599999 126 111 106
4.651 9.3950005 -0.83700001 90 54 30
4.6550002 9.408 -0.82999998 45 31 28
4.6529999 9.4209995 -0.815 17 8 9
4.651 9.4239998 -0.81300002 34 14 3
4.6339998 9.4259996 -0.88200003 29 4 0
4.631 9.4130001 -0.86900002 57 34 26
4.632 9.4200001 -0.866 91 68 62
4.6370001 9.3999996 -0.87400001 20 2 0
4.6389999 9.4099998 -0.88099998 25 5 4
4.6399999 9.4329996 -0.87900001 22 1 0
4.6440001 9.4259996 -0.88099998 17 0 0
4.6609998 9.4510002 -0.88099998 67 49 45
4.6570001 9.4709997 -0.86699998 26 2 0
4.6490002 9.4499998 -0.83499998 51 24 17
4.6490002 9.4370003 -0.84399998 11 0 0
4.6690001 9.4510002 -0.84899998 53 22 4
4.6490002 9.46 -0.866 23 9 6
4.6620002 9.4729996 -0.85000002 67 55 55
4.6799998 9.4680004 -0.85000002 55 37 27
4.6830001 9.4750004 -0.85100001 26 7 0
4.6760001 9.4720001 -0.85299999 34 15 9
4.6669998 9.4309998 -0.88599998 141 118 112
4.6739998 9.4320002 -0.86900002 11 2 3
4.6669998 9.4309998 -0.88099998 99 82 72
4.6680002 9.4289999 -0.87900001 49 29 28
4.665 9.441 -0.87199998 15 0 0
4.6669998 9.4219999 -0.88599998 117 107 116
4.6659999 9.4160004 -0.87699997 109 102 110
4.6609998 9.4099998 -0.87699997 13 0 0
4.6669998 9.4230003 -0.85900003 12 4 2
4.6620002 9.4219999 -0.86500001 10 1 2
4.658 9.4119997 -0.87400001 108 102 106
4.6599998 9.4139996 -0.84799999 14 0 0
4.6589999 9.4250002 -0.83499998 18 0 3
4.6560001 9.4209995 -0.82599998 33 14 8
4.6409998 9.4329996 -0.83200002 21 3 3
4.6290002 9.46 -0.764 105 72 53
4.6300001 9.474 -0.75300002 99 81 67
4.6389999 9.4619999 -0.74000001 123 95 83
4.6350002 9.4720001 -0.73699999 61 24 5
4.6389999 9.4510002 -0.79699999 21 3 1
4.6339998 9.4490004 -0.76899999 131 107 95
4.6430001 9.4379997 -0.77999997 15 0 0
4.6230001 9.4110003 -0.77200001 74 51 33
4.6389999 9.4440002 -0.78500003 20 6 5
4.631 9.4300003 -0.76899999 62 32 21
4.6339998 9.4359999 -0.773 18 0 0
4.631 9.4099998 -0.76800001 86 60 45
4.6209998 9.4049997 -0.77399999 27 5 0
4.625 9.448 -0.77100003 32 15 8
4.6220002 9.467 -0.74800003 100 54 21
4.625 9.4630003 -0.74699998 137 90 60
4.6020002 9.4309998 -0.77600002 57 22 0
4.6680002 9.4289999 -0.75599998 120 93 84
4.6739998 9.4359999 -0.78500003 13 2 0
4.6560001 9.3929996 -0.74400002 51 22 14
4.6570001 9.4090004 -0.76200002 60 19 1
4.6729999 9.4239998 -0.77100003 10 0 0
4.6739998 9.4239998 -0.76499999 13 0 0
4.6550002 9.3970003 -0.77600002 38 8 0
4.6609998 9.3999996 -0.77200001 28 8 7
4.618 9.4049997 -0.76800001 82 47 25
4.658 9.4399996 -0.80699998 29 19 17
4.6339998 9.4399996 -0.80900002 36 21 18
4.6399999 9.4370003 -0.86000001 86 70 55
4.6350002 9.4300003 -0.86500001 34 13 8
4.6500001 9.3959999 -0.81199998 15 5 4
4.652 9.3940001 -0.81900001 89 44 41
4.6750002 9.4300003 -0.79699999 12 0 0
4.6680002 9.4350004 -0.79000002 24 13 11
4.6570001 9.415 -0.829 12 1 0
4.6430001 9.4320002 -0.81099999 23 4 0
4.638 9.4309998 -0.81400001 58 42 29
4.658 9.427 -0.81 12 4 2
4.658 9.427 -0.796 11 1 0
4.6599998 9.4289999 -0.79000002 26 12 9
4.6589999 9.434 -0.79500002 43 32 28
4.6399999 9.3979998 -0.87800002 23 4 0
4.6360002 9.4189997 -0.88 37 20 13
4.6799998 9.4689999 -0.85299999 24 5 0
4.6739998 9.4759998 -0.85799998 43 19 17
4.6360002 9.4689999 -0.82800001 21 3 1
4.6560001 9.4650002 -0.85900003 14 0 0
4.6589999 9.4530001 -0.87599999 11 1 0
4.652 9.4580002 -0.83700001 53 27 28
4.6529999 9.4530001 -0.847 13 1 1
4.6659999 9.4729996 -0.85399997 24 5 0
4.6669998 9.4230003 -0.88999999 48 29 25
4.6570001 9.4259996 -0.82999998 10 0 1
4.6409998 9.4379997 -0.82700002 19 0 0
4.632 9.4309998 -0.83399999 14 0 0
4.631 9.434 -0.82700002 9 0 0
4.6399999 9.4729996 -0.741 51 18 3
4.6409998 9.4519997 -0.81400001 43 25 21
4.6329999 9.4589996 -0.81699997 29 10 6
4.632 9.4580002 -0.74900001 82 58 48
4.6479998 9.4390001 -0.79900002 20 5 0
4.6290002 9.4040003 -0.76599997 110 85 65
4.632 9.4630003 -0.76099998 135 107 86
4.625 9.4639997 -0.75199997 121 76 47
4.6739998 9.4300003 -0.759 28 7 2
4.6760001 9.4239998 -0.759 38 18 17
4.6820002 9.4189997 -0.76700002 19 1 0
4.6750002 9.4160004 -0.76200002 22 1 0
4.6739998 9.401 -0.759 120 102 100
4.6739998 9.4239998 -0.778 14 4 3
4.6529999 9.3990002 -0.75099999 91 64 57
4.6659999 9.4060001 -0.75300002 25 0 0
4.6609998 9.4020004 -0.77700001 9 0 0
4.664 9.4060001 -0.76899999 11 0 0
4.664 9.4239998 -0.796 8 0 0
4.665 9.4029999 -0.76999998 42 14 0
4.6550002 9.3990002 -0.76999998 89 57 42
4.618 9.4069996 -0.76999998 56 33 15
4.6539998 9.4429998 -0.80500001 13 1 1
4.6339998 9.4460001 -0.79100001 26 7 3
4.631 9.4549999 -0.81599998 34 15 8
4.6329999 9.4639997 -0.81800002 44 16 12
4.6209998 9.4209995 -0.83499998 75 67 64
4.6440001 9.415 -0.84799999 27 13 12
4.6350002 9.4300003 -0.83499998 8 0 0
4.6430001 9.4289999 -0.84100002 20 0 0
4.638 9.4259996 -0.84200001 14 0 0
4.6529999 9.3900003 -0.82499999 16 2 2
4.6420002 9.4060001 -0.87 98 73 66
4.6399999 9.4029999 -0.87199998 113 104 107
4.6570001 9.4110003 -0.84799999 21 4 0
4.6469998 9.4160004 -0.852 55 29 30
4.658 9.415 -0.84500003 39 19 18
4.6389999 9.4350004 -0.80900002 37 25 25
4.6690001 9.4280005 -0.80000001 131 118 112
4.6550002 9.4329996 -0.80500001 59 35 25
4.658 9.427 -0.80299997 8 0 0
4.6690001 9.4289999 -0.78399998 28 17 15
4.6420002 9.4049997 -0.87599999 18 0 0
4.6570001 9.4239998 -0.87800002 119 96 90
4.6669998 9.46 -0.84799999 37 21 8
4.671 9.4519997 -0.86000001 50 23 12
4.6500001 9.4639997 -0.86400002 20 6 6
4.6469998 9.4490004 -0.829 30 6 6
4.6560001 9.4350004 -0.838 7 0 0
4.664 9.4350004 -0.85299999 22 8 5
4.6739998 9.4320002 -0.86000001 9 0 0
4.638 9.4689999 -0.824 18 0 0
4.6609998 9.4659996 -0.85299999 30 13 6
4.6680002 9.4650002 -0.86500001 15 1 0
4.6669998 9.4750004 -0.85600001 116 95 92
4.658 9.4289999 -0.87900001 21 0 0
4.6500001 9.4300003 -0.875 103 91 91
4.6560001 9.4420004 -0.875 11 0 0
4.6630001 9.4300003 -0.88999999 124 100 90
4.6339998 9.4700003 -0.73699999 50 26 16
4.6300001 9.4580002 -0.745 121 73 27
4.625 9.4630003 -0.75599998 72 27 6
4.6290002 9.46 -0.755 99 62 44
4.6700001 9.4359999 -0.759 22 1 0
4.6739998 9.415 -0.75999999 32 19 28
4.6739998 9.4180002 -0.76800001 44 33 41
4.6599998 9.401 -0.75099999 38 20 16
4.6690001 9.3990002 -0.75099999 60 45 40
4.665 9.4099998 -0.76499999 40 6 0
4.6409998 9.4440002 -0.792 24 9 6
4.6329999 9.4540005 -0.81699997 18 0 0
4.6259999 9.4259996 -0.833 32 18 15
4.6409998 9.4060001 -0.83399999 79 50 32
4.6399999 9.4169998 -0.83600003 20 4 4
4.6389999 9.4130001 -0.82999998 77 59 57
4.6409998 9.4219999 -0.84600002 18 2 2
4.6529999 9.3950005 -0.83600003 77 54 36
4.652 9.3909998 -0.82800001 42 31 29
4.6490002 9.415 -0.847 21 6 0
4.6570001 9.4160004 -0.83600003 42 28 27
4.6430001 9.401 -0.87400001 38 19 12
4.6529999 9.4189997 -0.85900003 22 4 4
4.6630001 9.4300003 -0.80800003 129 116 110
4.6680002 9.427 -0.79500002 134 119 114
4.6430001 9.4399996 -0.80299997 19 5 4
4.671 9.4230003 -0.78399998 13 0 0
4.6350002 9.4119997 -0.87300003 60 43 36
4.6360002 9.4259996 -0.87300003 23 7 0
4.6409998 9.4139996 -0.87699997 76 61 56
4.6690001 9.4549999 -0.84799999 24 5 0
4.6760001 9.4580002 -0.866 25 6 2
4.6620002 9.4680004 -0.86799997 14 0 0
4.6760001 9.4490004 -0.866 48 26 15
4.6500001 9.4449997 -0.87300003 9 0 0
4.6570001 9.4209995 -0.84500003 33 17 17
4.638 9.4090004 -0.824 78 59 55
4.638 9.4469995 -0.80000001 28 7 4
4.6329999 9.4630003 -0.75999999 70 41 27
4.6939998 9.4139996 -0.77499998 24 3 0
4.6999998 9.415 -0.77100003 41 22 15
4.698 9.4119997 -0.778 26 8 4
4.6329999 9.4209995 -0.82300001 19 7 7
4.631 9.4320002 -0.82999998 86 55 37
4.625 9.4239998 -0.83600003 36 26 24
4.6350002 9.4230003 -0.86500001 23 6 0
4.6339998 9.4499998 -0.81 51 27 17
4.6430001 9.4379997 -0.80500001 44 24 17
4.6350002 9.4130001 -0.86900002 77 59 55
4.6680002 9.448 -0.86000001 37 17 10
4.6459999 9.4490004 -0.86799997 9 0 0
4.6339998 9.427 -0.838 15 0 0
4.6290002 9.4239998 -0.83700001 48 34 34
0 0 0 1 0 0 0 1 0 0 0 1 0 0 0 0 0 333 1 0 0
