ply
format ascii 1.0
comment PCL generated
element vertex 223
property float x
property float y
property float z
property uchar red
property uchar green
property uchar blue
element camera 1
property float view_px
property float view_py
property float view_pz
property float x_axisx
property float x_axisy
property float x_axisz
property float y_axisx
property float y_axisy
property float y_axisz
property float z_axisx
property float z_axisy
property float z_axisz
property float focal
property float scalex
property float scaley
property float centerx
property float centery
property int viewportx
property int viewporty
property float k1
property float k2
end_header
-3.234 16.782 -0.97600001 126 84 46
-3.2179999 16.799 -0.97600001 141 93 53
-3.2249999 16.781 -0.98000002 239 133 59
-3.2190001 16.790001 -0.97799999 116 60 23
-3.2060001 16.801001 -0.824 156 122 97
-3.2090001 16.811001 -0.81699997 65 39 38
-3.2090001 16.811001 -0.83600003 89 42 12
-3.24 16.826 -0.82200003 103 38 0
-3.2420001 16.823999 -0.82700002 118 77 47
-3.2550001 16.813999 -0.81300002 123 58 16
-3.223 16.774 -0.97000003 202 140 91
-3.2279999 16.785999 -0.97399998 229 140 74
-3.2149999 16.783001 -0.963 251 168 98
-3.221 16.774 -0.96799999 233 127 51
-3.217 16.775999 -0.95700002 169 128 96
-3.2090001 16.798 -0.85500002 178 109 67
-3.22 16.788 -0.847 105 59 36
-3.214 16.788 -0.83999997 106 61 32
-3.2130001 16.794001 -0.84600002 151 108 74
-3.2149999 16.796 -0.85500002 128 84 59
-3.2049999 16.794001 -0.824 175 86 26
-3.198 16.788 -0.80500001 75 48 39
-3.237 16.823999 -0.80500001 147 79 42
-3.223 16.83 -0.80400002 169 80 20
-3.2219999 16.819 -0.82700002 100 59 31
-3.244 16.799 -0.87800002 159 69 17
-3.244 16.798 -0.87599999 134 78 43
-3.244 16.809 -0.86299998 116 65 22
-3.243 16.775999 -0.87599999 141 93 45
-3.217 16.795 -0.79900002 153 99 65
-3.198 16.789 -0.79900002 152 96 63
-3.1949999 16.792 -0.80000001 138 60 12
-3.2090001 16.805 -0.81099999 125 74 43
-3.2090001 16.809 -0.80699998 109 77 54
-3.21 16.792999 -0.80699998 154 104 67
-3.22 16.799999 -0.80199999 133 88 46
-3.2179999 16.798 -0.94599998 153 119 109
-3.2130001 16.787001 -0.95899999 200 132 235
-3.217 16.787001 -0.95200002 188 105 39
-3.2149999 16.789 -0.95700002 245 139 55
-3.234 16.813 -0.93599999 132 87 58
-3.2349999 16.811001 -0.95599997 52 31 28
-3.224 16.820999 -0.93599999 115 71 34
-3.2409999 16.813999 -0.92699999 152 79 28
-3.2509999 16.792 -0.93599999 171 111 59
-3.2409999 16.787001 -0.921 197 95 23
-3.2520001 16.792999 -0.935 77 32 1
-3.2449999 16.792 -0.92299998 228 120 48
-3.22 16.785 -0.97399998 187 146 118
-3.217 16.788 -0.97399998 232 141 70
-3.2079999 16.801001 -0.84899998 149 64 9
-3.2090001 16.809999 -0.861 81 31 4
-3.21 16.799999 -0.84500003 130 65 23
-3.2160001 16.816 -0.94700003 210 102 30
-3.2119999 16.818001 -0.92799997 142 87 48
-3.214 16.849001 -0.91100001 83 38 7
-3.2190001 16.848 -0.91600001 175 94 31
-3.2179999 16.855 -0.91399997 126 80 46
-3.2160001 16.813 -0.954 171 117 79
-3.23 16.813 -0.95999998 63 30 15
-3.244 16.813999 -0.82700002 155 103 66
-3.247 16.806 -0.82700002 244 134 57
-3.243 16.802 -0.838 182 99 45
-3.2509999 16.805 -0.82200003 166 106 69
-3.2420001 16.795 -0.86000001 169 113 78
-3.224 16.797001 -0.80400002 75 40 21
-3.234 16.809999 -0.80400002 109 64 33
-3.237 16.820999 -0.82099998 143 76 34
-3.207 16.794001 -0.82200003 225 152 107
-3.2249999 16.773001 -0.954 159 105 71
-3.2249999 16.778 -0.963 239 156 90
-3.223 16.774 -0.95200002 169 107 56
-3.2309999 16.785999 -0.97000003 206 146 109
-3.2320001 16.799 -0.96899998 162 117 86
-3.2349999 16.794001 -0.963 64 47 21
-3.237 16.804001 -0.95999998 107 51 4
-3.2179999 16.798 -0.95499998 189 134 103
-3.21 16.799 -0.847 87 36 17
-3.211 16.789 -0.82800001 163 122 90
-3.24 16.819 -0.80400002 170 94 45
-3.2290001 16.825001 -0.80199999 126 72 38
-3.2179999 16.822001 -0.80400002 171 86 31
-3.2260001 16.820999 -0.80299997 159 106 72
-3.244 16.791 -0.93599999 171 66 0
-3.233 16.798 -0.93400002 187 85 11
-3.233 16.811001 -0.93099999 194 120 73
-3.2119999 16.827999 -0.91299999 145 94 63
-3.2179999 16.833 -0.90700001 158 93 51
-3.244 16.798 -0.92199999 170 74 16
-3.2449999 16.796 -0.912 239 128 56
-3.2309999 16.785999 -0.95899999 246 149 78
-3.2149999 16.796 -0.97299999 123 82 54
-3.2320001 16.789 -0.972 214 117 40
-3.247 16.802999 -0.82800001 174 112 73
-3.2460001 16.787001 -0.83200002 148 104 65
-3.243 16.784 -0.84100002 141 89 49
-3.2379999 16.783001 -0.86400002 61 30 27
-3.2160001 16.809999 -0.83399999 51 30 13
-3.2119999 16.791 -0.833 106 71 49
-3.2119999 16.788 -0.80900002 71 37 12
-3.2179999 16.795 -0.81300002 188 91 23
-3.234 16.804001 -0.84600002 180 98 42
-3.24 16.795 -0.866 135 95 70
-3.2119999 16.805 -0.852 148 104 69
-3.2119999 16.801001 -0.85600001 122 60 11
-3.223 16.815001 -0.94999999 123 79 52
-3.234 16.798 -0.81199998 169 121 81
-3.22 16.797001 -0.81400001 71 42 24
-3.2479999 16.809 -0.81400001 210 111 56
-3.2379999 16.798 -0.81599998 90 46 11
-3.2449999 16.802 -0.824 239 145 91
-3.2260001 16.809999 -0.86699998 63 27 11
-3.2320001 16.806 -0.86299998 60 39 34
-3.211 16.813 -0.81199998 80 50 39
-3.2249999 16.811001 -0.80299997 200 106 42
-3.233 16.809999 -0.921 143 87 52
-3.2160001 16.833 -0.90899998 134 74 24
-3.223 16.822001 -0.90499997 144 88 51
-3.2349999 16.809999 -0.91000003 60 39 36
-3.24 16.805 -0.89700001 83 35 0
-3.224 16.819 -0.90499997 126 66 74
-3.243 16.790001 -0.91000003 207 105 31
-3.2420001 16.771 -0.90399998 112 63 23
-3.2149999 16.789 -0.97000003 187 127 91
-3.2179999 16.799 -0.97399998 170 120 87
-3.2179999 16.798 -0.95599997 135 86 43
-3.2190001 16.785 -0.83700001 163 80 30
-3.2219999 16.782 -0.87599999 121 74 30
-3.243 16.802 -0.85600001 135 52 0
-3.2119999 16.809 -0.838 156 71 16
-3.24 16.788 -0.87599999 114 63 20
-3.227 16.812 -0.838 132 87 48
-3.24 16.799 -0.82099998 132 87 46
-3.2219999 16.823999 -0.80400002 165 95 46
-3.23 16.797001 -0.92199999 79 41 22
-3.2179999 16.804001 -0.89899999 50 20 10
-3.221 16.812 -0.88 51 23 1
-3.2179999 16.798 -0.89300001 194 134 204
-3.243 16.819 -0.80900002 118 72 38
-3.24 16.808001 -0.80599999 180 135 93
-3.2349999 16.799 -0.96100003 97 45 8
-3.224 16.789 -0.95300001 138 94 65
-3.2309999 16.809 -0.917 40 12 1
-3.2249999 16.791 -0.89899999 102 55 11
-3.23 16.780001 -0.88300002 116 60 27
-3.2279999 16.788 -0.88499999 147 52 0
-3.243 16.808001 -0.92199999 69 39 28
-3.2420001 16.802 -0.90100002 54 28 11
-3.2420001 16.781 -0.88300002 110 61 20
-3.2409999 16.794001 -0.85699999 45 18 0
-3.2390001 16.785 -0.84500003 79 48 43
-3.2390001 16.790001 -0.85100001 105 64 36
-3.237 16.785 -0.83999997 165 129 105
-3.243 16.785999 -0.83700001 207 100 28
-3.224 16.806 -0.84500003 84 48 34
-3.217 16.797001 -0.85600001 101 52 12
-3.2279999 16.789 -0.861 178 84 20
-3.2260001 16.806 -0.852 117 74 40
-3.224 16.806 -0.85699999 159 83 33
-3.2190001 16.827999 -0.86400002 59 40 36
-3.2409999 16.796 -0.87900001 55 28 9
-3.224 16.806999 -0.87900001 140 64 15
-3.217 16.825001 -0.86900002 108 44 9
-3.2179999 16.833 -0.86900002 99 58 30
-3.22 16.806999 -0.93699998 118 70 24
-3.2360001 16.789 -0.91000003 178 127 96
-3.217 16.825001 -0.90600002 68 40 18
-3.2279999 16.784 -0.88200003 120 69 26
-3.244 16.813 -0.81099999 73 36 27
-3.2279999 16.785999 -0.95300001 237 150 83
-3.2349999 16.797001 -0.92500001 162 112 85
-3.2379999 16.806999 -0.94700003 240 137 58
-3.2420001 16.802999 -0.92299998 65 42 24
-3.244 16.802 -0.93900001 206 141 235
-3.24 16.784 -0.89700001 233 132 64
-3.2390001 16.77 -0.89300001 107 56 13
-3.2390001 16.791 -0.85799998 88 48 13
-3.2360001 16.785999 -0.847 177 115 58
-3.23 16.788 -0.86400002 158 110 72
-3.221 16.801001 -0.861 176 86 24
-3.2260001 16.802999 -0.86900002 61 28 11
-3.24 16.798 -0.82300001 160 112 72
-3.2360001 16.791 -0.83099997 122 71 44
-3.23 16.789 -0.829 210 166 131
-3.2149999 16.813 -0.85799998 59 27 6
-3.227 16.811001 -0.875 175 85 25
-3.214 16.816999 -0.92699999 146 91 60
-3.217 16.816 -0.93800002 215 156 114
-3.2260001 16.804001 -0.94 138 91 61
-3.24 16.785999 -0.912 149 100 59
-3.223 16.818001 -0.89600003 134 85 42
-3.234 16.802999 -0.889 153 70 18
-3.2349999 16.788 -0.95599997 134 89 48
-3.2420001 16.801001 -0.94400001 58 35 17
-3.233 16.799999 -0.91600001 161 112 82
-3.2460001 16.796 -0.935 174 73 1
-3.2390001 16.788 -0.89499998 91 54 28
-3.2349999 16.781 -0.89399999 128 65 12
-3.2390001 16.764999 -0.89999998 99 65 55
-3.24 16.771999 -0.89700001 244 138 60
-3.2390001 16.792 -0.88 101 60 38
-3.2420001 16.796 -0.84399998 164 104 67
-3.2290001 16.782 -0.87699997 108 62 39
-3.23 16.792 -0.87300003 161 68 7
-3.217 16.806999 -0.861 245 181 135
-3.2160001 16.816 -0.93400002 208 131 75
-3.2219999 16.816999 -0.90200001 58 32 9
-3.223 16.816 -0.88800001 86 42 13
-3.223 16.798 -0.89099997 90 55 27
-3.2260001 16.809 -0.889 56 23 8
-3.2390001 16.802999 -0.81199998 96 62 52
-3.2360001 16.796 -0.94199997 64 48 22
-3.234 16.799999 -0.912 206 103 45
-3.2390001 16.790001 -0.89600003 94 48 15
-3.2409999 16.771 -0.89200002 135 90 67
-3.2290001 16.787001 -0.84600002 135 89 55
-3.23 16.792999 -0.87699997 126 46 0
-3.2260001 16.812 -0.90100002 169 86 32
-3.2320001 16.805 -0.90499997 186 128 91
-3.2320001 16.805 -0.88599998 52 31 28
-3.234 16.802 -0.91100001 166 77 19
-3.2409999 16.778 -0.88499999 215 117 46
-3.223 16.804001 -0.889 171 89 39
0 0 0 1 0 0 0 1 0 0 0 1 0 0 0 0 0 223 1 0 0
