ply
format ascii 1.0
comment PCL generated
element vertex 705
property float x
property float y
property float z
property uchar red
property uchar green
property uchar blue
element camera 1
property float view_px
property float view_py
property float view_pz
property float x_axisx
property float x_axisy
property float x_axisz
property float y_axisx
property float y_axisy
property float y_axisz
property float z_axisx
property float z_axisy
property float z_axisz
property float focal
property float scalex
property float scaley
property float centerx
property float centery
property int viewportx
property int viewporty
property float k1
property float k2
end_header
-4.5539999 -2.8399999 -1.031 133 100 85
-4.5689998 -2.8269999 -1.027 4 0 0
-4.566 -2.8369999 -1.039 50 20 9
-4.5710001 -2.891 -1.0089999 124 96 84
-4.585 -2.888 -1.016 34 14 5
-4.5830002 -2.8959999 -1.005 26 5 0
-4.5500002 -2.9059999 -0.86699998 89 54 35
-4.552 -2.9070001 -0.86699998 161 134 123
-4.5510001 -2.9089999 -0.86699998 97 62 40
-4.5549998 -2.9059999 -0.87800002 34 15 1
-4.573 -2.925 -0.87 182 126 79
-4.5749998 -2.915 -0.86299998 179 131 82
-4.553 -2.914 -0.86799997 92 58 33
-4.5650001 -2.9170001 -0.86699998 174 115 71
-4.5890002 -2.7750001 -0.97899997 116 37 0
-4.5890002 -2.7739999 -0.97000003 191 121 69
-4.6040001 -2.7720001 -0.963 91 42 9
-4.585 -2.773 -0.98199999 126 52 3
-4.5409999 -2.8599999 -1.0140001 14 2 2
-4.539 -2.8559999 -1.008 12 0 0
-4.5450001 -2.852 -1.022 47 28 21
-4.5430002 -2.858 -1.025 142 102 66
-4.54 -2.938 -0.94199997 76 29 9
-4.5440001 -2.948 -0.92400002 103 79 67
-4.5339999 -2.937 -0.935 57 11 0
-4.5489998 -2.947 -0.93099999 30 0 0
-4.5489998 -2.941 -0.94099998 165 87 51
-4.559 -2.948 -0.93800002 161 117 82
-4.5609999 -2.892 -1.006 123 92 72
-4.5430002 -2.888 -1.0089999 140 97 55
-4.5560002 -2.8870001 -1.026 110 79 59
-4.559 -2.8859999 -1.016 30 9 4
-4.5679998 -2.891 -0.98900002 65 39 22
-4.5549998 -2.885 -0.99900001 18 11 0
-4.5549998 -2.938 -0.94999999 154 88 54
-4.5419998 -2.918 -0.94400001 116 90 75
-4.5749998 -2.7950001 -0.91600001 67 31 0
-4.5830002 -2.7750001 -0.92799997 61 23 0
-4.566 -2.7909999 -0.92299998 81 63 63
-4.5619998 -2.902 -0.88700002 53 24 8
-4.5710001 -2.892 -0.87099999 64 20 0
-4.585 -2.8959999 -0.87800002 114 95 62
-4.5760002 -2.898 -0.89300001 92 45 25
-4.5949998 -2.835 -1.008 21 2 0
-4.5900002 -2.8269999 -1.028 14 0 0
-4.5900002 -2.8340001 -1.029 32 22 21
-4.5999999 -2.8529999 -1.03 53 24 10
-4.5830002 -2.845 -1.039 47 20 9
-4.599 -2.858 -1.034 22 1 0
-4.552 -2.908 -0.86699998 62 24 3
-4.5939999 -2.937 -0.88200003 158 100 52
-4.598 -2.9360001 -0.884 84 20 0
-4.5890002 -2.9419999 -0.88300002 142 76 41
-4.5910001 -2.9360001 -0.87800002 148 98 39
-4.5469999 -2.8729999 -0.98000002 84 54 26
-4.5380001 -2.869 -0.98900002 53 27 14
-4.5489998 -2.8699999 -0.977 45 23 12
-4.5500002 -2.865 -0.98299998 94 71 63
-4.6059999 -2.803 -0.963 22 7 2
-4.6079998 -2.799 -0.958 39 21 11
-4.6030002 -2.8150001 -0.958 36 15 0
-4.605 -2.802 -0.95599997 72 44 22
-4.6030002 -2.8080001 -0.95099998 93 67 42
-4.5939999 -2.7909999 -0.99900001 77 32 0
-4.5970001 -2.8039999 -0.99800003 31 10 5
-4.5900002 -2.7880001 -1.002 71 21 0
-4.5419998 -2.8640001 -1.026 126 107 101
-4.5450001 -2.852 -1.026 138 90 52
-4.5510001 -2.8859999 -1.012 31 6 0
-4.5489998 -2.8859999 -1.003 9 0 0
-4.5619998 -2.836 -1.029 99 81 77
-4.5599999 -2.8369999 -1.021 26 11 6
-4.5780001 -2.848 -1.034 25 1 0
-4.5749998 -2.8329999 -1.031 11 1 2
-4.598 -2.8870001 -1.025 75 19 4
-4.599 -2.888 -1.025 39 15 5
-4.592 -2.8829999 -1.026 38 3 1
-4.5970001 -2.865 -1.033 32 8 6
-4.5560002 -2.8640001 -0.97600001 51 28 14
-4.5510001 -2.868 -0.97899997 57 40 33
-4.5760002 -2.8840001 -1.021 40 13 4
-4.5970001 -2.8640001 -1.027 58 33 26
-4.5970001 -2.8629999 -1.029 24 4 0
-4.5890002 -2.8710001 -0.958 95 40 9
-4.6030002 -2.881 -0.949 120 55 13
-4.598 -2.8699999 -0.93800002 71 40 22
-4.5970001 -2.8729999 -0.96600002 25 1 0
-4.5689998 -2.872 -0.96600002 109 74 46
-4.5599999 -2.8659999 -0.977 113 86 75
-4.5760002 -2.862 -0.958 99 68 50
-4.573 -2.862 -0.95200002 66 36 25
-4.5770001 -2.7950001 -0.91500002 65 32 0
-4.5799999 -2.7909999 -0.92000002 91 29 4
-4.5780001 -2.796 -0.91299999 77 43 8
-4.6090002 -2.8139999 -0.97000003 27 7 0
-4.6040001 -2.7880001 -0.95599997 58 34 22
-4.6110001 -2.7880001 -0.97000003 151 109 71
-4.5970001 -2.7839999 -0.94599998 121 87 60
-4.5960002 -2.796 -0.93000001 171 137 112
-4.592 -2.799 -0.92500001 18 0 0
-4.5949998 -2.802 -0.92799997 60 23 7
-4.5619998 -2.773 -0.963 134 124 125
-4.5640001 -2.783 -0.97000003 82 49 30
-4.5770001 -2.776 -0.97100002 102 90 92
-4.5539999 -2.7850001 -0.96200001 87 71 58
-4.592 -2.7739999 -0.95999998 57 37 36
-4.598 -2.816 -0.94499999 77 25 3
-4.598 -2.8169999 -0.94800001 67 22 3
-4.585 -2.8900001 -0.92299998 108 74 39
-4.5840001 -2.8940001 -0.91799998 42 21 18
-4.5939999 -2.8959999 -0.90899998 148 104 67
-4.5910001 -2.8940001 -0.91900003 41 18 12
-4.5409999 -2.9089999 -0.93300003 65 45 44
-4.5349998 -2.921 -0.93699998 126 93 74
-4.54 -2.9100001 -0.93800002 33 14 10
-4.579 -2.869 -0.93000001 48 25 19
-4.5739999 -2.875 -0.92799997 66 41 34
-4.5650001 -2.8759999 -0.92199999 80 58 44
-4.5749998 -2.898 -0.89700001 98 61 35
-4.5640001 -2.904 -0.89999998 27 0 0
-4.553 -2.836 -0.98199999 47 33 30
-4.5549998 -2.832 -0.98199999 54 32 19
-4.5539999 -2.8310001 -0.97799999 38 19 5
-4.5599999 -2.8410001 -0.98100001 25 5 0
-4.5539999 -2.8510001 -0.98900002 44 9 3
-4.6090002 -2.898 -0.92500001 36 25 29
-4.6090002 -2.9119999 -0.92199999 149 106 61
-4.6009998 -2.8970001 -0.91799998 165 119 83
-4.6079998 -2.8989999 -0.92500001 147 89 43
-4.5749998 -2.9419999 -0.88800001 133 100 93
-4.573 -2.938 -0.884 117 64 33
-4.5700002 -2.941 -0.88800001 134 81 47
-4.598 -2.8610001 -1.023 37 14 6
-4.6030002 -2.865 -1.012 147 119 105
-4.5419998 -2.928 -0.92699999 90 54 28
-4.5409999 -2.927 -0.921 29 1 0
-4.5370002 -2.9330001 -0.94 23 2 0
-4.5489998 -2.9260001 -0.94300002 28 4 0
-4.5419998 -2.9330001 -0.92500001 152 116 84
-4.5570002 -2.9159999 -0.87599999 105 70 48
-4.559 -2.9030001 -0.86799997 116 99 92
-4.5780001 -2.9030001 -0.86199999 177 126 71
-4.5890002 -2.8050001 -0.926 74 38 4
-4.573 -2.8069999 -0.91900003 86 31 0
-4.5879998 -2.8169999 -0.92400002 88 47 27
-4.5560002 -2.8080001 -0.98299998 99 59 47
-4.553 -2.809 -0.98799998 77 28 13
-4.5549998 -2.7980001 -0.98699999 85 76 79
-4.598 -2.8 -0.99199998 27 8 2
-4.599 -2.7969999 -0.98500001 39 16 8
-4.6009998 -2.8099999 -0.991 116 80 64
-4.5970001 -2.793 -0.991 22 2 0
-4.5999999 -2.7939999 -0.98500001 62 33 17
-4.6040001 -2.7920001 -0.97899997 68 37 16
-4.5999999 -2.783 -0.977 57 25 14
-4.5999999 -2.7880001 -0.98299998 41 14 7
-4.5809999 -2.8280001 -1.029 15 5 3
-4.5749998 -2.9200001 -0.86799997 141 91 40
-4.6069999 -2.8989999 -0.94099998 106 42 7
-4.6079998 -2.895 -0.93699998 134 84 51
-4.612 -2.9030001 -0.93800002 211 144 91
-4.6079998 -2.8269999 -0.96399999 72 31 13
-4.5960002 -2.829 -0.94599998 21 10 14
-4.6059999 -2.8829999 -0.94099998 79 40 23
-4.598 -2.8710001 -0.935 72 34 15
-4.5669999 -2.8570001 -1.033 24 3 2
-4.539 -2.8829999 -1.011 48 30 18
-4.5359998 -2.881 -0.99699998 27 4 0
-4.586 -2.9170001 -0.977 55 26 18
-4.5710001 -2.9200001 -0.98000002 65 31 4
-4.5809999 -2.9089999 -0.97600001 27 7 6
-4.573 -2.9219999 -0.97899997 64 31 0
-4.5819998 -2.9260001 -0.96899998 67 47 40
-4.5840001 -2.9200001 -0.97399998 23 0 0
-4.592 -2.9119999 -0.972 63 40 32
-4.5669999 -2.8299999 -1.027 6 2 1
-4.5669999 -2.846 -1.033 10 0 0
-4.5780001 -2.862 -0.95200002 84 50 25
-4.5840001 -2.8559999 -0.96200001 28 2 1
-4.5799999 -2.8940001 -0.99900001 73 36 18
-4.5869999 -2.8959999 -0.99599999 40 13 4
-4.5830002 -2.901 -0.866 134 90 51
-4.552 -2.904 -0.954 18 0 0
-4.5570002 -2.908 -0.96600002 59 14 0
-4.553 -2.8929999 -0.96600002 125 87 68
-4.5689998 -2.7980001 -0.917 101 58 26
-4.5669999 -2.803 -0.91799998 203 159 124
-4.6030002 -2.825 -0.98000002 25 7 5
-4.598 -2.8110001 -1.002 67 34 19
-4.5999999 -2.8280001 -0.98500001 54 11 0
-4.6079998 -2.7950001 -0.96200001 117 30 3
-4.6079998 -2.7950001 -0.96100003 151 53 8
-4.6059999 -2.799 -0.97000003 75 53 40
-4.6059999 -2.7869999 -0.96100003 131 53 14
-4.5910001 -2.7809999 -0.95099998 134 120 119
-4.5929999 -2.78 -0.95499998 76 58 58
-4.5970001 -2.7820001 -0.95499998 129 83 49
-4.5780001 -2.776 -0.96899998 46 6 0
-4.5679998 -2.789 -0.926 48 26 28
-4.5799999 -2.7809999 -0.93300003 25 5 0
-4.5679998 -2.7839999 -0.93900001 36 18 18
-4.5840001 -2.7880001 -0.92199999 140 84 61
-4.5840001 -2.904 -0.89300001 40 18 5
-4.579 -2.901 -0.889 144 72 34
-4.5929999 -2.875 -0.96100003 57 28 14
-4.5609999 -2.802 -0.97000003 50 22 18
-4.5560002 -2.8889999 -0.95300001 132 82 55
-4.5560002 -2.8829999 -0.95099998 105 96 97
-4.5500002 -2.8840001 -0.97100002 148 115 96
-4.5929999 -2.9089999 -0.89499998 36 28 15
-4.5650001 -2.842 -0.98000002 25 5 0
-4.566 -2.846 -0.98100001 18 0 0
-4.5780001 -2.849 -0.97000003 107 80 69
-4.6030002 -2.8840001 -0.93800002 46 22 12
-4.6090002 -2.898 -0.93400002 75 18 1
-4.612 -2.9130001 -0.926 125 110 87
-4.5910001 -2.9360001 -0.889 131 69 30
-4.5900002 -2.937 -0.90100002 87 38 5
-4.5910001 -2.9260001 -0.90700001 97 72 67
-4.5869999 -2.9419999 -0.92500001 135 116 102
-4.5830002 -2.9330001 -0.91299999 230 117 47
-4.5710001 -2.921 -0.97299999 72 42 18
-4.5630002 -2.9170001 -0.98199999 45 21 9
-4.5770001 -2.9389999 -0.884 138 101 92
-4.5830002 -2.937 -0.88999999 146 84 61
-4.598 -2.826 -0.98900002 32 8 0
-4.5999999 -2.825 -0.98400003 75 30 1
-4.5440001 -2.911 -0.93199998 104 85 79
-4.539 -2.9360001 -0.91600001 45 4 0
-4.5450001 -2.927 -0.90799999 75 32 0
-4.546 -2.934 -0.91500002 141 96 63
-4.5510001 -2.9330001 -0.91000003 184 140 103
-4.5479999 -2.9419999 -0.93699998 139 115 105
-4.5489998 -2.9449999 -0.92699999 52 19 2
-4.559 -2.9119999 -0.88700002 57 11 0
-4.5599999 -2.908 -0.884 35 6 2
-4.5999999 -2.8 -0.949 15 0 0
-4.5929999 -2.819 -0.92699999 98 44 16
-4.5960002 -2.806 -0.93199998 77 34 15
-4.5960002 -2.8069999 -0.93199998 82 35 15
-4.5549998 -2.803 -0.98799998 107 101 103
-4.5609999 -2.8 -0.98900002 17 11 15
-4.553 -2.8180001 -0.98199999 96 78 64
-4.5599999 -2.8210001 -0.97600001 29 5 0
-4.5949998 -2.79 -0.99900001 91 36 0
-4.586 -2.7839999 -1.003 88 38 5
-4.5539999 -2.845 -0.991 32 13 6
-4.5929999 -2.8150001 -1.006 14 0 0
-4.5840001 -2.829 -1.022 31 15 2
-4.5809999 -2.8210001 -1.011 129 101 80
-4.598 -2.8010001 -0.99299997 37 12 7
-4.5739999 -2.812 -1.003 69 62 56
-4.5700002 -2.8050001 -1.003 109 68 48
-4.5599999 -2.8180001 -1.005 117 111 113
-4.5630002 -2.816 -1.005 111 107 106
-4.6040001 -2.9200001 -0.88099998 108 81 60
-4.5949998 -2.9289999 -0.87800002 174 112 37
-4.5799999 -2.9189999 -0.86500001 147 96 49
-4.5749998 -2.9319999 -0.87400001 205 166 101
-4.5799999 -2.928 -0.87300003 253 223 137
-4.5489998 -2.928 -0.90600002 166 121 80
-4.5599999 -2.9260001 -0.89499998 108 64 17
-4.5640001 -2.9089999 -0.89700001 60 31 25
-4.5580001 -2.9430001 -0.92900002 157 82 42
-4.5619998 -2.944 -0.93099999 158 94 56
-4.572 -2.9449999 -0.93900001 58 26 3
-4.5630002 -2.9419999 -0.93900001 82 37 16
-4.5450001 -2.8540001 -1.021 152 101 58
-4.5999999 -2.875 -1.0190001 66 35 17
-4.586 -2.918 -0.97299999 35 8 1
-4.5840001 -2.921 -0.96799999 29 5 1
-4.585 -2.9219999 -0.96200001 55 32 26
-4.5380001 -2.872 -1.005 108 48 12
-4.539 -2.8789999 -1.003 99 47 25
-4.5440001 -2.8670001 -0.995 45 11 0
-4.5380001 -2.8770001 -0.99800003 48 19 5
-4.5370002 -2.878 -0.99299997 26 12 1
-4.5409999 -2.8699999 -1.024 26 9 1
-4.5500002 -2.8729999 -1.027 123 105 101
-4.5539999 -2.881 -1.026 46 24 11
-4.5500002 -2.8540001 -1.031 82 50 25
-4.5430002 -2.885 -1.0039999 134 96 60
-4.5419998 -2.8829999 -1 25 6 0
-4.5819998 -2.8310001 -1.03 15 1 0
-4.5819998 -2.8280001 -1.026 18 0 0
-4.5749998 -2.829 -1.026 5 0 0
-4.573 -2.8570001 -1.027 25 11 10
-4.5739999 -2.8499999 -1.0319999 13 2 0
-4.5910001 -2.8610001 -1.03 11 1 0
-4.5960002 -2.888 -1.0140001 41 8 1
-4.5830002 -2.8900001 -1.011 56 32 22
-4.6030002 -2.7809999 -0.96799999 202 121 56
-4.6059999 -2.7850001 -0.96799999 98 63 33
-4.5799999 -2.902 -0.88999999 192 119 78
-4.5819998 -2.901 -0.88300002 31 14 7
-4.552 -2.9030001 -0.954 75 23 1
-4.5500002 -2.8729999 -0.97600001 105 80 60
-4.5549998 -2.902 -0.949 40 32 30
-4.605 -2.902 -0.972 65 25 0
-4.6059999 -2.8959999 -0.97399998 135 88 44
-4.6059999 -2.8989999 -0.96799999 36 5 0
-4.6090002 -2.8940001 -0.98100001 173 133 61
-4.6040001 -2.8940001 -0.96200001 13 2 0
-4.5819998 -2.9030001 -0.97600001 72 42 34
-4.6040001 -2.901 -0.98400003 23 4 0
-4.5640001 -2.875 -0.95899999 79 32 14
-4.5560002 -2.869 -0.97500002 14 0 0
-4.5749998 -2.8670001 -0.94999999 45 12 0
-4.572 -2.806 -0.91900003 178 115 64
-4.5679998 -2.8099999 -0.92799997 36 21 16
-4.5749998 -2.826 -0.95599997 35 11 9
-4.5840001 -2.8310001 -0.94499999 98 58 22
-4.5749998 -2.8280001 -0.95899999 49 25 15
-4.6059999 -2.9030001 -0.94800001 105 68 39
-4.6030002 -2.904 -0.94999999 72 18 0
-4.605 -2.8940001 -0.95599997 29 5 3
-4.605 -2.895 -0.94099998 140 86 62
-4.5869999 -2.8610001 -0.96600002 29 1 0
-4.6059999 -2.813 -0.97600001 38 1 0
-4.6020002 -2.8329999 -0.98100001 43 11 0
-4.6079998 -2.7939999 -0.963 106 20 0
-4.5700002 -2.836 -0.972 93 58 26
-4.5749998 -2.835 -0.96600002 25 1 0
-4.5689998 -2.8410001 -0.97799999 105 87 77
-4.5999999 -2.7809999 -0.95899999 113 70 36
-4.605 -2.7809999 -0.963 125 72 32
-4.5780001 -2.7869999 -0.92500001 91 75 75
-4.5770001 -2.7920001 -0.921 106 81 61
-4.5560002 -2.79 -0.94099998 44 26 22
-4.553 -2.786 -0.954 81 75 75
-4.5609999 -2.777 -0.95999998 11 1 2
-4.5570002 -2.891 -0.935 77 58 52
-4.5679998 -2.8699999 -0.95200002 44 9 5
-4.5640001 -2.8759999 -0.94400001 87 37 26
-4.572 -2.8699999 -0.949 46 19 12
-4.5580001 -2.8900001 -0.94999999 11 3 1
-4.5760002 -2.892 -0.92400002 61 33 29
-4.5510001 -2.8540001 -0.99199998 23 4 0
-4.6030002 -2.895 -0.92500001 148 101 55
-4.6009998 -2.8929999 -0.92500001 149 104 63
-4.5999999 -2.8959999 -0.91900003 117 71 38
-4.5960002 -2.905 -0.912 136 92 55
-4.599 -2.9059999 -0.917 137 93 54
-4.605 -2.911 -0.921 139 102 50
-4.5939999 -2.9230001 -0.92699999 32 22 23
-4.5910001 -2.924 -0.91000003 31 24 14
-4.5819998 -2.934 -0.917 176 81 23
-4.6040001 -2.918 -0.94499999 23 13 14
-4.5809999 -2.928 -0.963 20 0 0
-4.5929999 -2.918 -0.93599999 66 24 0
-4.6009998 -2.9170001 -0.94300002 132 117 112
-4.5700002 -2.928 -0.96499997 68 37 17
-4.5749998 -2.9230001 -0.97399998 73 40 7
-4.573 -2.9330001 -0.94800001 41 2 0
-4.5840001 -2.9360001 -0.92699999 98 52 36
-4.5760002 -2.9330001 -0.94099998 32 1 0
-4.5739999 -2.9349999 -0.93900001 31 0 0
-4.5949998 -2.8329999 -0.991 91 46 15
-4.5869999 -2.836 -1.016 27 7 6
-4.5479999 -2.9330001 -0.91299999 140 97 65
-4.5580001 -2.918 -0.87300003 108 72 48
-4.5710001 -2.8989999 -0.88200003 61 25 13
-4.572 -2.8959999 -0.87400001 80 29 0
-4.5640001 -2.902 -0.88300002 44 12 0
-4.5929999 -2.904 -0.88300002 113 81 58
-4.586 -2.904 -0.87900001 93 70 38
-4.6020002 -2.7920001 -0.95099998 47 13 1
-4.5970001 -2.809 -0.93300003 65 23 1
-4.5970001 -2.809 -0.935 69 34 15
-4.5929999 -2.8099999 -0.92900002 101 46 16
-4.5599999 -2.8080001 -0.97399998 44 7 0
-4.5910001 -2.7869999 -0.99900001 121 68 37
-4.5879998 -2.7850001 -0.99800003 101 54 26
-4.5970001 -2.78 -0.97799999 127 53 8
-4.5939999 -2.783 -0.98299998 106 49 30
-4.5960002 -2.789 -0.99000001 70 23 0
-4.579 -2.822 -1.0140001 54 27 10
-4.553 -2.8429999 -1.001 109 99 97
-4.552 -2.848 -1.007 22 8 7
-4.5890002 -2.829 -1.0039999 24 6 2
-4.5890002 -2.8329999 -1.0089999 50 21 7
-4.592 -2.8080001 -0.99699998 57 28 14
-4.5830002 -2.7920001 -0.98699999 44 20 10
-4.5560002 -2.809 -0.98299998 103 57 42
-4.5749998 -2.8010001 -0.98799998 49 22 11
-4.552 -2.8180001 -0.99800003 80 52 31
-4.5910001 -2.928 -0.87699997 57 30 21
-4.5749998 -2.924 -0.87 142 89 37
-4.586 -2.9260001 -0.87300003 172 141 76
-4.5929999 -2.9189999 -0.94300002 110 92 88
-4.5570002 -2.9189999 -0.87599999 73 42 14
-4.5640001 -2.9089999 -0.89899999 106 76 68
-4.552 -2.8499999 -1.011 40 7 0
-4.5689998 -2.8699999 -0.97299999 162 128 116
-4.5599999 -2.8870001 -0.98500001 93 75 71
-4.552 -2.8859999 -0.98500001 93 78 73
-4.6040001 -2.8759999 -1.01 29 14 9
-4.5910001 -2.872 -1.002 43 6 0
-4.592 -2.8789999 -1.001 122 85 66
-4.6040001 -2.9000001 -0.98100001 42 23 19
-4.605 -2.8929999 -0.97600001 110 63 33
-4.6079998 -2.891 -0.98299998 71 36 0
-4.5560002 -2.848 -1.029 22 6 6
-4.54 -2.8840001 -1.01 19 9 8
-4.5869999 -2.869 -1.025 11 3 1
-4.5809999 -2.862 -1.024 28 0 0
-4.5749998 -2.8640001 -1.024 23 3 2
-4.5679998 -2.865 -1.028 12 0 0
-4.5619998 -2.8640001 -1.025 32 22 23
-4.6040001 -2.8010001 -0.97500002 73 30 13
-4.605 -2.7980001 -0.972 65 46 32
-4.586 -2.7739999 -0.97299999 124 52 14
-4.5819998 -2.776 -0.97399998 81 28 10
-4.579 -2.779 -0.97299999 73 28 5
-4.5770001 -2.9000001 -0.89399999 126 73 39
-4.559 -2.8840001 -0.958 90 39 12
-4.5580001 -2.885 -0.963 16 0 3
-4.5580001 -2.885 -0.95599997 37 28 29
-4.5949998 -2.8859999 -1.005 62 31 13
-4.5900002 -2.8900001 -0.98699999 13 0 0
-4.586 -2.878 -0.99800003 25 4 0
-4.5869999 -2.882 -0.98199999 10 0 1
-4.5900002 -2.8699999 -0.96499997 50 27 19
-4.5879998 -2.868 -0.972 98 54 29
-4.5609999 -2.878 -0.95700002 101 50 31
-4.5630002 -2.8 -0.92799997 86 41 20
-4.5749998 -2.8299999 -0.92199999 30 4 3
-4.6030002 -2.881 -0.96499997 27 0 0
-4.5869999 -2.8570001 -0.97399998 46 19 12
-4.605 -2.8039999 -0.96700001 54 27 16
-4.6030002 -2.823 -0.977 36 1 0
-4.605 -2.8069999 -0.977 56 16 4
-4.6069999 -2.826 -0.96899998 64 19 0
-4.6030002 -2.7839999 -0.95700002 120 71 39
-4.5840001 -2.7780001 -0.93300003 96 60 34
-4.5840001 -2.7839999 -0.94700003 48 38 37
-4.5560002 -2.7939999 -0.95300001 34 28 28
-4.5599999 -2.78 -0.96200001 94 75 61
-4.5570002 -2.783 -0.94800001 42 27 22
-4.559 -2.902 -0.91799998 30 12 12
-4.5669999 -2.905 -0.917 30 6 0
-4.5630002 -2.908 -0.912 28 3 0
-4.559 -2.891 -0.93199998 8 0 0
-4.5619998 -2.882 -0.92500001 28 5 0
-4.5770001 -2.881 -0.93099999 66 28 19
-4.5879998 -2.8870001 -0.93099999 56 37 33
-4.5549998 -2.858 -0.98699999 25 0 0
-4.5910001 -2.836 -0.94999999 19 0 0
-4.5949998 -2.8399999 -0.954 86 71 68
-4.6069999 -2.8940001 -0.93599999 42 31 35
-4.5970001 -2.8929999 -0.92500001 46 24 11
-4.5760002 -2.901 -0.91299999 41 10 8
-4.5710001 -2.8989999 -0.921 53 23 13
-4.5999999 -2.9030001 -0.91900003 131 91 55
-4.5999999 -2.931 -0.89700001 92 38 0
-4.5999999 -2.9260001 -0.89899999 80 35 2
-4.5749998 -2.9419999 -0.89499998 87 62 58
-4.572 -2.944 -0.92699999 134 98 64
-4.6090002 -2.908 -0.94300002 124 95 37
-4.5809999 -2.928 -0.95999998 33 7 6
-4.5809999 -2.9260001 -0.95899999 38 3 0
-4.5749998 -2.9289999 -0.95300001 39 4 0
-4.5780001 -2.9219999 -0.97399998 80 44 8
-4.5570002 -2.927 -0.94999999 119 72 46
-4.5830002 -2.9260001 -0.94300002 111 83 82
-4.5700002 -2.938 -0.94199997 67 19 5
-4.5689998 -2.9349999 -0.94400001 98 45 27
-4.5970001 -2.8429999 -0.98400003 33 12 17
-4.5960002 -2.8440001 -0.98900002 104 72 51
-4.5970001 -2.8399999 -0.98400003 15 0 0
-4.586 -2.8440001 -1.022 7 0 0
-4.552 -2.9089999 -0.92500001 47 27 26
-4.5489998 -2.921 -0.92500001 38 10 0
-4.5510001 -2.921 -0.92199999 74 39 20
-4.5510001 -2.9430001 -0.93599999 179 114 82
-4.5609999 -2.9330001 -0.90899998 118 63 42
-4.5669999 -2.9430001 -0.89200002 103 61 36
-4.5640001 -2.9300001 -0.87599999 133 93 34
-4.5739999 -2.898 -0.86900002 252 199 131
-4.599 -2.921 -0.90399998 66 56 44
-4.5939999 -2.9119999 -0.88599998 223 159 87
-4.5939999 -2.8169999 -0.93699998 125 98 77
-4.5910001 -2.8280001 -0.94300002 24 0 0
-4.5890002 -2.8329999 -0.94800001 45 11 2
-4.6020002 -2.7909999 -0.95099998 55 18 0
-4.5869999 -2.7739999 -0.98699999 116 38 0
-4.5960002 -2.779 -0.977 124 51 6
-4.5700002 -2.8380001 -0.97500002 88 58 30
-4.579 -2.8150001 -1.001 69 54 49
-4.5780001 -2.812 -0.995 57 25 12
-4.579 -2.7880001 -0.98199999 27 8 4
-4.5560002 -2.8310001 -0.99400002 32 8 0
-4.5910001 -2.921 -0.87599999 143 109 46
-4.5900002 -2.9159999 -0.87800002 167 143 119
-4.6030002 -2.891 -0.935 65 12 0
-4.605 -2.9000001 -0.94499999 121 67 31
-4.559 -2.9360001 -0.917 59 14 8
-4.5489998 -2.931 -0.91000003 118 74 39
-4.5479999 -2.925 -0.91299999 42 4 1
-4.5450001 -2.8770001 -0.98400003 46 22 10
-4.5370002 -2.878 -0.98799998 30 12 2
-4.599 -2.888 -1.023 19 1 0
-4.6009998 -2.8859999 -1.0140001 116 75 55
-4.5999999 -2.8829999 -1.011 148 103 72
-4.6009998 -2.9000001 -0.97000003 32 9 1
-4.5999999 -2.9000001 -0.97000003 38 0 0
-4.599 -2.902 -0.95099998 61 38 32
-4.5679998 -2.8840001 -1.015 29 4 0
-4.5580001 -2.848 -1.029 50 26 14
-4.5419998 -2.8840001 -1.005 27 9 7
-4.5630002 -2.839 -1.033 65 51 51
-4.586 -2.8889999 -1.011 29 22 6
-4.5949998 -2.8499999 -0.99599999 48 35 27
-4.5939999 -2.858 -1.016 73 56 46
-4.598 -2.8610001 -1.016 40 13 2
-4.5949998 -2.862 -1.012 123 95 81
-4.5570002 -2.8840001 -1.025 44 29 22
-4.5549998 -2.8759999 -1.027 13 0 0
-4.5799999 -2.7839999 -0.95999998 22 10 10
-4.599 -2.776 -0.97100002 71 33 20
-4.5890002 -2.7750001 -0.97500002 140 69 13
-4.5910001 -2.7750001 -0.97000003 148 75 22
-4.5539999 -2.869 -0.97600001 10 0 0
-4.5910001 -2.888 -1.003 52 29 15
-4.6059999 -2.892 -0.97899997 48 9 0
-4.592 -2.885 -0.97899997 10 0 0
-4.5760002 -2.9119999 -0.97600001 81 55 42
-4.5819998 -2.9070001 -0.97500002 32 8 6
-4.5619998 -2.8789999 -0.92900002 8 0 0
-4.5609999 -2.8829999 -0.93400002 9 0 5
-4.5799999 -2.835 -0.92699999 131 88 69
-4.5809999 -2.823 -0.935 183 140 121
-4.5799999 -2.8180001 -0.93000001 83 54 40
-4.5949998 -2.8010001 -0.93099999 53 17 1
-4.598 -2.8840001 -0.97399998 52 13 0
-4.5809999 -2.8599999 -0.986 32 1 0
-4.5819998 -2.8570001 -0.99199998 35 17 13
-4.6040001 -2.8310001 -0.97399998 50 14 0
-4.572 -2.8299999 -0.96700001 19 1 0
-4.5710001 -2.819 -0.963 42 15 4
-4.573 -2.8239999 -0.963 20 1 0
-4.605 -2.7869999 -0.95899999 99 24 0
-4.5869999 -2.7820001 -0.93300003 111 59 22
-4.5539999 -2.918 -0.949 77 22 1
-4.5650001 -2.816 -0.954 19 9 7
-4.5650001 -2.8010001 -0.95899999 138 90 67
-4.5599999 -2.888 -0.94199997 11 2 3
-4.5580001 -2.9000001 -0.93800002 61 57 54
-4.5570002 -2.9030001 -0.94400001 117 97 86
-4.559 -2.8970001 -0.94499999 13 4 5
-4.5669999 -2.8759999 -0.93000001 54 42 42
-4.5970001 -2.882 -0.93000001 118 55 24
-4.599 -2.924 -0.88700002 119 58 3
-4.5799999 -2.937 -0.90600002 181 75 17
-4.573 -2.9449999 -0.89200002 148 120 117
-4.573 -2.9430001 -0.89499998 149 121 99
-4.5580001 -2.9230001 -0.95099998 55 29 14
-4.5549998 -2.927 -0.94800001 125 87 74
-4.5640001 -2.9319999 -0.94700003 63 16 0
-4.5819998 -2.937 -0.88 61 18 0
-4.5560002 -2.902 -0.93099999 119 97 86
-4.5539999 -2.941 -0.92400002 146 124 111
-4.5500002 -2.9389999 -0.92000002 144 122 109
-4.572 -2.9400001 -0.921 162 62 3
-4.5840001 -2.9189999 -0.87 178 129 71
-4.5960002 -2.8039999 -0.93900001 100 58 36
-4.5970001 -2.806 -0.93800002 113 77 55
-4.5960002 -2.8110001 -0.93699998 153 98 67
-4.5549998 -2.8180001 -0.98699999 36 20 4
-4.5650001 -2.8310001 -1.016 15 0 0
-4.585 -2.9219999 -0.87199998 202 152 99
-4.5999999 -2.914 -0.94599998 44 22 8
-4.586 -2.9130001 -0.95499998 85 47 34
-4.5469999 -2.9260001 -0.91399997 136 112 100
-4.5630002 -2.9419999 -0.921 156 80 30
-4.5469999 -2.8659999 -1.025 126 105 100
-4.5479999 -2.8759999 -1.021 22 5 0
-4.5549998 -2.8940001 -0.96600002 129 87 65
-4.5560002 -2.8900001 -0.97299999 41 17 13
-4.5619998 -2.891 -0.97899997 103 77 62
-4.5689998 -2.8940001 -0.98100001 53 28 8
-4.5700002 -2.895 -0.97799999 14 2 2
-4.5469999 -2.8800001 -0.99000001 52 12 0
-4.54 -2.8789999 -0.99199998 40 21 17
-4.5380001 -2.8800001 -0.995 29 8 3
-4.5710001 -2.921 -0.97000003 100 69 48
-4.559 -2.885 -1.024 71 51 42
-4.573 -2.8759999 -1.022 10 2 0
-4.5929999 -2.8570001 -1.02 22 0 0
-4.5640001 -2.8740001 -1.023 40 7 0
-4.5630002 -2.882 -1.024 90 64 49
-4.586 -2.776 -0.96700001 62 46 46
-4.552 -2.8710001 -0.97600001 15 0 0
-4.5749998 -2.9070001 -0.97500002 6 0 0
-4.5749998 -2.9000001 -0.97500002 9 0 1
-4.5819998 -2.8959999 -0.977 43 23 14
-4.5710001 -2.8710001 -0.92900002 50 35 32
-4.5700002 -2.8770001 -0.926 106 75 55
-4.5809999 -2.8210001 -0.93900001 121 78 61
-4.5799999 -2.829 -0.926 58 26 11
-4.5890002 -2.852 -0.97899997 21 9 9
-4.585 -2.852 -0.98500001 47 8 0
-4.5809999 -2.8789999 -0.986 16 0 0
-4.6030002 -2.826 -0.977 85 40 17
-4.5890002 -2.7939999 -0.92900002 60 25 6
-4.5749998 -2.783 -0.94400001 100 88 88
-4.5570002 -2.8310001 -0.99800003 20 0 0
-4.5650001 -2.8110001 -0.97000003 105 66 51
-4.5650001 -2.809 -0.96700001 32 19 11
-4.566 -2.809 -0.95300001 49 24 17
-4.5669999 -2.783 -0.95700002 12 4 2
-4.5580001 -2.8940001 -0.94800001 63 12 0
-4.5780001 -2.8740001 -0.94199997 52 24 13
-4.5570002 -2.8889999 -0.95700002 12 3 4
-4.5609999 -2.898 -0.92500001 89 67 53
-4.5630002 -2.8889999 -0.92699999 21 6 1
-4.5580001 -2.915 -0.90899998 111 78 59
-4.552 -2.9200001 -0.90399998 37 13 3
-4.6079998 -2.9059999 -0.92699999 150 114 56
-4.6100001 -2.9070001 -0.93599999 164 92 42
-4.5780001 -2.938 -0.91000003 216 107 38
-4.5609999 -2.924 -0.95200002 20 0 0
-4.586 -2.9119999 -0.96200001 34 1 0
-4.579 -2.937 -0.88 98 56 34
-4.5580001 -2.895 -0.93300003 16 7 8
-4.5679998 -2.9349999 -0.90799999 99 31 0
-4.5599999 -2.9219999 -0.88300002 125 86 53
-4.5580001 -2.925 -0.88999999 94 46 6
-4.5640001 -2.9219999 -0.87400001 220 171 139
-4.566 -2.925 -0.87400001 99 54 15
-4.5840001 -2.9070001 -0.87 146 93 39
-4.5960002 -2.9189999 -0.89600003 157 108 68
-4.5619998 -2.924 -0.87900001 153 111 69
-4.5900002 -2.8139999 -0.92699999 95 48 28
-4.559 -2.809 -0.99400002 38 20 10
-4.5819998 -2.8559999 -0.98900002 125 79 56
-4.5830002 -2.8310001 -0.95700002 25 5 0
-4.5580001 -2.8369999 -1.005 57 38 23
-4.5630002 -2.829 -1.006 132 95 77
-4.5619998 -2.8210001 -1.005 61 34 13
-4.6030002 -2.9070001 -0.94700003 90 43 13
-4.5539999 -2.8699999 -1.026 8 0 0
-4.5640001 -2.8929999 -0.97299999 37 18 11
-4.553 -2.8900001 -0.96799999 157 100 57
-4.5469999 -2.8800001 -0.98699999 216 173 131
-4.5900002 -2.895 -0.97600001 91 68 60
-4.5560002 -2.8559999 -1.027 63 28 6
-4.5960002 -2.849 -0.99599999 78 54 44
-4.5929999 -2.835 -0.99699998 25 6 0
-4.5879998 -2.8469999 -1.003 83 38 17
-4.5890002 -2.859 -1.005 43 32 30
-4.5970001 -2.858 -1.021 78 49 35
-4.5910001 -2.8800001 -0.97500002 59 21 8
-4.573 -2.7939999 -0.98400003 54 13 0
-4.5679998 -2.8469999 -0.98199999 49 20 4
-4.6040001 -2.7850001 -0.95899999 118 45 13
-4.579 -2.9289999 -0.94700003 77 41 25
-4.5799999 -2.924 -0.95200002 57 17 5
-4.5630002 -2.835 -1.0140001 20 5 0
-4.559 -2.7920001 -0.94199997 45 15 5
-4.5619998 -2.7939999 -0.94300002 61 29 14
-4.5679998 -2.803 -0.94999999 46 27 13
-4.5640001 -2.796 -0.93599999 70 41 33
-4.5599999 -2.7939999 -0.95099998 98 91 85
-4.5689998 -2.802 -0.94800001 49 31 17
-4.5669999 -2.8080001 -0.95599997 35 12 4
-4.5689998 -2.878 -0.92500001 98 70 56
-4.5749998 -2.8729999 -0.94300002 31 2 0
-4.5640001 -2.8859999 -0.92500001 74 51 45
-4.5580001 -2.9130001 -0.91299999 37 3 0
-4.6040001 -2.9130001 -0.921 149 110 69
-4.5970001 -2.9159999 -0.92699999 39 17 3
-4.5890002 -2.904 -0.958 28 0 0
-4.5650001 -2.928 -0.95099998 54 21 14
-4.5949998 -2.8299999 -0.99199998 58 31 20
-4.553 -2.9119999 -0.94999999 123 69 43
-4.586 -2.9089999 -0.87400001 155 103 43
-4.5910001 -2.9089999 -0.88099998 189 124 4
-4.5640001 -2.928 -0.88300002 147 72 15
-4.599 -2.9230001 -0.88999999 160 99 42
-4.592 -2.9130001 -0.88099998 203 179 91
-4.5999999 -2.908 -0.94700003 67 16 0
-4.5669999 -2.9449999 -0.917 135 92 49
-4.5549998 -2.8670001 -1.025 27 15 17
-4.552 -2.865 -1.026 4 0 1
-4.5500002 -2.882 -1.0190001 78 56 43
-4.5469999 -2.8800001 -0.98299998 49 30 26
-4.5970001 -2.8829999 -1.007 6 0 2
-4.5900002 -2.8499999 -1 49 30 16
-4.5879998 -2.859 -1.0039999 116 91 86
-4.5809999 -2.859 -0.99299997 84 45 16
-4.5819998 -2.8239999 -0.94800001 30 2 0
-4.598 -2.8329999 -0.954 15 4 8
-4.5700002 -2.8099999 -0.95099998 50 28 14
-4.5760002 -2.8099999 -0.94599998 28 14 11
-4.552 -2.908 -0.94700003 183 137 103
-4.6009998 -2.8329999 -0.977 64 29 10
-4.5650001 -2.8280001 -1.0140001 50 28 15
-4.598 -2.8399999 -0.97000003 90 61 47
-4.5650001 -2.9130001 -0.95899999 13 0 0
-4.6100001 -2.9119999 -0.94 252 233 156
-4.546 -2.9100001 -0.935 74 58 58
-4.598 -2.8399999 -0.97100002 38 15 21
-4.5599999 -2.888 -0.93199998 25 16 19
-4.6059999 -2.9130001 -0.93699998 83 34 0
0 0 0 1 0 0 0 1 0 0 0 1 0 0 0 0 0 705 1 0 0
