ply
format ascii 1.0
comment PCL generated
element vertex 897
property float x
property float y
property float z
property uchar red
property uchar green
property uchar blue
element camera 1
property float view_px
property float view_py
property float view_pz
property float x_axisx
property float x_axisy
property float x_axisz
property float y_axisx
property float y_axisy
property float y_axisz
property float z_axisx
property float z_axisy
property float z_axisz
property float focal
property float scalex
property float scaley
property float centerx
property float centery
property int viewportx
property int viewporty
property float k1
property float k2
end_header
11.313 -3.2049999 -0.55199999 160 99 34
11.313 -3.2049999 -0.55800003 186 118 55
11.306 -3.2060001 -0.56 97 51 28
11.444 -3.2479999 -0.75099999 149 95 61
11.439 -3.257 -0.74800003 98 39 7
11.449 -3.2460001 -0.74900001 184 145 104
11.318 -3.207 -0.55199999 47 4 0
11.292 -3.2130001 -0.54799998 172 120 70
11.289 -3.2190001 -0.54299998 148 110 89
11.292 -3.214 -0.54500002 92 50 26
11.289 -3.2360001 -0.54500002 77 44 13
11.293 -3.234 -0.54000002 141 103 64
11.29 -3.2409999 -0.54699999 139 96 62
11.287 -3.2279999 -0.54699999 129 90 59
11.32 -3.2249999 -0.73400003 112 67 26
11.337 -3.2349999 -0.71899998 145 107 70
11.316 -3.23 -0.72600001 151 110 80
11.334 -3.2349999 -0.72399998 129 87 47
11.346 -3.2019999 -0.824 129 84 55
11.325 -3.1989999 -0.81800002 64 38 15
11.34 -3.1989999 -0.80599999 72 36 12
11.351 -3.2019999 -0.83999997 194 154 118
11.357 -3.2030001 -0.83399999 121 81 46
11.442 -3.237 -0.75 83 27 0
11.434 -3.244 -0.76099998 157 104 70
11.427 -3.2539999 -0.76099998 91 41 14
11.325 -3.2090001 -0.57200003 76 30 4
11.285 -3.233 -0.55000001 57 15 0
11.285 -3.221 -0.56 99 49 14
11.288 -3.2219999 -0.55400002 181 150 130
11.481 -3.2190001 -0.79299998 154 90 42
11.488 -3.2179999 -0.79799998 87 48 9
11.492 -3.2160001 -0.78299999 94 58 22
11.495 -3.217 -0.79000002 91 55 21
11.362 -3.2060001 -0.83899999 90 56 31
11.377 -3.214 -0.82499999 42 9 0
11.297 -3.2190001 -0.54400003 193 143 58
11.303 -3.2149999 -0.54500002 204 149 67
11.302 -3.233 -0.53899997 180 128 45
11.307 -3.21 -0.551 190 128 55
11.31 -3.2320001 -0.72600001 85 39 5
11.303 -3.233 -0.71899998 98 59 26
11.308 -3.233 -0.72899997 109 72 43
11.318 -3.2249999 -0.74000001 96 57 16
11.52 -3.24 -0.76300001 145 79 29
11.523 -3.2449999 -0.75700003 94 56 20
11.528 -3.2479999 -0.76499999 62 17 0
11.526 -3.2479999 -0.75700003 124 70 24
11.508 -3.2460001 -0.80400002 81 61 52
11.508 -3.2479999 -0.81400001 125 77 37
11.502 -3.2509999 -0.81300002 135 91 64
11.516 -3.2390001 -0.792 145 80 38
11.521 -3.233 -0.787 181 119 72
11.516 -3.24 -0.78799999 97 52 10
11.522 -3.253 -0.77700001 134 90 65
11.515 -3.2409999 -0.787 141 78 34
11.507 -3.253 -0.76999998 155 94 50
11.518 -3.24 -0.77999997 178 112 64
11.506 -3.237 -0.80599999 145 104 60
11.503 -3.223 -0.80299997 144 88 51
11.467 -3.2609999 -0.667 153 109 70
11.478 -3.2590001 -0.66399997 143 90 46
11.469 -3.2650001 -0.66900003 107 74 43
11.327 -3.2060001 -0.82200003 238 191 233
11.329 -3.207 -0.83600003 231 187 223
11.332 -3.2030001 -0.82800001 124 88 62
11.501 -3.237 -0.81099999 83 47 15
11.498 -3.2420001 -0.81900001 104 60 23
11.482 -3.2579999 -0.66900003 128 75 31
11.475 -3.2609999 -0.67000002 130 86 49
11.443 -3.247 -0.73699999 95 56 25
11.257 -3.253 -0.66399997 231 181 148
11.261 -3.2539999 -0.65700001 180 131 99
11.246 -3.263 -0.65799999 120 72 32
11.254 -3.2620001 -0.65700001 53 19 9
11.266 -3.2490001 -0.66100001 79 34 5
11.263 -3.2420001 -0.64499998 145 98 52
11.518 -3.2390001 -0.77999997 177 111 63
11.524 -3.247 -0.76700002 164 106 60
11.418 -3.243 -0.78299999 72 31 11
11.423 -3.244 -0.77899998 90 40 13
11.412 -3.2479999 -0.787 61 30 9
11.482 -3.22 -0.79500002 130 98 75
11.489 -3.2190001 -0.78500003 99 56 14
11.36 -3.2079999 -0.83399999 126 80 47
11.348 -3.201 -0.85100001 56 24 3
11.353 -3.2049999 -0.85000002 132 80 43
11.346 -3.207 -0.85699999 131 97 69
11.499 -3.2260001 -0.80699998 146 88 42
11.482 -3.243 -0.81099999 101 61 26
11.302 -3.214 -0.54900002 117 63 17
11.311 -3.211 -0.546 176 120 43
11.325 -3.23 -0.55599999 80 49 18
11.3 -3.21 -0.55699998 81 37 12
11.426 -3.233 -0.759 88 46 4
11.425 -3.2320001 -0.75300002 130 79 32
11.418 -3.233 -0.75800002 220 170 133
11.283 -3.2390001 -0.56 116 56 19
11.304 -3.2090001 -0.55699998 150 81 12
11.353 -3.21 -0.80800003 110 62 26
11.345 -3.211 -0.79900002 82 59 53
11.274 -3.2509999 -0.722 99 62 43
11.269 -3.2479999 -0.708 127 89 68
11.278 -3.2479999 -0.72399998 129 89 64
11.297 -3.2379999 -0.72500002 135 92 58
11.308 -3.24 -0.74000001 73 38 10
11.305 -3.237 -0.74800003 69 44 24
11.327 -3.21 -0.83700001 125 95 69
11.327 -3.2079999 -0.824 92 56 34
11.318 -3.217 -0.787 83 47 25
11.322 -3.2160001 -0.792 75 39 17
11.319 -3.2149999 -0.801 82 57 37
11.323 -3.2290001 -0.847 84 42 18
11.326 -3.2309999 -0.84799999 76 48 24
11.32 -3.247 -0.84799999 65 40 20
11.323 -3.2249999 -0.84500003 89 45 18
11.507 -3.257 -0.759 140 87 56
11.519 -3.256 -0.75400001 163 125 80
11.427 -3.2550001 -0.75599998 96 39 10
11.417 -3.257 -0.74900001 109 65 36
11.422 -3.256 -0.74699998 94 34 0
11.527 -3.2509999 -0.773 157 112 71
11.519 -3.2509999 -0.76899999 131 78 34
11.486 -3.2379999 -0.801 120 71 31
11.491 -3.237 -0.79299998 142 84 47
11.515 -3.2349999 -0.76899999 118 63 22
11.515 -3.234 -0.76800001 139 96 54
11.508 -3.237 -0.759 134 87 45
11.502 -3.2409999 -0.81199998 130 81 49
11.518 -3.243 -0.77700001 175 113 66
11.514 -3.2509999 -0.755 129 74 33
11.479 -3.243 -0.74599999 123 74 31
11.483 -3.2460001 -0.74400002 153 102 49
11.488 -3.2420001 -0.75400001 99 39 5
11.496 -3.2349999 -0.755 138 120 116
11.49 -3.2390001 -0.73500001 68 40 28
11.497 -3.221 -0.77600002 163 100 56
11.437 -3.257 -0.74299997 108 63 32
11.373 -3.2550001 -0.59399998 116 80 54
11.385 -3.2420001 -0.60000002 122 80 32
11.377 -3.25 -0.57999998 102 78 54
11.381 -3.2449999 -0.60699999 57 22 3
11.371 -3.256 -0.579 93 29 1
11.257 -3.2609999 -0.63999999 157 97 47
11.248 -3.2750001 -0.65100002 51 19 8
11.265 -3.276 -0.63999999 106 82 72
11.271 -3.2520001 -0.667 68 32 10
11.515 -3.2320001 -0.778 92 36 1
11.483 -3.24 -0.80299997 82 22 0
11.479 -3.2349999 -0.796 132 80 40
11.491 -3.2349999 -0.79000002 112 69 27
11.491 -3.221 -0.78399998 97 44 2
11.304 -3.2309999 -0.54000002 91 54 9
11.297 -3.2149999 -0.56599998 133 100 83
11.298 -3.214 -0.56699997 118 83 41
11.511 -3.2390001 -0.792 142 101 79
11.502 -3.223 -0.79400003 154 95 55
11.503 -3.227 -0.78799999 101 64 38
11.337 -3.234 -0.68099999 125 77 54
11.335 -3.2409999 -0.69999999 63 28 0
11.321 -3.2449999 -0.69599998 97 53 28
11.269 -3.25 -0.68900001 109 67 27
11.256 -3.25 -0.69499999 49 17 0
11.435 -3.237 -0.74299997 75 34 14
11.425 -3.2379999 -0.75 160 102 56
11.428 -3.24 -0.74800003 142 88 42
11.306 -3.24 -0.54000002 155 102 22
11.306 -3.253 -0.542 141 103 54
11.299 -3.2409999 -0.54400003 172 131 111
11.27 -3.286 -0.653 166 119 77
11.261 -3.286 -0.66000003 51 22 6
11.296 -3.2579999 -0.55000001 149 118 90
11.301 -3.257 -0.56800002 87 52 30
11.311 -3.2609999 -0.54699999 106 78 56
11.329 -3.2309999 -0.66299999 114 67 37
11.337 -3.2290001 -0.66799998 121 74 28
11.318 -3.234 -0.55299997 114 67 25
11.323 -3.24 -0.56199998 139 71 32
11.356 -3.204 -0.82599998 119 80 51
11.338 -3.2360001 -0.73799998 107 63 26
11.332 -3.2279999 -0.75 93 56 38
11.314 -3.2420001 -0.69700003 78 40 19
11.317 -3.244 -0.704 103 58 37
11.321 -3.244 -0.70499998 58 37 0
11.323 -3.2379999 -0.71600002 75 40 8
11.335 -3.2409999 -0.70599997 62 27 0
11.293 -3.2390001 -0.72600001 109 62 34
11.293 -3.25 -0.736 81 33 11
11.325 -3.2019999 -0.81699997 136 117 103
11.317 -3.221 -0.81 98 60 39
11.335 -3.204 -0.81099999 121 82 49
11.327 -3.21 -0.81999999 161 136 116
11.309 -3.2290001 -0.78399998 96 65 44
11.318 -3.22 -0.78899997 90 55 35
11.313 -3.23 -0.79299998 224 187 231
11.316 -3.2249999 -0.80400002 67 30 11
11.316 -3.217 -0.778 74 36 15
11.321 -3.214 -0.77100003 97 62 30
11.309 -3.2190001 -0.76700002 138 90 54
11.328 -3.234 -0.847 66 37 21
11.33 -3.2579999 -0.85000002 88 55 38
11.319 -3.257 -0.83999997 67 44 26
11.326 -3.2539999 -0.84600002 77 39 16
11.371 -3.2190001 -0.83499998 118 66 26
11.362 -3.227 -0.84799999 113 67 33
11.366 -3.2290001 -0.84500003 138 91 63
11.363 -3.224 -0.84899998 117 83 45
11.347 -3.221 -0.85000002 91 40 9
11.267 -3.2579999 -0.71399999 107 69 50
11.269 -3.266 -0.722 226 214 234
11.267 -3.2679999 -0.71899998 54 19 0
11.252 -3.277 -0.667 112 67 34
11.251 -3.2679999 -0.68000001 72 35 17
11.249 -3.2679999 -0.65399998 79 46 27
11.306 -3.2320001 -0.80900002 90 60 22
11.294 -3.2460001 -0.81900001 114 70 41
11.287 -3.2409999 -0.79900002 135 99 83
11.308 -3.233 -0.83200002 103 47 12
11.325 -3.2449999 -0.69800001 82 43 12
11.493 -3.2420001 -0.745 160 110 57
11.515 -3.2539999 -0.76300001 175 134 90
11.502 -3.25 -0.759 107 71 39
11.273 -3.2850001 -0.66100001 104 91 83
11.278 -3.2750001 -0.653 118 76 36
11.274 -3.276 -0.66000003 93 51 11
11.413 -3.2479999 -0.76099998 100 65 43
11.419 -3.2479999 -0.76300001 121 73 33
11.405 -3.2750001 -0.699 84 53 22
11.4 -3.277 -0.69300002 111 60 17
11.401 -3.2809999 -0.708 73 19 0
11.401 -3.276 -0.69999999 191 143 107
11.508 -3.2390001 -0.74800003 187 144 91
11.504 -3.2420001 -0.72600001 136 72 24
11.499 -3.243 -0.73299998 128 76 29
11.504 -3.234 -0.76200002 160 93 41
11.5 -3.2349999 -0.75999999 112 64 18
11.507 -3.2390001 -0.75400001 169 123 71
11.34 -3.2420001 -0.69400001 60 25 0
11.344 -3.2420001 -0.699 89 53 19
11.346 -3.244 -0.68900001 69 32 3
11.414 -3.2479999 -0.78399998 85 43 19
11.419 -3.2509999 -0.77200001 107 61 37
11.413 -3.2490001 -0.77899998 50 18 0
11.415 -3.234 -0.76200002 176 119 76
11.406 -3.234 -0.76899999 59 25 0
11.396 -3.237 -0.76599997 124 95 63
11.408 -3.2409999 -0.76300001 82 46 10
11.411 -3.24 -0.76899999 82 45 26
11.396 -3.2390001 -0.76999998 84 46 23
11.397 -3.24 -0.78399998 76 39 13
11.392 -3.2420001 -0.78200001 87 62 57
11.503 -3.2449999 -0.815 113 73 37
11.332 -3.243 -0.56800002 131 104 93
11.328 -3.2449999 -0.56900001 196 155 127
11.482 -3.2460001 -0.73699999 125 78 32
11.481 -3.2449999 -0.74199998 97 34 3
11.482 -3.2509999 -0.73000002 172 113 71
11.372 -3.2550001 -0.588 157 115 91
11.374 -3.237 -0.58700001 166 125 105
11.251 -3.2679999 -0.64999998 138 84 40
11.258 -3.2620001 -0.65200001 85 62 48
11.262 -3.256 -0.64999998 72 31 3
11.506 -3.2260001 -0.77899998 103 64 25
11.485 -3.2360001 -0.80500001 104 52 12
11.493 -3.23 -0.80199999 168 106 67
11.491 -3.2290001 -0.79000002 117 74 29
11.498 -3.23 -0.78399998 121 76 34
11.503 -3.2409999 -0.80800003 119 56 12
11.296 -3.2249999 -0.54400003 255 205 124
11.308 -3.2079999 -0.56599998 170 135 115
11.288 -3.2249999 -0.54799998 204 153 106
11.285 -3.233 -0.55699998 139 97 73
11.291 -3.217 -0.56 68 26 1
11.32 -3.237 -0.66600001 76 37 6
11.32 -3.237 -0.66000003 71 35 3
11.334 -3.237 -0.671 78 42 20
11.337 -3.234 -0.67299998 125 78 52
11.447 -3.2460001 -0.72899997 129 64 26
11.435 -3.257 -0.73799998 105 58 30
11.493 -3.2409999 -0.72299999 156 104 57
11.491 -3.244 -0.72100002 75 34 12
11.493 -3.247 -0.72500002 126 67 23
11.364 -3.2149999 -0.59399998 93 52 22
11.371 -3.22 -0.597 88 27 9
11.361 -3.223 -0.60299999 138 101 72
11.394 -3.2539999 -0.704 69 45 33
11.371 -3.256 -0.70999998 89 47 25
11.379 -3.2550001 -0.69099998 79 43 11
11.313 -3.257 -0.54299998 136 97 40
11.31 -3.243 -0.55000001 61 11 0
11.304 -3.256 -0.54299998 100 72 60
11.292 -3.2520001 -0.55199999 172 129 87
11.271 -3.25 -0.65899998 116 60 9
11.278 -3.2550001 -0.65600002 94 61 42
11.279 -3.2520001 -0.64099997 157 108 49
11.274 -3.2509999 -0.68400002 134 87 43
11.285 -3.233 -0.56199998 149 119 93
11.317 -3.233 -0.55199999 153 79 106
11.314 -3.2349999 -0.55199999 183 144 115
11.399 -3.2460001 -0.78500003 236 216 241
11.344 -3.22 -0.79500002 77 28 0
11.351 -3.2190001 -0.80199999 102 57 24
11.324 -3.2160001 -0.792 81 35 2
11.337 -3.211 -0.79900002 99 63 29
11.332 -3.2409999 -0.71200001 79 46 15
11.284 -3.2490001 -0.722 74 46 22
11.285 -3.2539999 -0.704 48 20 0
11.287 -3.2550001 -0.71700001 85 60 30
11.314 -3.2309999 -0.74699998 71 31 5
11.309 -3.2290001 -0.764 91 60 29
11.291 -3.244 -0.75599998 120 79 49
11.314 -3.2320001 -0.75199997 107 65 43
11.327 -3.2119999 -0.81300002 178 140 117
11.344 -3.221 -0.78799999 121 99 76
11.311 -3.2320001 -0.78899997 80 47 28
11.32 -3.2249999 -0.74699998 130 97 56
11.314 -3.221 -0.764 65 49 49
11.287 -3.25 -0.74000001 61 30 9
11.287 -3.2479999 -0.755 44 18 1
11.323 -3.2490001 -0.847 84 49 29
11.317 -3.2449999 -0.84500003 124 95 77
11.369 -3.2190001 -0.85100001 186 157 117
11.378 -3.221 -0.82700002 103 65 28
11.354 -3.23 -0.852 74 47 28
11.365 -3.2160001 -0.84899998 137 93 66
11.333 -3.253 -0.83899999 85 54 33
11.335 -3.2539999 -0.83200002 80 50 26
11.333 -3.2609999 -0.84200001 168 148 137
11.366 -3.2160001 -0.84100002 172 147 117
11.343 -3.2060001 -0.838 155 133 110
11.349 -3.204 -0.84100002 139 91 53
11.339 -3.207 -0.84500003 54 22 7
11.34 -3.2030001 -0.82800001 145 126 111
11.348 -3.2290001 -0.815 83 31 7
11.335 -3.2479999 -0.81900001 53 17 1
11.337 -3.2309999 -0.82099998 75 31 4
11.341 -3.234 -0.81 78 63 40
11.252 -3.2609999 -0.66399997 137 104 87
11.261 -3.28 -0.65499997 97 53 18
11.254 -3.2820001 -0.66000003 72 35 16
11.266 -3.2820001 -0.64999998 175 138 109
11.267 -3.2739999 -0.64700001 143 97 38
11.26 -3.2739999 -0.70300001 99 68 50
11.274 -3.2839999 -0.69400001 95 55 29
11.27 -3.276 -0.71799999 110 96 70
11.273 -3.2780001 -0.71499997 85 48 30
11.273 -3.267 -0.64999998 158 121 92
11.266 -3.267 -0.63999999 156 106 35
11.256 -3.2820001 -0.671 103 79 67
11.291 -3.24 -0.79799998 154 123 94
11.488 -3.2449999 -0.73400003 117 70 24
11.515 -3.2509999 -0.76800001 197 133 85
11.51 -3.2539999 -0.76200002 164 103 59
11.498 -3.2479999 -0.75 84 46 27
11.497 -3.244 -0.755 169 106 55
11.281 -3.2820001 -0.704 89 48 30
11.279 -3.28 -0.708 70 34 10
11.427 -3.2539999 -0.74900001 108 58 31
11.425 -3.2539999 -0.73699999 131 67 31
11.405 -3.273 -0.713 143 83 47
11.401 -3.2720001 -0.71600002 167 130 101
11.391 -3.277 -0.71399999 244 228 254
11.413 -3.2579999 -0.74299997 241 228 248
11.393 -3.2449999 -0.78200001 69 30 13
11.403 -3.2460001 -0.76599997 72 32 6
11.396 -3.279 -0.70700002 109 75 48
11.335 -3.204 -0.81800002 104 64 28
11.412 -3.2490001 -0.76700002 101 53 30
11.422 -3.2449999 -0.76899999 104 53 24
11.354 -3.2290001 -0.574 152 126 125
11.375 -3.22 -0.57999998 177 109 46
11.36 -3.2130001 -0.58399999 115 53 14
11.349 -3.2219999 -0.57700002 169 113 56
11.369 -3.2249999 -0.579 145 77 16
11.392 -3.2809999 -0.69999999 100 56 17
11.374 -3.2639999 -0.70700002 79 47 34
11.308 -3.2509999 -0.56900001 170 123 71
11.308 -3.2539999 -0.57200003 126 77 36
11.353 -3.2620001 -0.66000003 87 49 13
11.341 -3.263 -0.64700001 68 41 34
11.35 -3.2620001 -0.64300001 98 71 60
11.292 -3.2609999 -0.67299998 193 133 97
11.335 -3.253 -0.65600002 70 34 8
11.331 -3.2539999 -0.63700002 76 31 2
11.328 -3.2130001 -0.56199998 113 72 44
11.324 -3.2130001 -0.55900002 126 83 40
11.346 -3.257 -0.583 225 169 198
11.344 -3.2579999 -0.58399999 115 85 74
11.352 -3.2609999 -0.58399999 116 73 31
11.333 -3.2520001 -0.57800001 122 96 73
11.352 -3.223 -0.58999997 135 88 46
11.347 -3.2290001 -0.60500002 74 13 0
11.343 -3.2309999 -0.59799999 107 63 36
11.348 -3.2290001 -0.60399997 116 76 50
11.359 -3.263 -0.59799999 96 68 46
11.369 -3.2249999 -0.60399997 120 72 49
11.377 -3.2260001 -0.59200001 235 176 132
11.376 -3.22 -0.58600003 146 82 20
11.379 -3.2309999 -0.59799999 116 106 105
11.378 -3.221 -0.59299999 143 82 25
11.382 -3.244 -0.60000002 155 96 54
11.375 -3.2490001 -0.59899998 72 46 23
11.436 -3.253 -0.73699999 99 63 31
11.496 -3.2349999 -0.76700002 115 100 97
11.506 -3.2390001 -0.77200001 114 53 22
11.502 -3.2249999 -0.77899998 112 96 97
11.5 -3.2219999 -0.78500003 138 75 32
11.503 -3.237 -0.80900002 161 107 71
11.311 -3.207 -0.56199998 212 160 103
11.292 -3.217 -0.56999999 123 78 49
11.312 -3.2190001 -0.57499999 161 114 68
11.283 -3.234 -0.56699997 103 77 60
11.287 -3.23 -0.56999999 170 115 94
11.336 -3.23 -0.66799998 91 53 30
11.342 -3.2409999 -0.64999998 74 36 0
11.36 -3.2409999 -0.64700001 86 51 9
11.35 -3.243 -0.65700001 114 66 28
11.351 -3.233 -0.66399997 104 61 8
11.442 -3.243 -0.736 143 93 56
11.447 -3.244 -0.73100001 132 86 37
11.366 -3.2149999 -0.588 109 64 41
11.406 -3.243 -0.75099999 67 31 5
11.422 -3.2509999 -0.73699999 93 40 0
11.421 -3.253 -0.73100001 78 37 19
11.414 -3.256 -0.73400003 113 70 38
11.379 -3.2490001 -0.68400002 104 92 80
11.372 -3.244 -0.68599999 135 89 65
11.382 -3.2320001 -0.60699999 144 98 48
11.314 -3.2409999 -0.56099999 111 57 33
11.308 -3.247 -0.54900002 59 8 0
11.297 -3.2550001 -0.56400001 50 23 14
11.298 -3.2539999 -0.56599998 231 177 201
11.297 -3.253 -0.54699999 173 128 87
11.266 -3.2460001 -0.653 76 40 16
11.286 -3.227 -0.55900002 132 86 62
11.309 -3.223 -0.55000001 139 101 65
11.316 -3.2149999 -0.55500001 239 204 184
11.311 -3.2320001 -0.83700001 47 10 0
11.319 -3.2349999 -0.84200001 120 86 51
11.395 -3.244 -0.787 72 27 0
11.317 -3.2409999 -0.71799999 129 104 82
11.34 -3.24 -0.71200001 104 62 46
11.321 -3.233 -0.727 88 33 3
11.278 -3.2520001 -0.69700003 62 27 0
11.314 -3.2449999 -0.69599998 115 64 33
11.297 -3.263 -0.722 69 24 1
11.299 -3.2449999 -0.72500002 171 135 101
11.292 -3.25 -0.72399998 152 119 88
11.311 -3.2539999 -0.727 64 17 0
11.309 -3.234 -0.76700002 97 56 26
11.307 -3.23 -0.778 102 64 43
11.318 -3.2279999 -0.82800001 139 120 106
11.34 -3.2179999 -0.78799999 69 36 1
11.331 -3.217 -0.77399999 122 95 74
11.314 -3.224 -0.77700001 102 71 42
11.316 -3.2249999 -0.787 120 83 64
11.336 -3.233 -0.76099998 75 57 35
11.332 -3.2219999 -0.76700002 61 27 0
11.326 -3.227 -0.75400001 115 82 47
11.307 -3.243 -0.83600003 230 201 232
11.333 -3.253 -0.84500003 110 83 62
11.334 -3.223 -0.84399998 67 32 0
11.353 -3.227 -0.84500003 109 82 55
11.339 -3.234 -0.83399999 72 39 24
11.349 -3.2309999 -0.81 102 40 3
11.263 -3.2750001 -0.64200002 65 31 4
11.269 -3.2780001 -0.67400002 91 54 27
11.282 -3.26 -0.74400002 76 55 28
11.258 -3.2750001 -0.67900002 231 220 237
11.267 -3.2780001 -0.68800002 57 31 14
11.3 -3.2379999 -0.78500003 59 32 13
11.303 -3.2360001 -0.78299999 87 56 35
11.291 -3.244 -0.79000002 151 113 92
11.332 -3.2409999 -0.67199999 105 57 34
11.33 -3.2449999 -0.67799997 112 96 83
11.512 -3.2520001 -0.75599998 189 132 87
11.491 -3.2460001 -0.73400003 143 84 40
11.412 -3.2490001 -0.77499998 72 27 4
11.389 -3.2750001 -0.71499997 119 85 57
11.36 -3.2720001 -0.71200001 114 73 43
11.369 -3.2590001 -0.713 69 23 7
11.421 -3.256 -0.73400003 153 100 69
11.404 -3.2739999 -0.708 90 55 23
11.419 -3.2409999 -0.74900001 158 110 74
11.431 -3.2449999 -0.74000001 54 21 4
11.425 -3.25 -0.73699999 131 79 39
11.32 -3.227 -0.82599998 40 12 0
11.508 -3.2479999 -0.74000001 154 124 90
11.504 -3.25 -0.76099998 106 57 16
11.516 -3.243 -0.75599998 130 70 36
11.353 -3.26 -0.713 86 54 33
11.36 -3.253 -0.70099998 130 84 60
11.345 -3.247 -0.708 128 82 59
11.353 -3.25 -0.68699998 91 75 76
11.357 -3.267 -0.69400001 59 38 19
11.354 -3.2650001 -0.70200002 76 54 43
11.357 -3.27 -0.708 53 29 0
11.358 -3.2449999 -0.57099998 170 128 104
11.395 -3.28 -0.69999999 236 222 247
11.378 -3.2709999 -0.69499999 90 59 41
11.358 -3.2179999 -0.58999997 123 75 52
11.325 -3.2520001 -0.65799999 82 38 9
11.339 -3.2420001 -0.56900001 126 75 30
11.371 -3.247 -0.62300003 97 52 10
11.369 -3.237 -0.63 118 70 21
11.371 -3.2409999 -0.61199999 242 201 231
11.422 -3.244 -0.66299999 113 67 7
11.413 -3.2590001 -0.67199999 63 33 7
11.401 -3.257 -0.66600001 94 78 63
11.357 -3.234 -0.62199998 116 69 25
11.355 -3.24 -0.63 67 34 3
11.361 -3.2409999 -0.64099997 116 81 39
11.363 -3.2260001 -0.60600001 147 88 44
11.286 -3.2609999 -0.68000001 103 63 27
11.346 -3.211 -0.84899998 150 96 62
11.499 -3.234 -0.787 127 92 64
11.263 -3.2509999 -0.69199997 137 87 54
11.356 -3.2509999 -0.68400002 126 76 53
11.368 -3.2650001 -0.69199997 74 38 6
11.363 -3.2579999 -0.66900003 123 84 53
11.347 -3.2379999 -0.67000002 108 64 27
11.352 -3.237 -0.66799998 120 70 33
11.329 -3.247 -0.676 62 46 12
11.44 -3.243 -0.736 153 102 47
11.406 -3.267 -0.69999999 192 148 113
11.415 -3.247 -0.69400001 108 53 22
11.425 -3.24 -0.69 131 79 39
11.409 -3.24 -0.68599999 136 101 63
11.375 -3.2260001 -0.59899998 168 113 59
11.372 -3.2190001 -0.59600002 110 48 7
11.421 -3.2379999 -0.676 159 110 51
11.42 -3.237 -0.66900003 195 147 85
11.36 -3.2409999 -0.66000003 96 59 15
11.295 -3.256 -0.55800003 109 85 61
11.263 -3.25 -0.64999998 60 17 0
11.272 -3.2509999 -0.64999998 158 100 60
11.319 -3.2290001 -0.55199999 83 41 1
11.311 -3.223 -0.55199999 134 92 54
11.322 -3.2349999 -0.84600002 61 23 0
11.334 -3.2119999 -0.80400002 94 48 15
11.371 -3.227 -0.82700002 86 71 40
11.334 -3.2349999 -0.74299997 101 63 24
11.325 -3.24 -0.80199999 146 112 85
11.325 -3.2490001 -0.78899997 45 13 0
11.329 -3.2379999 -0.79500002 78 45 10
11.332 -3.2460001 -0.81300002 53 26 7
11.327 -3.2420001 -0.78100002 243 211 252
11.325 -3.2479999 -0.78600001 66 38 16
11.325 -3.2149999 -0.778 63 30 0
11.33 -3.2360001 -0.73500001 93 52 24
11.317 -3.2349999 -0.722 77 44 25
11.278 -3.26 -0.72500002 82 45 19
11.283 -3.2639999 -0.73299998 79 62 32
11.287 -3.2720001 -0.727 92 63 47
11.338 -3.2349999 -0.76599997 80 29 10
11.333 -3.2290001 -0.76899999 129 78 47
11.327 -3.2179999 -0.76499999 89 51 30
11.321 -3.217 -0.78399998 118 86 65
11.354 -3.204 -0.82999998 163 138 116
11.322 -3.223 -0.83399999 80 39 19
11.328 -3.2179999 -0.82800001 97 79 65
11.348 -3.2260001 -0.80199999 93 62 33
11.252 -3.2679999 -0.66500002 175 128 102
11.265 -3.256 -0.67799997 143 84 40
11.278 -3.2809999 -0.68099999 90 62 48
11.275 -3.277 -0.67400002 66 42 6
11.294 -3.267 -0.67500001 101 62 31
11.291 -3.2780001 -0.69599998 81 38 3
11.268 -3.2780001 -0.66799998 169 133 109
11.327 -3.2539999 -0.83200002 160 142 132
11.325 -3.2509999 -0.82200003 66 44 30
11.318 -3.257 -0.82200003 76 55 36
11.284 -3.256 -0.73400003 132 99 80
11.285 -3.2520001 -0.80800003 112 67 36
11.297 -3.2590001 -0.75800002 80 43 16
11.306 -3.253 -0.75199997 91 64 47
11.3 -3.266 -0.75 98 75 57
11.305 -3.2539999 -0.77200001 68 38 12
11.315 -3.25 -0.76800001 122 85 59
11.324 -3.26 -0.83700001 64 32 7
11.314 -3.2579999 -0.82300001 101 69 54
11.321 -3.25 -0.80500001 106 73 42
11.26 -3.273 -0.69 78 37 17
11.263 -3.267 -0.69199997 58 22 6
11.329 -3.2460001 -0.69300002 97 56 24
11.348 -3.2579999 -0.70099998 93 77 62
11.344 -3.2590001 -0.69499999 86 48 12
11.329 -3.267 -0.708 85 55 31
11.33 -3.2620001 -0.70099998 68 41 30
11.402 -3.2509999 -0.755 73 39 27
11.282 -3.2809999 -0.69099998 83 46 20
11.289 -3.266 -0.68900001 55 22 0
11.42 -3.25 -0.69800001 129 75 31
11.429 -3.243 -0.68199998 99 64 8
11.391 -3.2709999 -0.70899999 64 49 54
11.395 -3.263 -0.68800002 111 66 37
11.379 -3.2720001 -0.69 100 47 16
11.412 -3.2639999 -0.67699999 84 54 28
11.409 -3.26 -0.67199999 147 111 89
11.405 -3.2509999 -0.69999999 225 207 229
11.407 -3.247 -0.69 118 74 35
11.338 -3.204 -0.82300001 105 64 42
11.363 -3.253 -0.69999999 95 57 38
11.363 -3.2690001 -0.708 58 33 11
11.368 -3.27 -0.69599998 88 46 21
11.35 -3.26 -0.58600003 138 101 49
11.358 -3.2650001 -0.60399997 165 124 96
11.346 -3.2590001 -0.62900001 139 112 93
11.344 -3.257 -0.63599998 82 55 38
11.367 -3.2360001 -0.579 114 51 7
11.359 -3.2579999 -0.58399999 108 62 13
11.337 -3.2639999 -0.62099999 95 47 7
11.331 -3.257 -0.62099999 164 131 100
11.34 -3.257 -0.62599999 68 23 0
11.327 -3.233 -0.59799999 83 40 6
11.336 -3.23 -0.61400002 90 43 23
11.334 -3.234 -0.60600001 118 79 40
11.313 -3.2309999 -0.60299999 68 10 0
11.334 -3.234 -0.625 97 42 22
11.314 -3.233 -0.62599999 95 52 33
11.316 -3.2360001 -0.62199998 66 27 0
11.277 -3.2709999 -0.662 127 81 48
11.282 -3.26 -0.67299998 118 67 20
11.328 -3.217 -0.56900001 163 113 62
11.328 -3.2149999 -0.56699997 153 83 21
11.329 -3.23 -0.56999999 146 102 53
11.33 -3.234 -0.59299999 120 76 41
11.303 -3.2379999 -0.61900002 58 25 8
11.306 -3.2290001 -0.59899998 88 43 22
11.308 -3.233 -0.62300003 69 17 3
11.298 -3.2360001 -0.60100001 91 45 22
11.295 -3.2320001 -0.58700001 85 43 21
11.301 -3.2360001 -0.59299999 84 41 24
11.323 -3.2449999 -0.63099998 46 21 0
11.313 -3.244 -0.62400001 69 18 0
11.327 -3.2520001 -0.61900002 81 60 43
11.361 -3.256 -0.64600003 102 91 89
11.415 -3.25 -0.671 214 169 114
11.411 -3.2409999 -0.66799998 248 206 146
11.426 -3.2390001 -0.66399997 154 103 38
11.363 -3.233 -0.61000001 123 75 27
11.28 -3.2709999 -0.685 128 92 60
11.509 -3.2390001 -0.78799999 169 124 83
11.356 -3.217 -0.852 60 32 11
11.321 -3.2479999 -0.662 75 56 41
11.326 -3.2460001 -0.66100001 82 58 48
11.355 -3.2420001 -0.64099997 128 79 46
11.35 -3.2420001 -0.639 233 206 237
11.352 -3.2390001 -0.63300002 96 57 16
11.434 -3.2420001 -0.73799998 129 68 23
11.401 -3.2620001 -0.71100003 124 75 45
11.409 -3.2609999 -0.68300003 168 123 94
11.42 -3.2420001 -0.68400002 25 11 0
11.315 -3.2320001 -0.82200003 229 191 232
11.348 -3.257 -0.70999998 129 97 72
11.335 -3.2460001 -0.72899997 81 49 36
11.331 -3.253 -0.74299997 68 31 2
11.333 -3.247 -0.74400002 76 37 6
11.342 -3.2409999 -0.71499997 88 51 22
11.34 -3.2449999 -0.71499997 108 62 39
11.341 -3.26 -0.69300002 111 67 40
11.326 -3.253 -0.69199997 166 126 90
11.362 -3.2290001 -0.829 89 64 34
11.359 -3.217 -0.80900002 117 80 54
11.338 -3.2479999 -0.75099999 95 59 35
11.332 -3.253 -0.75599998 57 29 8
11.341 -3.237 -0.75700003 101 71 35
11.291 -3.2490001 -0.801 113 86 65
11.331 -3.2130001 -0.78500003 94 62 41
11.315 -3.2520001 -0.70999998 66 23 7
11.3 -3.266 -0.72600001 140 113 94
11.273 -3.2620001 -0.722 51 28 12
11.277 -3.2579999 -0.68900001 65 46 29
11.284 -3.2720001 -0.67000002 119 69 46
11.333 -3.224 -0.773 54 18 0
11.303 -3.2409999 -0.77899998 226 194 235
11.307 -3.2490001 -0.77600002 96 70 47
11.302 -3.2460001 -0.76899999 83 57 34
11.294 -3.2490001 -0.76200002 88 55 38
11.353 -3.23 -0.81300002 55 22 3
11.264 -3.2620001 -0.69 116 74 50
11.276 -3.2679999 -0.653 90 37 6
11.312 -3.257 -0.824 103 96 77
11.306 -3.2539999 -0.82300001 82 50 25
11.292 -3.2509999 -0.81900001 107 72 52
11.289 -3.2579999 -0.81 83 58 38
11.297 -3.253 -0.81400001 75 49 26
11.325 -3.2490001 -0.78100002 120 66 30
11.332 -3.257 -0.76499999 89 57 16
11.291 -3.2539999 -0.80500001 94 56 33
11.296 -3.2520001 -0.81099999 125 87 66
11.294 -3.2620001 -0.75099999 83 54 40
11.291 -3.2590001 -0.74900001 143 110 91
11.29 -3.263 -0.74199998 51 18 0
11.291 -3.257 -0.755 81 58 50
11.323 -3.253 -0.81400001 101 48 14
11.31 -3.2550001 -0.74800003 70 20 0
11.326 -3.2479999 -0.773 74 36 15
11.285 -3.276 -0.71600002 116 79 52
11.291 -3.2709999 -0.71899998 73 53 46
11.325 -3.247 -0.68900001 85 39 13
11.35 -3.2550001 -0.68599999 86 42 5
11.495 -3.2520001 -0.72899997 191 122 65
11.498 -3.25 -0.73299998 141 85 52
11.499 -3.2479999 -0.736 95 59 37
11.284 -3.2609999 -0.69400001 108 65 33
11.416 -3.263 -0.676 73 28 7
11.418 -3.25 -0.70099998 176 127 95
11.416 -3.2490001 -0.68900001 111 62 30
11.425 -3.253 -0.67799997 101 56 15
11.401 -3.27 -0.69300002 122 77 38
11.368 -3.257 -0.69499999 83 38 9
11.35 -3.256 -0.59600002 100 53 9
11.337 -3.253 -0.588 117 75 50
11.342 -3.2539999 -0.60500002 94 49 7
11.354 -3.25 -0.62 87 69 69
11.36 -3.2479999 -0.62400001 111 57 13
11.358 -3.25 -0.61799997 110 70 35
11.362 -3.2520001 -0.61500001 83 37 11
11.365 -3.256 -0.588 68 27 7
11.33 -3.2539999 -0.616 80 31 1
11.319 -3.256 -0.60900003 112 70 32
11.341 -3.2349999 -0.62400001 235 201 234
11.34 -3.2349999 -0.62300003 145 98 68
11.341 -3.23 -0.61299998 108 65 23
11.321 -3.2379999 -0.62900001 78 43 13
11.331 -3.2349999 -0.65700001 101 63 42
11.339 -3.2420001 -0.64399999 81 52 22
11.336 -3.247 -0.65100002 117 108 103
11.338 -3.2520001 -0.65899998 85 40 1
11.345 -3.257 -0.65499997 80 53 34
11.345 -3.2190001 -0.58099997 147 88 46
11.338 -3.2379999 -0.56800002 126 82 37
11.334 -3.2449999 -0.57300001 87 38 6
11.307 -3.2409999 -0.62300003 74 34 8
11.309 -3.243 -0.62300003 58 20 1
11.263 -3.2539999 -0.63999999 155 95 45
11.273 -3.2509999 -0.64099997 156 103 59
11.303 -3.237 -0.602 77 41 25
11.353 -3.2609999 -0.64200002 95 57 21
11.408 -3.253 -0.671 125 111 128
11.408 -3.25 -0.67199999 63 21 5
11.371 -3.243 -0.68099999 55 41 30
11.37 -3.2309999 -0.579 129 62 7
11.311 -3.214 -0.56900001 182 121 77
11.293 -3.2520001 -0.55599999 117 97 38
11.281 -3.2590001 -0.67900002 114 65 22
11.432 -3.2460001 -0.72899997 125 81 34
11.365 -3.2509999 -0.67900002 116 73 39
11.301 -3.2479999 -0.54500002 161 90 46
11.291 -3.2479999 -0.55400002 70 42 18
11.29 -3.2290001 -0.57300001 149 103 80
11.304 -3.253 -0.57499999 114 70 21
11.323 -3.221 -0.579 144 109 89
11.322 -3.256 -0.597 97 58 25
11.332 -3.2479999 -0.82499999 99 81 69
11.308 -3.2490001 -0.82999998 96 61 42
11.343 -3.2490001 -0.68599999 121 67 31
11.358 -3.2290001 -0.83600003 56 24 1
11.371 -3.22 -0.82499999 54 26 2
11.342 -3.2409999 -0.74800003 165 132 91
11.336 -3.24 -0.76499999 255 224 179
11.32 -3.247 -0.78799999 74 39 20
11.295 -3.25 -0.79799998 83 58 51
11.331 -3.2160001 -0.792 78 45 10
11.303 -3.2390001 -0.71899998 127 91 57
11.296 -3.27 -0.69400001 82 28 2
11.274 -3.2690001 -0.72000003 103 62 32
11.264 -3.2579999 -0.704 57 31 14
11.296 -3.2650001 -0.74599999 60 28 3
11.296 -3.266 -0.72799999 154 101 70
11.305 -3.2409999 -0.75099999 149 111 92
11.353 -3.223 -0.80000001 105 69 47
11.342 -3.221 -0.796 84 56 34
11.338 -3.2219999 -0.787 57 19 0
11.255 -3.263 -0.67799997 83 47 31
11.32 -3.2490001 -0.77399999 56 21 0
11.316 -3.2579999 -0.79799998 82 52 26
11.288 -3.2579999 -0.80199999 137 92 71
11.312 -3.2539999 -0.73699999 60 13 0
11.317 -3.2490001 -0.74400002 65 31 4
11.503 -3.2479999 -0.74400002 97 41 8
11.405 -3.2639999 -0.70700002 117 71 47
11.434 -3.2420001 -0.67299998 142 83 25
11.42 -3.256 -0.67299998 54 12 0
11.428 -3.2539999 -0.67799997 101 55 22
11.424 -3.2390001 -0.676 88 44 17
11.403 -3.257 -0.67699999 155 109 83
11.392 -3.2490001 -0.68000001 175 130 101
11.373 -3.2590001 -0.69499999 131 84 58
11.348 -3.24 -0.63599998 117 68 51
11.36 -3.257 -0.61199999 69 42 31
11.367 -3.2579999 -0.59500003 101 41 15
11.383 -3.2609999 -0.69 70 35 15
11.334 -3.234 -0.61500001 100 41 23
11.326 -3.2409999 -0.63499999 129 83 49
11.349 -3.2520001 -0.68300003 73 43 32
11.341 -3.2249999 -0.57499999 112 64 41
11.271 -3.25 -0.64600003 181 131 72
11.276 -3.2579999 -0.64099997 164 111 41
11.361 -3.2479999 -0.62800002 81 37 8
11.362 -3.2449999 -0.63700002 64 18 5
11.358 -3.2479999 -0.648 83 54 48
11.36 -3.25 -0.66600001 116 80 48
11.369 -3.2420001 -0.63300002 77 53 19
11.365 -3.256 -0.66900003 97 52 23
11.35 -3.2579999 -0.667 83 37 11
11.367 -3.2420001 -0.67799997 70 48 1
11.367 -3.2479999 -0.67400002 126 81 40
11.347 -3.244 -0.68300003 59 22 0
11.353 -3.233 -0.616 122 82 56
11.376 -3.233 -0.60500002 142 89 37
11.301 -3.2539999 -0.56300002 104 75 61
11.299 -3.25 -0.56699997 92 68 58
11.437 -3.2460001 -0.72899997 155 102 48
11.299 -3.2260001 -0.57499999 209 166 124
11.308 -3.234 -0.583 73 34 3
11.296 -3.237 -0.57499999 137 98 65
11.317 -3.2479999 -0.61299998 88 33 12
11.338 -3.257 -0.61000001 112 79 48
11.309 -3.243 -0.59200001 80 29 0
11.31 -3.256 -0.81099999 98 66 51
11.305 -3.2479999 -0.829 78 57 38
11.347 -3.2579999 -0.71100003 242 233 254
11.326 -3.2650001 -0.70899999 94 48 15
11.331 -3.2520001 -0.71899998 69 49 50
11.329 -3.2509999 -0.71899998 103 87 74
11.321 -3.2609999 -0.70599997 164 122 100
11.322 -3.263 -0.70099998 54 19 0
11.348 -3.26 -0.713 76 40 4
11.335 -3.2490001 -0.72399998 221 209 233
11.32 -3.25 -0.722 78 31 3
11.346 -3.244 -0.685 94 58 36
11.345 -3.24 -0.67799997 125 73 33
11.357 -3.217 -0.81300002 80 43 17
11.344 -3.243 -0.75300002 73 44 26
11.312 -3.2550001 -0.79699999 112 79 46
11.321 -3.2620001 -0.69800001 79 32 2
11.293 -3.2720001 -0.704 120 86 58
11.284 -3.2620001 -0.741 41 13 0
11.314 -3.227 -0.81400001 116 98 84
11.331 -3.25 -0.76499999 86 45 25
11.316 -3.2190001 -0.78100002 88 41 11
11.332 -3.2279999 -0.77999997 252 225 255
11.324 -3.26 -0.76099998 90 58 33
11.324 -3.2509999 -0.81199998 160 134 119
11.296 -3.2620001 -0.73299998 171 138 119
11.323 -3.2490001 -0.73799998 106 49 19
11.314 -3.2509999 -0.73000002 107 69 33
11.497 -3.243 -0.73900002 139 95 48
11.504 -3.247 -0.73400003 151 97 50
11.398 -3.257 -0.68900001 107 63 24
11.404 -3.266 -0.70899999 176 131 98
11.425 -3.247 -0.68099999 237 194 149
11.434 -3.243 -0.67500001 134 78 29
11.4 -3.2539999 -0.68000001 127 89 53
11.378 -3.253 -0.68199998 91 40 11
11.349 -3.237 -0.62800002 78 31 11
11.343 -3.237 -0.62599999 91 47 8
11.336 -3.24 -0.634 62 26 0
11.347 -3.2590001 -0.61799997 117 80 36
11.368 -3.26 -0.60699999 82 41 21
11.314 -3.2360001 -0.60900003 88 50 13
11.336 -3.2309999 -0.57999998 113 72 44
11.33 -3.2190001 -0.57200003 163 99 55
11.366 -3.25 -0.67199999 64 27 1
11.31 -3.2320001 -0.59200001 74 15 1
11.298 -3.2349999 -0.58499998 79 33 10
11.302 -3.2420001 -0.57499999 116 56 19
11.299 -3.247 -0.56800002 129 92 40
11.306 -3.2420001 -0.58700001 108 69 40
11.304 -3.2520001 -0.81800002 92 64 60
11.316 -3.2550001 -0.81300002 54 31 13
11.31 -3.256 -0.81099999 98 66 51
11.292 -3.25 -0.81900001 79 27 3
11.336 -3.2490001 -0.72100002 88 31 1
11.309 -3.233 -0.815 148 123 93
11.266 -3.277 -0.699 80 57 51
11.397 -3.2550001 -0.685 110 79 61
11.429 -3.2449999 -0.671 141 103 64
11.412 -3.24 -0.67299998 68 23 0
11.418 -3.2420001 -0.68199998 247 199 163
11.338 -3.2420001 -0.63800001 60 29 0
11.38 -3.2509999 -0.67500001 89 47 7
11.315 -3.257 -0.58200002 110 67 25
11.311 -3.2520001 -0.80199999 132 101 83
11.314 -3.2550001 -0.81 103 71 46
11.339 -3.25 -0.71700001 88 58 34
11.263 -3.2709999 -0.70099998 73 35 12
11.27 -3.276 -0.70300001 70 52 28
11.335 -3.2260001 -0.574 99 63 31
11.311 -3.2539999 -0.59200001 93 50 7
11.313 -3.244 -0.60900003 88 33 12
11.268 -3.267 -0.708 114 81 66
11.312 -3.244 -0.611 88 45 26
11.32 -3.2550001 -0.58499998 113 69 32
11.317 -3.257 -0.58600003 164 124 89
0 0 0 1 0 0 0 1 0 0 0 1 0 0 0 0 0 897 1 0 0
