ply
format ascii 1.0
comment PCL generated
element vertex 997
property float x
property float y
property float z
property uchar red
property uchar green
property uchar blue
element camera 1
property float view_px
property float view_py
property float view_pz
property float x_axisx
property float x_axisy
property float x_axisz
property float y_axisx
property float y_axisy
property float y_axisz
property float z_axisx
property float z_axisy
property float z_axisz
property float focal
property float scalex
property float scaley
property float centerx
property float centery
property int viewportx
property int viewporty
property float k1
property float k2
end_header
1.108 1.9529999 -1 171 125 75
1.114 1.933 -1.003 166 106 52
1.1059999 1.946 -1.0039999 184 139 84
1.227 2.0090001 -1.008 17 4 0
1.2359999 2.0050001 -1.003 141 132 133
1.2410001 2.0109999 -1.0140001 122 113 118
1.036 1.954 -0.84500003 99 69 31
1.052 1.943 -0.83200002 40 23 13
1.043 1.9400001 -0.82499999 194 167 158
1.035 1.961 -0.852 95 75 68
1.023 1.956 -0.84899998 86 42 13
1.03 1.957 -0.85299999 30 2 0
1.086 1.959 -0.92000002 97 79 77
1.082 1.967 -0.91299999 82 63 48
1.095 1.969 -0.91500002 149 146 157
1.023 1.942 -0.86699998 184 149 127
1.025 1.937 -0.86699998 148 121 102
1.0190001 1.934 -0.85500002 99 78 59
1.024 1.9220001 -0.85799998 146 127 121
1.027 1.928 -0.84600002 144 83 20
1.029 1.9299999 -0.83999997 209 137 63
1.04 1.921 -0.85000002 85 50 28
1.027 1.9220001 -0.86000001 161 122 83
1.141 1.901 -0.98400003 197 147 76
1.1390001 1.901 -0.98799998 156 116 57
1.1440001 1.89 -0.98299998 128 88 36
1.064 1.961 -0.87800002 102 65 47
1.071 1.961 -0.88099998 167 111 52
1.064 1.982 -0.88599998 47 25 4
1.108 1.964 -0.93599999 62 41 22
1.108 1.962 -0.93699998 70 61 44
1.103 1.957 -0.93800002 84 56 32
1.17 2.0280001 -1.028 36 10 0
1.181 2.0339999 -1.02 78 55 47
1.178 2.0309999 -1.0190001 42 16 3
1.175 2.0280001 -1.027 81 59 48
1.128 1.9859999 -1.035 114 99 78
1.124 1.9859999 -1.038 33 20 1
1.1210001 1.9809999 -1.039 44 33 15
1.242 1.995 -1.036 71 49 38
1.244 2.006 -1.045 91 55 31
1.251 2.0039999 -1.0319999 88 52 26
1.244 1.9960001 -1.034 67 41 26
1.2359999 1.995 -1.044 65 43 32
1.2410001 2.006 -1.005 100 90 89
1.242 2.0079999 -1.015 138 128 129
1.233 1.998 -0.98900002 172 128 89
1.239 1.9960001 -0.99400002 255 203 120
1.024 1.9299999 -0.85799998 137 94 62
1.027 1.9299999 -0.861 135 74 20
1.044 1.926 -0.85100001 54 28 15
1.045 1.928 -0.86299998 146 83 50
1.035 1.9220001 -0.86199999 168 130 93
1.0319999 1.9220001 -0.85699999 176 127 86
1.027 1.923 -0.85299999 129 117 117
1.041 1.946 -0.83999997 91 73 63
1.044 1.9400001 -0.82599998 163 139 127
1.038 1.939 -0.82999998 65 41 29
1.174 1.8660001 -0.95200002 200 154 95
1.175 1.863 -0.94800001 228 185 106
1.181 1.878 -0.95599997 47 15 0
1.173 1.886 -0.96499997 51 23 9
1.182 1.859 -0.94499999 172 151 104
1.178 1.862 -0.949 222 199 145
1.1799999 1.8609999 -0.949 148 128 78
1.05 1.946 -0.89600003 141 98 56
1.0369999 1.943 -0.89700001 207 147 77
1.038 1.946 -0.90200001 177 119 55
1.1619999 1.882 -0.97500002 18 12 12
1.155 1.881 -0.98299998 6 0 2
1.038 1.932 -0.875 168 122 72
1.169 1.863 -0.954 137 96 44
1.189 1.851 -0.95300001 92 77 70
1.186 1.851 -0.95999998 98 85 79
1.192 1.852 -0.93699998 164 146 96
1.119 1.982 -0.93800002 115 99 83
1.12 1.982 -0.94 146 110 78
1.114 1.977 -0.935 71 44 25
1.023 1.9579999 -0.88700002 175 155 144
1.021 1.951 -0.86199999 107 79 65
1.022 1.9579999 -0.87 139 112 105
1.0599999 1.976 -0.88499999 50 23 12
1.069 1.962 -0.88300002 151 94 39
1.067 1.973 -0.95499998 116 83 48
1.048 1.965 -0.96700001 255 249 179
1.058 1.969 -0.94800001 114 82 57
1.117 1.98 -1.043 78 52 51
1.1339999 1.999 -1.033 132 134 149
1.148 1.998 -1.0369999 214 177 135
1.11 1.967 -0.94199997 54 46 27
1.182 1.9579999 -0.96100003 47 36 34
1.1799999 1.969 -0.95999998 138 115 101
1.1799999 1.957 -0.963 49 37 37
1.174 1.897 -0.98799998 255 233 147
1.166 1.875 -0.98100001 62 44 22
1.163 1.875 -0.98299998 22 14 3
1.1670001 1.8940001 -0.97100002 123 117 117
1.1569999 1.897 -0.977 110 94 61
1.1849999 1.886 -0.95700002 157 154 163
1.196 1.8890001 -0.94599998 111 106 113
1.051 2.003 -0.99800003 142 87 30
1.058 1.9910001 -1.0089999 153 120 79
1.059 2.0050001 -1.007 106 59 13
1.063 1.995 -1.016 98 63 23
1.166 2.02 -1.026 51 33 29
1.171 2.0220001 -1.027 69 48 31
1.124 2.017 -1.031 36 16 9
1.1059999 2.02 -1.03 51 33 21
1.104 2.0209999 -1.026 61 48 40
1.103 2.0090001 -1.044 168 143 149
1.229 1.997 -1.044 91 62 46
1.229 2.0039999 -1.048 57 26 0
1.22 2.0009999 -1.048 43 25 15
1.215 1.994 -1.029 39 19 12
1.175 2.023 -1.024 54 31 17
1.244 2.003 -1.041 131 96 68
1.249 2.0050001 -1.035 95 59 33
1.1720001 1.9069999 -0.98299998 121 107 98
1.171 1.923 -0.98900002 67 47 36
1.1799999 1.919 -1 83 75 52
1.159 1.9170001 -0.97500002 155 130 125
1.173 1.895 -0.97600001 150 112 73
1.224 1.98 -0.96700001 138 132 142
1.209 1.975 -0.954 103 80 48
1.221 1.973 -0.96799999 121 108 66
1.233 1.977 -0.97100002 136 128 141
1.223 2.0009999 -0.99400002 26 12 11
1.221 2.0020001 -0.99699998 16 2 1
1.211 2.0079999 -0.991 27 14 8
1.21 2.007 -1.012 50 23 16
1.209 2.003 -1.012 70 52 42
1.209 2.0020001 -1.023 20 11 12
1.245 1.997 -1.005 117 101 88
1.25 1.999 -1.015 209 162 116
1.245 2.0090001 -1.023 72 53 38
1.244 2.007 -1.026 59 42 26
1.237 2.006 -1.021 34 12 1
1.028 1.939 -0.83899999 101 83 61
1.03 1.944 -0.84399998 126 83 51
1.031 1.948 -0.847 64 44 33
1.029 1.941 -0.84299999 86 70 47
1.159 1.883 -0.98000002 9 3 3
1.182 1.869 -0.949 144 85 27
1.1950001 1.865 -0.93900001 92 55 26
1.2 1.8839999 -0.94300002 129 124 130
1.196 1.885 -0.94700003 127 120 127
1.198 1.88 -0.94999999 22 8 5
1.206 1.8660001 -0.94499999 243 197 112
1.197 1.878 -0.97100002 255 216 118
1.194 1.886 -0.96899998 232 201 118
1.1950001 1.872 -0.949 199 146 80
1.188 1.873 -0.95200002 210 161 68
1.2 1.8660001 -0.95599997 235 196 117
1.02 1.936 -0.852 44 30 17
1.03 1.929 -0.86400002 171 106 42
1.033 1.9349999 -0.87599999 152 90 31
1.034 1.937 -0.88 161 97 36
1.035 1.926 -0.86400002 181 134 78
1.196 1.8559999 -0.93400002 167 142 85
1.194 1.8559999 -0.93699998 29 23 23
1.206 1.851 -0.935 161 145 145
1.211 1.849 -0.93599999 50 36 35
1.21 1.8430001 -0.93099999 29 11 11
1.206 1.846 -0.93699998 123 107 107
1.202 1.851 -0.94300002 118 104 103
1.066 1.982 -0.88800001 89 71 61
1.128 2.016 -0.98299998 28 11 1
1.132 2.0190001 -0.99000001 144 119 97
1.135 2.02 -0.98799998 116 114 127
1.123 2.0139999 -0.986 110 105 112
1.141 2.0120001 -0.995 42 21 2
1.1339999 2.0139999 -1.015 16 6 4
1.0420001 1.9400001 -0.82999998 88 66 53
1.048 1.95 -0.85699999 52 27 22
1.029 1.923 -0.85299999 131 121 120
1.17 1.873 -0.97000003 15 11 2
1.173 1.873 -0.96499997 17 11 0
1.178 1.862 -0.95999998 14 13 11
1.179 1.864 -0.96100003 22 17 13
1.058 1.9529999 -0.903 127 116 112
1.0420001 1.937 -0.87900001 137 99 62
1.152 1.899 -0.97500002 149 132 124
1.183 1.858 -0.95599997 26 24 25
1.069 1.98 -0.94099998 41 23 19
1.0779999 1.978 -0.93699998 141 122 108
1.041 1.979 -0.98900002 114 80 43
1.04 1.982 -0.991 43 28 21
1.043 1.975 -0.99699998 37 15 4
1.0470001 1.974 -0.98100001 142 111 57
1.022 1.955 -0.86199999 90 63 52
1.056 1.99 -1.0039999 112 78 41
1.151 1.901 -0.99699998 22 14 12
1.05 1.971 -0.97299999 245 218 149
1.054 1.972 -0.97399998 65 48 22
1.0650001 1.979 -0.94400001 26 8 4
1.067 1.973 -0.972 154 136 126
1.059 1.972 -0.96700001 255 245 174
1.058 1.966 -0.88099998 79 53 30
1.058 1.9630001 -0.87800002 127 90 72
1.053 1.967 -0.87900001 81 70 48
1.0930001 1.973 -0.94400001 107 72 34
1.089 1.971 -0.93400002 77 42 12
1.096 1.962 -0.949 4 0 1
1.066 1.9630001 -0.91100001 75 57 55
1.079 1.969 -0.92199999 109 72 43
1.064 1.973 -0.92000002 107 88 73
1.117 1.987 -1.044 90 61 65
1.107 2.0039999 -1.038 187 162 166
1.112 1.984 -1.049 101 75 76
1.147 1.999 -1.035 165 134 105
1.15 2.003 -1.034 30 2 0
1.0880001 2.013 -1.029 104 79 75
1.096 2.007 -1.036 64 56 37
1.152 1.973 -0.96799999 169 128 84
1.163 1.975 -0.96700001 146 103 61
1.161 1.98 -0.96200001 102 75 58
1.147 1.974 -0.972 141 102 61
1.14 1.974 -0.96799999 141 136 143
1.104 1.961 -0.94300002 98 67 46
1.132 1.973 -0.977 138 133 139
1.124 1.973 -0.96600002 144 107 65
1.128 1.974 -0.96600002 82 62 38
1.091 2.0009999 -0.92000002 35 18 10
1.08 2.0139999 -0.921 65 43 30
1.0880001 1.997 -0.91500002 20 10 0
1.081 2.0179999 -0.92900002 53 26 17
1.186 1.96 -0.958 103 86 78
1.192 1.957 -0.95200002 60 38 17
1.188 1.977 -0.94700003 162 136 103
1.1900001 1.964 -0.95499998 118 82 56
1.216 1.971 -0.96600002 115 102 67
1.202 1.964 -0.95700002 104 85 52
1.168 1.887 -0.97100002 52 29 13
1.175 1.921 -1.002 77 47 21
1.169 1.915 -1.002 15 5 6
1.163 1.92 -1.002 27 15 15
1.1720001 1.923 -1.001 77 59 37
1.1799999 1.914 -1.003 174 135 76
1.1670001 1.873 -0.977 29 17 1
1.179 1.911 -0.99699998 71 57 28
1.175 1.911 -0.99900001 179 135 64
1.177 1.913 -1.001 186 145 79
1.1720001 1.893 -0.97899997 255 218 131
1.1059999 1.952 -1.005 179 133 81
1.063 1.975 -0.98299998 52 40 28
1.217 1.992 -1.01 59 33 18
1.227 1.983 -1.016 158 110 61
1.14 2.0050001 -1.017 18 6 8
1.1339999 2.016 -1.023 10 0 0
1.1569999 2.0090001 -1.0190001 32 18 18
1.128 2.0179999 -1.016 34 16 4
1.112 2.0120001 -1.023 38 20 10
1.2180001 2.0009999 -1.035 33 16 8
1.223 2.0039999 -1.03 55 38 31
1.214 1.997 -1.026 95 83 83
1.122 1.974 -1.033 22 13 16
1.14 1.9680001 -1.027 83 57 32
1.1109999 1.9680001 -1.034 60 48 24
1.13 1.961 -1.027 18 8 9
1.229 1.988 -1.021 14 6 4
1.228 1.995 -1.036 97 64 49
1.221 1.994 -1.023 21 6 0
1.212 2.0009999 -1.021 95 89 89
1.204 1.9809999 -0.99900001 16 6 5
1.222 1.984 -1.001 140 96 51
1.221 1.98 -0.99699998 50 40 39
1.225 1.982 -1.007 163 115 66
1.235 1.985 -1.01 45 22 0
1.228 1.982 -0.99299997 25 11 0
1.183 1.89 -0.97000003 121 107 62
1.178 2.0009999 -0.95700002 255 219 141
1.17 2.003 -0.95700002 15 3 3
1.1799999 1.994 -0.94599998 54 25 9
1.187 1.993 -0.95599997 48 25 17
1.199 1.987 -0.94400001 71 42 34
1.1950001 1.9859999 -0.94499999 105 78 69
1.227 2 -0.98900002 131 93 56
1.22 2.003 -0.97299999 62 42 33
1.249 2.0009999 -1.0190001 171 129 87
1.247 1.997 -1.025 163 128 96
1.25 1.998 -1.017 176 132 93
1.211 2.003 -0.98799998 152 117 87
1.206 1.9960001 -0.96899998 58 29 11
1.182 2.003 -0.963 252 214 133
1.178 2.0079999 -0.99900001 72 33 2
1.177 2.0020001 -1.001 84 53 32
1.177 2.006 -0.98799998 121 78 36
1.175 2.0120001 -0.98400003 113 87 88
1.187 2.0250001 -1.011 136 123 114
1.186 2.023 -1.013 201 186 167
1.183 2.0250001 -1.0140001 83 59 49
1.182 2.0280001 -1.013 42 18 6
1.204 1.998 -1 58 27 6
1.212 2.0079999 -1.0039999 86 60 45
1.199 1.999 -0.98500001 129 92 66
1.215 2.0079999 -1.003 28 3 0
1.249 1.999 -1.0140001 153 109 64
1.238 2.0090001 -1.041 26 11 8
1.235 2.01 -1.035 35 20 13
1.044 1.933 -0.84100002 47 28 21
1.039 1.9299999 -0.84100002 66 29 10
1.026 1.927 -0.852 173 127 78
1.056 1.971 -0.95200002 182 129 75
1.053 1.972 -0.95899999 178 117 50
1.049 1.972 -0.96799999 48 36 22
1.052 1.973 -0.963 153 96 27
1.149 1.901 -0.995 9 0 1
1.165 1.906 -1.002 18 10 8
1.155 1.901 -0.995 36 28 26
1.159 1.904 -1.005 26 15 13
1.158 1.881 -0.98100001 11 5 5
1.187 1.882 -0.954 164 161 170
1.201 1.875 -0.94300002 141 97 52
1.202 1.863 -0.95200002 255 208 142
1.036 1.925 -0.86400002 147 106 54
1.028 1.927 -0.861 127 84 42
1.034 1.933 -0.87099999 128 81 39
1.191 1.865 -0.95499998 153 143 142
1.202 1.857 -0.93300003 239 196 118
1.192 1.86 -0.94099998 103 72 52
1.189 1.857 -0.94499999 24 20 19
1.076 1.9680001 -0.89099997 119 67 9
1.074 1.983 -0.90499997 43 34 19
1.066 1.9579999 -0.87900001 150 92 42
1.069 1.96 -0.88200003 152 93 37
1.059 1.954 -0.89499998 152 140 140
1.049 1.943 -0.87900001 114 73 29
1.0369999 1.9349999 -0.88099998 75 31 2
1.036 1.941 -0.89099997 170 109 42
1.035 1.938 -0.884 160 99 42
1.146 1.896 -0.98000002 246 202 139
1.186 1.8660001 -0.95999998 46 36 35
1.197 1.982 -0.94400001 45 35 36
1.1950001 1.965 -0.949 110 95 56
1.0779999 1.999 -0.91900003 96 60 26
1.069 1.999 -0.91900003 133 95 59
1.072 1.9910001 -0.90799999 64 17 1
1.063 1.979 -0.89700001 34 16 6
1.0549999 1.99 -0.91100001 54 28 0
1.046 1.98 -0.90399998 69 32 6
1.046 1.983 -0.91000003 63 38 31
1.041 1.9809999 -0.91299999 71 47 37
1.0319999 1.9809999 -0.921 53 26 19
1.0420001 1.978 -0.97500002 134 84 33
1.051 1.976 -0.96700001 117 104 95
1.025 1.961 -0.89300001 63 31 8
1.036 1.966 -0.88499999 61 41 30
1.029 1.961 -0.87599999 165 139 122
1.035 1.939 -0.88499999 149 85 23
1.029 1.947 -0.884 84 47 18
1.0369999 1.944 -0.89399999 165 104 50
1.038 1.957 -0.861 143 101 63
1.038 1.961 -0.86900002 69 42 21
1.038 1.9630001 -0.875 66 40 23
1.044 1.965 -0.87699997 57 41 26
1.054 1.949 -0.87300003 153 110 65
1.057 1.975 -0.963 163 105 42
1.077 1.975 -0.92799997 153 116 74
1.071 1.98 -0.93099999 36 7 0
1.124 1.929 -1.022 18 7 3
1.126 1.928 -1.021 43 29 26
1.052 1.975 -0.97899997 34 15 8
1.061 1.975 -0.958 99 69 43
1.058 1.9809999 -0.96799999 203 159 96
1.105 1.9680001 -1.005 161 138 124
1.131 2.0120001 -1.024 13 0 0
1.053 1.972 -0.88599998 44 17 6
1.0369999 1.9450001 -0.89700001 176 120 59
1.044 1.943 -0.889 92 57 25
1.075 2.0020001 -0.93099999 13 7 9
1.1 1.977 -0.93199998 42 28 17
1.095 1.973 -0.93199998 132 95 51
1.092 1.977 -0.92000002 115 91 57
1.054 1.979 -0.89200002 104 78 65
1.051 1.976 -0.89099997 68 45 37
1.0599999 1.955 -0.898 165 155 154
1.105 1.995 -1.033 123 122 138
1.115 2.006 -1.036 29 22 12
1.149 1.947 -0.98299998 67 51 38
1.1390001 1.938 -0.98299998 101 63 27
1.142 1.947 -0.98699999 33 16 9
1.151 1.982 -0.95599997 101 62 29
1.166 1.98 -0.94800001 115 81 56
1.123 1.934 -0.99699998 169 105 44
1.132 1.957 -0.99599999 29 14 11
1.132 1.951 -1.001 21 9 9
1.146 1.933 -0.98100001 14 7 0
1.1390001 1.9170001 -0.98699999 238 208 174
1.155 1.9220001 -0.98299998 53 21 10
1.15 1.918 -0.98799998 18 4 0
1.153 1.9220001 -1.01 17 8 9
1.171 1.9809999 -0.94700003 45 31 5
1.168 2.006 -0.96899998 39 25 22
1.159 2.006 -0.98100001 129 103 90
1.095 1.984 -0.91399997 136 135 149
1.091 1.997 -0.91900003 17 1 0
1.0880001 2.0050001 -0.926 59 36 28
1.0829999 2.013 -0.92900002 35 11 0
1.087 2.006 -0.92900002 91 68 60
1.089 2.007 -0.935 33 15 5
1.1109999 1.989 -0.93000001 137 103 75
1.123 1.994 -0.94 74 38 2
1.118 1.9859999 -0.93699998 41 31 21
1.1900001 1.962 -0.95499998 109 72 53
1.194 1.957 -0.954 104 69 37
1.206 1.97 -0.958 97 63 28
1.163 1.875 -0.98000002 16 12 9
1.196 1.873 -0.96700001 255 220 139
1.196 1.877 -0.97100002 238 191 103
1.169 1.914 -0.986 85 62 54
1.179 1.887 -0.977 225 178 106
1.059 1.977 -0.98400003 46 24 13
1.209 1.9809999 -0.99400002 10 2 0
1.212 1.972 -0.97600001 135 104 73
1.188 1.987 -0.99299997 82 62 55
1.205 1.992 -1.005 66 43 25
1.202 1.9960001 -1.003 124 83 55
1.1059999 2.02 -1.027 34 16 6
1.126 2.0090001 -1.03 42 22 15
1.226 2.0009999 -1.043 90 64 49
1.169 1.998 -1.035 23 3 0
1.169 1.997 -1.0369999 82 62 53
1.164 1.9960001 -1.04 87 43 8
1.1799999 2.0179999 -1.021 62 47 24
1.227 2.01 -1.017 54 36 24
1.209 2.013 -1.011 55 37 27
1.187 2.0309999 -1.018 144 124 97
1.169 1.992 -1.034 98 79 65
1.155 1.987 -1.045 104 61 19
1.229 1.9960001 -1.04 62 33 19
1.233 1.993 -1.028 71 49 38
1.2079999 1.98 -0.95099998 30 15 10
1.211 1.9809999 -0.95499998 94 60 22
1.2079999 1.983 -0.95300001 89 71 49
1.2029999 1.977 -0.949 230 167 87
1.228 1.9960001 -0.98299998 56 37 31
1.228 2 -0.99000001 127 109 95
1.223 1.999 -0.98799998 151 132 99
1.191 1.988 -0.95300001 50 23 14
1.216 1.983 -0.95999998 33 18 13
1.221 1.985 -0.96499997 22 15 9
1.24 1.992 -0.99299997 228 180 96
1.243 1.994 -1.002 224 182 108
1.232 1.9859999 -1.0140001 96 69 22
1.181 2.0280001 -1.024 99 72 45
1.248 1.997 -1.02 142 102 66
1.248 2 -1.025 165 123 83
1.2460001 1.998 -1.028 187 148 115
1.16 2.0120001 -1.007 107 54 20
1.149 2.006 -0.99599999 111 108 115
1.149 2.0109999 -1.007 18 3 0
1.181 2.0039999 -1.006 137 114 82
1.181 2.016 -1.017 59 44 39
1.165 1.997 -1.016 41 22 8
1.165 2.0020001 -1.015 93 71 57
1.1670001 2.013 -1.008 186 151 123
1.125 2.0039999 -0.958 141 120 93
1.124 2.006 -0.96200001 23 7 0
1.115 2.007 -0.96200001 35 17 13
1.238 1.994 -1.04 63 44 37
1.035 1.939 -0.83600003 90 68 57
1.0420001 1.937 -0.82800001 69 46 38
1.038 1.937 -0.83499998 44 23 18
1.045 1.9400001 -0.84500003 37 13 9
1.057 1.972 -0.95700002 145 90 36
1.063 1.976 -0.95300001 73 47 22
1.163 1.905 -1.002 18 8 7
1.164 1.905 -0.99800003 25 13 13
1.159 1.904 -0.99900001 32 18 15
1.155 1.8940001 -0.98299998 61 36 14
1.158 1.903 -0.99599999 29 18 14
1.1900001 1.882 -0.95300001 147 142 149
1.1950001 1.851 -0.94499999 89 74 67
1.2079999 1.8609999 -0.94300002 229 186 117
1.045 1.938 -0.875 124 82 40
1.04 1.933 -0.87199998 129 87 49
1.036 1.927 -0.86500001 145 96 53
1.205 1.86 -0.93300003 186 138 72
1.067 1.975 -0.889 67 45 22
1.0700001 1.9630001 -0.88999999 141 85 38
1.068 1.9630001 -0.89099997 132 78 34
1.068 1.961 -0.88499999 144 88 39
1.062 1.9630001 -0.89899999 148 101 57
1.054 1.9529999 -0.88599998 193 152 100
1.057 1.954 -0.88200003 143 95 47
1.0599999 1.956 -0.88 166 111 57
1.181 1.859 -0.95899999 17 17 17
1.087 1.965 -0.92799997 98 63 25
1.074 1.964 -0.88700002 153 98 42
1.202 1.975 -0.949 51 27 17
1.048 1.974 -0.977 155 120 54
1.057 1.966 -0.91299999 79 42 0
1.054 1.964 -0.90700001 112 76 26
1.045 1.972 -0.91500002 117 84 41
1.043 1.9809999 -0.91299999 38 13 6
1.041 1.98 -0.91299999 84 57 46
1.097 1.973 -0.954 10 0 0
1.098 1.971 -0.954 15 5 4
1.108 1.971 -0.95499998 193 136 81
1.112 1.97 -0.95599997 198 145 91
1.101 1.966 -0.94999999 31 22 15
1.0599999 1.995 -1.0089999 145 102 57
1.107 2.0039999 -0.96899998 23 6 0
1.092 2.003 -0.95700002 50 36 35
1.099 2.0009999 -0.95899999 111 63 25
1.056 2.0050001 -0.995 68 45 31
1.064 2.003 -1.01 29 11 0
1.1289999 1.975 -0.97899997 143 121 100
1.1210001 1.977 -0.98699999 132 90 50
1.124 1.978 -0.98000002 100 62 26
1.112 1.9630001 -1.013 143 118 98
1.105 1.9680001 -1.015 108 76 51
1.1210001 1.952 -1.017 144 122 98
1.028 1.957 -0.889 50 31 24
1.084 2.0020001 -0.94599998 93 58 28
1.1059999 1.974 -0.93699998 57 38 23
1.073 1.972 -0.91799998 148 139 142
1.153 2.0020001 -1.033 64 55 40
1.1619999 2.013 -1.021 95 78 58
1.112 1.9910001 -1.036 171 129 91
1.095 1.999 -1.033 61 54 26
1.161 1.995 -0.94700003 157 128 94
1.159 1.995 -0.94999999 155 122 87
1.166 1.995 -0.95099998 43 22 17
1.127 1.929 -0.99599999 148 102 52
1.117 1.941 -1.006 121 74 20
1.112 1.9529999 -1.005 79 67 53
1.1440001 1.938 -0.98100001 32 17 12
1.159 1.9220001 -1.005 216 171 103
1.107 1.965 -0.94499999 163 108 43
1.109 1.966 -0.94999999 168 113 56
1.11 1.9680001 -0.94999999 144 90 26
1.099 1.9630001 -0.94400001 9 5 4
1.1160001 1.973 -0.96399999 167 117 66
1.105 1.976 -0.958 123 79 40
1.153 2.006 -0.98900002 85 43 1
1.092 2 -0.92799997 35 15 6
1.1900001 1.9630001 -0.95499998 105 67 46
1.2029999 1.966 -0.96100003 123 104 64
1.164 1.874 -0.98100001 18 10 0
1.194 1.872 -0.963 255 217 134
1.192 1.872 -0.96399999 248 210 137
1.192 1.874 -0.96600002 208 158 95
1.175 1.878 -0.963 86 56 32
1.159 1.9220001 -0.98299998 76 48 44
1.1950001 1.878 -0.97100002 217 165 81
1.1799999 1.878 -0.96899998 178 155 137
1.179 1.875 -0.96700001 143 117 94
1.0599999 1.987 -1.005 131 82 41
1.071 1.9910001 -1.0089999 137 98 55
1.0829999 1.99 -1.015 90 58 35
1.056 1.978 -0.98400003 159 116 71
1.057 1.982 -0.99000001 211 142 73
1.0549999 1.976 -0.98000002 197 142 78
1.058 1.976 -0.98000002 163 116 72
1.161 1.973 -1.006 37 17 16
1.159 1.95 -1.0089999 218 187 130
1.15 1.962 -1.01 45 29 14
1.15 1.9680001 -1.0190001 139 91 43
1.147 1.956 -1.01 39 23 0
1.143 1.956 -1.027 53 39 13
1.207 1.9809999 -0.991 11 3 0
1.204 1.9960001 -0.995 50 22 1
1.124 2.0120001 -1.035 50 26 16
1.183 2.023 -1.018 108 83 52
1.11 1.972 -1.036 89 72 44
1.21 2.01 -1.0089999 85 65 41
1.199 1.99 -1.002 57 30 13
1.181 1.989 -0.99800003 91 66 46
1.161 1.983 -1.023 158 111 69
1.156 1.983 -1.0369999 52 37 14
1.155 1.983 -1.022 118 64 36
1.164 1.984 -1.002 40 16 6
1.173 1.97 -1 178 142 90
1.178 1.965 -0.99699998 61 44 36
1.175 2.0020001 -0.963 189 144 77
1.176 2.0009999 -0.96799999 198 158 106
1.225 2 -0.991 17 2 0
1.209 1.988 -0.958 76 44 23
1.205 1.992 -0.96100003 28 10 0
1.214 1.988 -0.95899999 58 36 12
1.235 1.9859999 -0.991 221 167 103
1.238 1.99 -0.99299997 169 114 34
1.237 1.988 -1.007 96 86 87
1.183 2.03 -1.0140001 35 15 4
1.25 1.999 -1.018 189 146 103
1.2460001 1.997 -1.027 103 66 39
1.151 2.0109999 -1.011 22 8 5
1.177 2.006 -0.986 141 94 48
1.189 1.9809999 -0.94800001 91 61 35
1.163 2.0050001 -1.003 114 80 55
1.1720001 2.0220001 -1.018 168 159 160
1.238 1.994 -1.026 68 51 44
1.237 1.993 -1.02 64 41 27
1.0369999 1.938 -0.833 66 46 39
1.046 1.939 -0.83499998 36 20 20
1.046 1.938 -0.83200002 36 22 19
1.0420001 1.934 -0.85500002 58 36 22
1.034 1.9220001 -0.84399998 85 35 0
1.062 1.973 -0.95700002 169 135 108
1.0599999 1.976 -0.96200001 131 84 40
1.059 1.973 -0.95999998 142 98 59
1.061 1.9809999 -0.96600002 253 208 151
1.152 1.91 -0.98699999 55 45 35
1.155 1.908 -0.98400003 29 17 5
1.165 1.906 -1 17 8 9
1.158 1.904 -1.0039999 35 21 20
1.158 1.902 -0.99299997 17 9 6
1.17 1.902 -0.99000001 253 226 155
1.197 1.851 -0.93400002 132 105 52
1.197 1.8559999 -0.93400002 180 136 71
1.196 1.851 -0.93800002 24 14 12
1.194 1.862 -0.94 71 36 14
1.038 1.926 -0.86400002 85 44 0
1.1900001 1.8710001 -0.95099998 111 92 77
1.192 1.857 -0.94 13 7 7
1.198 1.867 -0.93900001 209 174 146
1.0650001 1.982 -0.93599999 140 108 85
1.061 1.978 -0.92299998 152 119 78
1.054 1.976 -0.92199999 146 98 58
1.041 1.98 -0.92299998 92 53 20
1.0420001 1.982 -0.92699999 107 68 39
1.0549999 1.987 -0.90600002 39 26 18
1.128 2.0109999 -1 12 9 0
1.128 2.0109999 -1 12 9 0
1.118 2.007 -0.99699998 130 109 90
1.1210001 1.98 -0.95899999 14 9 6
1.062 1.957 -0.88200003 157 104 50
1.062 1.9579999 -0.88599998 155 103 56
1.066 1.96 -0.88499999 117 63 16
1.0549999 1.9529999 -0.88300002 176 129 75
1.058 1.956 -0.88700002 157 113 68
1.153 1.897 -0.98500001 138 93 52
1.086 1.965 -0.92400002 95 61 26
1.073 1.966 -0.89399999 148 87 30
1.0420001 1.965 -0.89899999 40 20 0
1.041 1.9680001 -0.88700002 116 70 37
1.05 1.994 -0.991 49 31 27
1.046 1.999 -0.99000001 232 170 95
1.0549999 1.994 -0.97500002 28 10 0
1.043 1.9809999 -0.98299998 29 18 12
1.038 1.98 -0.91500002 52 25 16
1.031 1.979 -0.92199999 28 1 0
1.064 1.96 -0.88800001 191 138 88
1.061 1.975 -0.97600001 109 81 69
1.087 1.982 -0.94499999 57 17 0
1.112 1.973 -0.94400001 109 91 67
1.112 1.976 -0.94800001 109 70 41
1.105 2.0009999 -0.958 109 64 25
1.104 2.0009999 -0.93900001 76 52 52
1.098 1.976 -0.95700002 11 0 4
1.079 1.9859999 -0.94999999 20 9 7
1.074 1.978 -0.96499997 102 82 49
1.094 1.982 -0.95099998 75 34 2
1.073 1.982 -0.986 151 101 66
1.109 2.003 -0.97899997 19 6 0
1.112 2.0039999 -0.97899997 31 18 12
1.068 2.0009999 -0.99599999 52 25 14
1.072 2.0039999 -1.003 93 69 33
1.064 2.0020001 -1 93 65 53
1.089 2.0039999 -0.99400002 121 95 78
1.0700001 2 -0.995 29 15 6
1.076 1.995 -0.98299998 158 133 111
1.068 1.985 -1.002 212 173 130
1.0880001 1.985 -1.001 205 158 114
1.069 2.0039999 -1.012 111 94 51
1.068 2.0079999 -1.0089999 78 62 46
1.084 2.013 -1.015 47 36 18
1.092 2.017 -1.024 74 57 37
1.091 2.0150001 -1.021 74 66 43
1.115 1.965 -1.017 155 129 114
1.118 1.962 -1.003 139 104 64
1.1210001 1.969 -0.99800003 146 119 100
1.13 1.939 -1.02 13 0 0
1.119 1.959 -1.0039999 151 133 119
1.064 1.962 -0.88099998 46 13 0
1.054 1.9529999 -0.87300003 50 28 15
1.075 2.0020001 -0.93400002 10 4 6
1.08 2.0039999 -0.93300003 132 86 50
1.168 2.016 -1.024 30 26 14
1.149 1.987 -1.03 111 89 78
1.097 2.0079999 -1.033 79 61 47
1.107 1.98 -1.029 91 62 64
1.105 1.9859999 -1.034 131 90 60
1.15 1.97 -0.98299998 155 108 66
1.156 1.974 -0.972 171 145 112
1.17 1.992 -0.94300002 51 32 28
1.138 1.9170001 -0.98900002 171 143 122
1.131 1.923 -0.99800003 101 75 38
1.113 1.954 -1.007 201 174 165
1.117 1.934 -1.006 114 81 46
1.142 1.915 -0.99900001 90 70 63
1.156 1.916 -1.007 94 84 82
1.165 1.97 -0.96799999 51 26 21
1.188 1.967 -0.95700002 90 59 39
1.197 1.962 -0.95599997 122 99 67
1.197 1.967 -0.95999998 112 69 34
1.193 1.964 -0.958 138 117 98
1.182 1.959 -0.96399999 60 47 39
1.168 1.966 -0.98400003 29 8 3
1.198 1.9809999 -0.99400002 15 6 1
1.14 1.9630001 -1.027 71 47 21
1.135 1.957 -1.027 13 4 7
1.1569999 1.955 -1 25 8 1
1.152 1.95 -1.0089999 193 142 95
1.17 1.9450001 -0.99699998 114 100 91
1.164 1.9529999 -0.99699998 73 35 0
1.174 1.88 -0.96700001 149 119 93
1.17 1.904 -0.99199998 255 226 156
1.1670001 1.9119999 -1.002 24 14 15
1.17 1.899 -0.986 255 231 161
1.187 1.869 -0.96100003 31 21 20
1.058 1.984 -0.99599999 196 135 78
1.207 1.98 -0.98799998 83 47 11
1.201 1.975 -0.97899997 189 146 103
1.199 1.977 -0.98299998 104 74 50
1.193 1.97 -0.97799999 144 125 111
1.191 1.971 -0.97600001 47 24 10
1.171 1.966 -0.98699999 37 14 6
1.177 1.989 -0.99800003 97 61 37
1.1109999 1.969 -1.031 88 73 54
1.108 1.977 -1.0089999 149 107 67
1.176 1.992 -1.001 88 63 33
1.164 1.989 -1.016 46 28 18
1.176 1.997 -0.95099998 255 221 142
1.17 2.003 -0.96100003 35 23 23
1.2130001 1.977 -0.96100003 67 47 14
1.204 1.972 -0.95099998 75 52 36
1.204 1.977 -0.94999999 107 85 64
1.201 1.973 -0.94999999 42 19 13
1.226 1.983 -0.97100002 95 75 64
1.217 1.999 -0.97600001 125 103 90
1.239 1.992 -1.003 222 170 94
1.229 1.975 -0.98000002 148 124 112
1.224 1.979 -0.98500001 30 18 20
1.2359999 1.99 -0.98799998 214 157 76
1.235 1.9910001 -0.98799998 229 176 96
1.25 1.998 -1.015 153 106 62
1.245 1.997 -1.016 102 66 34
1.2460001 1.997 -1.018 127 85 45
1.24 1.993 -1.0089999 88 61 40
1.238 1.9910001 -1.013 48 30 20
1.238 1.9910001 -1.01 96 78 38
1.1569999 2.017 -1.0190001 180 147 106
1.193 1.999 -0.97399998 111 77 50
1.2029999 1.995 -0.96399999 137 127 135
1.191 1.994 -0.96700001 62 40 27
1.191 1.998 -0.97399998 105 76 68
1.175 2.0050001 -0.98000002 153 97 38
1.178 1.998 -0.95499998 40 7 0
1.177 2.023 -1.016 211 200 198
1.0420001 1.943 -0.85299999 39 16 2
1.073 1.9809999 -0.963 67 41 24
1.159 1.902 -0.97799999 204 150 80
1.1619999 1.9 -0.97799999 204 153 88
1.199 1.852 -0.93400002 55 41 38
1.046 1.946 -0.86900002 186 118 57
1.05 1.9529999 -0.86900002 28 8 0
1.192 1.854 -0.94 24 18 18
1.196 1.851 -0.94099998 78 67 63
1.062 1.989 -0.92699999 134 112 99
1.062 1.982 -0.93699998 126 91 69
1.04 1.976 -0.91399997 174 133 101
1.0599999 1.99 -0.912 60 33 3
1.077 1.9680001 -0.89499998 133 80 28
1.079 1.974 -0.91100001 143 84 28
1.13 2.0079999 -0.97500002 59 32 13
1.146 2.003 -0.98400003 116 69 1
1.147 2.006 -0.99000001 99 84 81
1.112 2.0079999 -1.007 33 16 6
1.122 1.984 -0.954 80 37 5
1.131 1.9809999 -0.95899999 184 132 82
1.048 1.956 -0.87099999 27 8 2
1.153 1.902 -0.97899997 155 133 122
1.087 1.965 -0.92400002 105 70 32
1.074 1.974 -0.92199999 151 139 139
1.048 1.975 -0.88800001 32 18 7
1.044 1.984 -0.97600001 218 174 127
1.039 1.98 -0.92299998 63 37 20
1.0779999 1.9859999 -0.94800001 13 2 0
1.1160001 1.995 -0.94199997 40 20 13
1.0700001 1.979 -0.977 121 102 88
1.081 1.985 -0.98799998 142 94 46
1.091 1.988 -0.99199998 76 53 39
1.1 1.983 -0.98100001 153 114 71
1.109 2.0009999 -0.98900002 161 138 122
1.1160001 2.0050001 -0.99400002 146 141 148
1.099 1.997 -0.97299999 142 110 95
1.054 1.998 -0.98900002 143 92 47
1.053 1.992 -0.97799999 140 123 103
1.059 1.997 -0.98299998 27 17 5
1.067 1.994 -0.97399998 29 10 6
1.081 1.994 -0.97600001 31 17 14
1.084 1.994 -0.98000002 20 9 5
1.086 1.999 -0.99199998 61 41 30
1.069 1.9809999 -0.986 29 25 16
1.0779999 1.99 -1.008 109 76 59
1.0880001 2.0120001 -1.017 107 89 69
1.086 2.0120001 -1.026 59 32 5
1.086 2.0109999 -1.0190001 92 82 57
1.054 1.989 -0.97299999 35 26 9
1.0549999 1.99 -0.97299999 65 37 0
1.133 1.954 -1.023 20 8 10
1.126 1.932 -1.02 28 14 13
1.128 1.938 -1.018 34 21 13
1.1619999 2.0050001 -1.026 13 4 0
1.164 1.999 -1.022 27 13 4
1.0470001 1.967 -0.88200003 52 36 23
1.053 1.954 -0.87199998 36 16 7
1.085 2.0020001 -0.94099998 36 18 16
1.095 2 -0.94700003 28 11 4
1.0880001 1.974 -0.917 78 59 27
1.137 1.985 -1.03 15 9 9
1.154 1.9910001 -1.039 24 17 7
1.11 1.983 -1.0420001 89 47 9
1.177 1.992 -0.94499999 190 147 112
1.141 1.911 -0.98900002 99 74 34
1.133 1.927 -1.016 55 47 26
1.136 1.926 -0.99299997 138 111 90
1.142 1.934 -0.98500001 185 129 68
1.146 1.9349999 -0.98199999 25 10 7
1.147 1.9119999 -0.99800003 27 12 15
1.141 1.919 -1.001 27 12 7
1.153 1.919 -1.005 23 12 10
1.115 1.979 -0.96899998 128 101 84
1.123 2.0039999 -0.95899999 87 64 46
1.124 2 -0.949 164 140 138
1.097 1.997 -0.926 97 63 28
1.096 1.992 -0.92699999 43 25 11
1.186 1.962 -0.963 143 110 91
1.14 1.951 -1.021 81 65 39
1.158 1.949 -1.0089999 234 202 145
1.153 1.967 -1.006 39 29 20
1.1670001 1.941 -1 89 54 22
1.165 1.955 -0.98799998 26 9 2
1.177 1.877 -0.97000003 128 105 89
1.166 1.9069999 -1.001 17 11 11
1.159 1.925 -0.98699999 111 85 68
1.168 1.923 -0.99000001 156 110 60
1.221 1.979 -0.991 22 10 10
1.2 1.9809999 -0.99400002 20 11 6
1.188 1.984 -0.97899997 60 33 16
1.198 1.989 -0.99299997 62 42 33
1.182 1.9859999 -0.98299998 101 93 104
1.175 1.982 -0.98199999 56 38 26
1.182 1.989 -0.98900002 55 17 0
1.1210001 1.973 -0.99400002 100 78 57
1.115 1.978 -0.99900001 114 76 40
1.117 1.98 -0.991 124 89 59
1.1210001 1.98 -0.97399998 133 81 24
1.105 1.982 -1.024 143 102 58
1.105 1.985 -1.016 102 71 42
1.098 1.9910001 -1.0190001 76 47 31
1.099 1.988 -0.98799998 163 123 72
1.164 1.989 -1.022 39 19 10
1.237 1.992 -1.018 79 58 41
1.238 1.994 -1.023 54 26 15
1.193 1.993 -0.958 100 78 64
1.199 1.977 -0.94800001 183 116 48
1.223 1.985 -0.96899998 225 173 100
1.225 1.98 -0.98699999 36 25 23
1.223 1.987 -0.97100002 224 174 103
1.24 1.993 -1.007 71 46 26
1.232 1.982 -0.97899997 24 10 7
1.247 1.997 -1.0190001 122 79 37
1.244 1.9960001 -1.025 33 18 11
1.234 1.989 -1.001 112 100 62
1.059 1.973 -0.96200001 150 107 65
1.064 1.987 -0.96899998 23 2 0
1.184 1.872 -0.95200002 158 95 28
1.2 1.859 -0.935 223 166 87
1.043 1.983 -0.92699999 80 39 7
1.072 1.988 -0.93400002 124 95 79
1.113 2.006 -1.002 137 120 110
1.105 2 -1.006 78 44 32
1.1109999 2.0009999 -0.99699998 32 15 8
1.114 1.979 -0.95200002 111 75 39
1.137 1.979 -0.95899999 8 0 0
1.044 1.9680001 -0.88599998 80 32 0
1.05 1.9680001 -0.90499997 107 75 52
1.0779999 1.99 -0.94099998 24 12 12
1.0700001 1.978 -0.972 85 60 30
1.082 1.985 -0.98500001 209 162 106
1.105 1.9960001 -0.986 160 136 112
1.0880001 1.995 -0.97799999 17 6 0
1.08 1.99 -0.963 124 112 112
1.077 1.995 -0.98799998 48 21 2
1.064 1.982 -0.98900002 147 103 54
1.076 2.006 -1.008 73 54 24
1.0880001 2.0039999 -1.0089999 107 67 32
1.049 1.99 -0.97500002 167 113 69
1.127 1.931 -1.022 33 19 16
1.131 1.9349999 -1.021 26 17 20
1.133 1.933 -1.02 70 49 22
1.1670001 2.007 -1.021 33 28 24
1.064 1.989 -0.91900003 78 43 21
1.0700001 1.975 -0.92199999 88 50 11
1.11 1.9680001 -0.94099998 41 29 33
1.1059999 2.006 -1.01 28 17 13
1.119 2.0009999 -1.036 19 9 0
1.178 1.992 -0.94499999 99 58 28
1.136 1.932 -0.991 5 1 0
1.14 1.942 -0.991 19 6 0
1.1289999 1.928 -1.003 161 127 81
1.13 1.9299999 -1.015 14 0 0
1.124 1.949 -1.015 46 19 0
1.13 1.929 -1.0190001 92 71 50
1.147 1.937 -0.98500001 177 132 73
1.154 1.936 -1.0140001 136 108 84
1.107 1.9809999 -0.972 119 78 32
1.1059999 1.982 -0.97100002 174 143 115
1.094 1.9809999 -0.92500001 119 77 35
1.135 1.9400001 -1.021 130 82 34
1.147 1.95 -0.98699999 46 29 21
1.168 1.909 -0.98199999 93 73 64
1.147 1.9349999 -0.98500001 24 15 6
1.202 1.974 -0.96899998 68 36 0
1.1390001 1.97 -0.991 86 46 11
1.109 1.985 -0.995 146 96 37
1.153 2.006 -0.98699999 138 95 52
1.155 2.0039999 -0.98100001 51 42 43
1.103 1.9859999 -1.01 163 132 112
1.101 1.99 -1.028 107 105 119
1.2079999 1.974 -0.95499998 89 72 29
1.211 1.972 -0.96499997 118 86 63
1.2 1.966 -0.954 102 84 48
1.217 1.999 -0.96799999 64 42 28
1.234 1.987 -0.98299998 182 127 44
1.207 1.998 -0.98400003 13 2 0
1.143 2.006 -0.96499997 169 139 137
1.145 1.9910001 -0.95599997 38 16 2
1.142 1.993 -0.96100003 155 135 126
1.0650001 1.973 -0.96399999 206 175 110
1.184 1.8710001 -0.95099998 177 114 47
1.124 2.0109999 -0.98000002 46 19 0
1.13 1.984 -0.954 239 191 143
1.127 1.987 -0.949 183 153 129
1.068 1.998 -0.99199998 53 36 18
1.101 1.997 -0.97399998 107 81 66
1.0779999 1.987 -0.963 41 26 23
1.075 1.9960001 -0.99199998 18 8 6
1.087 1.998 -1.016 97 71 56
1.099 2.0009999 -0.95700002 43 25 21
1.1 1.999 -0.95099998 21 7 0
1.064 1.982 -0.90600002 225 181 134
1.153 1.99 -1.038 108 89 83
1.164 1.993 -1.021 37 23 14
1.156 1.976 -1.013 24 6 0
1.13 1.929 -1.017 11 0 0
1.143 1.95 -1.016 82 64 40
1.137 1.934 -1.0190001 29 20 21
1.1619999 1.9349999 -0.99900001 161 126 94
1.155 1.939 -0.99199998 149 102 50
1.166 1.9450001 -1.002 174 147 140
1.166 1.966 -0.98500001 31 12 5
1.1619999 1.962 -0.98900002 46 29 22
1.17 1.972 -0.99000001 66 42 30
1.1109999 1.985 -0.99299997 159 109 46
1.101 1.988 -1 51 14 0
1.11 1.985 -0.97899997 144 102 60
1.164 1.989 -1.028 42 21 16
1.159 1.983 -1.013 11 8 0
1.197 1.9680001 -0.96100003 102 76 39
1.2079999 1.98 -0.98900002 16 5 3
1.228 1.9859999 -0.97399998 252 201 122
1.233 1.985 -0.986 210 151 81
1.142 1.988 -0.95200002 113 58 17
1.137 1.9910001 -0.95999998 28 21 5
1.133 1.995 -0.96200001 46 27 21
1.147 2.0009999 -0.96499997 125 100 96
1.044 1.9529999 -0.866 45 18 7
1.11 2.003 -0.95300001 74 31 0
1.095 1.994 -0.98900002 15 5 3
1.077 1.987 -0.99000001 111 84 57
1.0880001 1.988 -0.96700001 23 13 11
1.08 1.988 -0.91100001 43 34 19
1.135 1.977 -1.026 17 13 4
1.1390001 1.943 -1.017 86 71 48
1.1619999 1.934 -0.99599999 50 31 17
1.158 1.955 -0.98900002 42 24 14
1.1849999 1.97 -0.96700001 106 65 33
1.177 1.974 -0.96899998 64 56 37
1.164 1.989 -1.035 30 10 3
1.221 1.993 -0.972 45 25 14
1.224 1.989 -0.97399998 185 134 68
1.232 1.9809999 -0.97600001 45 30 25
1.145 2.003 -0.972 35 18 8
1.041 1.939 -0.86000001 51 27 17
1.087 1.985 -0.97299999 28 16 18
1.1059999 1.98 -0.96600002 133 91 53
1.105 1.997 -0.99800003 37 17 10
1.229 1.987 -0.977 95 78 68
1.044 1.944 -0.86500001 182 116 55
1.117 2.003 -0.95700002 41 23 19
1.085 1.9859999 -0.97799999 15 3 3
1.17 1.967 -0.98500001 29 6 0
1.079 1.982 -0.97799999 154 107 77
0 0 0 1 0 0 0 1 0 0 0 1 0 0 0 0 0 997 1 0 0
