ply
format ascii 1.0
comment PCL generated
element vertex 1226
property float x
property float y
property float z
property uchar red
property uchar green
property uchar blue
element camera 0
property float view_px
property float view_py
property float view_pz
property float x_axisx
property float x_axisy
property float x_axisz
property float y_axisx
property float y_axisy
property float y_axisz
property float z_axisx
property float z_axisy
property float z_axisz
property float focal
property float scalex
property float scaley
property float centerx
property float centery
property int viewportx
property int viewporty
property float k1
property float k2
end_header
-2.3340001 5.2010002 -1.006 79 52 45
-2.335 5.197 -1.0140001 119 74 41
-2.348 5.1750002 -0.99699998 55 29 2
-2.306 5.138 -1.035 125 63 26
-2.293 5.1259999 -1 47 21 8
-2.7539999 5.5250001 -0.89099997 199 129 67
-2.7750001 5.5339999 -0.87900001 197 119 57
-2.7750001 5.5380001 -0.89300001 180 117 46
-2.7750001 5.5300002 -0.87400001 171 99 51
-2.7590001 5.4190001 -1.0829999 220 158 85
-2.7590001 5.421 -1.063 123 93 67
-2.777 5.448 -0.99900001 136 106 82
-2.773 5.4569998 -0.98299998 141 103 66
-2.7809999 5.4429998 -0.96600002 147 121 104
-2.7590001 5.4920001 -0.97000003 117 80 54
-2.7620001 5.4990001 -0.97299999 75 49 36
-2.7679999 5.4580002 -0.97500002 205 147 99
-2.7739999 5.4450002 -0.96100003 135 104 86
-2.7950001 5.4369998 -0.96700001 178 113 59
-2.7839999 5.427 -0.96899998 113 60 20
-2.7820001 5.434 -0.97299999 130 86 47
-2.77 5.454 -0.99299997 192 129 76
-2.75 5.507 -0.98799998 126 73 31
-2.747 5.5079999 -0.977 111 48 5
-2.721 5.4489999 -0.90100002 193 123 53
-2.7219999 5.4590001 -0.89899999 197 168 138
-2.7190001 5.4429998 -0.89700001 116 89 59
-2.7579999 5.4320002 -1.086 152 101 48
-2.4400001 5.4710002 -0.995 151 124 94
-2.4400001 5.4710002 -0.99900001 141 114 84
-2.4449999 5.4660001 -0.995 74 59 52
-2.451 5.4699998 -0.99900001 150 109 79
-2.4779999 5.4959998 -0.94999999 143 108 76
-2.326 5.2639999 -1.038 88 42 9
-2.3399999 5.2719998 -1.025 203 117 56
-2.3410001 5.27 -1.035 111 66 37
-2.3900001 5.2979999 -0.972 204 161 142
-2.437 5.2090001 -0.89999998 190 119 63
-2.415 5.2719998 -0.89200002 167 133 95
-2.4170001 5.2490001 -0.88700002 123 80 64
-2.4130001 5.2670002 -0.89399999 76 41 21
-2.415 5.2399998 -0.90899998 192 122 70
-2.4170001 5.2600002 -0.92500001 202 156 107
-2.418 5.224 -0.90200001 125 59 24
-2.4219999 5.2509999 -0.824 120 47 6
-2.421 5.2389998 -0.82700002 113 101 101
-2.4089999 5.2600002 -0.85000002 145 113 98
-2.402 5.2649999 -0.85299999 90 28 0
-2.4059999 5.2649999 -0.85399997 107 71 57
-2.5480001 5.3439999 -0.815 164 138 115
-2.5369999 5.3280001 -0.82300001 245 183 110
-2.5510001 5.3410001 -0.82499999 124 55 16
-2.5120001 5.322 -0.87 248 198 65
-2.52 5.2930002 -0.93599999 155 107 59
-2.516 5.2909999 -0.94300002 208 160 111
-2.5190001 5.2989998 -0.93800002 115 105 106
-2.526 5.2820001 -0.94499999 125 60 32
-2.516 5.3260002 -0.963 157 129 107
-2.5139999 5.336 -0.96399999 121 51 15
-2.516 5.322 -0.96499997 176 135 105
-2.473 5.421 -0.98299998 13 6 0
-2.4660001 5.4239998 -0.97000003 63 21 7
-2.48 5.4219999 -0.96700001 139 94 55
-2.483 5.4289999 -0.991 125 100 93
-2.4719999 5.4200001 -0.97899997 150 102 64
-2.4779999 5.48 -0.991 90 47 13
-2.4790001 5.4660001 -0.99299997 85 63 42
-2.4860001 5.3769999 -0.97000003 120 46 11
-2.4960001 5.368 -0.98199999 81 58 42
-2.4979999 5.3629999 -0.97399998 143 100 66
-2.4159999 5.3049998 -1.102 238 186 129
-2.408 5.3080001 -1.1059999 81 27 1
-2.4170001 5.3039999 -1.105 201 153 115
-2.4260001 5.3039999 -1.105 56 12 1
-2.4679999 5.2969999 -1.016 71 39 24
-2.4820001 5.2930002 -1.015 193 123 72
-2.507 5.355 -0.98500001 83 33 0
-2.4960001 5.3579998 -0.96399999 176 139 110
-2.5050001 5.3569999 -0.97299999 255 157 56
-2.5120001 5.3499999 -0.98500001 196 159 133
-2.5039999 5.349 -1 175 136 119
-2.5139999 5.3400002 -0.99400002 229 192 78
-2.6949999 5.4580002 -0.95700002 187 130 77
-2.691 5.4590001 -0.94999999 177 112 58
-2.704 5.4530001 -0.94499999 113 98 91
-2.7049999 5.5120001 -0.96600002 32 7 2
-2.701 5.5180001 -0.96399999 126 65 34
-2.701 5.5539999 -0.97600001 172 112 42
-2.7060001 5.5450001 -0.98900002 128 79 46
-2.6789999 5.5050001 -0.93099999 147 109 72
-2.6040001 5.494 -0.89300001 53 17 5
-2.6099999 5.4879999 -0.88700002 55 19 5
-2.6470001 5.4699998 -0.91100001 71 44 27
-2.6589999 5.4780002 -0.89600003 142 128 128
-2.6559999 5.4780002 -0.89099997 172 118 84
-2.612 5.4910002 -0.91600001 79 42 13
-2.6059999 5.494 -0.90799999 48 3 0
-2.605 5.4949999 -0.91500002 62 14 0
-2.605 5.4959998 -0.90399998 65 23 9
-2.6059999 5.493 -0.90499997 63 16 0
-2.6229999 5.4629998 -0.91799998 155 121 94
-2.6170001 5.4520001 -0.93900001 115 100 97
-2.605 5.4790001 -0.90499997 142 84 21
-2.605 5.4770002 -0.90799999 119 92 73
-2.6270001 5.4640002 -0.91100001 194 158 126
-2.628 5.4640002 -0.89700001 141 101 66
-2.6159999 5.4819999 -0.88999999 101 82 68
-2.615 5.4809999 -0.87900001 184 150 122
-2.608 5.4860001 -0.89399999 54 4 0
-2.6689999 5.4860001 -0.93000001 191 116 49
-2.684 5.4629998 -0.91799998 216 138 55
-2.6819999 5.4640002 -0.93099999 249 177 95
-2.688 5.4400001 -0.926 172 97 30
-2.677 5.4640002 -0.92000002 172 123 65
-2.562 5.4559999 -0.97100002 99 31 0
-2.55 5.4499998 -0.97799999 60 18 0
-2.556 5.4510002 -0.97899997 158 118 92
-2.503 5.493 -0.95300001 127 73 47
-2.4909999 5.4650002 -0.98500001 163 115 77
-2.4719999 5.4489999 -0.99000001 140 115 95
-2.4760001 5.448 -0.991 178 146 125
-2.4920001 5.5050001 -0.96499997 134 111 93
-2.6819999 5.5120001 -0.935 184 126 53
-2.605 5.4949999 -0.92400002 61 10 0
-2.7 5.4689999 -0.89899999 65 37 23
-2.698 5.46 -0.89499998 135 75 39
-2.7149999 5.4629998 -0.91399997 130 75 21
-2.7 5.4819999 -0.88700002 150 119 91
-2.756 5.454 -1.021 38 27 21
-2.7679999 5.441 -1.0140001 174 148 131
-2.7579999 5.4419999 -1.022 152 89 45
-2.75 5.4450002 -1.036 124 107 97
-2.7449999 5.415 -1.075 197 162 124
-2.72 5.4260001 -1.076 81 37 12
-2.744 5.415 -1.067 230 182 133
-2.7190001 5.4320002 -1.077 64 19 0
-2.4170001 5.1719999 -0.72799999 101 65 49
-2.421 5.1729999 -0.71899998 114 39 0
-2.418 5.1929998 -0.73500001 182 123 65
-2.4170001 5.2270002 -0.80000001 97 60 31
-2.4260001 5.2519999 -0.81300002 52 29 13
-2.414 5.2249999 -0.792 80 45 26
-2.586 5.3540001 -0.93599999 138 79 39
-2.5869999 5.3520002 -0.93599999 199 110 42
-2.5910001 5.355 -0.94099998 254 194 131
-2.586 5.349 -0.93199998 157 74 4
-2.566 5.3169999 -0.93000001 161 97 23
-2.5650001 5.322 -0.93400002 76 46 8
-2.5599999 5.3150001 -0.954 67 40 29
-2.5569999 5.3249998 -0.963 168 124 89
-2.5539999 5.3249998 -0.95300001 171 107 43
-2.552 5.3699999 -0.94800001 130 82 36
-2.5580001 5.3839998 -0.96100003 96 76 67
-2.5599999 5.3759999 -0.96100003 199 181 167
-2.6070001 5.4200001 -0.954 171 109 52
-2.6059999 5.4310002 -0.94099998 148 113 85
-2.6059999 5.4349999 -0.93199998 113 65 25
-2.6240001 5.4060001 -0.94800001 255 179 117
-2.622 5.4039998 -0.95099998 79 21 0
-2.6270001 5.4000001 -0.95200002 141 84 54
-2.654 5.4489999 -0.90899998 226 167 97
-2.652 5.4429998 -0.90700001 126 92 57
-2.6730001 5.368 -0.95499998 137 111 76
-2.6659999 5.3610001 -0.95700002 239 178 95
-2.727 5.4229999 -0.903 209 180 148
-2.7249999 5.4349999 -0.903 162 140 116
-2.73 5.4310002 -0.90600002 247 171 75
-2.73 5.4299998 -0.90700001 125 111 100
-2.7739999 5.4120002 -0.90899998 122 64 18
-2.779 5.4029999 -0.92000002 194 110 38
-2.6329999 5.3649998 -0.90399998 167 134 103
-2.6340001 5.3660002 -0.90700001 128 97 66
-2.7420001 5.4569998 -0.84299999 251 195 121
-2.7360001 5.4559999 -0.83999997 186 125 94
-2.6259999 5.4180002 -0.97799999 134 81 41
-2.631 5.3979998 -0.89999998 133 90 56
-2.6389999 5.401 -0.898 158 115 73
-2.619 5.4060001 -0.90600002 58 22 6
-2.6170001 5.3969998 -0.90200001 99 86 69
-2.3380001 5.2509999 -0.87699997 105 71 44
-2.3239999 5.2490001 -0.87699997 238 157 65
-2.3280001 5.256 -0.88200003 183 101 15
-2.3239999 5.2490001 -0.88200003 253 179 72
-2.3840001 5.2410002 -0.80699998 38 13 0
-2.3870001 5.2410002 -0.815 93 65 53
-2.3150001 5.382 -0.90600002 149 108 64
-2.3380001 5.3979998 -0.89999998 97 56 34
-2.3210001 5.4299998 -0.91600001 213 143 48
-2.3150001 5.4419999 -0.93300003 90 36 8
-2.3180001 5.4369998 -0.92900002 195 141 107
-2.309 5.4429998 -0.926 176 129 41
-2.3199999 5.4330001 -0.92799997 104 48 11
-2.319 5.402 -0.89499998 113 77 55
-2.3069999 5.3930001 -0.912 165 115 82
-2.3080001 5.395 -0.91900003 175 141 96
-2.3329999 5.2610002 -0.88599998 160 90 21
-2.342 5.2709999 -0.889 98 75 69
-2.3280001 5.2810001 -0.92000002 63 50 18
-2.3210001 5.276 -0.91000003 182 136 110
-2.3280001 5.276 -0.92699999 125 97 76
-2.3310001 5.2880001 -0.90499997 125 66 24
-2.3269999 5.2789998 -0.912 78 59 29
-2.4030001 5.2659998 -0.80500001 189 144 102
-2.408 5.2659998 -0.80800003 176 117 39
-2.4030001 5.2709999 -0.86000001 222 152 82
-2.418 5.27 -0.85399997 134 98 64
-2.392 5.2600002 -0.85299999 77 51 34
-2.5710001 5.4829998 -0.79500002 145 102 59
-2.546 5.3280001 -0.80199999 185 159 136
-2.398 5.2540002 -0.80599999 81 61 50
-2.4790001 5.3649998 -0.926 178 129 89
-2.487 5.362 -0.92199999 235 171 74
-2.405 5.3969998 -1.024 88 35 0
-2.4059999 5.3899999 -1.0420001 16 5 3
-2.4070001 5.3920002 -1.044 10 1 2
-2.4809999 5.4190001 -0.98000002 15 6 0
-2.4949999 5.4200001 -0.97799999 110 80 70
-2.5079999 5.414 -0.97899997 255 214 174
-2.5039999 5.4180002 -0.98400003 63 31 8
-2.4920001 5.4239998 -0.98900002 220 160 108
-2.494 5.4289999 -0.99199998 59 36 20
-2.405 5.223 -0.82800001 58 38 11
-2.4070001 5.2290001 -0.82700002 56 30 7
-2.402 5.2210002 -0.83200002 54 33 16
-2.3889999 5.2379999 -0.81699997 158 106 49
-2.4100001 5.1950002 -0.74400002 70 23 0
-2.401 5.1880002 -0.74000001 167 119 45
-2.404 5.1960001 -0.74299997 153 106 34
-2.355 5.1469998 -0.75700003 64 30 5
-2.3540001 5.1459999 -0.74800003 119 60 20
-2.352 5.1500001 -0.755 68 59 60
-2.4389999 5.197 -0.88700002 74 53 26
-2.4389999 5.204 -0.89899999 173 107 49
-2.438 5.1939998 -0.89600003 20 0 0
-2.4319999 5.198 -0.90700001 110 53 24
-2.5350001 5.3130002 -0.85799998 193 159 114
-2.553 5.2540002 -0.94700003 26 8 0
-2.6289999 5.4000001 -0.88999999 137 92 50
-2.4030001 5.283 -0.917 74 43 22
-2.4000001 5.283 -0.912 219 190 150
-2.3210001 5.244 -0.903 156 94 35
-2.3210001 5.2420001 -0.90799999 54 30 6
-2.322 5.2340002 -0.90399998 61 34 13
-2.3269999 5.2080002 -0.93000001 157 143 140
-2.3280001 5.2069998 -0.92699999 167 154 146
-2.3280001 5.2189999 -0.93699998 71 43 21
-2.329 5.2350001 -0.917 62 40 17
-2.523 5.2379999 -0.99599999 143 110 91
-2.5139999 5.2360001 -0.98500001 160 117 82
-2.5250001 5.2480001 -0.96600002 213 122 52
-2.5239999 5.25 -0.96799999 48 27 10
-2.421 5.1849999 -0.69300002 135 92 58
-2.4189999 5.1810002 -0.69300002 141 102 59
-2.418 5.2360001 -0.82300001 75 30 1
-2.513 5.3260002 -0.86500001 188 140 92
-2.506 5.3309999 -0.87 210 167 114
-2.404 5.223 -0.82300001 49 21 0
-2.4449999 5.1789999 -0.89600003 216 201 180
-2.447 5.1789999 -0.90200001 196 184 160
-2.4449999 5.1789999 -0.90200001 71 55 30
-2.441 5.1820002 -0.88999999 15 2 0
-2.434 5.1750002 -0.97799999 140 96 49
-2.4400001 5.177 -0.97799999 68 27 0
-2.4159999 5.165 -1.04 189 152 108
-2.4189999 5.1690001 -1.005 78 64 63
-2.4159999 5.164 -0.98799998 162 131 111
-2.418 5.1690001 -1.007 88 74 71
-2.4560001 5.1950002 -0.99699998 127 112 105
-2.4590001 5.1880002 -1.002 143 116 87
-2.4530001 5.1950002 -0.98799998 137 114 96
-2.51 5.2199998 -1.0140001 124 93 28
-2.4879999 5.2459998 -0.99599999 142 76 42
-2.5009999 5.2529998 -0.99800003 81 40 20
-2.4690001 5.3400002 -1.086 221 172 142
-2.4679999 5.3520002 -1.0829999 135 86 56
-2.4749999 5.3530002 -1.086 67 16 0
-2.4749999 5.3410001 -1.082 129 78 51
-2.4860001 5.3309999 -1.086 72 15 4
-2.441 5.2729998 -0.96899998 89 63 48
-2.4360001 5.2750001 -0.96200001 180 154 139
-2.4189999 5.283 -0.972 175 137 100
-2.418 5.2779999 -0.97100002 139 97 55
-2.4000001 5.415 -1.052 58 34 30
-2.392 5.4070001 -1.068 112 86 73
-2.4000001 5.401 -1.0700001 5 0 1
-2.405 5.4000001 -1.0599999 11 7 6
-2.4189999 5.3969998 -1.063 92 64 52
-2.3469999 5.2779999 -0.89399999 136 100 68
-2.3380001 5.2779999 -0.89200002 57 15 0
-2.365 5.2750001 -0.89899999 75 49 36
-2.346 5.2859998 -0.89899999 123 109 98
-2.3559999 5.2709999 -0.89300001 72 36 20
-2.3599999 5.2750001 -0.90100002 71 35 9
-2.349 5.29 -0.91299999 159 105 69
-2.349 5.1859999 -0.93800002 72 43 29
-2.3499999 5.1880002 -0.94400001 85 51 39
-2.329 5.1859999 -0.949 50 11 0
-2.3510001 5.1989999 -0.963 83 55 34
-2.359 5.1919999 -0.97100002 58 22 6
-2.348 5.2020001 -0.95700002 95 52 20
-2.3199999 5.1290002 -1.025 136 79 50
-2.316 5.125 -1.001 51 7 0
-2.316 5.1290002 -1.027 105 68 42
-2.3050001 5.1300001 -0.97799999 69 6 0
-2.3080001 5.1199999 -0.97299999 250 209 165
-2.3399999 5.1950002 -0.97100002 112 83 67
-2.332 5.2059999 -0.963 194 135 91
-2.3369999 5.2059999 -0.972 50 15 0
-2.329 5.21 -0.95700002 48 18 0
-2.382 5.152 -1.058 111 108 115
-2.4030001 5.1729999 -1.0190001 137 87 62
-2.408 5.1680002 -1.03 147 103 58
-2.408 5.1669998 -1.031 126 85 39
-2.408 5.158 -1.0470001 211 160 103
-2.392 5.1560001 -1.0549999 150 108 68
-2.3989999 5.1630001 -1.063 79 51 37
-2.402 5.1560001 -1.046 24 6 4
-2.421 5.1589999 -1.056 91 54 28
-2.4200001 5.1570001 -1.064 184 134 75
-2.404 5.1570001 -1.0420001 19 5 2
-2.3870001 5.1719999 -1.08 77 44 29
-2.3829999 5.171 -1.079 56 31 27
-2.323 5.1859999 -1.091 39 27 31
-2.335 5.1859999 -1.097 20 13 7
-2.3169999 5.1859999 -1.086 37 23 20
-2.381 5.1529999 -1.062 76 76 78
-2.342 5.1420002 -1.08 125 87 68
-2.3329999 5.1490002 -1.0779999 109 59 24
-2.342 5.1440001 -1.085 127 122 119
-2.335 5.1440001 -1.069 88 59 41
-2.352 5.145 -1.08 109 71 34
-2.349 5.1560001 -1.0779999 132 124 122
-2.313 5.1919999 -1.08 115 75 63
-2.322 5.2199998 -1.062 111 41 7
-2.3210001 5.2129998 -1.054 184 103 56
-2.3110001 5.178 -1.089 110 66 27
-2.53 5.4120002 -1.1 54 5 0
-2.5309999 5.4190001 -1.1059999 144 93 62
-2.533 5.4130001 -1.103 73 28 5
-2.533 5.4099998 -1.102 48 8 0
-2.5339999 5.4159999 -1.101 167 109 71
-2.52 5.3579998 -1.104 34 7 0
-2.5090001 5.3639998 -1.099 105 59 25
-2.51 5.3639998 -1.1059999 53 22 4
-2.391 5.3959999 -1.08 169 114 83
-2.3859999 5.3979998 -1.0470001 94 26 3
-2.369 5.3920002 -1.0549999 35 15 4
-2.802 5.4159999 -0.93300003 136 70 35
-2.803 5.4099998 -0.93099999 89 26 0
-2.8010001 5.4099998 -0.93400002 165 100 58
-2.7920001 5.408 -0.94800001 223 144 75
-2.671 5.4629998 -0.91399997 162 111 56
-2.7420001 5.4419999 -0.861 166 108 70
-2.7320001 5.4489999 -0.86500001 213 169 122
-2.743 5.4460001 -0.87 141 89 65
-2.7509999 5.4699998 -0.926 65 20 0
-2.7490001 5.4689999 -0.92400002 94 45 12
-2.7479999 5.4679999 -0.898 251 160 71
-2.4330001 5.1999998 -1.051 147 108 75
-2.4289999 5.204 -1.0650001 107 68 37
-2.4260001 5.2119999 -1.063 28 15 7
-2.55 5.263 -1.005 249 172 104
-2.5539999 5.2589998 -1 198 128 33
-2.5580001 5.2709999 -1 146 90 31
-2.493 5.2389998 -1.015 185 112 61
-2.444 5.1820002 -0.98299998 121 85 51
-2.45 5.1799998 -0.95499998 186 148 111
-2.4449999 5.1739998 -0.958 179 150 132
-2.448 5.1830001 -0.95700002 255 241 225
-2.4489999 5.1880002 -0.96799999 137 102 62
-2.4489999 5.1789999 -0.91399997 182 119 65
-2.503 5.2210002 -1.008 188 156 99
-2.5 5.2249999 -0.98900002 181 131 82
-2.5079999 5.2259998 -0.99000001 240 207 156
-2.4990001 5.2220001 -0.99199998 254 224 164
-2.5120001 5.2280002 -0.98699999 193 155 116
-2.5039999 5.2389998 -0.98299998 129 89 54
-2.4979999 5.2259998 -0.98699999 184 146 99
-2.497 5.2410002 -0.97899997 91 45 9
-2.5190001 5.23 -0.99000001 160 134 97
-2.4560001 5.1869998 -0.91299999 255 204 110
-2.4489999 5.2049999 -0.91399997 52 27 7
-2.5580001 5.2639999 -0.986 113 94 80
-2.5599999 5.2529998 -0.98000002 197 110 41
-2.5220001 5.217 -1.001 85 44 14
-2.52 5.217 -1.02 207 178 118
-2.507 5.224 -1.023 158 134 122
-2.5239999 5.2290001 -1.039 255 216 95
-2.5039999 5.3049998 -1.018 177 127 64
-2.5039999 5.3140001 -1.026 149 93 42
-2.513 5.3060002 -1.028 86 59 38
-2.5 5.3109999 -1.018 160 90 30
-2.516 5.3080001 -1.039 187 103 5
-2.5239999 5.3140001 -1.04 228 146 46
-2.5039999 5.329 -1.036 182 127 73
-2.507 5.3099999 -1.052 188 119 41
-2.513 5.3070002 -1.038 253 170 68
-2.5079999 5.3270001 -1.084 37 0 0
-2.506 5.3429999 -1.084 90 43 13
-2.4200001 5.1739998 -1.011 79 73 75
-2.4300001 5.1880002 -1.0140001 29 1 0
-2.4300001 5.1880002 -1.0089999 103 66 48
-2.4260001 5.1869998 -1.039 40 16 6
-2.431 5.2010002 -1.04 93 39 0
-2.427 5.2069998 -1.061 184 122 73
-2.4319999 5.178 -1.067 34 18 2
-2.4319999 5.1750002 -1.068 144 139 146
-2.4289999 5.1620002 -1.062 15 4 2
-2.779 5.4219999 -0.977 139 100 67
-2.777 5.4320002 -0.98900002 171 137 112
-2.4030001 5.29 -0.926 123 100 66
-2.405 5.2839999 -0.92000002 86 53 34
-2.3959999 5.2950001 -0.949 85 40 11
-2.4920001 5.3639998 -0.94199997 148 144 145
-2.494 5.3720002 -0.935 82 50 25
-2.493 5.3730001 -0.95499998 204 134 83
-2.4820001 5.3779998 -0.96200001 231 170 123
-2.487 5.3800001 -0.94800001 66 17 2
-2.4719999 5.3800001 -0.958 118 82 66
-2.4920001 5.3540001 -0.94099998 191 134 67
-2.5 5.408 -0.912 171 115 82
-2.4960001 5.401 -0.91299999 94 23 0
-2.5009999 5.3990002 -0.91399997 39 17 6
-2.5829999 5.4910002 -0.77899998 120 84 60
-2.595 5.4899998 -0.773 139 110 96
-2.4790001 5.4050002 -0.91799998 84 44 18
-2.4809999 5.3829999 -0.91399997 131 85 52
-2.52 5.3150001 -0.87199998 182 140 102
-2.3239999 5.415 -0.93900001 98 69 53
-2.3329999 5.4200001 -0.94 39 23 10
-2.3429999 5.4060001 -0.99199998 70 56 43
-2.3369999 5.4190001 -0.99299997 47 25 4
-2.359 5.381 -1.0039999 87 54 37
-2.3440001 5.3800001 -0.99299997 166 121 79
-2.349 5.3889999 -0.99299997 140 72 27
-2.342 5.3790002 -0.991 181 132 92
-2.355 5.3759999 -1.0089999 95 37 0
-2.3139999 5.447 -0.935 101 83 73
-2.3110001 5.4029999 -0.98199999 152 141 139
-2.313 5.4060001 -0.98299998 45 26 22
-2.3110001 5.4029999 -0.97299999 133 124 125
-2.312 5.3839998 -0.97899997 127 88 29
-2.3150001 5.4369998 -0.91799998 252 193 103
-2.3110001 5.4569998 -0.93000001 197 126 72
-2.3369999 5.4089999 -0.98000002 130 95 65
-2.329 5.4130001 -0.97000003 38 29 14
-2.339 5.4039998 -0.97399998 160 109 66
-2.335 5.4159999 -0.98400003 47 25 2
-2.306 5.448 -1.069 113 55 17
-2.5090001 5.3969998 -0.917 87 55 30
-2.5120001 5.3909998 -0.92000002 136 102 57
-2.589 5.4619999 -0.87400001 99 37 12
-2.5910001 5.473 -0.86900002 153 127 102
-2.5840001 5.3470001 -0.92900002 237 186 131
-2.5869999 5.3429999 -0.93300003 83 43 17
-2.582 5.421 -0.949 144 114 80
-2.576 5.4169998 -0.94800001 208 170 125
-2.5910001 5.4219999 -0.95700002 136 95 67
-2.576 5.4190001 -0.96100003 203 155 117
-2.5769999 5.4070001 -0.991 95 62 43
-2.5869999 5.4050002 -0.99800003 183 122 65
-2.5899999 5.4169998 -0.98100001 192 151 119
-2.5799999 5.4250002 -0.977 76 45 17
-2.5780001 5.421 -0.94499999 142 118 84
-2.516 5.3969998 -0.93099999 153 114 85
-2.5309999 5.3979998 -0.95700002 127 85 47
-2.5280001 5.3870001 -0.95999998 73 50 32
-2.5280001 5.3790002 -0.94 182 134 86
-2.523 5.3850002 -0.95200002 87 57 33
-2.5769999 5.401 -0.93900001 134 87 45
-2.51 5.402 -0.95899999 198 140 90
-2.599 5.4089999 -0.99400002 145 123 110
-2.5829999 5.3449998 -0.97100002 114 73 53
-2.602 5.3520002 -0.96899998 62 30 17
-2.5580001 5.3670001 -0.958 149 102 60
-2.5580001 5.2800002 -0.99800003 150 95 39
-2.553 5.2740002 -0.986 169 145 121
-2.55 5.4640002 -0.99900001 103 48 7
-2.5539999 5.454 -0.99400002 131 69 20
-2.5510001 5.4640002 -1.007 125 71 33
-2.6029999 5.421 -0.95899999 226 152 87
-2.592 5.461 -1.012 23 9 8
-2.602 5.4640002 -1.011 21 6 3
-2.595 5.4619999 -1.018 16 4 4
-2.5929999 5.4679999 -0.99800003 133 88 55
-2.5699999 5.4699998 -0.99199998 167 125 109
-2.586 5.4660001 -0.99000001 149 105 70
-2.5969999 5.454 -0.963 192 131 87
-2.375 5.164 -1.0779999 36 6 0
-2.3299999 5.2189999 -0.98900002 173 119 72
-2.3299999 5.2129998 -0.98400003 117 74 42
-2.408 5.1630001 -0.95599997 131 101 77
-2.4030001 5.1630001 -0.954 138 104 79
-2.4059999 5.1570001 -0.97299999 44 28 13
-2.3599999 5.1929998 -0.97500002 66 31 12
-2.3629999 5.1919999 -0.97600001 51 18 1
-2.3670001 5.1929998 -0.97899997 50 24 7
-2.2690001 5.132 -0.81699997 215 190 136
-2.267 5.1259999 -0.83600003 111 72 33
-2.277 5.1259999 -0.838 127 59 14
-2.2679999 5.1290002 -0.85100001 69 48 21
-2.279 5.1360002 -0.85900003 69 48 19
-2.2809999 5.1350002 -0.82099998 107 66 34
-2.3139999 5.1170001 -0.98799998 59 27 14
-2.309 5.1199999 -0.99299997 118 89 59
-2.316 5.1129999 -0.98100001 75 41 14
-2.277 5.1350002 -0.97299999 223 188 148
-2.28 5.131 -0.97100002 239 206 173
-2.2850001 5.1220002 -0.97500002 202 162 126
-2.286 5.1269999 -0.97500002 184 132 93
-2.3699999 5.2789998 -0.98000002 163 132 114
-2.3659999 5.2690001 -0.99000001 166 105 61
-2.3670001 5.276 -0.99599999 65 27 6
-2.3499999 5.263 -0.97600001 88 63 58
-2.3729999 5.2859998 -0.99599999 63 19 0
-2.3269999 5.368 -1.003 136 100 78
-2.3280001 5.3800001 -0.98199999 219 152 100
-2.332 5.375 -1.002 81 56 52
-2.3329999 5.3829999 -0.98699999 255 198 150
-2.3199999 5.381 -0.98299998 72 27 0
-2.342 5.3769999 -1.0039999 140 114 99
-2.3369999 5.3850002 -0.97500002 156 118 81
-2.3399999 5.3870001 -0.97799999 66 7 0
-2.339 5.3829999 -0.98699999 248 210 174
-2.342 5.4050002 -1.007 69 55 44
-2.3369999 5.4120002 -1.008 28 14 5
-2.4230001 5.2020001 -1.0779999 33 6 0
-2.414 5.2030001 -1.072 33 8 4
-2.402 5.2059999 -1.075 25 0 0
-2.4070001 5.198 -1.0779999 40 10 0
-2.427 5.198 -1.08 163 115 77
-2.3840001 5.2529998 -1.053 179 137 115
-2.3870001 5.2449999 -1.072 48 19 11
-2.3800001 5.244 -1.066 73 44 30
-2.3740001 5.2490001 -1.062 78 41 12
-2.2409999 5.3850002 -1.046 158 104 30
-2.2490001 5.3790002 -1.05 149 108 76
-2.243 5.3839998 -1.048 214 157 78
-2.2420001 5.3779998 -1.049 63 22 4
-2.283 5.3590002 -1.099 170 148 135
-2.2880001 5.355 -1.1 219 191 180
-2.3069999 5.4190001 -1.097 99 36 1
-2.3 5.4299998 -1.1 87 61 36
-2.3010001 5.4250002 -1.097 94 41 9
-2.3469999 5.2059999 -1.102 32 21 17
-2.342 5.1880002 -1.102 22 11 9
-2.3399999 5.1729999 -1.099 118 85 50
-2.3499999 5.1690001 -1.101 21 4 0
-2.339 5.224 -1.102 50 28 15
-2.3410001 5.2259998 -1.102 107 78 60
-2.3380001 5.2179999 -1.101 32 13 6
-2.263 5.369 -1.0880001 12 4 1
-2.244 5.3899999 -1.056 212 164 90
-2.27 5.3829999 -1.089 8 0 0
-2.2980001 5.4400001 -1.095 41 7 0
-2.2969999 5.4390001 -1.096 108 72 56
-2.2980001 5.4400001 -1.098 78 44 32
-2.299 5.441 -1.101 46 16 6
-2.3039999 5.4460001 -1.085 153 76 34
-2.3050001 5.4429998 -1.09 196 123 90
-2.312 5.4530001 -1.091 33 2 0
-2.283 5.355 -1.102 62 33 17
-2.2279999 5.3940001 -1.015 189 128 81
-2.2479999 5.3870001 -1.006 114 59 28
-2.2550001 5.388 -1.003 134 78 45
-2.2520001 5.3920002 -1.002 108 54 20
-2.2420001 5.3899999 -1.022 85 57 35
-2.2320001 5.3790002 -1 163 116 64
-2.3299999 5.2610002 -1.069 83 43 8
-2.3280001 5.2610002 -1.075 200 148 109
-2.319 5.165 -1.049 8 0 2
-2.3280001 5.165 -1.064 80 33 13
-2.322 5.1729999 -1.059 144 121 107
-2.3180001 5.178 -1.073 82 46 20
-2.3139999 5.1729999 -1.05 184 134 101
-2.3150001 5.177 -1.081 100 66 38
-2.313 5.177 -1.084 119 81 45
-2.3239999 5.23 -1.063 43 10 3
-2.293 5.3839998 -1.044 173 122 95
-2.2920001 5.388 -1.049 92 36 1
-2.3740001 5.2810001 -0.96499997 33 4 0
-2.3929999 5.2989998 -0.95599997 255 176 75
-2.5439999 5.2470002 -0.94599998 222 153 84
-2.5320001 5.2620001 -0.94300002 71 21 0
-2.539 5.2610002 -0.94400001 214 126 29
-2.253 5.1329999 -0.829 175 132 100
-2.3510001 5.2589998 -0.98100001 139 90 57
-2.349 5.2470002 -0.98299998 140 94 70
-2.329 5.243 -0.99599999 146 108 85
-2.335 5.243 -0.99800003 58 30 6
-2.342 5.1880002 -0.94400001 52 21 1
-2.326 5.2220001 -1.023 168 155 149
-2.325 5.217 -1.02 147 138 139
-2.319 5.2189999 -1.035 79 50 32
-2.3180001 5.2340002 -1.0369999 111 77 39
-2.3199999 5.2589998 -1.0319999 122 93 87
-2.3210001 5.2529998 -1.0369999 88 55 40
-2.2460001 5.382 -1.0549999 248 197 108
-2.247 5.3800001 -1.057 162 114 32
-2.247 5.375 -1.051 195 167 145
-2.302 5.1360002 -1.029 134 100 75
-2.2909999 5.1360002 -1.02 108 64 35
-2.2969999 5.1269999 -1.018 64 35 19
-2.6099999 5.5339999 -0.71200001 171 148 134
-2.6229999 5.5250001 -0.713 93 59 32
-2.6110001 5.5250001 -0.71600002 148 139 144
-2.615 5.5370002 -0.70599997 37 25 27
-2.6289999 5.5190001 -0.70499998 202 156 122
-2.6300001 5.513 -0.70300001 198 162 126
-2.6359999 5.5120001 -0.70700002 140 109 80
-2.622 5.5289998 -0.68900001 85 57 45
-2.6400001 5.507 -0.71100003 238 213 173
-2.642 5.5050001 -0.71200001 178 158 121
-2.6389999 5.506 -0.70999998 212 190 151
-2.6389999 5.5079999 -0.70999998 217 189 150
-2.6210001 5.5229998 -0.71499997 49 12 0
-2.767 5.52 -0.85799998 243 208 140
-2.5710001 5.566 -0.59299999 94 78 65
-2.582 5.585 -0.597 164 118 102
-2.6099999 5.5349998 -0.57700002 168 94 21
-2.5780001 5.5479999 -0.59200001 158 93 53
-2.5799999 5.5489998 -0.59399998 102 57 26
-2.5739999 5.5409999 -0.583 171 123 85
-2.5880001 5.5300002 -0.579 68 41 12
-2.579 5.539 -0.58399999 159 124 105
-2.5739999 5.553 -0.58700001 210 140 78
-2.6670001 5.4780002 -0.86799997 151 120 92
-2.665 5.4790001 -0.86900002 108 74 46
-2.6559999 5.4250002 -0.90899998 160 110 57
-2.6530001 5.4219999 -0.90200001 141 91 40
-2.642 5.427 -0.90799999 234 167 80
-2.651 5.4180002 -0.90799999 181 122 66
-2.648 5.4089999 -0.90399998 161 100 56
-2.6429999 5.4109998 -0.90799999 225 147 75
-2.6470001 5.414 -0.90100002 120 70 19
-2.72 5.4330001 -0.90100002 164 142 118
-2.7219999 5.4510002 -0.84799999 183 152 121
-2.7179999 5.4549999 -0.85600001 100 68 45
-2.688 5.4679999 -0.84799999 227 166 111
-2.721 5.454 -0.86000001 140 112 90
-2.622 5.3660002 -0.93199998 144 81 30
-2.622 5.3590002 -0.92299998 234 191 149
-2.579 5.349 -0.96499997 126 65 2
-2.5680001 5.3330002 -0.977 147 86 32
-2.5810001 5.348 -0.94800001 111 34 0
-2.586 5.348 -0.95099998 91 45 22
-2.5840001 5.3400002 -0.94099998 250 196 98
-2.5880001 5.3330002 -0.93699998 147 94 42
-2.5710001 5.3699999 -0.93400002 68 21 0
-2.5669999 5.3720002 -0.94300002 80 43 25
-2.5780001 5.4039998 -0.93900001 145 98 54
-2.5929999 5.4219999 -0.96100003 36 13 0
-2.5929999 5.4229999 -0.96499997 59 33 10
-2.569 5.375 -0.94800001 122 64 26
-2.635 5.3579998 -0.912 108 78 50
-2.635 5.3590002 -0.91100001 132 101 70
-2.7390001 5.4510002 -0.90700001 111 67 22
-2.7349999 5.4429998 -0.90499997 122 103 89
-2.737 5.448 -0.91000003 243 174 70
-2.7420001 5.4520001 -0.88499999 131 81 56
-2.727 5.447 -0.90200001 227 197 169
-2.7460001 5.4429998 -0.852 166 88 3
-2.7739999 5.4180002 -0.91799998 178 142 108
-2.7909999 5.3870001 -0.89399999 227 196 167
-2.7509999 5.4400001 -0.86299998 160 108 71
-2.4960001 5.2360001 -0.99000001 105 68 39
-2.4990001 5.2410002 -0.98400003 98 61 34
-2.5309999 5.2280002 -1.003 163 87 0
-2.5 5.256 -1.002 91 41 8
-2.559 5.2859998 -0.94599998 239 198 144
-2.5569999 5.289 -0.94300002 126 66 12
-2.5610001 5.2839999 -0.95599997 245 227 165
-2.5220001 5.2659998 -0.94800001 185 141 102
-2.513 5.2919998 -0.96200001 120 87 80
-2.4790001 5.263 -1.001 153 98 57
-2.493 5.2969999 -1.017 138 101 85
-2.5009999 5.2909999 -1.0140001 109 69 43
-2.7520001 5.415 -0.958 255 201 122
-2.753 5.428 -0.96200001 146 122 110
-2.7390001 5.4380002 -0.96899998 188 131 88
-2.727 5.4499998 -0.96899998 162 109 67
-2.737 5.4590001 -0.96499997 115 75 40
-2.734 5.447 -0.97500002 136 101 79
-2.747 5.441 -0.96700001 179 121 75
-2.7260001 5.4439998 -0.98299998 203 187 188
-2.721 5.4419999 -0.98400003 90 53 27
-2.717 5.427 -0.98299998 46 40 28
-2.734 5.4380002 -0.90899998 124 106 92
-2.73 5.4349999 -0.91000003 251 187 87
-2.7279999 5.4369998 -0.91399997 255 199 102
-2.757 5.4520001 -0.95099998 90 36 0
-2.8080001 5.401 -0.92299998 141 78 43
-2.809 5.4000001 -0.92000002 103 37 2
-2.8 5.3899999 -0.898 188 119 41
-2.6630001 5.3540001 -0.95999998 131 98 65
-2.701 5.4099998 -0.98299998 221 206 201
-2.707 5.3940001 -0.98199999 193 123 64
-2.7019999 5.3969998 -0.97899997 163 89 2
-2.605 5.4400001 -0.93599999 70 55 50
-2.6259999 5.441 -0.92500001 193 152 122
-2.6099999 5.4380002 -0.926 69 25 0
-2.6889999 5.4640002 -0.94700003 180 111 42
-2.678 5.4689999 -0.94 229 192 150
-2.6860001 5.4689999 -0.94499999 95 51 14
-2.6989999 5.4520001 -0.93300003 196 125 63
-2.6900001 5.4390001 -0.926 233 161 102
-2.694 5.4380002 -0.92400002 220 146 81
-2.714 5.448 -0.92199999 220 148 90
-2.6949999 5.454 -0.93800002 202 128 63
-2.698 5.3930001 -0.98100001 202 185 177
-2.6470001 5.3610001 -0.91500002 160 127 94
-2.648 5.3639998 -0.91600001 200 166 139
-2.438 5.1810002 -0.92699999 52 30 19
-2.4400001 5.178 -0.92199999 66 42 32
-2.427 5.184 -0.912 116 79 63
-2.4330001 5.1869998 -0.91900003 97 64 45
-2.3299999 5.118 -0.74900001 217 145 87
-2.3110001 5.1370001 -0.75800002 84 41 25
-2.3169999 5.125 -0.75599998 157 110 66
-2.3310001 5.125 -0.76499999 119 68 37
-2.325 5.118 -0.76599997 62 52 42
-2.3199999 5.1290002 -0.76200002 183 116 71
-2.3829999 5.1599998 -0.70899999 77 66 46
-2.3399999 5.1430001 -0.727 75 47 23
-2.3900001 5.1669998 -0.69300002 151 95 36
-2.3729999 5.1750002 -0.69499999 104 65 26
-2.398 5.1570001 -0.70599997 219 137 61
-2.3989999 5.1560001 -0.71100003 200 128 46
-2.3959999 5.1539998 -0.73100001 64 46 24
-2.345 5.1389999 -0.73400003 166 110 59
-2.3510001 5.1500001 -0.745 245 184 78
-2.346 5.1430001 -0.73699999 84 41 22
-2.322 5.125 -0.727 223 189 128
-2.3340001 5.132 -0.72899997 158 102 43
-2.3280001 5.1259999 -0.73299998 255 229 163
-2.7449999 5.4489999 -0.85100001 242 165 85
-2.8380001 5.4219999 -0.90600002 179 94 30
-2.8269999 5.414 -0.89700001 226 147 70
-2.6070001 5.5599999 -0.56900001 223 133 47
-2.7909999 5.3870001 -0.89899999 182 101 22
-2.809 5.4070001 -0.90100002 226 197 179
-2.7720001 5.487 -0.90100002 105 61 26
-2.7780001 5.4910002 -0.90600002 166 95 33
-2.776 5.4899998 -0.89600003 228 140 69
-2.7920001 5.4400001 -0.92000002 121 103 91
-2.776 5.4419999 -0.91900003 166 124 84
-2.8110001 5.4099998 -0.92199999 176 96 43
-2.8069999 5.4099998 -0.926 113 41 3
-2.8299999 5.4109998 -0.90499997 212 123 31
-2.832 5.4130001 -0.90399998 217 126 35
-2.8310001 5.4190001 -0.90799999 95 54 32
-2.721 5.4640002 -0.96399999 120 98 84
-2.7090001 5.4619999 -0.96700001 162 118 81
-2.7130001 5.4629998 -0.96899998 139 89 54
-2.8050001 5.4310002 -0.91799998 159 101 55
-2.7820001 5.4400001 -0.95499998 99 58 28
-2.786 5.4359999 -0.94199997 139 85 51
-2.7609999 5.434 -1.068 56 28 7
-2.763 5.4289999 -1.069 247 192 125
-2.7019999 5.572 -0.95599997 158 95 51
-2.7049999 5.598 -0.96700001 151 108 73
-2.701 5.5910001 -0.954 178 107 55
-2.7090001 5.5799999 -0.96600002 195 159 123
-2.714 5.5799999 -0.97000003 182 144 108
-2.7249999 5.5739999 -0.96899998 185 122 53
-2.714 5.586 -0.97500002 105 62 27
-2.72 5.579 -0.97500002 144 75 10
-2.783 5.5170002 -0.90600002 131 104 83
-2.7839999 5.4970002 -0.89999998 160 78 18
-2.7880001 5.4959998 -0.89700001 79 22 2
-2.77 5.4809999 -0.88800001 212 126 79
-2.77 5.4860001 -0.884 214 146 75
-2.7639999 5.4770002 -0.866 208 138 79
-2.767 5.4850001 -0.92299998 105 51 15
-2.763 5.487 -0.93000001 104 68 34
-2.7379999 5.5149999 -0.96700001 140 92 52
-2.7390001 5.5079999 -0.96700001 138 93 64
-2.7349999 5.5120001 -0.97399998 121 95 78
-2.75 5.5040002 -0.94800001 189 132 89
-2.7219999 5.5749998 -0.97899997 174 142 104
-2.7219999 5.5770001 -0.98199999 196 163 130
-2.723 5.5669999 -0.97399998 146 77 20
-2.704 5.5960002 -0.92199999 255 200 90
-2.6760001 5.5879998 -0.95499998 107 83 37
-2.6819999 5.598 -0.95899999 143 99 64
-2.6930001 5.5710001 -0.94199997 140 105 77
-2.677 5.586 -0.93099999 194 128 41
-2.6730001 5.572 -0.94599998 238 169 68
-2.7 5.6090002 -0.92500001 169 77 10
-2.717 5.4400001 -1.081 100 68 45
-2.6240001 5.4970002 -1.0599999 182 111 55
-2.618 5.4910002 -1.053 126 57 15
-2.6110001 5.4910002 -1.053 173 126 84
-2.608 5.4510002 -1.005 100 89 87
-2.605 5.4400001 -0.995 23 12 8
-2.6140001 5.4369998 -1 146 123 105
-2.599 5.4559999 -0.98199999 140 109 88
-2.6440001 5.4829998 -1.0599999 205 129 69
-2.642 5.494 -1.073 52 15 0
-2.6429999 5.4920001 -1.0700001 71 27 0
-2.6500001 5.4879999 -1.066 101 47 3
-2.6500001 5.4879999 -1.063 154 91 47
-2.536 5.414 -1.1059999 78 35 16
-2.5380001 5.4330001 -1.087 99 52 8
-2.6300001 5.4819999 -1.054 120 62 14
-2.6240001 5.4920001 -1.075 83 48 20
-2.7119999 5.5970001 -0.94 167 130 88
-2.6900001 5.5910001 -0.96499997 159 120 87
-2.6889999 5.5599999 -0.97399998 83 48 29
-2.316 5.4510002 -1.089 47 12 6
-2.316 5.447 -1.091 43 9 7
-2.369 5.421 -1.0779999 53 11 0
-2.3729999 5.4169998 -1.069 80 52 41
-2.375 5.415 -1.069 81 24 0
-2.369 5.4190001 -1.0650001 109 81 69
-2.382 5.3969998 -1.056 154 127 108
-2.388 5.4050002 -1.0549999 178 124 86
-2.4349999 5.4450002 -1.069 53 35 35
-2.441 5.4310002 -1.064 124 104 93
-2.3469999 5.3969998 -1.0319999 104 66 43
-2.346 5.3969998 -1.024 125 60 20
-2.348 5.3860002 -1.026 101 50 23
-2.323 5.4520001 -0.926 103 68 46
-2.237 5.4000001 -1.007 167 138 120
-2.2880001 5.3920002 -1.038 111 60 29
-2.4890001 5.5009999 -1.063 119 97 83
-2.48 5.513 -1.056 107 89 75
-2.4679999 5.4699998 -1.073 18 14 15
-2.4649999 5.4679999 -1.067 4 0 1
-2.5439999 5.4749999 -0.98500001 171 122 66
-2.543 5.474 -0.986 140 89 46
-2.503 5.4689999 -1.0650001 2 0 1
-2.5090001 5.473 -1.0650001 7 3 2
-2.5009999 5.46 -1.0779999 64 26 15
-2.4979999 5.4710002 -1.062 8 4 3
-2.3759999 5.4089999 -1.0880001 49 9 1
-2.3510001 5.4369998 -1.071 67 27 15
-2.3540001 5.4250002 -1.086 37 3 1
-2.346 5.4330001 -1.087 82 45 27
-2.4330001 5.4530001 -1.039 42 15 6
-2.444 5.4749999 -1.033 101 97 98
-2.444 5.4720001 -1.0470001 35 8 1
-2.4330001 5.454 -1.056 42 23 19
-2.428 5.4640002 -1.069 3 0 0
-2.3340001 5.421 -1.0039999 50 16 4
-2.335 5.4169998 -0.98699999 160 117 83
-2.3310001 5.4130001 -0.99299997 55 22 5
-2.3280001 5.4109998 -0.98699999 193 104 12
-2.319 5.448 -1.068 40 10 0
-2.3050001 5.4460001 -1.067 131 84 54
-2.6589999 5.493 -1.0829999 194 114 43
-2.661 5.493 -1.084 210 136 73
-2.654 5.4879999 -1.079 232 155 77
-2.638 5.4959998 -1.067 171 106 42
-2.6689999 5.493 -1.092 205 145 93
-2.675 5.4889998 -1.086 223 171 114
-2.5710001 5.4489999 -1.103 23 1 3
-2.642 5.4850001 -1.074 110 92 82
-2.652 5.4770002 -1.0779999 222 172 111
-2.694 5.5549998 -0.991 34 9 2
-2.6849999 5.5640001 -0.97299999 110 81 65
-2.6919999 5.546 -1.0089999 183 103 30
-2.6099999 5.5679998 -0.56999999 226 175 130
-2.2620001 5.152 -0.80299997 102 71 53
-2.266 5.164 -0.82499999 109 72 46
-2.2639999 5.1609998 -0.80599999 97 66 35
-2.267 5.1389999 -0.80000001 138 99 68
-2.3900001 5.2259998 -0.80500001 150 125 95
-2.3870001 5.2329998 -0.801 53 26 9
-2.382 5.2329998 -0.79400003 46 20 3
-2.3340001 5.1550002 -0.72899997 68 39 23
-2.316 5.1599998 -0.73199999 109 77 54
-2.3280001 5.1630001 -0.73699999 128 123 120
-2.3150001 5.1609998 -0.74000001 182 143 114
-2.322 5.1599998 -0.74000001 128 75 43
-2.306 5.1550002 -0.74000001 135 105 81
-2.3069999 5.1560001 -0.74400002 118 91 74
-2.302 5.1620002 -0.76099998 136 105 87
-2.293 5.1700001 -0.86699998 130 88 63
-2.293 5.1690001 -0.88300002 78 50 36
-2.293 5.1680002 -0.88099998 75 48 37
-2.302 5.1659999 -0.87800002 80 49 29
-2.276 5.1599998 -0.84600002 99 63 29
-2.391 5.2600002 -0.88 122 86 70
-2.402 5.276 -0.87099999 93 41 0
-2.2820001 5.1370001 -0.85100001 93 33 5
-2.2869999 5.151 -0.847 32 8 0
-2.289 5.1389999 -0.83200002 153 127 112
-2.418 5.171 -0.69199997 81 43 7
-2.418 5.1680002 -0.69400001 147 106 62
-2.418 5.1669998 -0.699 252 178 57
-2.3929999 5.1810002 -0.69300002 111 64 20
-2.612 5.5100002 -0.73100001 100 37 0
-2.619 5.5139999 -0.71899998 193 144 88
-2.6129999 5.5110002 -0.72500002 139 106 87
-2.6110001 5.507 -0.73000002 69 28 8
-2.608 5.5149999 -0.727 230 178 121
-2.605 5.5180001 -0.72299999 255 206 141
-2.3889999 5.1950002 -0.70899999 31 4 0
-2.395 5.204 -0.70599997 172 102 40
-2.3889999 5.2010002 -0.72399998 26 4 0
-2.3940001 5.2020001 -0.69499999 138 112 89
-2.4159999 5.1690001 -0.72799999 162 126 102
-2.6129999 5.5689998 -0.57099998 132 88 53
-2.6140001 5.5749998 -0.574 79 38 6
-2.6099999 5.566 -0.56900001 227 155 96
-2.6099999 5.513 -0.69700003 201 113 26
-2.6070001 5.5229998 -0.67799997 140 69 7
-2.612 5.5079999 -0.69300002 252 177 75
-2.608 5.513 -0.70200002 214 129 46
-2.6059999 5.507 -0.72799999 77 41 19
-2.582 5.5370002 -0.58999997 191 154 135
-2.5840001 5.5370002 -0.59399998 113 57 22
-2.6170001 5.553 -0.62599999 49 23 6
-2.608 5.5560002 -0.63599998 170 105 39
-2.675 5.4970002 -0.838 164 128 92
-2.5829999 5.5089998 -0.81099999 153 94 24
-2.5880001 5.5050001 -0.82800001 126 82 55
-2.586 5.5029998 -0.81900001 92 68 42
-2.602 5.4949999 -0.82300001 61 26 0
-2.5969999 5.4949999 -0.82800001 118 53 13
-2.6760001 5.4980001 -0.83600003 140 129 125
-2.5940001 5.4920001 -0.83399999 236 172 72
-2.608 5.4889998 -0.884 60 23 7
-2.619 5.4120002 -0.889 133 81 42
-2.6199999 5.415 -0.88999999 118 68 31
-2.6159999 5.4359999 -0.88200003 223 131 64
-2.6199999 5.4349999 -0.88599998 142 46 0
-2.6170001 5.4289999 -0.88800001 191 95 21
-2.6059999 5.46 -0.85299999 187 142 87
-2.6140001 5.4699998 -0.84600002 164 125 86
-2.598 5.4559999 -0.84399998 175 139 115
-2.602 5.4629998 -0.84299999 165 114 61
-2.7160001 5.5029998 -0.87 73 54 48
-2.753 5.5229998 -0.85299999 114 88 61
-2.7539999 5.5229998 -0.85900003 119 93 68
-2.7509999 5.5120001 -0.85399997 116 90 65
-2.7320001 5.52 -0.88200003 203 126 56
-2.733 5.5159998 -0.88700002 181 113 52
-2.733 5.5190001 -0.87800002 200 121 44
-2.7130001 5.4879999 -0.87699997 151 104 62
-2.73 5.4860001 -0.85799998 149 102 56
-2.721 5.4980001 -0.85799998 186 152 107
-2.6919999 5.4889998 -0.86500001 128 90 53
-2.734 5.4920001 -0.85399997 70 39 21
-2.3099999 5.441 -0.91900003 210 131 65
-2.313 5.4510002 -0.926 123 74 44
-2.391 5.2459998 -0.80699998 90 53 27
-2.4030001 5.2550001 -0.83700001 68 34 6
-2.4000001 5.256 -0.84799999 132 108 98
-2.402 5.2579999 -0.82099998 75 25 0
-2.5880001 5.4590001 -0.90799999 101 37 9
-2.5899999 5.454 -0.889 69 39 11
-2.641 5.4749999 -0.87099999 115 71 32
-2.6530001 5.48 -0.86299998 184 143 111
-2.628 5.4780002 -0.84799999 164 125 84
-2.6129999 5.4749999 -0.838 187 143 104
-2.615 5.4790001 -0.83499998 122 93 53
-2.6099999 5.4770002 -0.82300001 222 164 116
-2.6170001 5.4640002 -0.87599999 182 147 109
-2.6099999 5.46 -0.85799998 166 126 74
-2.5999999 5.4899998 -0.90899998 180 140 89
-2.671 5.4840002 -0.852 128 89 56
-2.674 5.4829998 -0.85799998 117 78 49
-2.6700001 5.4840002 -0.84899998 154 114 79
-2.671 5.4910002 -0.847 239 174 120
-2.677 5.4809999 -0.83499998 152 126 109
-2.602 5.5500002 -0.63700002 129 71 34
-2.598 5.5440001 -0.63300002 132 93 52
-2.602 5.546 -0.63300002 113 85 63
-2.6059999 5.5570002 -0.639 248 191 102
-2.5999999 5.5479999 -0.63999999 156 89 47
-2.6010001 5.552 -0.60799998 96 62 34
-2.596 5.5500002 -0.60299999 154 114 88
-2.585 5.5430002 -0.60000002 178 145 100
-2.589 5.579 -0.611 92 60 47
-2.586 5.5879998 -0.588 141 118 100
-2.5829999 5.5869999 -0.588 96 51 32
-2.277 5.158 -1.001 176 131 90
-2.2720001 5.158 -0.99400002 17 6 4
-2.279 5.1539998 -1.0039999 227 195 154
-2.283 5.1490002 -1.005 204 164 129
-2.3039999 5.1589999 -1.007 65 38 17
-2.299 5.165 -1.011 41 30 12
-2.2920001 5.1490002 -0.986 121 103 99
-2.2839999 5.1479998 -0.98400003 108 79 61
-2.286 5.1479998 -0.98500001 194 137 68
-2.3269999 5.2259998 -1.012 69 38 20
-2.3299999 5.2309999 -0.99800003 141 112 96
-2.3310001 5.204 -1.025 88 43 10
-2.3380001 5.1900001 -1.034 67 22 0
-2.3210001 5.2140002 -1.043 39 21 1
-2.3310001 5.1999998 -1.0369999 68 11 0
-2.335 5.1849999 -1.036 148 86 61
-2.332 5.2020001 -1.012 42 14 2
-2.332 5.2140002 -1.013 54 26 14
-2.312 5.158 -1.04 45 31 20
-2.312 5.1599998 -1.039 151 90 46
-2.3150001 5.165 -1.0420001 6 0 2
-2.313 5.1350002 -0.991 70 8 0
-2.316 5.1360002 -0.995 51 2 0
-2.316 5.1329999 -0.99400002 79 51 27
-2.342 5.1810002 -1.003 132 124 122
-2.335 5.197 -1.01 120 76 49
-2.3429999 5.1729999 -1.012 153 93 39
-2.329 5.1739998 -1.031 107 58 18
-2.3469999 5.165 -0.99699998 160 106 60
-2.3770001 5.1849999 -0.98500001 80 44 32
-2.3710001 5.178 -0.99900001 33 1 0
-2.3889999 5.1799998 -0.986 84 29 0
-2.3870001 5.178 -0.97799999 155 127 106
-2.3889999 5.1799998 -0.99400002 113 57 20
-2.391 5.1789999 -1.003 43 15 1
-2.401 5.1719999 -0.99199998 180 129 100
-2.3900001 5.177 -1.007 36 8 0
-2.3050001 5.1409998 -1.036 181 117 73
-2.3050001 5.1220002 -0.99699998 122 86 54
-2.3050001 5.1209998 -1.006 164 129 75
-2.7809999 5.5300002 -0.88499999 122 87 65
-2.777 5.5320001 -0.89600003 74 48 31
-2.7690001 5.533 -0.88200003 85 54 33
-2.7679999 5.4299998 -1.001 137 110 81
-2.77 5.4400001 -1.013 101 76 54
-2.766 5.4190001 -0.97899997 221 150 72
-2.783 5.4419999 -0.97399998 47 36 18
-2.7739999 5.4580002 -0.98500001 161 130 101
-2.7550001 5.4590001 -0.94 78 17 0
-2.756 5.4650002 -0.94700003 154 88 30
-2.7579999 5.46 -0.94599998 63 17 0
-2.7460001 5.4679999 -0.93099999 78 28 1
-2.7550001 5.4879999 -0.963 124 88 52
-2.7550001 5.4879999 -0.949 95 64 36
-2.7509999 5.4840002 -0.94400001 108 89 74
-2.7550001 5.4749999 -0.958 82 46 14
-2.7590001 5.48 -0.96200001 147 78 23
-2.7590001 5.4860001 -0.97000003 247 181 97
-2.7750001 5.4780002 -0.99299997 198 135 82
-2.7720001 5.4860001 -0.99299997 208 141 89
-2.7720001 5.4809999 -0.98900002 105 41 0
-2.7880001 5.4380002 -0.96600002 159 137 123
-2.77 5.4489999 -0.99900001 80 49 29
-2.7390001 5.473 -1.063 76 45 24
-2.734 5.4860001 -1.058 89 68 47
-2.753 5.4720001 -1.051 173 97 39
-2.743 5.4809999 -1.045 85 59 34
-2.757 5.4990001 -0.99900001 149 95 51
-2.763 5.4889998 -0.99900001 200 146 86
-2.7509999 5.4910002 -1.011 95 77 65
-2.744 5.5110002 -1.0089999 107 92 87
-2.73 5.5279999 -1.02 126 85 55
-2.7219999 5.52 -1.027 203 147 96
-2.72 5.5450001 -1.025 233 213 160
-2.727 5.5440001 -1.018 48 22 0
-2.724 5.5469999 -1.023 143 125 85
-2.7160001 5.5609999 -1.007 160 117 66
-2.7119999 5.5560002 -1.0089999 83 68 49
-2.7179999 5.5780001 -0.99599999 80 63 53
-2.7119999 5.5749998 -0.99599999 62 47 18
-2.72 5.4439998 -0.898 182 153 123
-2.7460001 5.4320002 -1.079 212 157 100
-2.753 5.441 -1.076 110 57 17
-2.7279999 5.4759998 -1.0880001 126 117 122
-2.7290001 5.4749999 -1.086 112 110 115
-2.734 5.4699998 -1.0829999 144 93 50
-2.7379999 5.4910002 -1.051 111 71 35
-2.7409999 5.4889998 -1.038 120 91 75
-2.7219999 5.4759998 -1.087 51 27 23
-2.724 5.4710002 -1.086 116 110 112
-2.7219999 5.474 -1.084 128 100 79
-2.733 5.4619999 -1.084 84 24 0
-2.7290001 5.4549999 -1.094 168 141 120
-2.7409999 5.46 -1.081 76 27 0
-2.73 5.4699998 -1.085 126 76 27
-2.4820001 5.4920001 -0.99800003 173 123 74
-2.4809999 5.493 -1.002 78 53 48
-2.483 5.4949999 -0.99599999 113 68 45
-2.4419999 5.4710002 -1 134 97 52
-2.4809999 5.4949999 -1.006 236 190 157
-2.483 5.4980001 -1.002 159 137 123
-2.4760001 5.5180001 -1.039 111 91 66
-2.4679999 5.5089998 -1.04 80 51 33
-2.473 5.5139999 -1.039 159 120 91
-2.483 5.4970002 -0.94599998 254 219 127
-2.484 5.4920001 -0.94700003 248 208 120
-2.4949999 5.5009999 -0.94800001 155 117 80
-2.405 5.3099999 -1.1 208 142 90
-2.3570001 5.3800001 -1.013 69 26 7
-2.346 5.3969998 -1.0140001 79 19 0
-2.3499999 5.3940001 -1.04 176 150 101
-2.3829999 5.388 -1.033 99 73 58
-2.339 5.4060001 -1.034 43 14 0
-2.349 5.3940001 -1.041 139 110 66
-2.3369999 5.4099998 -1.049 75 28 2
-2.335 5.2600002 -1.01 87 44 25
-2.3329999 5.2519999 -1.007 97 60 41
-2.326 5.2610002 -1.043 74 38 16
-2.323 5.257 -1.038 66 21 0
-2.414 5.2979999 -0.977 143 111 86
-2.4200001 5.2940001 -0.97899997 106 74 51
-2.4189999 5.2950001 -0.98299998 105 73 48
-2.408 5.3000002 -0.97100002 134 96 75
-2.4070001 5.3070002 -0.96499997 106 32 0
-2.4130001 5.302 -0.95999998 80 42 19
-2.4200001 5.2919998 -0.97799999 23 0 0
-2.421 5.2909999 -0.98299998 135 79 46
-2.4389999 5.204 -0.972 78 53 33
-2.444 5.1939998 -0.95599997 206 129 75
-2.4419999 5.1919999 -0.96499997 172 116 69
-2.414 5.2750001 -0.884 95 49 25
-2.4100001 5.2709999 -0.89200002 38 19 4
-2.4059999 5.2690001 -0.898 110 75 37
-2.418 5.2480001 -0.85299999 125 87 66
-2.4230001 5.2529998 -0.85500002 213 174 141
-2.414 5.2420001 -0.86500001 55 9 0
-2.405 5.2600002 -0.81599998 55 19 0
-2.4070001 5.2610002 -0.81400001 68 9 0
-2.4170001 5.2550001 -0.83700001 51 29 18
-2.421 5.2579999 -0.82099998 59 27 2
-2.414 5.256 -0.82999998 47 22 15
-2.4200001 5.263 -0.87199998 88 62 47
-2.424 5.2680001 -0.85500002 166 131 99
-2.418 5.2579999 -0.86799997 82 55 38
-2.5320001 5.323 -0.81599998 75 51 39
-2.5309999 5.323 -0.82099998 78 52 39
-2.5280001 5.3330002 -0.85000002 181 141 92
-2.529 5.3660002 -0.89499998 106 34 0
-2.503 5.335 -0.88700002 247 189 115
-2.5090001 5.3369999 -0.87699997 121 65 28
-2.5079999 5.3280001 -0.87400001 255 210 93
-2.5150001 5.3080001 -0.954 187 137 88
-2.513 5.3260002 -0.90499997 198 136 61
-2.5150001 5.3730001 -0.91500002 184 141 98
-2.5179999 5.3559999 -0.917 159 106 64
-2.5250001 5.3639998 -0.926 159 136 122
-2.52 5.3740001 -0.93000001 214 131 65
-2.414 5.2789998 -0.93000001 70 35 13
-2.414 5.276 -0.93000001 140 95 53
-2.4189999 5.2810001 -0.94499999 50 26 14
-2.5139999 5.25 -0.98199999 187 153 107
-2.516 5.3080001 -1.031 206 155 98
-2.5190001 5.2779999 -1.018 136 76 26
-2.513 5.2800002 -1.017 187 104 52
-2.52 5.2839999 -0.99900001 85 36 4
-2.516 5.2789998 -1.0039999 179 118 74
-2.4460001 5.2129998 -0.98500001 87 62 40
-2.444 5.2179999 -0.99299997 118 63 24
-2.447 5.2150002 -0.99000001 187 127 73
-2.4349999 5.198 -0.96799999 51 26 4
-2.3840001 5.217 -0.97500002 177 134 117
-2.4000001 5.2059999 -0.97899997 140 130 128
-2.3870001 5.217 -0.97899997 68 31 2
-2.3959999 5.2210002 -0.98199999 166 112 74
-2.3940001 5.1729999 -0.98000002 90 66 56
-2.392 5.1859999 -0.97399998 116 64 24
-2.4070001 5.1799998 -0.96100003 133 126 116
-2.4100001 5.2090001 -0.98199999 54 28 27
-2.4130001 5.2129998 -0.98699999 92 55 29
-2.418 5.211 -0.98299998 74 50 46
-2.4100001 5.1989999 -0.972 169 132 114
-2.411 5.2010002 -0.97500002 101 64 35
-2.427 5.197 -0.93599999 144 117 96
-2.4219999 5.1890001 -0.94499999 44 25 21
-2.428 5.211 -0.94099998 205 122 52
-2.457 5.1989999 -1.01 199 130 53
-2.4549999 5.1999998 -1 125 79 27
-2.4579999 5.2059999 -1.007 128 91 46
-2.461 5.204 -1.0140001 185 115 29
-2.4690001 5.3699999 -1.0829999 68 16 0
-2.47 5.4250002 -0.98799998 126 95 75
-2.474 5.4289999 -0.995 129 109 102
-2.4760001 5.4450002 -0.99699998 154 93 36
-2.4820001 5.4520001 -1.0089999 179 120 64
-2.4649999 5.4390001 -1.007 163 139 129
-2.5 5.3639998 -0.99699998 109 62 34
-2.506 5.3600001 -1.005 178 116 75
-2.5020001 5.368 -1.007 117 44 0
-2.493 5.3839998 -1.002 239 200 145
-2.4679999 5.3000002 -1.0190001 130 116 105
-2.448 5.2909999 -1.0089999 64 37 20
-2.45 5.2940001 -1.0140001 98 45 5
-2.434 5.2880001 -0.99400002 46 18 6
-2.4360001 5.2950001 -0.99800003 76 50 25
-2.444 5.2870002 -1.012 148 75 22
-2.4449999 5.296 -1.015 93 65 41
-2.47 5.2839999 -1.0190001 54 40 37
-2.4790001 5.2810001 -1.011 64 32 7
-2.461 5.3000002 -1.021 56 39 32
-2.4619999 5.283 -1.027 111 63 15
-2.464 5.3579998 -1.046 184 140 91
-2.467 5.3579998 -1.041 80 54 39
-2.4630001 5.362 -1.04 142 95 49
-2.4660001 5.3390002 -1.044 116 100 74
-2.464 5.3839998 -1.015 226 175 122
-2.473 5.3759999 -1.028 71 27 0
-2.4619999 5.3899999 -1.03 150 105 74
-2.46 5.381 -1.006 150 124 109
-2.4560001 5.382 -1.0089999 171 114 59
-2.553 5.3730001 -0.97500002 92 34 0
-2.5480001 5.382 -0.97899997 102 40 1
-2.6860001 5.474 -0.94599998 153 138 133
-2.6830001 5.4819999 -0.94300002 85 55 31
-2.704 5.4809999 -0.963 21 0 0
-2.7090001 5.4749999 -0.94800001 155 117 72
-2.7179999 5.4759998 -0.949 88 54 27
-2.7060001 5.48 -0.97399998 110 58 19
-2.7049999 5.527 -0.97399998 158 107 54
-2.7049999 5.5450001 -0.97600001 153 105 56
-2.7049999 5.5570002 -0.97399998 180 138 90
-2.6900001 5.5019999 -0.92799997 111 74 47
-2.691 5.4959998 -0.93099999 95 86 87
-2.6059999 5.4920001 -0.90499997 71 35 21
-2.6059999 5.4879999 -0.89700001 60 7 0
-2.5940001 5.493 -0.89300001 167 105 48
-2.6800001 5.4879999 -0.91299999 158 120 84
-2.6730001 5.4889998 -0.91000003 165 96 41
-2.6659999 5.4840002 -0.903 124 76 38
-2.664 5.4910002 -0.88999999 117 58 16
-2.6700001 5.493 -0.88999999 196 138 88
-2.6199999 5.4629998 -0.91399997 219 185 157
-2.6659999 5.4809999 -0.93400002 209 155 93
-2.6730001 5.4679999 -0.93199998 183 144 101
-2.671 5.4699998 -0.93400002 241 183 135
-2.6789999 5.4679999 -0.93599999 116 72 27
-2.674 5.4679999 -0.93099999 142 101 57
-2.6070001 5.4910002 -1.057 159 111 71
-2.608 5.487 -1.054 154 127 110
