ply
format ascii 1.0
comment PCL generated
element vertex 670
property float x
property float y
property float z
property uchar red
property uchar green
property uchar blue
element camera 1
property float view_px
property float view_py
property float view_pz
property float x_axisx
property float x_axisy
property float x_axisz
property float y_axisx
property float y_axisy
property float y_axisz
property float z_axisx
property float z_axisy
property float z_axisz
property float focal
property float scalex
property float scaley
property float centerx
property float centery
property int viewportx
property int viewporty
property float k1
property float k2
end_header
9.875 -4.8439999 -0.583 65 30 0
9.8839998 -4.8390002 -0.58999997 64 28 0
9.882 -4.829 -0.58700001 133 96 51
9.8830004 -4.855 -0.58999997 104 53 22
9.8850002 -4.8309999 -0.58999997 93 48 15
9.8950005 -4.8369999 -0.61000001 45 17 3
9.8310003 -4.9200001 -0.84299999 32 9 1
9.8280001 -4.921 -0.83399999 36 13 5
9.8319998 -4.9130001 -0.83499998 22 1 0
9.8269997 -4.9239998 -0.83700001 16 2 0
9.8210001 -4.947 -0.76599997 17 5 7
9.8059998 -4.9580002 -0.75700003 23 5 1
9.8190002 -4.9590001 -0.75199997 98 80 68
9.8170004 -4.9520001 -0.75800002 43 24 18
9.8219995 -4.9400001 -0.75300002 52 25 4
9.8179998 -4.927 -0.773 58 39 25
9.7670002 -4.908 -0.69400001 72 41 23
9.7700005 -4.901 -0.68800002 59 10 0
9.7639999 -4.8969998 -0.708 73 40 25
9.7700005 -4.9000001 -0.70200002 31 11 0
9.8000002 -4.8909998 -0.85500002 55 35 24
9.809 -4.8850002 -0.84899998 147 119 105
9.8129997 -4.8920002 -0.85600001 54 34 23
9.8070002 -4.8940001 -0.85600001 119 91 77
9.7980003 -4.9029999 -0.847 49 31 21
9.8050003 -4.8959999 -0.85600001 28 8 0
9.8789997 -4.8340001 -0.58700001 174 136 87
9.8789997 -4.8629999 -0.588 17 0 0
9.8780003 -4.855 -0.58700001 144 120 96
9.882 -4.849 -0.59600002 162 85 93
9.8830004 -4.8410001 -0.597 68 38 14
9.7779999 -4.9039998 -0.73400003 49 26 8
9.7840004 -4.9089999 -0.74000001 85 58 41
9.7720003 -4.9070001 -0.72899997 60 15 9
9.8839998 -4.8239999 -0.59299999 141 103 58
9.8800001 -4.8270001 -0.59200001 222 181 127
9.8889999 -4.8309999 -0.60600001 65 32 15
9.8199997 -4.9299998 -0.82599998 67 27 15
9.8249998 -4.9289999 -0.83999997 45 8 0
9.8199997 -4.9299998 -0.83600003 60 22 0
9.809 -4.9549999 -0.75700003 26 7 3
9.809 -4.9559999 -0.755 62 34 20
9.868 -4.8520002 -0.588 80 41 8
9.8660002 -4.8470001 -0.588 45 23 9
9.868 -4.8429999 -0.58899999 78 42 10
9.8179998 -4.9289999 -0.824 46 13 0
9.8140001 -4.9190001 -0.82200003 32 15 8
9.8120003 -4.947 -0.76499999 20 5 0
9.7819996 -4.9099998 -0.81900001 26 7 0
9.7720003 -4.9130001 -0.80299997 115 33 45
9.776 -4.9229999 -0.79900002 71 35 19
9.7740002 -4.915 -0.80199999 26 14 18
9.8599997 -4.8979998 -0.64399999 69 49 42
9.8599997 -4.8959999 -0.63 116 97 83
9.8710003 -4.9000001 -0.62599999 50 23 12
9.7819996 -4.895 -0.76200002 51 27 17
9.7799997 -4.9060001 -0.77399999 28 9 3
9.7790003 -4.8930001 -0.76499999 39 19 10
9.7860003 -4.901 -0.74199998 38 11 4
9.8850002 -4.8309999 -0.59899998 134 89 50
9.8830004 -4.823 -0.59799999 124 82 40
9.8260002 -4.8509998 -0.70899999 50 28 15
9.8299999 -4.8579998 -0.708 67 33 21
9.8290005 -4.849 -0.70599997 81 40 20
9.8430004 -4.8709998 -0.69800001 90 64 49
9.8400002 -4.875 -0.71499997 106 78 66
9.816 -4.927 -0.82800001 100 83 76
9.8070002 -4.9190001 -0.82599998 80 61 46
9.7709999 -4.9169998 -0.72000003 100 51 57
9.7749996 -4.9190001 -0.72399998 138 39 42
9.8730001 -4.842 -0.588 130 91 50
9.8109999 -4.9349999 -0.77999997 102 88 85
9.8129997 -4.9330001 -0.77499998 20 8 8
9.8039999 -4.941 -0.77100003 97 88 89
9.8059998 -4.9310002 -0.78399998 41 23 11
9.8030005 -4.9349999 -0.77100003 16 1 0
9.8079996 -4.9219999 -0.78600001 40 19 14
9.8039999 -4.9250002 -0.78799999 106 94 78
9.776 -4.9000001 -0.68599999 65 37 16
9.7749996 -4.9130001 -0.69199997 74 54 47
9.8719997 -4.8239999 -0.59500003 166 137 123
9.8800001 -4.8210001 -0.60299999 108 70 34
9.8629999 -4.849 -0.58899999 80 22 0
9.8509998 -4.8439999 -0.58999997 90 50 15
9.8599997 -4.8410001 -0.59200001 75 42 25
9.8559999 -4.8540001 -0.588 75 38 12
9.7819996 -4.895 -0.78100002 75 28 8
9.7770004 -4.8959999 -0.78600001 57 28 14
9.7749996 -4.8850002 -0.78500003 119 32 41
9.7939997 -4.921 -0.79100001 13 0 0
9.7919998 -4.921 -0.79699999 18 7 3
9.7799997 -4.9219999 -0.79400003 56 41 46
9.7740002 -4.9050002 -0.80599999 39 20 13
9.7770004 -4.9029999 -0.80900002 32 18 17
9.7770004 -4.895 -0.81 32 13 9
9.849 -4.8639998 -0.72399998 59 17 5
9.8509998 -4.8709998 -0.72299999 38 18 7
9.8509998 -4.8759999 -0.73799998 31 6 0
9.8529997 -4.8660002 -0.71399999 33 20 1
9.7790003 -4.921 -0.69 59 23 1
9.7889996 -4.9239998 -0.69099998 102 70 45
9.7840004 -4.9200001 -0.68800002 53 24 16
9.8699999 -4.8559999 -0.58999997 82 28 2
9.783 -4.8979998 -0.76999998 54 37 27
9.8009996 -4.915 -0.72899997 92 64 53
9.8070002 -4.927 -0.73299998 21 7 0
9.8039999 -4.9099998 -0.72600001 41 17 13
9.8140001 -4.9099998 -0.71499997 42 28 25
9.8009996 -4.9349999 -0.76599997 102 88 88
9.7910004 -4.9229999 -0.76899999 39 19 10
9.8100004 -4.9489999 -0.76300001 85 80 77
9.7989998 -4.8779998 -0.847 78 49 31
9.8100004 -4.9039998 -0.84799999 81 63 53
9.8059998 -4.9190001 -0.84399998 27 13 12
9.8179998 -4.9229999 -0.852 13 0 0
9.8249998 -4.9029999 -0.81900001 51 23 12
9.8219995 -4.9039998 -0.82200003 30 11 5
9.8240004 -4.908 -0.83200002 45 26 20
9.8120003 -4.9070001 -0.72299999 122 107 102
9.802 -4.9180002 -0.73400003 26 6 5
9.8199997 -4.901 -0.71399999 67 32 13
9.8170004 -4.8990002 -0.736 122 103 97
9.8199997 -4.9390001 -0.74199998 56 40 27
9.8179998 -4.9369998 -0.74699998 51 34 24
9.8100004 -4.934 -0.74699998 64 39 32
9.7749996 -4.8720002 -0.787 63 25 12
9.7740002 -4.8790002 -0.787 76 34 18
9.7720003 -4.8709998 -0.79400003 72 30 14
9.7749996 -4.8720002 -0.78299999 72 41 21
9.7770004 -4.8790002 -0.78200001 37 17 10
9.8249998 -4.8520002 -0.71700001 35 11 9
9.8360004 -4.8579998 -0.70700002 34 10 0
9.8430004 -4.862 -0.69199997 84 52 39
9.8450003 -4.875 -0.70999998 53 26 9
9.8109999 -4.927 -0.83399999 78 58 49
9.8059998 -4.9190001 -0.838 31 20 14
9.8120003 -4.9219999 -0.83899999 56 35 18
9.8730001 -4.902 -0.63999999 58 33 26
9.8800001 -4.902 -0.63300002 122 73 40
9.875 -4.9000001 -0.62900001 66 18 0
9.7690001 -4.9250002 -0.71399999 112 89 83
9.7799997 -4.9250002 -0.72000003 37 13 1
9.7819996 -4.9050002 -0.68900001 71 34 15
9.7959995 -4.9120002 -0.70499998 61 38 22
9.7819996 -4.8990002 -0.69099998 162 62 72
9.7749996 -4.8920002 -0.69099998 108 76 65
9.7910004 -4.9369998 -0.73799998 44 16 2
9.8050003 -4.9330001 -0.73799998 49 21 10
9.7969999 -4.9400001 -0.74400002 45 27 23
9.8009996 -4.9310002 -0.73799998 37 21 21
9.7959995 -4.9219999 -0.77999997 28 14 11
9.7840004 -4.9200001 -0.78399998 33 15 5
9.7880001 -4.9190001 -0.77600002 88 76 76
9.79 -4.914 -0.75599998 132 43 47
9.7840004 -4.9029999 -0.77100003 128 38 47
9.7889996 -4.9169998 -0.75999999 82 56 39
9.7959995 -4.915 -0.759 33 24 19
9.7910004 -4.9060001 -0.75300002 39 19 10
9.8079996 -4.8959999 -0.85399997 119 100 94
9.8219995 -4.9190001 -0.852 16 2 1
9.8039999 -4.9070001 -0.83600003 114 34 45
9.7980003 -4.9109998 -0.82200003 17 0 0
9.7950001 -4.9089999 -0.82300001 13 0 0
9.7950001 -4.882 -0.847 58 32 17
9.8760004 -4.8379998 -0.588 174 136 87
9.8009996 -4.9260001 -0.78200001 20 8 8
9.7729998 -4.8990002 -0.69300002 42 18 6
9.835 -4.8369999 -0.59899998 118 66 18
9.8430004 -4.8330002 -0.597 102 54 18
9.8380003 -4.8299999 -0.60299999 111 49 12
9.8500004 -4.836 -0.588 118 60 22
9.8360004 -4.869 -0.59100002 43 19 19
9.8479996 -4.8530002 -0.588 143 80 47
9.8360004 -4.8470001 -0.58600003 100 39 10
9.8369999 -4.8530002 -0.58999997 79 37 0
9.7749996 -4.9060001 -0.78299999 30 10 3
9.7819996 -4.9109998 -0.78399998 41 25 26
9.7840004 -4.914 -0.80000001 13 4 0
9.7969999 -4.9169998 -0.81300002 32 14 10
9.8839998 -4.8590002 -0.611 77 49 28
9.8870001 -4.888 -0.62400001 54 19 0
9.8640003 -4.8889999 -0.62199998 114 86 65
9.8830004 -4.8509998 -0.60600001 121 77 32
9.842 -4.8769999 -0.59600002 133 40 50
9.8430004 -4.8790002 -0.59799999 77 41 25
9.8299999 -4.8720002 -0.597 80 59 42
9.816 -4.9510002 -0.74199998 31 4 0
9.8050003 -4.947 -0.75 112 94 84
9.7930002 -4.9429998 -0.745 68 49 51
9.8120003 -4.9050002 -0.708 112 96 83
9.8039999 -4.8959999 -0.704 56 44 44
9.816 -4.8930001 -0.70700002 49 28 7
9.8149996 -4.888 -0.704 83 65 51
9.802 -4.908 -0.72399998 46 29 19
9.8439999 -4.8600001 -0.72399998 33 11 0
9.8450003 -4.8559999 -0.73100001 77 29 15
9.8380003 -4.8639998 -0.71200001 33 13 2
9.8629999 -4.862 -0.58899999 117 55 16
9.8100004 -4.9299998 -0.76200002 12 0 0
9.823 -4.915 -0.75999999 30 0 0
9.8100004 -4.901 -0.76899999 26 14 0
9.8120003 -4.9050002 -0.78100002 108 91 84
9.8109999 -4.8969998 -0.76800001 65 33 20
9.79 -4.9089999 -0.74800003 50 31 24
9.8009996 -4.9439998 -0.74900001 35 17 15
9.8030005 -4.9369998 -0.764 193 175 161
9.7880001 -4.881 -0.84600002 42 20 9
9.7969999 -4.8930001 -0.83899999 32 7 0
9.7930002 -4.888 -0.82800001 38 10 0
9.7869997 -4.8740001 -0.833 48 26 13
9.8210001 -4.8959999 -0.838 49 21 9
9.8240004 -4.8930001 -0.84799999 51 32 25
9.8290005 -4.8889999 -0.84299999 20 1 0
9.823 -4.8990002 -0.82800001 56 28 17
9.8430004 -4.8779998 -0.75599998 116 102 99
9.8400002 -4.8699999 -0.75199997 45 23 12
9.8339996 -4.862 -0.72000003 111 102 103
9.8249998 -4.8600001 -0.72799999 70 30 18
9.8299999 -4.8720002 -0.72899997 94 78 65
9.8290005 -4.8670001 -0.736 47 20 9
9.7799997 -4.8829999 -0.76899999 53 28 34
9.7950001 -4.8899999 -0.75999999 26 6 0
9.816 -4.895 -0.70999998 97 75 62
9.7749996 -4.881 -0.76999998 91 56 52
9.7749996 -4.8699999 -0.76999998 25 7 0
9.7799997 -4.8730001 -0.76999998 55 32 18
9.776 -4.8709998 -0.77700001 115 95 84
9.7749996 -4.868 -0.78500003 129 109 98
9.7790003 -4.8600001 -0.79900002 82 47 27
9.7910004 -4.8709998 -0.81199998 64 41 27
9.7810001 -4.869 -0.82099998 44 22 11
9.7840004 -4.8670001 -0.82999998 61 24 5
9.8339996 -4.8579998 -0.73500001 49 25 15
9.8290005 -4.8569999 -0.72299999 85 71 68
9.7819996 -4.8629999 -0.787 66 41 21
9.7930002 -4.8600001 -0.78500003 52 25 14
9.7819996 -4.8590002 -0.79500002 71 30 12
9.7889996 -4.862 -0.77700001 53 28 8
9.7849998 -4.8649998 -0.77600002 62 39 23
9.8290005 -4.849 -0.71499997 118 95 89
9.8479996 -4.8639998 -0.69499999 62 24 5
9.8529997 -4.881 -0.73400003 52 19 2
9.8579998 -4.8870001 -0.71700001 51 24 7
9.8520002 -4.8850002 -0.72100002 84 69 64
9.8540001 -4.8759999 -0.71899998 54 15 0
9.8579998 -4.8800001 -0.71499997 105 100 97
9.8219995 -4.9190001 -0.84600002 11 0 0
9.8170004 -4.9130001 -0.84100002 71 52 45
9.8129997 -4.9180002 -0.84500003 11 0 0
9.7749996 -4.901 -0.722 55 6 0
9.7729998 -4.9000001 -0.71600002 35 15 4
9.7810001 -4.901 -0.727 58 40 30
9.7849998 -4.888 -0.74000001 41 14 5
9.7700005 -4.9089999 -0.70700002 156 52 59
9.7720003 -4.9120002 -0.69400001 63 34 18
9.7779999 -4.915 -0.69400001 148 114 79
9.8240004 -4.8709998 -0.61199999 115 96 81
9.8219995 -4.8559999 -0.59899998 58 17 0
9.7969999 -4.8720002 -0.69400001 123 95 84
9.8030005 -4.8759999 -0.68699998 63 22 0
9.7980003 -4.8730001 -0.69700003 89 39 16
9.7880001 -4.868 -0.68400002 22 4 0
9.7869997 -4.9109998 -0.704 42 11 6
9.7819996 -4.9120002 -0.699 82 47 17
9.7720003 -4.8979998 -0.69999999 65 41 29
9.776 -4.8940001 -0.70300001 54 36 26
9.802 -4.881 -0.69800001 45 26 9
9.7749996 -4.8790002 -0.70700002 62 14 0
9.7790003 -4.8720002 -0.68599999 85 48 29
9.7810001 -4.875 -0.69400001 46 27 13
9.7790003 -4.8670001 -0.76999998 40 21 7
9.7819996 -4.9159999 -0.73100001 59 8 0
9.79 -4.9190001 -0.76300001 33 10 4
9.7729998 -4.8979998 -0.80000001 30 14 14
9.8170004 -4.8979998 -0.84799999 57 39 29
9.8129997 -4.9000001 -0.84899998 25 0 0
9.8290005 -4.829 -0.616 108 68 42
9.8369999 -4.8369999 -0.62400001 89 43 10
9.8409996 -4.8330002 -0.61299998 255 181 136
9.8570004 -4.8340001 -0.597 138 77 30
9.8430004 -4.8379998 -0.611 98 47 4
9.8290005 -4.849 -0.59299999 126 72 36
9.8699999 -4.8330002 -0.59200001 74 43 23
9.8470001 -4.8390002 -0.588 76 13 0
9.8360004 -4.842 -0.588 82 36 2
9.8459997 -4.8379998 -0.588 107 63 26
9.8009996 -4.9159999 -0.81300002 88 70 56
9.8050003 -4.9089999 -0.80400002 117 34 44
9.8039999 -4.9120002 -0.81099999 52 19 2
9.7889996 -4.9039998 -0.82700002 24 13 7
9.7849998 -4.9000001 -0.815 34 19 14
9.8079996 -4.9180002 -0.81800002 34 11 3
9.7989998 -4.9130001 -0.79500002 50 28 14
9.8699999 -4.8990002 -0.64700001 131 101 77
9.8710003 -4.8889999 -0.65499997 94 56 35
9.8669996 -4.8969998 -0.64600003 47 28 14
9.8719997 -4.8969998 -0.64700001 64 28 2
9.8599997 -4.8899999 -0.64200002 97 57 31
9.8789997 -4.8800001 -0.62300003 121 74 44
9.8800001 -4.895 -0.64700001 131 68 33
9.882 -4.8899999 -0.64399999 76 40 16
9.8830004 -4.8509998 -0.61199999 160 73 81
9.783 -4.9239998 -0.70499998 71 29 5
9.7869997 -4.934 -0.72100002 110 80 69
9.7959995 -4.927 -0.70099998 22 7 2
9.7919998 -4.9310002 -0.71700001 90 65 45
9.7930002 -4.9229999 -0.69700003 90 59 41
9.8149996 -4.9050002 -0.70999998 95 54 24
9.7919998 -4.928 -0.72899997 59 30 22
9.8369999 -4.855 -0.71600002 97 80 72
9.8400002 -4.8610001 -0.71499997 34 15 8
9.8360004 -4.8629999 -0.71700001 175 130 109
9.8719997 -4.855 -0.639 83 49 22
9.8669996 -4.8509998 -0.64899999 99 67 42
9.8730001 -4.862 -0.64300001 63 25 4
9.875 -4.8629999 -0.639 36 12 0
9.8540001 -4.8660002 -0.58899999 111 71 35
9.8149996 -4.9130001 -0.78200001 33 15 5
9.8050003 -4.9120002 -0.741 75 51 39
9.7910004 -4.9039998 -0.75099999 35 10 5
9.8059998 -4.9419999 -0.76899999 61 28 9
9.8070002 -4.948 -0.75199997 41 26 23
9.7930002 -4.8769999 -0.84600002 52 29 15
9.7819996 -4.8699999 -0.82700002 57 35 24
9.7810001 -4.8730001 -0.81699997 44 5 0
9.823 -4.8839998 -0.847 52 23 5
9.8319998 -4.875 -0.838 53 39 36
9.8299999 -4.8740001 -0.83899999 67 48 31
9.8179998 -4.8990002 -0.84100002 137 119 109
9.8260002 -4.881 -0.833 89 71 61
9.823 -4.8930001 -0.80000001 43 8 0
9.8179998 -4.8979998 -0.80400002 114 34 43
9.835 -4.8839998 -0.815 42 5 0
9.8360004 -4.8759999 -0.82499999 46 8 0
9.8360004 -4.8670001 -0.82999998 71 48 34
9.8360004 -4.8670001 -0.81800002 33 11 0
9.8249998 -4.902 -0.82599998 75 56 42
9.8140001 -4.8860002 -0.80699998 58 16 0
9.8140001 -4.8839998 -0.82499999 28 8 1
9.8389997 -4.8740001 -0.722 40 16 4
9.835 -4.8899999 -0.741 101 86 79
9.8500004 -4.881 -0.74000001 35 8 0
9.8149996 -4.8930001 -0.73000002 48 9 2
9.8140001 -4.8920002 -0.74000001 32 16 1
9.8330002 -4.8850002 -0.74800003 43 13 13
9.8330002 -4.875 -0.73699999 40 14 1
9.8109999 -4.8889999 -0.71200001 61 40 19
9.79 -4.8699999 -0.77200001 52 31 14
9.7959995 -4.875 -0.76300001 48 33 14
9.7860003 -4.8940001 -0.74800003 93 73 62
9.8059998 -4.8839998 -0.73199999 37 20 4
9.8120003 -4.8899999 -0.72299999 58 40 16
9.7930002 -4.8649998 -0.79900002 146 114 99
9.8030005 -4.8740001 -0.80299997 45 21 11
9.7969999 -4.8720002 -0.815 54 24 13
9.8059998 -4.8769999 -0.82599998 70 47 31
9.7939997 -4.8740001 -0.829 85 59 44
9.7779999 -4.8649998 -0.787 39 1 0
9.7799997 -4.8670001 -0.78100002 127 100 93
9.7889996 -4.9120002 -0.81900001 113 33 44
9.8050003 -4.8759999 -0.84299999 78 49 33
9.8249998 -4.8660002 -0.82200003 60 38 25
9.8210001 -4.8730001 -0.82999998 38 4 0
9.8339996 -4.862 -0.83200002 68 32 20
9.7749996 -4.869 -0.79299998 128 111 103
9.79 -4.9099998 -0.81 37 15 1
9.8310003 -4.8600001 -0.72399998 36 16 5
9.8009996 -4.8740001 -0.76200002 77 55 42
9.8369999 -4.8569999 -0.73900002 29 10 6
9.8360004 -4.849 -0.72100002 47 21 8
9.8339996 -4.8509998 -0.71600002 34 14 5
9.849 -4.868 -0.69999999 44 14 6
9.8549995 -4.8670001 -0.69300002 107 88 74
9.8690004 -4.8649998 -0.676 27 5 0
9.8660002 -4.8709998 -0.67799997 35 7 0
9.8620005 -4.8610001 -0.68199998 106 77 45
9.8649998 -4.855 -0.68000001 56 28 17
9.8690004 -4.8600001 -0.67199999 63 33 5
9.8500004 -4.8839998 -0.71499997 11 5 5
9.8520002 -4.8800001 -0.71200001 50 13 0
9.8579998 -4.882 -0.70999998 50 14 0
9.8549995 -4.8740001 -0.71399999 58 42 43
9.8269997 -4.9239998 -0.84200001 11 0 0
9.783 -4.8870001 -0.72299999 77 36 18
9.7749996 -4.9130001 -0.704 46 27 20
9.7790003 -4.915 -0.70300001 58 31 22
9.7770004 -4.8930001 -0.685 53 27 12
9.7889996 -4.8769999 -0.68699998 71 33 12
9.7980003 -4.8779998 -0.685 103 85 73
9.7919998 -4.8720002 -0.69 32 14 4
9.842 -4.8629999 -0.68699998 36 2 0
9.7720003 -4.9120002 -0.71499997 49 22 5
9.7849998 -4.8979998 -0.704 35 4 0
9.8059998 -4.8839998 -0.699 36 8 0
9.8000002 -4.8870001 -0.69800001 53 36 18
9.7840004 -4.8730001 -0.70099998 48 9 2
9.7889996 -4.8769999 -0.70899999 93 51 35
9.7810001 -4.8790002 -0.71399999 44 26 14
9.7810001 -4.875 -0.69999999 47 28 13
9.7889996 -4.8769999 -0.70300001 42 19 11
9.7919998 -4.882 -0.69099998 46 13 4
9.7740002 -4.8860002 -0.71499997 78 31 5
9.8009996 -4.8800001 -0.72600001 35 17 0
9.7969999 -4.8829999 -0.72500002 41 25 10
9.8039999 -4.881 -0.73100001 39 20 5
9.7889996 -4.9200001 -0.741 169 161 158
9.8000002 -4.9219999 -0.73799998 30 12 2
9.7860003 -4.9120002 -0.77200001 112 90 79
9.7729998 -4.8829999 -0.78799999 27 8 1
9.7749996 -4.914 -0.80000001 15 0 0
9.783 -4.8979998 -0.81300002 45 25 14
9.8620005 -4.836 -0.60100001 128 64 28
9.8710003 -4.8649998 -0.60900003 86 51 32
9.8629999 -4.8649998 -0.60500002 92 46 12
9.868 -4.8579998 -0.59600002 150 67 75
9.8590002 -4.8670001 -0.58899999 82 36 3
9.849 -4.8790002 -0.60399997 46 10 0
9.8579998 -4.8639998 -0.602 122 62 26
9.8079996 -4.9089999 -0.81599998 124 106 102
9.7889996 -4.8769999 -0.82700002 44 14 4
9.7959995 -4.875 -0.824 89 66 52
9.8170004 -4.9439998 -0.736 25 13 0
9.8760004 -4.882 -0.64899999 79 47 22
9.8730001 -4.8670001 -0.64600003 53 24 10
9.8760004 -4.882 -0.65100002 243 216 199
9.8769999 -4.8639998 -0.61400002 83 41 27
9.8789997 -4.8720002 -0.625 85 56 38
9.8640003 -4.8520002 -0.67799997 71 33 14
9.8859997 -4.8239999 -0.60799998 104 76 64
9.8889999 -4.8340001 -0.61500001 104 81 63
9.8760004 -4.8260002 -0.61199999 58 36 22
9.7810001 -4.9190001 -0.70599997 65 42 26
9.8660002 -4.8559999 -0.64999998 70 32 9
9.8660002 -4.8569999 -0.65899998 77 36 14
9.8620005 -4.8520002 -0.65600002 43 13 2
9.8520002 -4.8740001 -0.62699997 117 67 18
9.8459997 -4.8670001 -0.59299999 87 33 5
9.8109999 -4.9089999 -0.77499998 25 5 0
9.8140001 -4.8990002 -0.75199997 41 25 10
9.8179998 -4.9120002 -0.75400001 37 13 3
9.8129997 -4.9039998 -0.74199998 34 20 11
9.8170004 -4.9000001 -0.76200002 68 30 7
9.8129997 -4.8969998 -0.74599999 37 21 8
9.8050003 -4.9109998 -0.75599998 20 6 6
9.816 -4.9349999 -0.75199997 22 7 0
9.7959995 -4.8769999 -0.84200001 58 40 28
9.8280001 -4.888 -0.76899999 30 11 4
9.8369999 -4.881 -0.82099998 43 28 25
9.8339996 -4.8709998 -0.82999998 16 2 1
9.8330002 -4.8740001 -0.74000001 44 16 2
9.835 -4.8759999 -0.759 32 4 0
9.8210001 -4.8969998 -0.81300002 51 31 20
9.8369999 -4.869 -0.72299999 102 20 26
9.8439999 -4.8730001 -0.74199998 42 19 11
9.8380003 -4.882 -0.75999999 50 24 9
9.8249998 -4.8730001 -0.78399998 74 49 27
9.8280001 -4.882 -0.76599997 30 0 0
9.8369999 -4.8860002 -0.74199998 82 64 54
9.7869997 -4.875 -0.76700002 36 20 5
9.7959995 -4.8829999 -0.764 34 21 5
9.8000002 -4.8759999 -0.76899999 36 6 0
9.7840004 -4.8990002 -0.73100001 43 26 16
9.7869997 -4.8899999 -0.73299998 39 11 0
9.8000002 -4.8790002 -0.71100003 105 82 76
9.8059998 -4.8779998 -0.73500001 122 107 102
9.7930002 -4.8629999 -0.79400003 42 23 9
9.8140001 -4.8759999 -0.82499999 137 110 99
9.8070002 -4.8759999 -0.801 77 40 47
9.7799997 -4.868 -0.77600002 52 30 17
9.8140001 -4.8779998 -0.83099997 94 68 53
9.8120003 -4.882 -0.83899999 76 49 30
9.7749996 -4.8769999 -0.796 119 92 81
9.7749996 -4.8850002 -0.79400003 39 20 13
9.8520002 -4.8670001 -0.68699998 95 69 52
9.8649998 -4.8709998 -0.676 47 19 8
9.8649998 -4.8540001 -0.68800002 65 30 11
9.8479996 -4.8629999 -0.68800002 72 40 25
9.8559999 -4.8590002 -0.68099999 33 6 0
9.8540001 -4.8540001 -0.67799997 53 15 2
9.8719997 -4.8699999 -0.67400002 45 19 2
9.8529997 -4.8860002 -0.71799999 107 66 60
9.8520002 -4.8730001 -0.69700003 74 58 59
9.7869997 -4.888 -0.727 48 29 15
9.7930002 -4.9200001 -0.70599997 58 37 36
9.849 -4.8559999 -0.67900002 133 111 88
9.8500004 -4.8569999 -0.65799999 54 12 0
9.8520002 -4.8590002 -0.67000002 111 92 75
9.7939997 -4.888 -0.70200002 125 97 86
9.7860003 -4.8660002 -0.68900001 55 37 25
9.7849998 -4.8660002 -0.685 78 45 30
9.7950001 -4.8800001 -0.71799999 109 91 87
9.7819996 -4.895 -0.722 71 39 26
9.7950001 -4.9089999 -0.72000003 115 71 44
9.7910004 -4.9200001 -0.72399998 93 63 52
9.7860003 -4.927 -0.73500001 55 31 21
9.7770004 -4.9039998 -0.792 47 29 29
9.7729998 -4.8899999 -0.79799998 26 8 6
9.7799997 -4.8759999 -0.80500001 122 94 82
9.7980003 -4.8940001 -0.84600002 52 23 5
9.7779999 -4.9159999 -0.80000001 14 0 0
9.8439999 -4.8769999 -0.59600002 127 102 80
9.8800001 -4.8629999 -0.62900001 72 36 4
9.8769999 -4.8699999 -0.63099998 105 73 50
9.8730001 -4.849 -0.62699997 93 62 31
9.8299999 -4.8699999 -0.60699999 107 81 58
9.7919998 -4.8730001 -0.82300001 42 10 0
9.7849998 -4.881 -0.81800002 41 2 0
9.8629999 -4.888 -0.64600003 80 38 14
9.868 -4.882 -0.653 39 16 2
9.8660002 -4.895 -0.62599999 141 117 83
9.8629999 -4.8899999 -0.625 126 101 79
9.8599997 -4.8829999 -0.62599999 74 31 12
9.8730001 -4.8769999 -0.65200001 54 35 20
9.8719997 -4.8769999 -0.65799999 55 37 27
9.8730001 -4.8870001 -0.65399998 97 80 72
9.868 -4.8660002 -0.65600002 38 16 3
9.8649998 -4.849 -0.64200002 89 57 32
9.8669996 -4.8299999 -0.60900003 109 53 18
9.8649998 -4.8559999 -0.66799998 42 12 1
9.7919998 -4.928 -0.71899998 37 15 2
9.8590002 -4.8509998 -0.64700001 57 31 8
9.8500004 -4.8639998 -0.64499998 45 9 0
9.8369999 -4.8660002 -0.63 98 64 39
9.8400002 -4.8660002 -0.63 182 146 124
9.8669996 -4.8769999 -0.62199998 89 42 14
9.8170004 -4.8579998 -0.61799997 146 80 45
9.8210001 -4.8369999 -0.61799997 142 61 5
9.8199997 -4.8530002 -0.60600001 75 43 28
9.8199997 -4.8509998 -0.625 250 176 127
9.8450003 -4.8769999 -0.61199999 73 46 27
9.8330002 -4.8699999 -0.611 68 46 33
9.8249998 -4.862 -0.62 88 51 33
9.8439999 -4.868 -0.68199998 41 6 0
9.8800001 -4.8499999 -0.61400002 56 33 15
9.8739996 -4.849 -0.62 119 90 72
9.8739996 -4.8270001 -0.60699999 98 66 53
9.8760004 -4.835 -0.61000001 117 79 58
9.8730001 -4.836 -0.60900003 110 82 68
9.7980003 -4.8920002 -0.755 93 47 23
9.8249998 -4.8870001 -0.76099998 37 4 0
9.8149996 -4.8920002 -0.74599999 49 32 16
9.802 -4.9369998 -0.759 44 26 14
9.7919998 -4.8720002 -0.83399999 74 48 33
9.8330002 -4.8720002 -0.83600003 42 20 9
9.8249998 -4.8730001 -0.79500002 32 9 0
9.8219995 -4.882 -0.79400003 135 117 115
9.8210001 -4.8779998 -0.79699999 102 84 74
9.8140001 -4.8639998 -0.78899997 101 82 65
9.8030005 -4.8670001 -0.79100001 86 64 43
9.8219995 -4.8740001 -0.77899998 52 23 9
9.8430004 -4.8779998 -0.72399998 26 6 0
9.8409996 -4.862 -0.73799998 45 13 2
9.8400002 -4.8709998 -0.74699998 32 10 0
9.8450003 -4.8759999 -0.74199998 106 88 76
9.8459997 -4.869 -0.73699999 31 13 3
9.8339996 -4.8769999 -0.73100001 46 36 34
9.8000002 -4.8660002 -0.78500003 87 61 48
9.7959995 -4.888 -0.73400003 50 23 14
9.8070002 -4.8850002 -0.70499998 50 26 16
9.8100004 -4.888 -0.71700001 65 45 21
9.835 -4.8759999 -0.81800002 62 18 7
9.7849998 -4.8730001 -0.81 52 9 2
9.8170004 -4.8979998 -0.79400003 28 3 0
9.8100004 -4.895 -0.778 54 22 7
9.8629999 -4.8540001 -0.676 90 57 24
9.8719997 -4.862 -0.667 59 31 10
9.8540001 -4.8779998 -0.708 36 12 0
9.7889996 -4.8889999 -0.73100001 23 9 0
9.79 -4.9260001 -0.713 53 26 0
9.8290005 -4.8319998 -0.61799997 112 51 4
9.8290005 -4.8319998 -0.61000001 100 35 0
9.8319998 -4.8460002 -0.62900001 123 87 65
9.8450003 -4.848 -0.64300001 126 62 27
9.8470001 -4.8470001 -0.63099998 114 79 57
9.8380003 -4.8600001 -0.648 131 105 90
9.849 -4.8530002 -0.648 75 37 24
9.8520002 -4.862 -0.65899998 89 42 52
9.8509998 -4.8649998 -0.64899999 96 58 45
9.8549995 -4.8709998 -0.66100001 53 18 0
9.7799997 -4.8720002 -0.69300002 64 22 6
9.8260002 -4.8410001 -0.59399998 93 60 41
9.8260002 -4.8410001 -0.60600001 197 164 147
9.8339996 -4.836 -0.60399997 147 88 32
9.8269997 -4.8379998 -0.611 157 76 23
9.823 -4.8579998 -0.60699999 56 23 6
9.8339996 -4.836 -0.60399997 147 88 32
9.8470001 -4.8429999 -0.61799997 81 50 30
9.868 -4.8379998 -0.60799998 58 25 8
9.8439999 -4.8569999 -0.59200001 173 105 58
9.8330002 -4.8600001 -0.59899998 173 137 101
9.7880001 -4.8889999 -0.81800002 37 18 12
9.8570004 -4.8730001 -0.653 71 44 35
9.8599997 -4.8740001 -0.653 122 86 64
9.8610001 -4.8740001 -0.65899998 55 27 13
9.8739996 -4.8670001 -0.64099997 72 43 25
9.8739996 -4.869 -0.639 45 18 1
9.8769999 -4.8730001 -0.634 72 39 22
9.8699999 -4.8720002 -0.65399998 101 78 60
9.8559999 -4.848 -0.64099997 59 29 3
9.8690004 -4.8299999 -0.602 88 37 6
9.8579998 -4.8499999 -0.63599998 61 26 0
9.8360004 -4.8699999 -0.616 200 129 77
9.8219995 -4.862 -0.61299998 68 42 19
9.8219995 -4.8590002 -0.611 95 34 6
9.8470001 -4.869 -0.69199997 116 84 73
9.8570004 -4.8740001 -0.66600001 30 5 0
9.8599997 -4.8649998 -0.59100002 40 19 14
9.8620005 -4.8709998 -0.616 81 56 36
9.8780003 -4.8509998 -0.616 100 53 59
9.8699999 -4.8439999 -0.61400002 112 71 39
9.816 -4.8930001 -0.75199997 52 36 20
9.8339996 -4.881 -0.75300002 34 14 7
9.8059998 -4.934 -0.75599998 14 3 1
9.8299999 -4.8610001 -0.82200003 51 29 15
9.8149996 -4.8709998 -0.79299998 44 23 4
9.8030005 -4.8699999 -0.78299999 72 40 25
9.8380003 -4.8709998 -0.74800003 24 9 4
9.823 -4.8779998 -0.77899998 88 62 45
9.8109999 -4.8790002 -0.77399999 53 31 17
9.8149996 -4.8649998 -0.77899998 115 93 79
9.8450003 -4.8790002 -0.72899997 84 41 24
9.8000002 -4.8920002 -0.755 44 30 17
9.7770004 -4.8720002 -0.80199999 57 13 0
9.8219995 -4.8899999 -0.79400003 63 39 35
9.8509998 -4.8709998 -0.699 45 10 0
9.7919998 -4.8889999 -0.73299998 133 116 109
9.8330002 -4.8559999 -0.64300001 90 55 33
9.8249998 -4.8400002 -0.61299998 190 132 95
9.7849998 -4.8769999 -0.81900001 73 47 32
9.8809996 -4.895 -0.62900001 172 104 59
9.8610001 -4.8850002 -0.63599998 129 78 49
9.8610001 -4.8769999 -0.639 60 34 21
9.8579998 -4.8730001 -0.63300002 150 117 98
9.8850002 -4.8860002 -0.62800002 71 45 30
9.8500004 -4.8460002 -0.63700002 99 52 22
9.8520002 -4.8509998 -0.64499998 79 47 26
9.8240004 -4.8610001 -0.60699999 206 165 137
9.8570004 -4.8569999 -0.66299999 34 15 19
9.8599997 -4.8530002 -0.66000003 102 84 64
9.8590002 -4.8740001 -0.66600001 83 55 34
9.8529997 -4.8649998 -0.67299998 50 17 8
9.8730001 -4.8460002 -0.62 60 28 13
9.8800001 -4.842 -0.61199999 61 40 23
9.8570004 -4.849 -0.625 95 49 15
9.8830004 -4.8439999 -0.611 120 78 38
9.875 -4.8530002 -0.62 92 47 16
9.8109999 -4.8850002 -0.76800001 100 86 83
9.8310003 -4.8850002 -0.75800002 46 17 3
9.7980003 -4.862 -0.78799999 107 86 69
9.7969999 -4.862 -0.79000002 58 22 6
9.8109999 -4.8660002 -0.78600001 73 51 28
9.8389997 -4.8850002 -0.741 25 14 12
9.783 -4.8779998 -0.80699998 48 16 3
9.8599997 -4.8730001 -0.64300001 88 41 23
9.8579998 -4.8800001 -0.62699997 135 94 66
9.8690004 -4.8709998 -0.667 89 72 62
9.8500004 -4.8639998 -0.63999999 54 21 2
9.8269997 -4.8569999 -0.62699997 208 137 93
9.8660002 -4.8569999 -0.66000003 40 13 0
9.8120003 -4.8899999 -0.76200002 43 28 9
9.8109999 -4.8670001 -0.78100002 71 46 24
9.823 -4.8439999 -0.61799997 166 86 25
9.8590002 -4.8730001 -0.63499999 111 55 28
9.8800001 -4.888 -0.62699997 128 107 90
9.8030005 -4.895 -0.745 33 13 2
9.8570004 -4.849 -0.63 92 60 35
9.868 -4.8439999 -0.61299998 102 87 92
9.8030005 -4.895 -0.745 33 13 2
9.8219995 -4.848 -0.61400002 233 179 145
9.8579998 -4.8499999 -0.63099998 80 41 8
0 0 0 1 0 0 0 1 0 0 0 1 0 0 0 0 0 670 1 0 0
