ply
format ascii 1.0
comment PCL generated
element vertex 148
property float x
property float y
property float z
property uchar red
property uchar green
property uchar blue
element camera 1
property float view_px
property float view_py
property float view_pz
property float x_axisx
property float x_axisy
property float x_axisz
property float y_axisx
property float y_axisy
property float y_axisz
property float z_axisx
property float z_axisy
property float z_axisz
property float focal
property float scalex
property float scaley
property float centerx
property float centery
property int viewportx
property int viewporty
property float k1
property float k2
end_header
-9.2469997 -11.809 -0.958 146 121 67
-9.2489996 -11.812 -0.95999998 190 101 35
-9.2510004 -11.814 -0.954 196 111 46
-9.2360001 -11.777 -0.94400001 191 124 72
-9.2390003 -11.781 -0.94800001 192 117 62
-9.2399998 -11.78 -0.94700003 198 122 62
-9.1890001 -11.845 -0.99800003 111 76 38
-9.1809998 -11.845 -0.99800003 216 132 60
-9.1850004 -11.822 -1.003 167 91 33
-9.1630001 -11.836 -0.98400003 123 75 39
-9.1630001 -11.839 -0.96799999 193 128 72
-9.1490002 -11.822 -0.98000002 215 154 100
-9.1590004 -11.824 -0.972 185 101 29
-9.198 -11.774 -0.94599998 150 122 98
-9.2049999 -11.771 -0.949 193 100 22
-9.2040005 -11.769 -0.94700003 158 104 60
-9.1899996 -11.839 -0.95999998 115 87 73
-9.1920004 -11.857 -0.97100002 161 116 77
-9.1850004 -11.85 -0.958 201 130 68
-9.1890001 -11.847 -0.97500002 154 91 48
-9.1969995 -11.828 -0.97899997 137 102 62
-9.1960001 -11.859 -0.977 207 117 64
-9.1540003 -11.801 -0.99900001 220 124 38
-9.151 -11.802 -0.99599999 171 118 78
-9.151 -11.804 -0.99599999 219 153 79
-9.1829996 -11.77 -0.95599997 220 136 89
-9.1780005 -11.774 -0.95099998 149 99 64
-9.1199999 -11.834 -0.93000001 158 95 44
-9.1129999 -11.837 -0.935 110 87 73
-9.1230001 -11.838 -0.935 75 29 0
-9.1829996 -11.85 -0.99699998 182 135 89
-9.1850004 -11.854 -0.99299997 188 104 34
-9.1789999 -11.832 -0.99900001 168 122 73
-9.158 -11.854 -0.97799999 177 98 31
-9.1450005 -11.85 -0.98299998 185 135 102
-9.1590004 -11.821 -0.95300001 149 105 60
-9.1470003 -11.821 -0.949 187 111 49
-9.1549997 -11.809 -0.94800001 178 137 93
-9.1890001 -11.83 -0.97399998 186 128 80
-9.1870003 -11.864 -0.98799998 231 150 71
-9.1709995 -11.883 -0.99599999 188 106 32
-9.1700001 -11.885 -1.002 237 158 91
-9.1719999 -11.891 -1.0039999 234 145 65
-9.1590004 -11.888 -0.99299997 138 99 66
-9.151 -11.888 -0.99400002 238 149 55
-9.1700001 -11.889 -0.99599999 210 119 36
-9.1709995 -11.889 -0.98199999 158 108 59
-9.165 -11.881 -0.99400002 166 116 67
-9.0860004 -11.844 -0.93000001 182 108 35
-9.0880003 -11.845 -0.92900002 215 149 91
-9.0860004 -11.844 -0.93400002 209 135 62
-9.1079998 -11.838 -0.94 199 139 89
-9.1160002 -11.837 -0.94300002 159 91 26
-9.1499996 -11.806 -0.94800001 125 93 70
-9.1440001 -11.804 -0.96100003 171 117 89
-9.1420002 -11.803 -0.949 180 101 34
-9.1630001 -11.807 -0.96499997 102 75 54
-9.158 -11.811 -0.963 172 125 73
-9.1619997 -11.888 -0.98199999 150 106 59
-9.151 -11.867 -0.98400003 206 119 39
-9.1870003 -11.841 -0.99599999 156 92 46
-9.1850004 -11.827 -0.99599999 149 109 60
-9.1859999 -11.843 -0.97899997 125 90 52
-9.1479998 -11.818 -0.98699999 210 113 34
-9.1450005 -11.82 -0.98199999 221 129 52
-9.1540003 -11.818 -0.977 171 123 75
-9.1759996 -11.828 -0.99900001 122 81 59
-9.1719999 -11.834 -0.99599999 153 66 13
-9.1709995 -11.827 -0.995 156 72 8
-9.1750002 -11.814 -1.001 222 118 29
-9.1470003 -11.845 -0.98900002 222 125 44
-9.1420002 -11.853 -0.98699999 192 138 92
-9.165 -11.829 -0.99299997 229 127 42
-9.191 -11.821 -0.98100001 141 119 105
-9.1929998 -11.827 -0.98799998 150 113 86
-9.1990004 -11.809 -0.99199998 162 110 73
-9.1680002 -11.84 -0.972 222 140 64
-9.1520004 -11.863 -0.98100001 209 128 62
-9.1899996 -11.858 -0.97100002 221 146 79
-9.1820002 -11.844 -0.97500002 179 132 86
-9.151 -11.822 -0.95599997 165 116 83
-9.1639996 -11.794 -0.99800003 236 135 47
-9.158 -11.802 -0.99699998 195 110 53
-9.1719999 -11.809 -0.99800003 157 110 64
-9.1689997 -11.789 -1 152 111 59
-9.1569996 -11.867 -0.991 171 93 44
-9.1569996 -11.863 -0.98699999 220 125 43
-9.1639996 -11.813 -0.99599999 227 147 76
-9.1169996 -11.835 -0.93900001 198 115 45
-9.1389999 -11.811 -0.95700002 191 98 28
-9.1479998 -11.807 -0.94999999 140 81 37
-9.1789999 -11.776 -0.95599997 114 72 58
-9.1549997 -11.894 -0.991 198 170 166
-9.1660004 -11.89 -0.986 151 103 55
-9.1759996 -11.856 -0.995 184 105 36
-9.1850004 -11.845 -0.98299998 172 121 90
-9.184 -11.84 -0.99000001 210 118 45
-9.1529999 -11.818 -0.972 145 84 39
-9.1619997 -11.816 -0.96899998 233 143 81
-9.158 -11.853 -0.98699999 186 134 87
-9.2060003 -11.818 -0.98100001 120 82 63
-9.2019997 -11.811 -0.98299998 155 114 70
-9.1689997 -11.823 -0.963 139 92 50
-9.1689997 -11.817 -0.96700001 160 121 80
-9.1870003 -11.831 -0.97399998 178 108 48
-9.1899996 -11.811 -0.99199998 196 123 55
-9.184 -11.806 -0.98199999 163 120 67
-9.1999998 -11.815 -0.98500001 199 121 59
-9.1920004 -11.808 -0.98699999 120 53 1
-9.1689997 -11.813 -0.97000003 154 124 100
-9.1820002 -11.815 -0.98100001 95 54 34
-9.1890001 -11.815 -0.97899997 200 127 72
-9.1920004 -11.797 -0.96600002 133 95 56
-9.184 -11.8 -0.97100002 185 100 43
-9.1789999 -11.847 -0.95599997 175 99 39
-9.1820002 -11.844 -0.958 156 105 62
-9.1560001 -11.866 -0.986 208 129 60
-9.1850004 -11.857 -0.98400003 209 123 48
-9.1520004 -11.822 -0.95499998 151 98 56
-9.1549997 -11.806 -0.99000001 227 131 45
-9.1660004 -11.811 -0.99000001 102 74 53
-9.184 -11.799 -0.97899997 213 116 47
-9.1660004 -11.818 -0.954 131 105 104
-9.1739998 -11.817 -0.99900001 163 105 55
-9.1409998 -11.807 -0.95300001 136 108 104
-9.1850004 -11.85 -0.98100001 197 116 51
-9.1689997 -11.883 -0.99900001 186 134 87
-9.1639996 -11.819 -0.99000001 159 120 89
-9.1700001 -11.842 -0.98500001 182 124 76
-9.1859999 -11.818 -0.99599999 120 85 47
-9.191 -11.818 -0.99000001 167 90 38
-9.1590004 -11.816 -0.98799998 204 154 103
-9.1829996 -11.804 -0.977 179 105 44
-9.184 -11.803 -0.97600001 165 113 74
-9.1879997 -11.8 -0.97299999 139 100 71
-9.198 -11.815 -0.98199999 170 104 54
-9.1719999 -11.791 -0.99699998 146 93 53
-9.1859999 -11.853 -0.98299998 167 123 76
-9.1689997 -11.836 -0.95999998 192 113 46
-9.1730003 -11.836 -0.96700001 175 92 26
-9.1750002 -11.84 -0.977 190 150 91
-9.1750002 -11.802 -0.97799999 202 130 71
-9.1859999 -11.855 -0.986 185 98 27
-9.1689997 -11.828 -0.95899999 119 84 46
-9.1940002 -11.819 -0.98199999 202 108 38
-9.1750002 -11.798 -0.96899998 135 85 48
-9.1789999 -11.8 -0.97399998 189 106 40
-9.1829996 -11.841 -0.96399999 156 107 77
0 0 0 1 0 0 0 1 0 0 0 1 0 0 0 0 0 148 1 0 0
