ply
format ascii 1.0
comment PCL generated
element vertex 633
property float x
property float y
property float z
property uchar red
property uchar green
property uchar blue
element camera 1
property float view_px
property float view_py
property float view_pz
property float x_axisx
property float x_axisy
property float x_axisz
property float y_axisx
property float y_axisy
property float y_axisz
property float z_axisx
property float z_axisy
property float z_axisz
property float focal
property float scalex
property float scaley
property float centerx
property float centery
property int viewportx
property int viewporty
property float k1
property float k2
end_header
-3.5739999 8.4879999 -1.011 181 98 46
-3.566 8.4969997 -1.002 198 159 128
-3.5829999 8.4899998 -1.001 38 0 0
-3.5610001 8.4790001 -1.0140001 194 138 79
-3.444 8.5240002 -0.90899998 108 65 20
-3.4549999 8.5360003 -0.91600001 213 144 75
-3.447 8.5290003 -0.90499997 140 96 69
-3.474 8.4989996 -0.90200001 160 105 38
-3.46 8.4910002 -0.91100001 87 69 65
-3.4530001 8.493 -0.90200001 177 128 98
-3.477 8.5039997 -0.89999998 146 82 20
-3.48 8.4980001 -0.91799998 140 72 7
-3.4790001 8.5030003 -0.91000003 157 74 8
-3.4590001 8.4949999 -0.91799998 200 140 88
-3.4579999 8.5380001 -0.91399997 231 162 85
-3.4449999 8.5170002 -0.90799999 232 156 72
-3.4449999 8.5109997 -0.91399997 183 111 37
-3.4460001 8.5170002 -0.91399997 162 91 25
-3.444 8.5220003 -0.90600002 168 140 116
-3.4549999 8.526 -0.89200002 116 46 0
-3.45 8.5080004 -0.889 107 54 14
-3.596 8.533 -1.043 48 18 0
-3.5910001 8.5349998 -1.034 88 29 0
-3.598 8.5380001 -1.038 56 32 8
-3.5940001 8.5419998 -1.04 161 89 41
-3.418 8.4969997 -1.024 175 147 108
-3.4219999 8.5039997 -1.033 210 136 87
-3.415 8.5089998 -1.025 209 141 60
-3.461 8.533 -0.89300001 88 36 0
-3.585 8.5109997 -1.01 139 90 32
-3.5880001 8.5100002 -1.011 123 95 73
-3.5869999 8.5089998 -1.03 74 46 24
-3.457 8.4969997 -0.89600003 224 175 116
-3.451 8.4969997 -0.89600003 106 41 0
-3.529 8.4379997 -1.02 173 109 65
-3.5239999 8.4420004 -1.01 221 164 109
-3.5109999 8.4469995 -1.028 151 83 46
-3.5339999 8.434 -1.016 163 80 10
-3.4460001 8.4989996 -0.90200001 157 78 22
-3.448 8.5050001 -0.89999998 110 93 86
-3.46 8.5229998 -0.89099997 94 42 3
-3.4560001 8.5209999 -0.89200002 143 71 12
-3.464 8.4870005 -0.98900002 227 161 101
-3.4690001 8.4989996 -0.98199999 204 113 40
-3.47 8.4879999 -0.99400002 123 91 52
-3.4760001 8.4890003 -0.995 100 70 32
-3.4679999 8.4829998 -0.99400002 208 144 116
-3.4619999 8.4829998 -0.99199998 182 119 84
-3.5350001 8.4440002 -1.007 177 118 60
-3.523 8.4499998 -1.011 233 144 62
-3.5510001 8.4280005 -1.007 151 88 35
-3.4760001 8.5129995 -0.89700001 181 137 88
-3.4790001 8.5100002 -0.90100002 197 136 43
-3.448 8.4969997 -0.97799999 209 124 59
-3.447 8.5240002 -0.912 129 80 47
-3.434 8.5319996 -1.01 171 99 25
-3.4419999 8.5500002 -1.008 103 41 4
-3.4430001 8.5459995 -0.99199998 156 91 59
-3.444 8.5229998 -0.98199999 211 115 38
-3.4400001 8.5279999 -0.99800003 191 98 29
-3.575 8.4980001 -1.039 88 57 36
-3.5699999 8.5039997 -1.03 80 25 0
-3.5710001 8.4949999 -1.033 124 70 23
-3.573 8.507 -1.005 95 30 0
-3.5669999 8.5039997 -1.01 55 33 22
-3.46 8.5 -0.89399999 111 48 13
-3.4660001 8.4960003 -0.91600001 184 107 61
-3.4719999 8.5 -0.90499997 255 205 114
-3.4979999 8.5190001 -0.96700001 139 90 60
-3.497 8.5249996 -0.96499997 165 100 46
-3.5050001 8.5190001 -0.963 135 76 34
-3.5469999 8.4320002 -1.011 180 94 35
-3.503 8.5129995 -0.94999999 183 122 59
-3.5020001 8.5310001 -0.94 194 135 79
-3.4990001 8.5179996 -0.94099998 159 83 31
-3.5309999 8.4429998 -1.011 245 147 72
-3.48 8.5240002 -0.903 118 48 0
-3.454 8.533 -0.90700001 143 113 111
-3.4860001 8.5150003 -0.991 204 172 125
-3.4809999 8.507 -0.972 194 112 39
-3.483 8.5100002 -0.99599999 127 93 48
-3.48 8.5150003 -0.98699999 100 53 11
-3.4790001 8.5129995 -0.991 110 65 23
-3.461 8.5349998 -0.977 138 93 52
-3.4590001 8.5410004 -0.98400003 136 88 40
-3.45 8.5319996 -0.96700001 88 40 2
-3.4460001 8.5050001 -0.91399997 177 106 40
-3.487 8.5089998 -0.94400001 80 50 16
-3.4860001 8.5039997 -0.95899999 153 119 94
-3.4920001 8.5109997 -0.94999999 93 47 21
-3.471 8.5340004 -0.97100002 146 69 27
-3.4660001 8.5369997 -0.98100001 117 39 0
-3.454 8.533 -0.91799998 149 114 112
-3.4530001 8.5209999 -0.95599997 113 50 19
-3.4549999 8.5220003 -0.95300001 134 67 25
-3.467 8.5430002 -0.99800003 86 48 27
-3.448 8.5480003 -1.0140001 66 24 0
-3.471 8.5459995 -1.007 100 32 0
-3.448 8.5419998 -0.99800003 65 23 0
-3.556 8.4499998 -1.062 209 153 104
-3.556 8.4619999 -1.074 80 52 31
-3.559 8.4499998 -1.0599999 132 96 70
-3.553 8.4569998 -1.069 130 57 12
-3.55 8.4519997 -1.063 148 74 9
-3.585 8.5010004 -1.027 128 62 12
-3.5780001 8.4949999 -1.027 121 87 60
-3.5810001 8.4899998 -1.024 175 102 49
-3.575 8.4969997 -1.0319999 161 105 70
-3.576 8.4870005 -1.024 202 127 70
-3.5829999 8.5 -1.0039999 95 59 35
-3.5880001 8.4949999 -1.02 140 95 54
-3.586 8.4879999 -1.0599999 109 77 52
-3.5699999 8.4729996 -1.0549999 159 98 67
-3.5910001 8.4849997 -1.053 151 110 80
-3.586 8.4949999 -1.056 215 170 139
-3.5739999 8.4899998 -1.025 250 188 101
-3.4219999 8.4960003 -1.017 134 93 47
-3.4260001 8.4849997 -1.013 69 52 26
-3.4419999 8.5439997 -1.0089999 151 109 85
-3.4230001 8.5080004 -1.015 107 94 86
-3.471 8.5469999 -0.99199998 138 68 19
-3.4779999 8.5450001 -1.003 101 74 57
-3.4920001 8.5229998 -0.972 63 27 1
-3.48 8.5240002 -0.99000001 129 83 49
-3.4790001 8.5249996 -0.98500001 61 50 32
-3.494 8.5109997 -0.96499997 128 79 39
-3.4960001 8.5150003 -0.95899999 161 101 47
-3.573 8.4799995 -1.051 244 209 167
-3.5810001 8.5030003 -1.0549999 220 203 222
-3.5880001 8.526 -1.073 139 66 0
-3.589 8.5290003 -1.067 185 103 29
-3.592 8.5240002 -1.072 43 26 0
-3.467 8.5679998 -1.043 129 60 3
-3.4630001 8.573 -1.05 82 24 0
-3.444 8.573 -1.039 197 147 74
-3.4590001 8.5530005 -1.044 122 79 45
-3.513 8.5200005 -1.0470001 208 116 49
-3.51 8.5389996 -1.053 173 126 72
-3.52 8.5200005 -1.057 218 132 71
-3.513 8.5150003 -1.0470001 241 190 135
-3.572 8.5100002 -1.012 175 120 81
-3.5699999 8.5039997 -1.017 182 120 81
-3.5739999 8.5100002 -1.016 181 109 50
-3.474 8.5 -0.91299999 232 177 112
-3.4749999 8.5 -0.995 230 125 42
-3.461 8.5080004 -0.97299999 137 92 50
-3.4749999 8.5059996 -0.95999998 113 56 13
-3.48 8.507 -0.95499998 203 146 79
-3.4749999 8.507 -0.94599998 196 128 67
-3.4679999 8.5080004 -0.958 251 186 94
-3.4619999 8.5080004 -0.94999999 155 97 51
-3.4560001 8.4770002 -1.057 117 54 0
-3.4579999 8.4729996 -1.063 187 134 66
-3.45 8.4770002 -1.073 208 149 91
-3.451 8.4840002 -1.054 232 183 114
-3.4549999 8.4879999 -1.0470001 217 164 110
-3.444 8.4870005 -1.0700001 162 107 53
-3.4300001 8.4989996 -1.028 113 50 0
-3.434 8.5030003 -1.029 127 59 14
-3.5009999 8.5439997 -0.94700003 91 54 25
-3.5009999 8.5349998 -0.94499999 124 69 13
-3.4979999 8.5380001 -0.94499999 199 146 92
-3.533 8.4519997 -1.01 193 143 106
-3.549 8.4370003 -1.006 140 81 41
-3.5420001 8.4460001 -1.013 154 93 28
-3.4860001 8.5170002 -1.066 253 227 80
-3.464 8.5249996 -1.0650001 40 28 32
-3.464 8.5159998 -1.069 141 61 8
-3.454 8.5100002 -1.063 165 133 112
-3.454 8.5039997 -1.067 201 119 43
-3.4690001 8.5 -1.0650001 200 163 75
-3.477 8.507 -1.062 155 80 15
-3.477 8.5 -1.063 255 213 148
-3.425 8.5100002 -1.031 186 99 46
-3.4579999 8.5139999 -0.95200002 168 148 137
-3.4590001 8.5129995 -0.93800002 249 153 76
-3.4300001 8.4969997 -1.018 110 63 33
-3.434 8.5039997 -1.022 167 51 0
-3.4560001 8.5120001 -0.96600002 163 81 25
-3.457 8.5089998 -0.96899998 184 90 28
-3.483 8.5080004 -0.94499999 191 113 38
-3.4619999 8.5279999 -0.926 67 49 45
-3.451 8.5310001 -0.90600002 116 95 76
-3.457 8.5380001 -0.991 182 124 84
-3.457 8.5380001 -1.0039999 175 140 98
-3.451 8.5179996 -0.89700001 202 112 26
-3.4549999 8.5170002 -0.89200002 195 125 53
-3.4679999 8.5120001 -0.89099997 181 118 74
-3.457 8.5129995 -0.89300001 255 187 114
-3.467 8.5039997 -0.89700001 141 79 18
-3.5569999 8.4779997 -1.022 231 167 96
-3.5650001 8.4899998 -1.02 97 64 31
-3.5220001 8.4820004 -1.0420001 203 110 43
-3.5050001 8.4790001 -1.025 160 107 67
-3.5079999 8.4890003 -1.024 211 171 136
-3.523 8.4790001 -1.036 233 140 70
-3.5480001 8.441 -1.028 207 142 78
-3.552 8.4549999 -1.017 147 87 24
-3.5469999 8.4449997 -1.024 168 105 51
-3.585 8.5010004 -1.007 166 120 61
-3.5840001 8.4890003 -1.021 205 171 144
-3.576 8.4879999 -1.061 178 94 34
-3.5799999 8.4949999 -1.064 195 120 37
-3.5829999 8.4940004 -1.0599999 115 59 24
-3.4419999 8.5129995 -0.99800003 128 93 63
-3.4719999 8.5419998 -0.98500001 166 112 66
-3.4779999 8.5279999 -0.99800003 98 44 0
-3.4790001 8.5299997 -0.99199998 101 37 0
-3.573 8.493 -1.067 139 72 29
-3.513 8.526 -1.059 255 199 126
-3.516 8.5220003 -1.056 187 95 22
-3.448 8.5459995 -1.045 80 35 6
-3.4489999 8.5349998 -1.053 91 44 2
-3.5669999 8.493 -1.062 133 70 26
-3.5650001 8.4770002 -1.059 124 88 62
-3.5569999 8.4720001 -1.067 83 53 29
-3.579 8.5030003 -1.054 187 95 22
-3.566 8.4960003 -1.062 120 63 18
-3.513 8.5240002 -1.062 211 129 27
-3.507 8.5319996 -1.057 55 38 8
-3.553 8.4560003 -1.067 65 34 13
-3.4690001 8.5620003 -1.039 168 100 25
-3.46 8.5679998 -1.044 120 55 17
-3.46 8.5649996 -1.044 120 57 14
-3.4579999 8.5600004 -1.0420001 143 83 33
-3.576 8.5080004 -1.023 105 51 17
-3.5150001 8.5179996 -1.051 149 64 7
-3.457 8.5310001 -0.90100002 228 160 63
-3.576 8.5100002 -1.011 114 86 62
-3.4679999 8.5220003 -0.89600003 218 174 77
-3.4719999 8.5 -0.99199998 120 79 35
-3.461 8.4919996 -0.98799998 175 100 42
-3.4590001 8.5050001 -0.97799999 181 144 102
-3.4719999 8.5089998 -0.97299999 151 87 39
-3.5179999 8.4580002 -1.0190001 196 131 89
-3.513 8.4519997 -1.029 135 117 113
-3.5139999 8.4530001 -1.024 168 92 42
-3.516 8.4499998 -1.022 127 114 108
-3.527 8.4540005 -1.012 231 168 124
-3.526 8.4429998 -1.0190001 241 135 59
-3.448 8.5109997 -1.025 164 48 0
-3.45 8.5120001 -1.033 155 39 0
-3.5309999 8.4659996 -1.0140001 187 106 53
-3.5220001 8.4569998 -1.013 173 89 17
-3.5190001 8.4610004 -1.017 93 29 0
-3.5450001 8.4510002 -1.017 165 78 9
-3.5020001 8.5340004 -0.94999999 120 53 0
-3.536 8.4499998 -1.01 196 133 89
-3.5409999 8.4519997 -1.016 164 99 57
-3.5439999 8.434 -1.02 133 94 65
-3.447 8.4890003 -1.067 255 196 100
-3.4619999 8.5190001 -1.064 87 23 0
-3.45 8.5220003 -1.045 160 104 55
-3.451 8.5179996 -1.044 134 93 63
-3.447 8.5139999 -1.04 210 115 49
-3.421 8.5089998 -1.021 157 146 140
-3.4679999 8.5010004 -0.91900003 201 152 86
-3.5009999 8.5240002 -0.94700003 133 74 14
-3.428 8.4890003 -1.016 142 98 59
-3.434 8.4840002 -1.011 114 57 14
-3.4530001 8.507 -0.97100002 224 125 60
-3.4660001 8.5100002 -0.96200001 200 111 27
-3.4619999 8.5100002 -0.96899998 149 108 64
-3.4790001 8.5439997 -0.949 128 116 116
-3.474 8.5450001 -0.94700003 96 35 4
-3.4809999 8.5509996 -0.949 89 79 80
-3.48 8.5360003 -0.935 100 38 0
-3.493 8.5389996 -0.94499999 218 165 111
-3.474 8.5360003 -0.93900001 58 41 33
-3.471 8.5389996 -0.94499999 121 64 21
-3.447 8.5290003 -0.98199999 78 32 9
-3.448 8.5290003 -0.97299999 229 148 93
-3.5699999 8.4989996 -1.022 201 128 59
-3.573 8.4809999 -1.021 219 169 106
-3.5639999 8.4750004 -1.018 246 186 123
-3.5309999 8.4680004 -1.029 199 116 62
-3.533 8.4659996 -1.024 95 62 31
-3.5420001 8.4619999 -1.029 159 101 63
-3.5439999 8.4589996 -1.0369999 178 83 15
-3.5580001 8.4790001 -1.0190001 182 140 102
-3.5580001 8.4750004 -1.061 241 222 244
-3.54 8.448 -1.054 192 130 55
-3.585 8.5050001 -1.008 155 80 38
-3.5840001 8.4879999 -1.021 192 135 90
-3.575 8.4820004 -1.059 132 89 54
-3.5840001 8.4879999 -1.0549999 143 92 39
-3.4200001 8.5 -1.02 229 200 158
-3.448 8.5170002 -0.98199999 156 51 0
-3.4779999 8.5360003 -0.96700001 96 50 26
-3.4849999 8.5389996 -0.95599997 163 112 67
-3.4790001 8.54 -0.991 121 80 50
-3.477 8.5360003 -0.995 219 136 70
-3.477 8.5419998 -0.986 107 62 29
-3.4909999 8.5439997 -0.94999999 174 125 84
-3.4779999 8.5299997 -0.995 90 49 21
-3.579 8.5019999 -1.073 147 82 24
-3.494 8.5430002 -1.0599999 151 119 98
-3.503 8.5430002 -1.051 164 87 43
-3.4920001 8.5459995 -1.0549999 177 109 70
-3.4920001 8.5430002 -1.061 45 26 20
-3.4979999 8.5229998 -1.068 233 205 62
-3.51 8.5279999 -1.053 142 71 19
-3.4849999 8.533 -1.0369999 141 91 58
-3.484 8.5349998 -1.056 128 78 41
-3.4590001 8.5349998 -1.045 176 108 69
-3.464 8.5240002 -1.059 101 43 5
-3.454 8.5380001 -1.046 128 66 19
-3.5829999 8.4910002 -1.054 110 66 31
-3.474 8.5450001 -1.007 88 23 0
-3.471 8.5459995 -1.008 140 96 67
-3.4679999 8.5360003 -1.013 106 57 25
-3.4619999 8.5439997 -1.044 76 22 0
-3.4530001 8.5679998 -1.0369999 187 128 52
-3.464 8.5600004 -1.04 169 103 42
-3.4560001 8.559 -1.0369999 252 182 120
-3.4630001 8.5480003 -1.038 161 101 64
-3.447 8.5710001 -1.041 187 137 68
-3.5780001 8.4849997 -1.021 194 160 132
-3.5810001 8.4860001 -1.018 147 107 46
-3.572 8.4980001 -1.0039999 43 5 0
-3.46 8.5319996 -0.89999998 164 112 75
-3.473 8.5340004 -0.91799998 136 79 34
-3.474 8.5240002 -0.89999998 162 114 76
-3.4549999 8.4980001 -0.91299999 218 111 33
-3.4489999 8.4989996 -0.90899998 203 129 66
-3.451 8.4969997 -0.99000001 174 95 20
-3.4590001 8.493 -1.008 107 61 37
-3.4630001 8.4870005 -0.99299997 140 77 42
-3.4560001 8.4989996 -0.995 133 93 57
-3.4590001 8.5139999 -0.94999999 154 100 53
-3.471 8.4890003 -1.008 117 64 30
-3.4649999 8.4969997 -1.029 71 47 19
-3.5050001 8.4799995 -1.0190001 165 102 49
-3.4909999 8.4840002 -1.013 228 141 88
-3.507 8.4770002 -1.018 157 97 60
-3.49 8.4849997 -1.011 160 129 109
-3.487 8.5080004 -0.96899998 208 133 68
-3.4979999 8.526 -0.96100003 104 57 29
-3.4990001 8.5279999 -0.95700002 151 88 53
-3.4790001 8.5279999 -0.98900002 100 59 29
-3.5409999 8.4630003 -1.016 132 107 76
-3.451 8.4860001 -1.073 61 46 27
-3.4519999 8.4919996 -1.072 185 125 65
-3.448 8.493 -1.074 241 177 77
-3.451 8.4820004 -1.072 229 164 72
-3.483 8.5050001 -1.062 188 118 67
-3.473 8.4919996 -1.054 199 145 107
-3.474 8.4910002 -1.061 188 113 56
-3.47 8.5019999 -1.064 66 45 18
-3.447 8.5310001 -1.036 181 147 102
-3.434 8.5139999 -1.0319999 186 86 24
-3.45 8.526 -1.04 188 105 53
-3.4419999 8.5360003 -1.025 171 101 32
-3.4449999 8.559 -1.031 252 190 105
-3.448 8.5360003 -1.033 94 34 0
-3.4289999 8.5120001 -1.022 250 139 67
-3.461 8.5179996 -0.93599999 125 51 14
-3.4619999 8.5190001 -0.93699998 135 47 1
-3.451 8.5019999 -0.91399997 204 151 73
-3.4979999 8.533 -0.94300002 151 85 33
-3.49 8.5310001 -0.94099998 154 95 55
-3.424 8.4949999 -1.023 109 57 17
-3.4300001 8.5050001 -1.017 237 124 56
-3.447 8.5290003 -0.98799998 187 102 45
-3.457 8.507 -0.97399998 212 150 101
-3.448 8.5150003 -0.97100002 138 64 29
-3.4489999 8.5249996 -0.97399998 99 74 67
-3.471 8.5310001 -0.94499999 137 64 9
-3.467 8.5290003 -0.95099998 92 43 13
-3.461 8.5290003 -0.96100003 73 11 0
-3.4619999 8.5229998 -0.95099998 104 54 27
-3.474 8.5039997 -0.89999998 182 138 77
-3.5699999 8.5019999 -1.0190001 202 123 66
-3.5650001 8.4960003 -1.0089999 205 106 39
-3.5650001 8.4879999 -1.015 208 177 157
-3.5799999 8.4829998 -1.012 207 144 73
-3.549 8.4549999 -1.03 238 132 48
-3.5539999 8.4580002 -1.023 161 100 37
-3.5469999 8.4460001 -1.029 151 90 43
-3.5599999 8.4680004 -1.061 97 63 38
-3.503 8.5 -1.062 180 116 68
-3.5680001 8.4820004 -1.056 122 87 55
-3.572 8.5 -1.066 154 86 41
-3.4820001 8.5120001 -1.025 201 144 65
-3.4949999 8.5080004 -1.018 166 102 40
-3.4790001 8.5030003 -1.027 207 117 55
-3.4760001 8.5310001 -1.0039999 67 55 41
-3.4679999 8.5220003 -1.015 139 73 13
-3.4690001 8.533 -0.95999998 151 117 79
-3.4990001 8.5389996 -0.954 103 45 0
-3.4990001 8.5360003 -0.95700002 127 62 6
-3.4949999 8.5299997 -0.96600002 162 99 46
-3.4719999 8.5360003 -0.98000002 149 71 23
-3.4820001 8.5389996 -0.98699999 107 58 26
-3.487 8.5360003 -0.94300002 171 120 65
-3.5009999 8.5340004 -1.056 145 118 99
-3.5050001 8.5279999 -1.05 142 88 54
-3.5 8.5229998 -1.045 159 75 0
-3.494 8.526 -1.044 227 146 64
-3.4909999 8.5270004 -1.0599999 41 25 26
-3.493 8.5170002 -1.063 128 61 16
-3.4590001 8.5299997 -1.0470001 128 68 16
-3.5550001 8.4519997 -1.0549999 215 163 115
-3.55 8.4549999 -1.049 115 61 23
-3.549 8.4589996 -1.052 89 52 23
-3.5450001 8.4540005 -1.034 139 82 37
-3.5469999 8.4680004 -1.057 99 40 10
-3.539 8.4589996 -1.0549999 193 145 96
-3.5409999 8.4519997 -1.056 149 84 18
-3.484 8.5380001 -1.049 127 91 67
-3.47 8.5349998 -1.04 171 125 91
-3.474 8.5270004 -1.059 56 28 17
-3.451 8.5559998 -1.026 63 38 33
-3.4460001 8.5679998 -1.04 237 180 113
-3.451 8.552 -1.0369999 104 79 72
-3.586 8.5030003 -1.017 212 120 21
-3.5829999 8.4890003 -1.0039999 78 37 7
-3.582 8.4870005 -1.0089999 200 159 95
-3.5840001 8.4910002 -1.01 217 115 43
-3.5150001 8.5159998 -1.059 130 84 48
-3.464 8.5380001 -0.90499997 205 145 49
-3.461 8.5369997 -0.91100001 148 108 49
-3.47 8.5369997 -0.903 221 175 79
-3.4719999 8.5349998 -0.91000003 192 118 23
-3.4760001 8.5310001 -0.90700001 119 70 29
-3.48 8.5340004 -0.917 188 150 105
-3.4779999 8.5319996 -0.921 138 90 44
-3.4879999 8.5310001 -0.94 69 32 5
-3.4690001 8.5369997 -0.90899998 160 111 78
-3.46 8.5089998 -0.89399999 145 80 16
-3.45 8.5170002 -0.89700001 126 112 111
-3.45 8.5129995 -0.90100002 145 123 82
-3.471 8.5319996 -0.89999998 127 60 7
-3.4779999 8.5290003 -0.90600002 207 154 110
-3.4820001 8.5109997 -0.90700001 179 104 36
-3.4719999 8.5089998 -0.98500001 176 124 84
-3.45 8.4980001 -0.98299998 230 141 75
-3.4489999 8.5050001 -0.99400002 144 95 62
-3.461 8.5220003 -0.94999999 52 29 23
-3.4760001 8.4899998 -1.011 253 194 136
-3.4790001 8.493 -1.016 128 100 76
-3.4749999 8.4949999 -1.025 84 44 19
-3.483 8.4899998 -1.0089999 200 136 74
-3.4630001 8.4840002 -1.051 178 125 81
-3.47 8.4840002 -0.99800003 133 65 30
-3.4660001 8.4989996 -1.021 183 149 112
-3.454 8.4989996 -1.011 159 85 40
-3.454 8.5030003 -1.017 154 104 69
-3.464 8.4989996 -1.051 174 144 120
-3.46 8.4899998 -1.068 246 188 106
-3.447 8.5050001 -1.015 199 102 33
-3.5 8.4849997 -1.02 129 41 0
-3.5009999 8.4890003 -1.021 228 145 93
-3.4790001 8.4989996 -1.025 152 102 69
-3.4560001 8.5129995 -1.054 255 228 145
-3.4579999 8.5100002 -1.066 127 45 0
-3.45 8.5310001 -1.0470001 77 50 43
-3.4389999 8.5200005 -1.027 148 54 0
-3.427 8.5100002 -1.024 174 67 0
-3.4860001 8.5150003 -0.93900001 172 115 72
-3.4890001 8.5229998 -0.93800002 169 98 44
-3.448 8.526 -0.97500002 173 97 45
-3.473 8.5319996 -0.94199997 141 78 27
-3.4590001 8.5299997 -0.972 150 85 29
-3.4549999 8.533 -0.98000002 158 73 18
-3.4820001 8.5220003 -0.90799999 199 148 101
-3.5669999 8.4980001 -1.016 158 122 96
-3.5669999 8.4899998 -1.012 206 151 94
-3.5769999 8.4870005 -1.011 196 93 18
-3.5539999 8.4580002 -1.063 88 53 31
-3.5810001 8.5059996 -1.007 228 160 95
-3.5769999 8.4940004 -1.054 131 82 42
-3.5780001 8.4949999 -1.051 119 72 26
-3.572 8.5 -1.068 75 20 0
-3.4820001 8.5109997 -1.021 103 58 29
-3.4909999 8.5100002 -1.011 103 59 34
-3.4879999 8.5279999 -1.04 205 126 47
-3.497 8.5190001 -1.041 219 122 25
-3.477 8.5310001 -1.002 77 36 16
-3.4790001 8.5240002 -1.029 120 67 25
-3.473 8.5249996 -1.03 147 77 41
-3.441 8.5270004 -0.99900001 210 122 50
-3.47 8.533 -0.96100003 201 167 122
-3.4949999 8.5340004 -0.95899999 139 74 36
-3.4820001 8.5369997 -0.98699999 100 63 36
-3.4860001 8.533 -0.94 253 181 123
-3.51 8.5209999 -1.048 209 160 102
-3.507 8.5150003 -1.045 119 91 70
-3.5439999 8.4490004 -1.052 255 209 127
-3.5420001 8.4469995 -1.034 160 107 65
-3.5420001 8.4659996 -1.051 105 70 48
-3.484 8.5249996 -1.059 178 133 94
-3.461 8.5389996 -1.015 209 143 85
-3.457 8.5389996 -1.028 253 219 147
-3.45 8.5670004 -1.0369999 189 130 52
-3.5829999 8.5089998 -1.0089999 180 74 22
-3.585 8.4940004 -1.015 125 58 15
-3.513 8.5019999 -1.046 107 48 8
-3.513 8.5129995 -1.048 131 79 40
-3.503 8.5200005 -1.0599999 59 48 54
-3.483 8.5290003 -0.912 188 117 65
-3.461 8.5039997 -0.89399999 114 47 2
-3.454 8.4969997 -0.90899998 222 111 22
-3.4549999 8.4969997 -0.98500001 216 139 85
-3.4679999 8.5050001 -0.97799999 121 78 44
-3.4679999 8.5120001 -0.94099998 172 92 31
-3.4579999 8.5159998 -0.95599997 80 44 12
-3.4660001 8.4870005 -1.058 89 23 0
-3.5109999 8.4490004 -1.024 165 81 21
-3.4619999 8.4790001 -1.0650001 210 131 54
-3.4690001 8.4870005 -0.99900001 163 97 62
-3.447 8.5010004 -1.011 249 162 85
-3.448 8.4969997 -1.011 150 78 30
-3.4660001 8.5039997 -1.0470001 125 73 33
-3.4760001 8.5120001 -1.035 205 107 0
-3.4790001 8.5120001 -1.041 126 62 16
-3.4719999 8.5019999 -1.058 222 159 54
-3.4530001 8.4829998 -1.0700001 222 161 96
-3.4590001 8.5030003 -1.068 221 153 56
-3.437 8.5200005 -1.0190001 251 164 87
-3.497 8.5 -1.006 228 122 36
-3.4979999 8.4980001 -1.015 182 109 68
-3.487 8.4960003 -1.018 210 138 90
-3.507 8.4960003 -1.021 126 91 63
-3.4960001 8.4949999 -1.006 233 127 43
-3.4920001 8.5 -1.017 172 72 0
-3.5250001 8.4580002 -1.03 178 110 61
-3.539 8.4619999 -1.016 155 125 99
-3.533 8.4370003 -1.023 202 112 49
-3.5320001 8.441 -1.026 104 50 24
-3.5250001 8.4469995 -1.025 139 70 31
-3.5320001 8.4440002 -1.028 179 64 9
-3.454 8.5109997 -1.0470001 189 148 96
-3.4349999 8.5179996 -1.027 182 151 105
-3.4349999 8.5170002 -1.0190001 148 99 59
-3.4530001 8.54 -1.045 73 51 30
-3.4809999 8.5179996 -0.93599999 202 101 33
-3.431 8.5129995 -1.0190001 249 145 58
-3.4300001 8.5100002 -1.0140001 180 152 113
-3.5680001 8.4949999 -1.007 254 157 76
-3.5829999 8.4890003 -1.0140001 185 141 76
-3.5539999 8.4619999 -1.066 153 87 37
-3.55 8.4560003 -1.063 159 89 30
-3.543 8.4569998 -1.056 73 36 7
-3.4909999 8.5080004 -1.062 252 195 105
-3.4949999 8.5089998 -1.061 190 118 44
-3.497 8.507 -1.056 205 135 49
-3.5869999 8.4940004 -1.018 150 74 24
-3.5710001 8.4989996 -1.072 111 49 10
-3.4489999 8.5430002 -1.0369999 139 83 32
-3.4690001 8.533 -1.033 113 60 28
-3.4749999 8.5349998 -1.003 117 75 50
-3.4790001 8.5229998 -1.003 179 111 46
-3.4460001 8.5240002 -0.98799998 215 117 42
-3.4879999 8.5129995 -1.063 169 97 25
-3.5 8.5290003 -0.95300001 119 56 5
-3.49 8.5349998 -0.95999998 178 122 65
-3.5139999 8.5209999 -1.051 162 70 0
-3.506 8.5380001 -1.054 169 104 64
-3.4679999 8.5299997 -1.043 235 158 76
-3.5420001 8.4519997 -1.052 187 126 59
-3.54 8.4440002 -1.036 109 78 49
-3.536 8.4490004 -1.034 175 83 34
-3.5320001 8.4510002 -1.033 155 72 30
-3.461 8.5430002 -1.036 141 79 40
-3.4809999 8.5159998 -1.064 170 95 30
-3.4679999 8.5179996 -1.064 214 155 65
-3.5020001 8.5100002 -1.061 142 88 52
-3.5220001 8.4890003 -1.044 139 54 0
-3.523 8.4849997 -1.05 123 42 0
-3.5190001 8.5089998 -1.0549999 181 92 34
-3.503 8.5019999 -1.0549999 149 83 33
-3.4949999 8.5150003 -1.049 160 106 68
-3.4860001 8.5150003 -1.048 219 180 137
-3.461 8.5039997 -0.91900003 191 84 12
-3.4630001 8.5089998 -0.92199999 97 61 25
-3.4649999 8.4989996 -0.90200001 193 116 28
-3.444 8.5170002 -0.99800003 170 131 90
-3.4619999 8.4799995 -1.066 166 124 40
-3.4560001 8.4989996 -1.059 182 129 77
-3.4549999 8.4940004 -1.069 255 194 87
-3.46 8.4960003 -1.067 255 204 85
-3.4349999 8.5089998 -1.01 113 71 29
-3.493 8.4919996 -1.016 212 136 87
-3.497 8.4960003 -1.017 100 50 13
-3.5239999 8.474 -1.038 135 79 32
-3.4719999 8.5109997 -0.91900003 189 136 92
-3.4849999 8.5170002 -0.93699998 206 107 42
-3.4590001 8.5170002 -0.92699999 92 48 13
-3.4579999 8.5240002 -0.91799998 255 166 108
-3.454 8.5179996 -0.91600001 255 160 99
-3.46 8.5139999 -0.935 208 112 54
-3.4590001 8.5129995 -0.92400002 145 45 0
-3.572 8.493 -1.0089999 135 103 82
-3.5869999 8.4980001 -1.0190001 180 126 90
-3.46 8.5089998 -1.039 89 53 29
-3.4920001 8.5170002 -1.0420001 249 151 44
-3.484 8.5240002 -1.035 231 147 59
-3.4809999 8.507 -1.0599999 157 105 65
-3.497 8.5310001 -1.051 139 91 42
-3.527 8.4530001 -1.0319999 135 58 14
-3.5109999 8.5059996 -1.057 102 53 23
-3.5 8.5170002 -1.0420001 225 129 45
-3.4679999 8.5159998 -0.93599999 200 114 57
-3.477 8.5159998 -0.92000002 102 57 34
-3.4530001 8.4969997 -0.986 163 83 14
-3.473 8.4879999 -1.0039999 111 65 31
-3.4549999 8.4960003 -1.062 50 34 18
-3.4960001 8.4899998 -1.016 197 115 65
-3.4519999 8.5050001 -0.91600001 226 170 135
-3.448 8.5050001 -0.90799999 250 175 94
-3.4530001 8.5220003 -0.91399997 143 64 8
-3.4579999 8.5139999 -0.92199999 161 134 115
-3.552 8.4630003 -1.057 90 26 0
-3.46 8.5010004 -1.028 140 77 24
-3.487 8.5120001 -1.063 142 74 27
-3.48 8.4899998 -0.99800003 82 31 0
-3.4760001 8.5120001 -1.021 205 139 91
-3.4779999 8.5059996 -1.028 184 87 19
-3.5280001 8.4490004 -1.028 149 48 0
-3.507 8.5039997 -1.0549999 120 62 22
-3.5079999 8.507 -1.048 65 37 16
-3.461 8.5129995 -0.93400002 190 113 59
-3.48 8.5139999 -0.91299999 198 154 93
-3.47 8.4910002 -1.063 248 179 110
-3.4519999 8.5010004 -1.064 192 141 94
-3.539 8.4390001 -1.026 69 11 0
-3.4820001 8.5200005 -0.91900003 193 139 93
-3.4349999 8.5150003 -1.017 232 141 48
-3.483 8.5159998 -0.91000003 204 141 87
-3.448 8.5179996 -0.97899997 163 70 1
-3.5350001 8.441 -1.029 192 92 42
-3.5369999 8.4390001 -1.027 209 148 81
0 0 0 1 0 0 0 1 0 0 0 1 0 0 0 0 0 633 1 0 0
