ply
format ascii 1.0
comment PCL generated
element vertex 56
property float x
property float y
property float z
property uchar red
property uchar green
property uchar blue
element camera 1
property float view_px
property float view_py
property float view_pz
property float x_axisx
property float x_axisy
property float x_axisz
property float y_axisx
property float y_axisy
property float y_axisz
property float z_axisx
property float z_axisy
property float z_axisz
property float focal
property float scalex
property float scaley
property float centerx
property float centery
property int viewportx
property int viewporty
property float k1
property float k2
end_header
-12.961 8.4139996 -1.151 225 153 79
-12.956 8.4139996 -1.151 139 116 102
-12.964 8.4090004 -1.1569999 75 34 6
-12.968 8.4139996 -1.1440001 174 98 46
-12.96 8.408 -1.132 159 79 16
-12.962 8.4189997 -1.1440001 190 113 45
-12.968 8.3970003 -1.1289999 212 136 76
-12.972 8.3959999 -1.1339999 93 43 10
-12.961 8.4060001 -1.1210001 240 144 68
-12.951 8.4049997 -1.096 199 141 93
-12.954 8.4119997 -1.103 228 139 71
-12.957 8.4060001 -1.095 229 164 110
-12.957 8.4139996 -1.103 223 155 92
-12.963 8.4110003 -1.098 163 109 75
-12.963 8.3929996 -1.1160001 197 123 62
-12.961 8.3999996 -1.103 209 144 90
-12.951 8.3870001 -1.1059999 220 128 53
-12.958 8.3990002 -1.109 152 88 40
-12.955 8.3970003 -1.099 202 149 109
-12.954 8.382 -1.117 141 80 36
-12.954 8.3780003 -1.119 208 134 71
-12.943 8.4029999 -1.119 186 137 94
-12.934 8.3850002 -1.1109999 255 235 211
-12.948 8.3990002 -1.1059999 236 140 64
-12.945 8.3979998 -1.119 89 67 44
-12.969 8.3950005 -1.126 119 65 27
-12.961 8.4160004 -1.149 180 132 94
-12.954 8.3889999 -1.1440001 209 112 41
-12.96 8.3909998 -1.155 94 49 18
-12.956 8.3940001 -1.1569999 66 46 35
-12.96 8.4110003 -1.1 230 171 129
-12.95 8.3970003 -1.102 179 125 89
-12.95 8.3830004 -1.118 153 104 71
-12.959 8.3870001 -1.13 116 67 34
-12.965 8.3859997 -1.131 168 92 32
-12.956 8.415 -1.142 166 137 119
-12.956 8.4090004 -1.11 210 157 113
-12.963 8.3900003 -1.141 147 98 65
-12.954 8.3909998 -1.141 184 111 58
-12.933 8.382 -1.107 205 102 25
-12.93 8.3800001 -1.113 135 92 49
-12.965 8.3809996 -1.128 181 118 67
-12.951 8.4020004 -1.11 224 155 90
-12.955 8.4110003 -1.118 205 127 61
-12.949 8.4029999 -1.124 113 59 23
-12.958 8.4069996 -1.133 105 55 22
-12.958 8.4110003 -1.142 246 172 97
-12.962 8.3999996 -1.156 85 41 14
-12.96 8.3920002 -1.147 115 69 33
-12.962 8.4029999 -1.15 172 97 32
-12.961 8.3999996 -1.148 130 85 52
-12.966 8.3950005 -1.15 163 83 20
-12.954 8.4060001 -1.112 219 159 107
-12.947 8.3990002 -1.131 195 97 22
-12.953 8.3959999 -1.13 128 80 40
-12.954 8.3970003 -1.1390001 95 49 16
0 0 0 1 0 0 0 1 0 0 0 1 0 0 0 0 0 56 1 0 0
