ply
format ascii 1.0
comment PCL generated
element vertex 1244
property float x
property float y
property float z
property uchar red
property uchar green
property uchar blue
element camera 0
property float view_px
property float view_py
property float view_pz
property float x_axisx
property float x_axisy
property float x_axisz
property float y_axisx
property float y_axisy
property float y_axisz
property float z_axisx
property float z_axisy
property float z_axisz
property float focal
property float scalex
property float scaley
property float centerx
property float centery
property int viewportx
property int viewporty
property float k1
property float k2
end_header
-3.2509999 -2.7720001 -0.972 6 0 0
-3.2780001 -2.777 -0.97299999 29 1 0
-3.286 -2.7850001 -0.85699999 17 2 0
-3.279 -2.7869999 -0.85900003 15 0 0
-3.2869999 -2.783 -0.866 16 6 5
-3.2839999 -2.7820001 -0.87699997 31 13 9
-3.2479999 -2.7939999 -0.926 13 0 0
-3.2379999 -2.79 -0.921 7 1 1
-3.372 -2.806 -0.71600002 22 15 5
-3.3340001 -2.7939999 -0.76499999 23 4 0
-3.3310001 -2.7920001 -0.75199997 47 28 24
-3.329 -2.7880001 -0.78399998 16 2 1
-3.3310001 -2.7939999 -0.77100003 9 0 0
-3.2420001 -2.635 -0.85799998 21 13 10
-3.2520001 -2.6359999 -0.86500001 46 28 24
-3.233 -2.651 -0.85500002 79 68 66
-3.2390001 -2.6470001 -0.861 20 0 1
-3.3169999 -2.572 -0.866 77 25 3
-3.3150001 -2.5680001 -0.86400002 100 44 7
-3.313 -2.5769999 -0.86299998 132 75 55
-3.325 -2.5910001 -0.87800002 43 20 14
-3.323 -2.608 -0.87599999 21 3 0
-3.3239999 -2.602 -0.87300003 119 101 63
-3.319 -2.5940001 -0.884 41 5 0
-3.3180001 -2.5810001 -0.86500001 38 10 0
-3.2550001 -2.6359999 -0.86000001 23 0 0
-3.3169999 -2.602 -0.875 45 25 26
-3.3069999 -2.609 -0.89600003 63 25 12
-3.3010001 -2.6010001 -0.884 61 38 32
-3.2709999 -2.625 -0.82200003 19 10 11
-3.276 -2.632 -0.81800002 50 36 33
-3.332 -2.589 -0.91299999 58 26 3
-3.3239999 -2.609 -0.92699999 30 13 6
-3.21 -2.464 -0.824 13 2 0
-3.3110001 -2.7490001 -0.80900002 75 42 25
-3.3050001 -2.744 -0.80699998 43 22 17
-3.313 -2.747 -0.80400002 91 54 28
-3.309 -2.753 -0.81599998 17 0 0
-3.2739999 -2.655 -0.86299998 21 7 4
-3.2939999 -2.654 -0.87199998 19 2 0
-3.296 -2.664 -0.86199999 9 0 2
-3.2780001 -2.6500001 -0.84200001 14 0 0
-3.141 -2.6919999 -0.52600002 53 30 22
-3.1440001 -2.7 -0.52399999 61 23 4
-3.1470001 -2.6989999 -0.528 75 34 2
-3.141 -2.6819999 -0.52499998 61 7 0
-3.1489999 -2.6760001 -0.53399998 59 40 42
-3.1459999 -2.674 -0.53399998 32 17 12
-3.0680001 -2.2639999 -0.67500001 237 164 119
-3.076 -2.277 -0.67900002 85 29 6
-3.0699999 -2.27 -0.67500001 129 71 33
-3.181 -2.6099999 -0.54400003 66 38 14
-3.194 -2.5969999 -0.551 80 61 47
-3.1860001 -2.6129999 -0.551 101 70 52
-3.188 -2.609 -0.54699999 88 56 35
-3.1849999 -2.612 -0.54799998 81 50 29
-3.1819999 -2.6129999 -0.54100001 70 40 12
-3.1960001 -2.598 -0.53899997 62 40 27
-3.1860001 -2.615 -0.528 160 122 86
-3.1860001 -2.612 -0.53399998 139 103 67
-3.0650001 -2.474 -0.66600001 171 114 59
-3.1730001 -2.6559999 -0.71200001 19 0 0
-3.187 -2.6489999 -0.71499997 44 1 0
-3.1800001 -2.6589999 -0.72500002 6 2 3
-3.1760001 -2.6630001 -0.72500002 47 29 25
-3.1719999 -2.665 -0.722 12 0 2
-3.1719999 -2.6659999 -0.72399998 35 17 13
-3.175 -2.6530001 -0.64099997 13 1 3
-3.1760001 -2.6570001 -0.63599998 181 156 126
-3.1489999 -2.582 -0.708 20 2 0
-3.154 -2.582 -0.704 46 22 12
-3.1659999 -2.6700001 -0.708 42 22 23
-3.158 -2.575 -0.75599998 50 17 0
-3.155 -2.572 -0.75300002 121 106 101
-3.141 -2.569 -0.75300002 58 44 44
-3.1619999 -2.5699999 -0.74699998 145 121 111
-3.181 -2.6489999 -0.62 89 60 46
-3.177 -2.6619999 -0.611 96 57 42
-3.1670001 -2.6619999 -0.61299998 150 118 97
-3.178 -2.652 -0.62800002 22 0 0
-3.177 -2.6489999 -0.64200002 15 0 3
-2.858 -2.5469999 -0.68199998 142 110 59
-2.8540001 -2.553 -0.68099999 250 194 109
-2.8640001 -2.5409999 -0.67900002 255 253 194
-2.8599999 -2.533 -0.67500001 196 163 118
-2.8440001 -2.5239999 -0.67500001 47 30 20
-3.161 -2.6800001 -0.63499999 91 73 73
-2.872 -2.5409999 -0.66900003 63 19 0
-2.8610001 -2.5380001 -0.67299998 47 14 0
-2.8659999 -2.5320001 -0.66600001 73 22 1
-2.8699999 -2.5350001 -0.66799998 53 6 0
-2.882 -2.5150001 -0.676 76 48 37
-2.8759999 -2.5220001 -0.66900003 100 63 37
-3.027 -2.474 -0.66000003 121 52 11
-3.026 -2.4690001 -0.66100001 85 30 0
-3.023 -2.5009999 -0.773 85 46 13
-3.0250001 -2.4979999 -0.78299999 66 32 7
-3.0320001 -2.5050001 -0.78899997 48 30 26
-3.135 -2.5439999 -0.741 143 126 119
-3.033 -2.506 -0.77899998 186 144 102
-3.029 -2.5009999 -0.77200001 255 238 209
-3.033 -2.5009999 -0.77200001 255 246 207
-3.1429999 -2.566 -0.75999999 107 97 96
-3.1389999 -2.5550001 -0.74900001 35 21 20
-3.1429999 -2.556 -0.75800002 57 19 0
-3.1700001 -2.5190001 -0.75400001 120 85 55
-3.1659999 -2.4990001 -0.76300001 40 17 3
-3.1689999 -2.5179999 -0.75800002 142 106 70
-3.075 -2.471 -0.75800002 149 105 76
-3.073 -2.484 -0.69300002 124 85 68
-3.0599999 -2.5050001 -0.67500001 121 73 37
-3.086 -2.5020001 -0.68699998 60 22 3
-3.0769999 -2.497 -0.67900002 49 23 8
-3.1630001 -2.573 -0.75199997 48 33 28
-3.1659999 -2.5739999 -0.75999999 51 24 15
-3.247 -2.595 -0.76899999 42 15 6
-3.2360001 -2.608 -0.78399998 65 46 39
-3.2490001 -2.596 -0.77499998 78 61 51
-3.2309999 -2.576 -0.74199998 32 13 0
-3.233 -2.5799999 -0.75700003 57 33 23
-3.2360001 -2.5910001 -0.75700003 51 33 21
-3.227 -2.572 -0.74900001 80 67 61
-3.234 -2.5899999 -0.76300001 52 35 27
-3.1670001 -2.575 -0.764 85 65 58
-3.168 -2.575 -0.773 86 75 73
-2.8670001 -2.5320001 -0.79900002 19 5 5
-2.8570001 -2.529 -0.79799998 114 76 53
-2.8570001 -2.53 -0.79400003 20 3 0
-2.859 -2.526 -0.81300002 154 109 86
-2.8740001 -2.5339999 -0.80400002 42 5 0
-2.895 -2.5190001 -0.773 51 25 10
-2.8840001 -2.5250001 -0.78500003 32 3 0
-2.8770001 -2.51 -0.78899997 98 63 41
-2.8770001 -2.507 -0.79500002 105 79 64
-3.0699999 -2.306 -0.73799998 58 29 15
-3.073 -2.3050001 -0.74400002 142 105 86
-3.0710001 -2.3039999 -0.74599999 53 25 11
-3.0669999 -2.3039999 -0.73699999 185 148 130
-3.052 -2.457 -0.66500002 80 52 5
-3.0550001 -2.457 -0.66600001 138 65 24
-3.0639999 -2.4519999 -0.722 49 1 0
-3.0710001 -2.4549999 -0.72799999 54 21 0
-3.0639999 -2.431 -0.73400003 88 42 9
-3.0739999 -2.293 -0.70999998 102 73 59
-3.0739999 -2.3039999 -0.69800001 63 12 0
-3.0639999 -2.303 -0.74199998 37 10 0
-2.925 -2.539 -0.78299999 117 71 56
-2.9170001 -2.5369999 -0.78799999 121 70 41
-2.9289999 -2.527 -0.77399999 217 163 127
-2.9300001 -2.539 -0.778 68 11 0
-3.0090001 -2.483 -0.76800001 36 7 0
-2.9030001 -2.506 -0.82599998 67 45 32
-2.9159999 -2.517 -0.81300002 107 67 31
-2.9170001 -2.5179999 -0.81400001 86 45 15
-2.9119999 -2.4890001 -0.82700002 40 15 10
-2.895 -2.5020001 -0.81900001 69 36 17
-2.905 -2.4860001 -0.82300001 78 43 15
-3.119 -2.4820001 -0.82599998 42 31 29
-3.0109999 -2.471 -0.89499998 72 27 6
-2.9960001 -2.4679999 -0.80900002 133 112 95
-2.9890001 -2.4560001 -0.80000001 89 57 34
-2.937 -2.5650001 -0.75700003 160 98 39
-2.9300001 -2.5650001 -0.75099999 120 71 31
-2.9319999 -2.553 -0.74299997 228 173 132
-2.9579999 -2.5480001 -0.75700003 135 83 25
-2.9579999 -2.55 -0.74900001 126 78 42
-3 -2.4779999 -0.83999997 58 30 9
-3.0139999 -2.4790001 -0.83899999 51 28 14
-2.938 -2.556 -0.74800003 191 121 59
-2.951 -2.54 -0.75400001 181 98 20
-2.9000001 -2.5550001 -0.73699999 140 103 85
-2.9070001 -2.5510001 -0.73500001 91 53 16
-2.8929999 -2.552 -0.74800003 84 49 27
-3.1570001 -2.6730001 -0.57499999 11 0 4
-3.1700001 -2.671 -0.56800002 174 135 118
-3.171 -2.6700001 -0.58399999 179 101 52
-3.1719999 -2.6670001 -0.55900002 79 47 24
-3.1530001 -2.674 -0.57200003 86 72 69
-3.1670001 -2.671 -0.55900002 31 2 0
-3.155 -2.671 -0.60500002 91 71 47
-3.1329999 -2.6919999 -0.52399999 119 90 72
-3.161 -2.6900001 -0.58200002 66 31 12
-3.1559999 -2.6830001 -0.588 58 38 39
-3.164 -2.6800001 -0.54900002 42 27 8
-3.1689999 -2.6930001 -0.54400003 17 0 0
-3.1819999 -2.6860001 -0.53500003 77 38 9
-3.1800001 -2.6570001 -0.64899999 21 4 0
-3.154 -2.6819999 -0.60299999 96 74 76
-2.882 -2.5309999 -0.68000001 199 155 120
-2.882 -2.5409999 -0.68300003 162 93 26
-2.852 -2.562 -0.685 147 89 43
-2.858 -2.562 -0.685 78 25 0
-3.141 -2.654 -0.50300002 39 15 5
-3.1489999 -2.6459999 -0.50400001 23 0 0
-3.1429999 -2.707 -0.52100003 150 115 96
-2.9690001 -2.4200001 -0.61400002 148 82 32
-2.9619999 -2.4119999 -0.611 28 4 0
-2.9690001 -2.4219999 -0.61400002 160 93 38
-2.971 -2.4119999 -0.61299998 88 35 3
-2.973 -2.4159999 -0.61500001 126 74 35
-2.881 -2.3889999 -0.65499997 44 7 0
-2.881 -2.388 -0.653 89 46 29
-2.881 -2.3759999 -0.65899998 65 34 16
-2.983 -2.438 -0.63200003 87 29 0
-2.9860001 -2.4330001 -0.63200003 119 82 64
-3.0179999 -2.471 -0.66399997 47 9 0
-2.957 -2.4330001 -0.63599998 117 88 74
-2.9690001 -2.427 -0.64999998 103 75 51
-2.967 -2.427 -0.65200001 63 36 9
-2.848 -2.5 -0.69999999 192 110 37
-2.858 -2.4990001 -0.69599998 64 31 14
-2.839 -2.5050001 -0.69599998 34 16 6
-3.2360001 -2.5309999 -0.85399997 10 0 1
-3.24 -2.5420001 -0.85000002 32 15 8
-3.2379999 -2.573 -0.84600002 25 12 4
-3.237 -2.562 -0.84399998 18 10 7
-3.1889999 -2.6819999 -0.90600002 9 1 0
-3.1949999 -2.6659999 -0.91100001 2 0 1
-3.2160001 -2.8010001 -0.81999999 36 8 0
-3.24 -2.7290001 -0.79000002 61 39 28
-3.1960001 -2.734 -0.926 14 6 4
-3.1960001 -2.7349999 -0.92299998 5 1 0
-3.2030001 -2.7409999 -0.93800002 17 4 0
-3.201 -2.7379999 -0.94099998 17 6 2
-3.201 -2.7460001 -0.94199997 25 1 1
-3.1700001 -2.786 -0.87099999 32 9 0
-3.1719999 -2.7750001 -0.87800002 12 2 3
-3.1670001 -2.786 -0.86799997 171 130 112
-3.1619999 -2.796 -0.81800002 32 9 3
-3.1440001 -2.556 -0.81900001 35 12 0
-3.2019999 -2.6919999 -0.94300002 81 48 31
-3.154 -2.54 -0.78299999 37 8 0
-3.1600001 -2.5469999 -0.78200001 37 11 10
-3.1440001 -2.553 -0.773 92 81 75
-3.1619999 -2.5409999 -0.801 146 113 94
-3.161 -2.5409999 -0.78799999 24 0 0
-3.1570001 -2.5380001 -0.78799999 41 13 2
-3.174 -2.5699999 -0.76999998 11 0 0
-3.174 -2.573 -0.77200001 10 0 0
-3.168 -2.566 -0.76700002 84 48 34
-3.1489999 -2.5239999 -0.76599997 41 21 20
-3.151 -2.5250001 -0.77200001 52 8 0
-3.1489999 -2.5280001 -0.77999997 6 0 0
-3.158 -2.5350001 -0.80400002 19 3 3
-3.1570001 -2.5320001 -0.796 21 3 0
-3.148 -2.5280001 -0.79000002 13 0 0
-3.1229999 -2.497 -0.84200001 106 87 73
-3.122 -2.5039999 -0.85900003 20 6 6
-3.1210001 -2.493 -0.85000002 118 51 0
-3.1170001 -2.493 -0.861 116 82 57
-3.201 -2.668 -0.91500002 74 33 15
-3.234 -2.7839999 -0.926 29 16 8
-3.2249999 -2.7939999 -0.917 95 68 51
-3.22 -2.7909999 -0.84500003 88 50 31
-3.2349999 -2.7850001 -0.85699999 74 41 24
-3.24 -2.7969999 -0.85000002 19 0 0
-3.2460001 -2.79 -0.85799998 47 22 17
-3.0599999 -2.2190001 -0.722 123 84 55
-3.0639999 -2.2219999 -0.71200001 128 87 35
-3.0739999 -2.256 -0.73799998 20 10 9
-3.0610001 -2.2690001 -0.75800002 15 1 0
-3.0280001 -2.2850001 -0.73199999 29 6 0
-3.029 -2.2750001 -0.71799999 114 70 41
-3.0190001 -2.277 -0.73900002 133 103 79
-3.027 -2.27 -0.72000003 108 66 26
-3.0969999 -2.303 -0.73400003 56 20 0
-3.096 -2.2969999 -0.73199999 124 84 35
-3.0929999 -2.2909999 -0.74199998 72 35 9
-3.0880001 -2.306 -0.70599997 117 49 2
-3.0910001 -2.3110001 -0.704 113 57 10
-3.0840001 -2.2950001 -0.72299999 148 87 32
-3.0810001 -2.2980001 -0.72500002 144 116 102
-3.092 -2.273 -0.74800003 51 24 15
-3.1070001 -2.2750001 -0.741 30 21 24
-3.096 -2.266 -0.745 151 121 113
-3.0899999 -2.2739999 -0.75099999 70 43 36
-3.0120001 -2.3269999 -0.79100001 152 126 113
-2.993 -2.342 -0.78799999 47 17 9
-3.007 -2.329 -0.79799998 72 43 25
-3.017 -2.332 -0.79299998 92 66 51
-3.026 -2.3440001 -0.80800003 83 68 65
-3.049 -2.3239999 -0.83099997 37 7 0
-3.0480001 -2.316 -0.833 20 5 2
-3.046 -2.3180001 -0.83999997 17 3 0
-3.0450001 -2.339 -0.84399998 15 0 0
-3.0420001 -2.323 -0.85600001 27 4 0
-3.039 -2.365 -0.89999998 46 34 18
-3.0450001 -2.3599999 -0.91299999 44 14 3
-3.04 -2.3789999 -0.90100002 21 3 0
-2.9949999 -2.4590001 -0.79699999 80 52 40
-3.006 -2.467 -0.79799998 83 60 44
-3.0050001 -2.4619999 -0.79799998 52 11 0
-2.99 -2.4549999 -0.79900002 104 67 48
-3.029 -2.3469999 -0.82499999 29 14 11
-3.0339999 -2.3399999 -0.81300002 115 74 54
-3.0250001 -2.2639999 -0.685 255 219 167
-2.9760001 -2.378 -0.611 218 162 79
-2.9549999 -2.348 -0.63700002 113 83 45
-2.951 -2.296 -0.67699999 45 12 3
-2.97 -2.2920001 -0.66600001 85 56 24
-2.961 -2.299 -0.66799998 78 41 22
-3.036 -2.2620001 -0.66900003 82 41 13
-3.0109999 -2.372 -0.64600003 91 54 35
-3.158 -2.533 -0.92699999 20 10 9
-3.1500001 -2.536 -0.94199997 131 120 116
-3.191 -2.552 -0.90499997 69 54 47
-3.191 -2.5510001 -0.90200001 71 58 49
-3.188 -2.5480001 -0.90100002 74 65 56
-3.1830001 -2.549 -0.91299999 10 6 3
-3.191 -2.552 -0.90700001 79 62 52
-3.1589999 -2.5309999 -0.90399998 32 10 0
-3.178 -2.5439999 -0.88800001 72 59 53
-3.1700001 -2.54 -0.89200002 90 58 43
-3.0250001 -2.3929999 -0.99599999 8 2 2
-3.188 -2.4100001 -1.01 8 0 0
-3.177 -2.421 -1.02 127 111 95
-3.1860001 -2.4230001 -1.02 123 96 85
-3.177 -2.425 -1.018 30 12 10
-3.1819999 -2.4159999 -1.003 121 107 106
-3.348 -2.5669999 -0.97500002 19 0 2
-3.332 -2.585 -0.97299999 5 0 1
-3.342 -2.5780001 -0.98699999 20 14 16
-3.283 -2.6570001 -0.96399999 15 0 0
-3.2809999 -2.6559999 -0.96399999 7 1 1
-3.2360001 -2.661 -0.97100002 11 5 5
-3.2869999 -2.665 -0.97000003 14 8 12
-3.2880001 -2.6760001 -0.96399999 34 19 12
-3.1530001 -2.5539999 -1.003 19 1 1
-3.1129999 -2.4579999 -0.97100002 11 3 1
-2.954 -2.3180001 -0.97100002 100 73 64
-2.951 -2.3169999 -0.977 13 8 5
-3.221 -2.3940001 -1.006 95 81 78
-3.0339999 -2.3940001 -0.92699999 42 4 0
-3.0239999 -2.388 -0.92199999 34 22 24
-3.0409999 -2.375 -0.91000003 36 25 21
-3.0209999 -2.3889999 -0.91500002 57 30 21
-3.0280001 -2.375 -0.92299998 57 36 17
-3.0239999 -2.378 -0.93300003 19 4 1
-3.04 -2.358 -0.86299998 31 14 6
-2.9170001 -2.2720001 -0.90399998 69 52 24
-2.915 -2.2739999 -0.90399998 247 230 174
-2.9170001 -2.2809999 -0.90399998 217 204 169
-3.0350001 -2.348 -0.83399999 9 0 0
-3.053 -2.349 -0.84200001 20 2 0
-3.0369999 -2.3540001 -0.83999997 26 6 5
-3.05 -2.3469999 -0.85100001 21 3 0
-3.05 -2.3469999 -0.84600002 10 0 3
-3.0420001 -2.3329999 -0.861 6 0 0
-3.04 -2.3499999 -0.87300003 5 0 0
-3.0880001 -2.3110001 -0.69999999 116 69 27
-3.3469999 -2.5739999 -1.026 30 1 0
-3.188 -2.4979999 -1.025 123 109 96
-3.1860001 -2.5009999 -1.025 120 103 93
-3.1919999 -2.516 -1.024 60 27 12
-3.1760001 -2.4419999 -1.023 129 100 94
-3.1789999 -2.4400001 -1.025 29 5 3
-3.1919999 -2.507 -1.021 11 0 0
-3.283 -2.5599999 -1.0089999 11 0 0
-3.279 -2.562 -1.005 20 11 6
-3.2880001 -2.582 -1.013 10 0 1
-3.316 -2.5380001 -1.013 74 57 50
-3.316 -2.5869999 -0.96799999 20 5 0
-3.3139999 -2.5840001 -0.96700001 127 108 101
-3.316 -2.589 -0.97299999 43 16 0
-3.322 -2.526 -0.93000001 33 20 12
-3.3340001 -2.526 -0.93599999 12 3 8
-3.3210001 -2.526 -0.93599999 41 28 19
-3.309 -2.7609999 -1.0039999 41 21 14
-3.2590001 -2.6719999 -0.98100001 5 1 0
-3.266 -2.6719999 -0.98699999 9 0 0
-3.2650001 -2.6730001 -0.99299997 10 1 2
-3.247 -2.7720001 -0.97399998 15 1 0
-3.2490001 -2.721 -1.017 11 3 1
-3.2579999 -2.698 -1.026 12 3 4
-3.007 -2.467 -1.028 135 130 126
-3.0109999 -2.4030001 -1.039 7 2 0
-2.9909999 -2.4189999 -1.033 2 0 1
-3.0190001 -2.4119999 -1.033 18 5 0
-3.0190001 -2.4100001 -1.036 18 4 1
-3.0179999 -2.4189999 -1.029 27 13 4
-3.0190001 -2.4449999 -1.026 20 10 9
-3.0139999 -2.4230001 -1.029 139 121 107
-2.9400001 -2.3710001 -1.028 18 0 0
-2.9389999 -2.368 -1.016 18 0 0
-2.9330001 -2.358 -1.007 6 1 0
-3.0710001 -2.2909999 -0.77999997 37 12 5
-3.0680001 -2.277 -0.77600002 93 43 18
-2.921 -2.352 -0.977 85 79 83
-2.9059999 -2.5280001 -0.93900001 21 0 0
-2.9119999 -2.497 -0.95899999 21 0 0
-2.9130001 -2.506 -0.95300001 67 35 24
-2.9130001 -2.5050001 -0.95200002 66 36 26
-2.918 -2.5 -0.94300002 32 19 13
-2.9419999 -2.526 -0.82999998 58 32 15
-2.9360001 -2.5239999 -0.83399999 83 61 47
-2.905 -2.4990001 -0.86900002 30 16 13
-2.9070001 -2.4909999 -0.86000001 113 94 88
-2.9059999 -2.494 -0.87599999 11 0 0
-2.905 -2.47 -0.88499999 152 125 106
-2.9100001 -2.483 -0.89600003 34 16 16
-2.9059999 -2.473 -0.90499997 40 21 14
-2.9100001 -2.4820001 -0.889 37 17 10
-2.9360001 -2.461 -0.88 82 69 63
-2.9679999 -2.457 -0.93699998 57 43 32
-2.9719999 -2.457 -0.94099998 130 116 103
-2.9230001 -2.5179999 -0.93099999 79 61 51
-2.947 -2.447 -0.90600002 113 75 52
-2.971 -2.4389999 -0.91000003 13 0 0
-2.9430001 -2.411 -0.84399998 52 18 0
-2.9400001 -2.402 -0.84299999 70 43 32
-2.928 -2.4159999 -0.85399997 32 9 1
-2.915 -2.438 -0.83499998 82 49 32
-2.901 -2.4690001 -0.87599999 252 240 240
-2.9070001 -2.474 -0.88300002 64 42 31
-2.95 -2.329 -0.98100001 16 7 0
-2.9489999 -2.326 -0.98100001 5 1 2
-2.931 -2.3380001 -0.99400002 10 2 0
-2.8770001 -2.4660001 -1.011 11 1 0
-2.8499999 -2.4660001 -0.94499999 19 2 0
-2.852 -2.4590001 -0.94499999 11 1 0
-2.855 -2.4560001 -0.94099998 6 0 2
-2.842 -2.4679999 -0.91900003 10 6 5
-2.8640001 -2.47 -0.97899997 66 37 33
-2.9360001 -2.425 -1.008 5 1 0
-2.957 -2.378 -1.027 5 3 6
-2.9560001 -2.3759999 -1.022 23 8 5
-2.9619999 -2.378 -1.0190001 17 6 4
-2.964 -2.3670001 -1.008 10 0 0
-2.9230001 -2.2980001 -0.93099999 118 101 83
-2.9330001 -2.303 -0.94700003 24 0 0
-2.8529999 -2.4419999 -0.88 102 55 35
-2.9130001 -2.3610001 -0.972 19 1 0
-2.9130001 -2.3629999 -0.97100002 10 1 2
-2.918 -2.3699999 -0.95999998 4 0 0
-2.9189999 -2.3710001 -0.96200001 1 1 0
-2.9170001 -2.3670001 -0.97299999 10 2 0
-2.915 -2.3640001 -0.97899997 13 5 3
-2.921 -2.368 -0.98199999 4 0 0
-2.921 -2.3859999 -0.96100003 112 90 79
-2.9219999 -2.404 -0.98699999 111 98 89
-2.931 -2.391 -0.97000003 2 1 0
-2.9330001 -2.402 -0.97500002 16 2 0
-2.9330001 -2.368 -1.007 9 3 3
-2.927 -2.378 -0.972 89 83 83
-2.928 -2.382 -0.98100001 22 4 0
-2.921 -2.368 -0.97799999 21 13 11
-3.2739999 -2.7639999 -0.74000001 12 0 0
-3.26 -2.7650001 -0.75099999 99 73 56
-3.2720001 -2.757 -0.741 14 0 0
-3.276 -2.757 -0.736 8 0 0
-3.2520001 -2.7149999 -0.72600001 114 87 80
-3.2579999 -2.717 -0.72299999 43 23 22
-3.2539999 -2.73 -0.74400002 90 72 70
-3.2390001 -2.7 -0.722 67 39 15
-3.237 -2.701 -0.70499998 30 6 0
-3.244 -2.7030001 -0.70599997 48 19 5
-3.437 -2.8039999 -0.49399999 81 53 39
-3.4430001 -2.8080001 -0.48699999 98 75 57
-3.277 -2.79 -0.77999997 79 47 22
-3.3110001 -2.8050001 -0.73900002 27 11 12
-3.27 -2.773 -0.75700003 107 85 64
-3.273 -2.786 -0.745 28 11 4
-3.2739999 -2.789 -0.74900001 29 5 1
-3.2709999 -2.75 -0.75400001 29 0 0
-3.2720001 -2.743 -0.741 126 101 94
-3.151 -2.7980001 -0.79400003 72 53 47
-3.151 -2.802 -0.78399998 115 82 73
-3.1849999 -2.8169999 -0.78799999 46 23 9
-3.2090001 -2.789 -0.80199999 36 14 3
-3.2019999 -2.796 -0.78799999 142 115 98
-3.2179999 -2.78 -0.79299998 30 3 0
-3.3069999 -2.802 -0.75700003 15 5 6
-3.3050001 -2.8 -0.76899999 62 47 42
-3.451 -2.849 -0.52999997 99 84 63
-3.3940001 -2.8269999 -0.47999999 77 58 51
-2.924 -2.309 -0.96899998 25 19 19
-2.9219999 -2.316 -0.97899997 50 40 39
-2.9349999 -2.3099999 -0.98100001 40 5 3
-2.918 -2.2839999 -0.92400002 133 90 45
-2.9300001 -2.27 -0.91299999 58 39 24
-2.931 -2.2869999 -0.91399997 30 15 12
-2.9260001 -2.2720001 -0.90799999 88 69 65
-2.925 -2.283 -0.912 238 208 182
-2.95 -2.309 -0.96600002 108 82 69
-2.938 -2.3010001 -0.95099998 108 73 45
-3.151 -2.438 -0.838 133 97 71
-3.0840001 -2.2509999 -0.685 171 126 61
-3.072 -2.2490001 -0.68400002 156 82 43
-3.1059999 -2.257 -0.69700003 114 52 3
-3.0829999 -2.2780001 -0.68400002 87 36 19
-3.0639999 -2.2920001 -0.71899998 94 74 63
-3.0569999 -2.2980001 -0.73799998 119 93 80
-3.059 -2.3 -0.74299997 64 37 26
-3.029 -2.23 -0.71600002 84 49 30
-3.0869999 -2.2390001 -0.70099998 123 112 33
-3.0469999 -2.2179999 -0.69199997 119 63 12
-3.046 -2.2639999 -0.667 151 112 97
-3.0439999 -2.2720001 -0.66799998 190 117 64
-3.154 -2.723 -0.51200002 78 27 0
-3.1800001 -2.6989999 -0.495 82 29 0
-3.1730001 -2.6960001 -0.49200001 92 38 2
-3.155 -2.714 -0.523 91 45 9
-3.1630001 -2.7190001 -0.51800001 146 92 46
-3.158 -2.7119999 -0.52200001 100 47 13
-3.4200001 -2.7509999 -0.514 57 42 39
-3.4130001 -2.7390001 -0.51800001 121 79 57
-3.4260001 -2.744 -0.52499998 93 41 17
-3.4119999 -2.757 -0.50999999 57 19 0
-3.4070001 -2.7650001 -0.51200002 46 17 0
-3.066 -2.2409999 -0.73000002 66 37 23
-3.0710001 -2.2219999 -0.69999999 73 0 0
-3.0550001 -2.214 -0.70200002 84 30 0
-3.026 -2.2309999 -0.68300003 81 49 36
-3.0450001 -2.2179999 -0.69199997 177 120 67
-3.063 -2.2420001 -0.68699998 253 210 165
-3.0550001 -2.2449999 -0.70999998 145 103 63
-3.052 -2.2490001 -0.70899999 130 74 37
-3.0680001 -2.2409999 -0.69199997 63 22 16
-2.8889999 -2.4389999 -0.88499999 78 60 50
-2.892 -2.4300001 -0.87900001 83 63 54
-2.885 -2.4330001 -0.884 89 69 60
-2.8929999 -2.437 -0.87900001 76 58 48
-2.8380001 -2.4849999 -0.89899999 13 2 0
-2.8599999 -2.4360001 -0.89399999 9 0 3
-2.8099999 -2.517 -0.83200002 76 19 0
-2.813 -2.5139999 -0.83600003 64 12 0
-2.809 -2.5120001 -0.83200002 56 0 0
-2.8080001 -2.506 -0.83600003 31 9 0
-2.803 -2.5009999 -0.83999997 126 117 112
-2.8069999 -2.5020001 -0.84399998 23 7 0
-2.813 -2.507 -0.85100001 31 7 3
-2.809 -2.51 -0.82599998 102 66 42
-2.816 -2.5190001 -0.83999997 65 20 1
-2.8080001 -2.5179999 -0.829 110 47 16
-2.8099999 -2.5120001 -0.824 84 50 25
-2.809 -2.494 -0.83099997 101 80 75
-2.8210001 -2.49 -0.84299999 15 0 3
-2.8269999 -2.49 -0.82099998 62 28 16
-2.8329999 -2.4619999 -0.89300001 42 28 25
-2.8329999 -2.4679999 -0.86799997 111 54 25
-2.8329999 -2.46 -0.87599999 44 29 22
-2.8329999 -2.4619999 -0.87699997 50 36 27
-2.835 -2.467 -0.875 19 4 1
-2.8380001 -2.471 -0.866 241 185 108
-2.8329999 -2.4719999 -0.86699998 92 36 13
-2.832 -2.5139999 -0.90600002 8 0 0
-2.836 -2.5120001 -0.90399998 10 0 0
-3.036 -2.27 -0.764 86 72 71
-3.01 -2.283 -0.77999997 220 179 151
-3.0079999 -2.2839999 -0.77899998 126 91 63
-3.0079999 -2.283 -0.77999997 99 57 32
-3.013 -2.286 -0.78200001 76 40 6
-3.0380001 -2.2360001 -0.73799998 14 6 4
-2.9879999 -2.279 -0.69999999 124 96 72
-3.0009999 -2.277 -0.70700002 94 40 6
-3.0409999 -2.263 -0.72799999 31 12 6
-3.029 -2.2460001 -0.72899997 120 99 96
-3.0420001 -2.2550001 -0.74000001 103 89 89
-3.0439999 -2.2639999 -0.74000001 84 72 72
-3.036 -2.2720001 -0.76800001 133 103 79
-2.9549999 -2.2869999 -0.68599999 187 135 78
-2.9660001 -2.2809999 -0.685 206 155 90
-2.967 -2.2809999 -0.69300002 46 17 3
-2.938 -2.316 -0.69 44 26 24
-2.902 -2.335 -0.66500002 34 12 0
-2.8959999 -2.3380001 -0.66799998 39 15 3
-2.888 -2.3540001 -0.676 58 42 43
-2.888 -2.348 -0.67299998 175 157 155
-2.9460001 -2.3510001 -0.78799999 32 16 16
-2.947 -2.3410001 -0.79699999 48 20 0
-2.948 -2.352 -0.79299998 25 9 10
-2.9430001 -2.3440001 -0.78100002 37 26 24
-2.9100001 -2.3540001 -0.64700001 129 56 3
-2.9089999 -2.3369999 -0.65499997 57 31 14
-2.918 -2.355 -0.648 52 16 0
-2.911 -2.369 -0.72000003 84 54 26
-2.9159999 -2.362 -0.71100003 83 37 4
-2.9119999 -2.362 -0.70899999 31 16 13
-2.9530001 -2.316 -0.713 19 4 1
-2.9590001 -2.3180001 -0.736 126 97 65
-2.951 -2.325 -0.71899998 33 19 16
-2.9549999 -2.3199999 -0.741 153 120 85
-2.957 -2.3210001 -0.73900002 119 88 57
-2.964 -2.312 -0.73400003 9 3 3
-2.9219999 -2.3659999 -0.722 193 134 66
-2.9200001 -2.365 -0.72000003 120 64 13
-2.9519999 -2.3399999 -0.755 74 54 45
-2.9460001 -2.332 -0.76899999 171 138 107
-2.948 -2.342 -0.76700002 38 22 22
-2.914 -2.3699999 -0.72799999 136 105 76
-2.9200001 -2.3740001 -0.74299997 24 6 2
-2.8789999 -2.3599999 -0.67400002 69 55 52
-2.8729999 -2.3629999 -0.66399997 160 81 24
-2.888 -2.3710001 -0.69099998 29 10 3
-2.875 -2.355 -0.66299999 40 20 19
-2.8770001 -2.359 -0.66799998 37 7 0
-2.882 -2.3770001 -0.66299999 63 25 12
-2.8759999 -2.368 -0.662 68 38 27
-2.924 -2.378 -0.76099998 114 85 55
-2.891 -2.46 -0.824 73 37 21
-2.8789999 -2.5009999 -0.80400002 107 74 55
-2.878 -2.5139999 -0.79799998 40 33 17
-2.8659999 -2.438 -0.85299999 67 47 36
-2.8729999 -2.437 -0.85399997 112 93 79
-2.8770001 -2.434 -0.852 119 97 76
-2.8740001 -2.437 -0.85500002 109 86 72
-2.888 -2.428 -0.852 6 5 1
-2.8929999 -2.4300001 -0.86299998 69 51 51
-2.878 -2.431 -0.88300002 15 1 0
-2.8729999 -2.4349999 -0.88800001 139 124 119
-2.9260001 -2.3789999 -0.75400001 47 28 22
-2.9219999 -2.395 -0.76499999 21 5 6
-2.961 -2.3180001 -0.73299998 107 80 51
-2.9579999 -2.5510001 -0.74800003 85 33 0
-2.858 -2.5309999 -0.76800001 78 28 1
-2.862 -2.5320001 -0.76700002 39 28 32
-3.006 -2.4860001 -0.85799998 57 28 20
-2.9979999 -2.473 -0.86199999 50 24 11
-3.0650001 -2.447 -0.68800002 82 56 43
-3.0699999 -2.4460001 -0.676 67 48 15
-3.26 -2.513 -0.65700001 123 94 64
-3.2460001 -2.517 -0.662 143 114 82
-3.2460001 -2.517 -0.65399998 115 82 47
-3.1159999 -2.2869999 -0.69999999 83 40 0
-3.109 -2.2969999 -0.69400001 89 53 39
-3.1099999 -2.296 -0.69499999 81 49 36
-3.1170001 -2.277 -0.72600001 61 20 2
-3.1170001 -2.28 -0.722 206 133 56
-3.0969999 -2.27 -0.69300002 187 122 58
-3.0910001 -2.2780001 -0.68900001 130 96 61
-3.0969999 -2.2809999 -0.69199997 114 81 36
-3.1159999 -2.283 -0.71799999 161 102 34
-3.108 -2.289 -0.69499999 236 178 141
-2.9890001 -2.382 -0.61900002 206 193 123
-2.98 -2.3900001 -0.61900002 254 231 117
-2.971 -2.3789999 -0.61900002 170 138 115
-3 -2.385 -0.64300001 118 62 25
-3.0369999 -2.2509999 -0.67799997 84 46 27
-3.059 -2.2479999 -0.67299998 112 60 23
-3.0650001 -2.267 -0.67199999 164 101 57
-3.0639999 -2.2620001 -0.67500001 175 103 31
-3.0639999 -2.266 -0.67299998 126 55 1
-3.056 -2.279 -0.67400002 117 48 19
-3.0669999 -2.273 -0.67500001 64 16 0
-3.0599999 -2.283 -0.67699999 174 97 51
-3.0580001 -2.2809999 -0.676 153 81 43
-2.9979999 -2.382 -0.63099998 115 60 21
-2.9820001 -2.418 -0.62 68 35 20
-2.9879999 -2.404 -0.61900002 194 125 47
-2.961 -2.3889999 -0.611 42 19 3
-2.97 -2.385 -0.61199999 173 160 107
-2.993 -2.4170001 -0.63200003 56 28 24
-2.8900001 -2.3900001 -0.648 101 40 9
-2.9000001 -2.3929999 -0.648 32 3 0
-3.046 -2.4489999 -0.66799998 57 23 0
-3.0480001 -2.441 -0.72299999 67 35 22
-2.9719999 -2.4219999 -0.66799998 65 45 38
-2.9649999 -2.424 -0.67299998 34 10 6
-2.9619999 -2.421 -0.65899998 40 16 12
-3.0799999 -2.303 -0.69 135 62 0
-3.0940001 -2.3010001 -0.69199997 255 190 104
-3.0880001 -2.3050001 -0.69199997 245 175 79
-2.951 -2.54 -0.75800002 202 125 47
-2.9460001 -2.536 -0.759 119 83 59
-2.9430001 -2.536 -0.76800001 88 37 10
-2.984 -2.4200001 -0.63300002 167 123 78
-2.8629999 -2.5250001 -0.662 94 48 32
-2.9579999 -2.4300001 -0.63700002 90 70 59
-2.938 -2.4219999 -0.62599999 70 47 33
-2.951 -2.434 -0.62699997 147 103 64
-2.9400001 -2.4289999 -0.61900002 168 132 116
-2.914 -2.277 -0.90600002 245 235 184
-2.9159999 -2.27 -0.90399998 236 218 182
-2.9159999 -2.2690001 -0.90399998 193 177 144
-2.8369999 -2.4549999 -0.89999998 10 0 0
-2.8599999 -2.4360001 -0.89099997 10 1 2
-2.839 -2.4760001 -0.90200001 22 11 7
-2.8789999 -2.4319999 -0.84299999 20 0 0
-2.859 -2.448 -0.83999997 21 10 8
-2.8740001 -2.4590001 -0.83200002 24 5 0
-2.872 -2.4579999 -0.83399999 20 8 0
-2.8789999 -2.4619999 -0.82800001 63 46 30
-2.858 -2.4619999 -0.83499998 41 15 2
-3.0420001 -2.329 -0.87199998 115 101 101
-2.8729999 -2.5369999 -0.89200002 56 29 22
-2.872 -2.536 -0.89600003 29 0 0
-2.8800001 -2.536 -0.90100002 21 8 2
-2.8770001 -2.53 -0.94 44 18 3
-2.872 -2.529 -0.94800001 15 1 0
-2.898 -2.4809999 -0.82200003 49 18 0
-2.895 -2.474 -0.81999999 57 26 8
-2.8959999 -2.48 -0.82200003 103 63 37
-2.951 -2.425 -0.80900002 15 1 0
-2.967 -2.427 -0.82800001 18 3 0
-2.9530001 -2.4219999 -0.80900002 27 3 0
-2.957 -2.4159999 -0.81900001 127 91 65
-2.9349999 -2.4230001 -0.78899997 78 58 49
-2.9590001 -2.438 -0.801 22 3 0
-2.951 -2.4419999 -0.80299997 23 3 4
-2.957 -2.4389999 -0.79900002 27 7 6
-2.9619999 -2.437 -0.796 33 13 12
-2.973 -2.45 -0.926 22 3 0
-2.9809999 -2.454 -0.90899998 64 38 23
-2.9860001 -2.4530001 -0.92400002 22 15 5
-2.99 -2.4949999 -1.012 84 30 2
-2.993 -2.4949999 -1.013 123 89 61
-3.013 -2.4260001 -0.96499997 18 4 3
-3.0090001 -2.4749999 -0.91299999 35 8 0
-3.2880001 -2.533 -0.99400002 136 97 68
-3.283 -2.529 -0.99199998 109 80 62
-3.1919999 -2.4860001 -1.021 146 118 106
-3.187 -2.494 -1.025 125 111 100
-3.198 -2.497 -1.0140001 124 105 99
-3.26 -2.437 -0.93900001 49 19 8
-3.263 -2.4400001 -0.93599999 37 23 20
-3.26 -2.4449999 -0.94 177 146 118
-3.257 -2.444 -0.93599999 125 100 69
-3.227 -2.503 -0.86299998 37 0 0
-3.2279999 -2.5139999 -0.88 6 5 1
-3.223 -2.4979999 -0.87800002 10 0 0
-3.119 -2.5150001 -0.98500001 95 76 70
-3.1300001 -2.5079999 -0.99800003 83 69 68
-3.125 -2.4519999 -0.96100003 9 0 2
-3.191 -2.434 -0.99000001 35 20 17
-3.191 -2.4170001 -0.99199998 70 40 29
-3.1930001 -2.405 -0.963 46 26 15
-3.1930001 -2.4070001 -0.94599998 70 61 56
-3.187 -2.391 -0.95899999 65 43 30
-3.095 -2.47 -0.98699999 18 0 0
-3.099 -2.4679999 -1.007 55 39 26
-3.115 -2.4590001 -0.99699998 72 58 55
-3.1110001 -2.4519999 -1.011 31 25 11
-3.0899999 -2.4820001 -0.898 145 121 109
-3.0840001 -2.4690001 -0.88099998 136 119 109
-3.102 -2.467 -0.89899999 129 110 104
-3.0910001 -2.483 -0.89499998 18 3 0
-3.0899999 -2.4879999 -0.898 74 52 41
-3.095 -2.484 -0.92199999 22 2 1
-3.1240001 -2.5079999 -0.92199999 40 26 23
-3.1259999 -2.5079999 -0.90600002 32 7 2
-3.112 -2.506 -0.92199999 88 78 76
-3.122 -2.5109999 -0.93400002 32 14 12
-3.1099999 -2.497 -0.91399997 36 13 7
-3.029 -2.4790001 -0.95899999 54 24 14
-3.0309999 -2.473 -0.95499998 21 0 0
-3.03 -2.4849999 -0.94999999 129 96 77
-3.017 -2.454 -0.94700003 11 0 0
-3.0150001 -2.4560001 -0.93300003 13 4 5
-3.0109999 -2.4690001 -0.93699998 38 15 9
-3.05 -2.4549999 -0.82800001 39 12 1
-3.052 -2.4560001 -0.829 42 18 6
-3.052 -2.4560001 -0.82700002 47 21 8
-3.052 -2.4560001 -0.824 53 30 16
-3.0209999 -2.448 -0.875 34 19 14
-3.0209999 -2.4560001 -0.87199998 83 48 28
-3.0209999 -2.4579999 -0.86299998 30 16 13
-3.0380001 -2.461 -0.83999997 58 28 18
-3.023 -2.4030001 -0.92400002 15 0 0
-3.027 -2.4089999 -0.97100002 42 33 34
-3.0239999 -2.4260001 -0.97399998 116 97 90
-3.029 -2.4059999 -0.96399999 64 46 36
-3.0239999 -2.411 -0.96499997 150 123 116
-3.0090001 -2.428 -0.949 11 6 3
-3.178 -2.552 -1.005 33 10 2
-2.954 -2.461 -0.98199999 20 1 0
-2.9679999 -2.4790001 -1.002 89 84 88
-2.9809999 -2.487 -0.99299997 222 154 93
-2.9960001 -2.4649999 -0.94800001 21 0 0
-3.0120001 -2.4690001 -0.96499997 73 33 7
-2.9890001 -2.467 -0.95300001 15 0 0
-3.007 -2.4619999 -0.97000003 131 123 121
-3 -2.4590001 -0.95099998 27 2 0
-2.9920001 -2.4549999 -0.96899998 18 0 0
-2.9590001 -2.464 -0.99699998 13 3 2
-2.974 -2.4760001 -0.98100001 206 136 77
-2.914 -2.51 -0.99800003 15 0 0
-2.9170001 -2.5020001 -1.01 221 168 90
-3.1359999 -2.4319999 -0.85299999 177 155 144
-3.142 -2.437 -0.86400002 45 8 0
-3.132 -2.4200001 -0.84600002 159 133 116
-3.128 -2.4449999 -0.86500001 21 0 0
-3.141 -2.4300001 -0.84600002 154 126 104
-3.1300001 -2.4430001 -0.86000001 100 81 66
-3.132 -2.4430001 -0.861 77 65 49
-3.1400001 -2.438 -0.87099999 45 7 0
-3.125 -2.4430001 -0.85299999 37 13 3
-3.135 -2.4319999 -0.84899998 28 14 13
-3.1289999 -2.454 -0.86000001 78 57 40
-3.128 -2.4549999 -0.84100002 21 3 0
-3.1400001 -2.4530001 -0.84200001 112 48 12
-3.1029999 -2.4630001 -0.88300002 20 9 3
-3.092 -2.471 -0.88 141 124 114
-3.1040001 -2.464 -0.86000001 116 103 95
-2.902 -2.4170001 -0.85000002 17 6 2
-2.8959999 -2.4170001 -0.84799999 58 31 20
-2.846 -2.4419999 -0.91600001 17 8 11
-2.95 -2.461 -0.98400003 104 72 49
-2.9449999 -2.4590001 -0.97299999 60 33 22
-2.941 -2.4530001 -0.94199997 29 14 9
-2.895 -2.4749999 -0.95200002 11 3 1
-2.895 -2.4760001 -0.94499999 34 14 5
-2.895 -2.4760001 -0.949 6 1 0
-2.911 -2.4879999 -0.95300001 18 6 6
-2.911 -2.4749999 -0.95300001 41 16 9
-2.8900001 -2.4649999 -0.95700002 48 33 28
-2.9159999 -2.474 -0.95099998 27 0 0
-2.9100001 -2.474 -0.96100003 140 117 111
-2.9400001 -2.4319999 -0.94999999 43 25 15
-2.937 -2.4489999 -0.95899999 22 4 2
-2.9330001 -2.4230001 -0.95099998 39 20 5
-2.9289999 -2.4200001 -0.94999999 131 105 82
-3.0079999 -2.437 -0.972 8 0 0
-3.0150001 -2.3099999 -0.85299999 16 6 5
-3.0090001 -2.312 -0.83999997 68 58 59
-3.0090001 -2.3180001 -0.85799998 6 0 0
-3.027 -2.388 -0.94499999 197 150 130
-3.0320001 -2.3870001 -0.954 106 47 7
-2.9349999 -2.4519999 -0.88499999 78 49 33
-2.9300001 -2.4460001 -0.884 15 0 0
-2.9349999 -2.444 -0.89600003 18 0 1
-2.9419999 -2.4530001 -0.89099997 39 10 2
-2.9289999 -2.5280001 -0.852 123 111 111
-2.9070001 -2.487 -0.87800002 31 18 10
-2.908 -2.4960001 -0.88099998 82 60 46
-2.8940001 -2.418 -0.84600002 80 58 45
-2.9230001 -2.4170001 -0.889 45 27 15
-2.921 -2.414 -0.89399999 65 38 27
-2.9230001 -2.414 -0.884 29 4 0
-2.9200001 -2.424 -0.88300002 98 80 70
-2.914 -2.424 -0.90200001 105 89 90
-3.0039999 -2.484 -0.80500001 74 44 20
-3.01 -2.49 -0.79000002 91 69 48
-3.016 -2.4920001 -0.792 129 108 91
-3.056 -2.4790001 -0.80299997 33 14 8
-3.0510001 -2.299 -0.824 103 93 91
-3.0320001 -2.286 -0.81800002 52 37 30
-3.0339999 -2.28 -0.77200001 84 68 68
-3.0539999 -2.3169999 -0.76999998 74 37 8
-3.0450001 -2.3380001 -0.824 18 3 0
-2.9030001 -2.3039999 -0.94 135 103 90
-2.9119999 -2.3199999 -0.94599998 35 11 1
-2.9159999 -2.2639999 -0.92000002 47 25 14
-2.9170001 -2.273 -0.921 190 140 89
-2.9119999 -2.2809999 -0.92299998 16 6 7
-2.915 -2.2920001 -0.926 5 0 1
-2.849 -2.523 -0.94300002 66 33 16
-2.8429999 -2.5190001 -0.94499999 132 80 32
-2.845 -2.5190001 -0.93900001 118 81 55
-2.849 -2.5220001 -0.94 53 26 15
-2.8340001 -2.507 -0.94499999 7 6 4
-2.842 -2.517 -0.93900001 149 100 59
-2.865 -2.527 -0.972 22 7 2
-2.859 -2.516 -0.99199998 15 1 0
-2.846 -2.523 -0.92400002 146 96 59
-2.848 -2.5239999 -0.92900002 104 58 25
-2.8469999 -2.523 -0.92900002 83 42 14
-2.8510001 -2.526 -0.926 104 74 50
-2.8959999 -2.539 -0.97799999 129 106 92
-2.8940001 -2.536 -0.96799999 84 61 53
-2.8929999 -2.46 -0.963 48 38 36
-2.888 -2.4449999 -0.95700002 35 22 16
-2.835 -2.494 -0.92500001 34 23 21
-2.8499999 -2.4879999 -0.95200002 34 14 7
-2.8570001 -2.4990001 -0.97899997 60 38 25
-2.8510001 -2.516 -0.78100002 34 1 0
-2.829 -2.543 -0.69199997 47 9 0
-2.8310001 -2.543 -0.71100003 23 12 16
-2.872 -2.556 -0.68099999 128 79 20
-2.8599999 -2.4990001 -0.759 124 90 65
-2.8789999 -2.4990001 -0.75700003 89 63 48
-2.8740001 -2.5020001 -0.759 87 61 44
-2.878 -2.5 -0.75400001 107 82 62
-2.881 -2.5090001 -0.75700003 72 43 29
-2.8789999 -2.5109999 -0.755 72 40 27
-2.8870001 -2.513 -0.764 71 53 49
-2.8970001 -2.549 -0.76999998 70 53 25
-2.8889999 -2.5369999 -0.78200001 40 25 22
-2.872 -2.529 -0.75999999 74 45 29
-2.875 -2.53 -0.75199997 42 14 10
-2.855 -2.5369999 -0.70499998 104 73 45
-2.858 -2.529 -0.66600001 38 11 0
-2.881 -2.5469999 -0.69999999 158 129 123
-2.8870001 -2.5450001 -0.70499998 138 94 67
-2.8640001 -2.556 -0.70599997 77 33 0
-2.8770001 -2.55 -0.69499999 135 88 44
-2.875 -2.536 -0.71600002 40 8 0
-2.925 -2.575 -0.76200002 126 93 74
-2.812 -2.5209999 -0.80800003 121 61 25
-2.849 -2.5239999 -0.80500001 54 40 37
-2.8499999 -2.5350001 -0.83600003 121 93 71
-2.849 -2.536 -0.838 92 67 47
-2.869 -2.527 -0.83200002 25 7 5
-2.858 -2.523 -0.824 20 2 2
-2.878 -2.523 -0.82099998 97 62 43
-2.8959999 -2.572 -0.84500003 97 75 54
-2.9189999 -2.562 -0.81599998 26 12 9
-2.9170001 -2.5320001 -0.81599998 20 10 9
-2.8959999 -2.5409999 -0.792 28 12 12
-2.891 -2.536 -0.80199999 100 69 51
-2.8870001 -2.5320001 -0.78500003 175 85 25
-2.902 -2.546 -0.796 52 25 16
-2.905 -2.5450001 -0.81699997 79 60 54
-2.8729999 -2.529 -0.76700002 40 10 0
-2.892 -2.54 -0.76999998 67 30 11
-2.904 -2.53 -0.78100002 81 49 34
-2.9170001 -2.5599999 -0.792 90 62 50
-2.9059999 -2.5669999 -0.78299999 99 87 87
-2.9100001 -2.5450001 -0.75400001 205 170 114
-2.9030001 -2.552 -0.75199997 31 4 0
-2.927 -2.5480001 -0.74800003 202 137 83
-2.9119999 -2.549 -0.75300002 53 30 22
-2.835 -2.5120001 -0.87 19 6 0
-2.8269999 -2.5190001 -0.85399997 48 13 0
-2.848 -2.54 -0.70899999 125 84 56
-2.8499999 -2.5420001 -0.71499997 37 19 15
-2.835 -2.517 -0.699 10 0 0
-2.8570001 -2.5190001 -0.74400002 92 57 35
-2.8410001 -2.5320001 -0.704 74 46 24
-2.8169999 -2.506 -0.78299999 80 55 48
-2.8540001 -2.5190001 -0.73699999 77 53 43
-2.8599999 -2.5090001 -0.73100001 15 3 3
-2.868 -2.5020001 -0.74800003 71 47 35
-2.8540001 -2.5280001 -0.74299997 23 19 20
-2.855 -2.5250001 -0.73900002 23 19 20
-3.2119999 -2.743 -0.96899998 9 3 5
-3.2160001 -2.7520001 -0.97100002 9 3 3
-3.2119999 -2.7390001 -0.97399998 7 1 3
-3.2060001 -2.7379999 -0.94700003 9 1 0
-3.2309999 -2.7679999 -0.98400003 14 4 5
-3.23 -2.767 -0.98199999 8 0 0
-3.214 -2.75 -0.96700001 5 1 0
-3.217 -2.7379999 -1.005 2 0 3
-3.2149999 -2.7509999 -1.006 9 1 0
-3.217 -2.7309999 -1.015 30 11 5
-3.227 -2.73 -1.017 151 136 133
-2.9809999 -2.4289999 -1.0319999 161 155 155
-2.983 -2.4260001 -1.035 6 1 0
-2.9749999 -2.4159999 -1.033 9 0 0
-2.974 -2.4119999 -1.028 9 0 1
-2.9779999 -2.431 -1.028 42 25 18
-2.9679999 -2.404 -1.023 128 120 118
-2.973 -2.405 -1.021 42 25 17
-2.931 -2.385 -0.98699999 18 8 7
-2.9330001 -2.3759999 -0.98900002 62 54 52
-2.8399999 -2.49 -0.93599999 28 0 0
-3.2409999 -2.6359999 -0.91299999 9 5 4
-3.1849999 -2.4779999 -0.764 63 37 20
-3.1889999 -2.4849999 -0.76999998 126 78 58
-3.1900001 -2.4920001 -0.77399999 67 25 11
-3.152 -2.4519999 -0.83700001 68 21 5
-3.1559999 -2.539 -0.81199998 20 2 0
-3.178 -2.5510001 -0.83600003 117 105 107
-3.1689999 -2.553 -0.83099997 18 7 3
-3.148 -2.5580001 -0.81300002 32 7 2
-3.151 -2.5550001 -0.81599998 27 6 1
-3.1570001 -2.553 -0.81999999 29 1 0
-3.175 -2.53 -0.86400002 49 39 37
-3.194 -2.6570001 -0.73699999 42 31 27
-3.187 -2.645 -0.74599999 81 75 77
-3.1789999 -2.6440001 -0.74299997 31 12 6
-3.233 -2.609 -0.78899997 18 8 7
-3.2349999 -2.6040001 -0.80800003 20 13 5
-3.237 -2.602 -0.80699998 14 4 2
-3.2249999 -2.6140001 -0.79100001 19 7 7
-3.221 -2.6099999 -0.78500003 22 5 0
-3.223 -2.6110001 -0.78399998 17 0 0
-3.171 -2.773 -0.77600002 99 63 37
-3.1789999 -2.7679999 -0.773 136 113 105
-3.164 -2.7709999 -0.78500003 230 153 85
-3.2739999 -2.6140001 -0.76999998 18 3 0
-3.2720001 -2.6140001 -0.773 37 9 0
-3.277 -2.609 -0.76599997 36 8 0
-3.2709999 -2.6229999 -0.78299999 22 8 0
-3.2690001 -2.6199999 -0.78299999 26 2 0
-3.244 -2.582 -0.78500003 11 1 0
-3.247 -2.6400001 -0.73799998 34 6 2
-3.2460001 -2.6400001 -0.73299998 92 71 66
-3.2409999 -2.6459999 -0.74199998 118 81 63
-3.1900001 -2.543 -0.84200001 35 16 10
-3.187 -2.5350001 -0.85799998 23 5 3
-3.178 -2.54 -0.84100002 36 20 21
-3.1960001 -2.546 -0.86400002 11 1 2
-3.1949999 -2.54 -0.86000001 81 52 38
-3.164 -2.48 -0.81400001 75 54 53
-3.161 -2.5050001 -0.81800002 88 73 68
-3.1600001 -2.4809999 -0.81800002 116 88 74
-3.1589999 -2.4809999 -0.81699997 28 1 0
-3.1670001 -2.4749999 -0.81999999 19 0 2
-3.155 -2.4790001 -0.81099999 75 56 42
-3.2360001 -2.533 -0.83600003 19 4 0
-3.237 -2.5369999 -0.84299999 23 0 0
-3.2290001 -2.5450001 -0.829 45 19 6
-3.2349999 -2.529 -0.82999998 33 8 1
-3.2379999 -2.5209999 -0.84200001 23 6 0
-3.233 -2.5139999 -0.83899999 37 10 1
-3.3050001 -2.5420001 -0.87400001 22 10 12
-3.302 -2.5409999 -0.87400001 89 72 65
-3.3069999 -2.54 -0.87800002 73 41 28
-3.3210001 -2.526 -0.93699998 12 0 0
-3.2079999 -2.4879999 -0.86299998 1 0 0
-3.214 -2.4960001 -0.86799997 7 0 0
-3.214 -2.5009999 -0.85500002 65 22 3
-3.1960001 -2.487 -0.86900002 34 20 9
-3.1919999 -2.4879999 -0.87 6 0 0
-3.1670001 -2.53 -0.88300002 85 70 65
-3.1659999 -2.5250001 -0.87800002 91 73 71
-3.1619999 -2.5139999 -0.86500001 18 4 3
-3.223 -2.4820001 -0.81900001 24 9 2
-3.223 -2.5 -0.79400003 33 10 2
-3.221 -2.494 -0.79100001 75 28 10
-3.313 -2.5550001 -0.86400002 127 108 102
-3.3180001 -2.5550001 -0.86500001 22 8 8
-3.221 -2.4719999 -0.79500002 56 38 16
-3.214 -2.473 -0.77899998 58 26 15
-3.211 -2.5050001 -0.85000002 87 82 86
-3.2130001 -2.507 -0.85600001 32 12 11
-3.204 -2.516 -0.83899999 19 4 1
-3.1900001 -2.5209999 -0.85000002 83 74 65
-3.188 -2.5150001 -0.85100001 14 4 2
-3.204 -2.513 -0.83999997 68 40 26
-3.0829999 -2.2969999 -0.75800002 39 1 0
-3.0710001 -2.3039999 -0.74800003 33 5 0
-3.063 -2.303 -0.75199997 28 8 1
-3.063 -2.3039999 -0.75700003 44 17 10
-3.102 -2.2839999 -0.69099998 59 21 0
-3.063 -2.319 -0.78200001 61 39 26
-3.062 -2.3169999 -0.80500001 28 0 0
-3.0610001 -2.3239999 -0.81900001 14 3 0
-3.0580001 -2.325 -0.81 22 4 0
-3.053 -2.3210001 -0.82499999 56 34 20
-3.0339999 -2.3150001 -0.85500002 99 71 59
-3.0569999 -2.471 -0.83499998 78 60 56
-3.0599999 -2.457 -0.82200003 137 106 88
-3.0380001 -2.4460001 -0.82499999 53 38 9
-3.036 -2.447 -0.80699998 49 19 11
-3.01 -2.4809999 -0.86799997 68 46 35
-3.0120001 -2.4790001 -0.86900002 82 51 31
-3.017 -2.4760001 -0.866 120 84 60
-3.023 -2.464 -0.86799997 33 5 4
-3.036 -2.47 -0.84399998 12 1 0
-3.112 -2.4909999 -0.87 116 98 96
-3.1040001 -2.4579999 -0.85500002 111 60 39
-3.0929999 -2.474 -0.88300002 65 54 48
-3.098 -2.4760001 -0.88099998 44 25 19
-3.0339999 -2.4779999 -0.82599998 146 120 97
-3.0339999 -2.48 -0.81699997 103 93 92
-3.0309999 -2.48 -0.833 61 21 0
-3.04 -2.4909999 -0.80500001 48 20 17
-2.9979999 -2.441 -0.81 54 34 27
-3.01 -2.441 -0.80900002 107 64 47
-3.0380001 -2.454 -0.80800003 49 27 6
-3.036 -2.4400001 -0.82700002 90 86 85
-3.191 -2.47 -0.80900002 102 91 89
-3.197 -2.4860001 -0.79900002 17 5 5
-3.2079999 -2.4660001 -0.77899998 17 0 0
-3.204 -2.467 -0.77899998 139 79 45
-3.1619999 -2.506 -0.77899998 23 3 2
-3.1630001 -2.5050001 -0.77200001 80 60 53
-3.152 -2.503 -0.773 9 0 0
-3.161 -2.4990001 -0.764 36 7 1
-3.201 -2.4790001 -0.79400003 4 0 0
-3.2 -2.483 -0.79000002 54 27 8
-3.184 -2.54 -0.77600002 60 33 26
-3.184 -2.539 -0.77499998 32 14 12
-3.1989999 -2.47 -0.76800001 8 0 0
-3.102 -2.2539999 -0.70300001 186 135 90
-3.0969999 -2.2609999 -0.73199999 56 25 22
-3.2850001 -2.6730001 -0.75800002 39 19 12
-3.2920001 -2.6860001 -0.75599998 23 9 8
-3.2869999 -2.6860001 -0.76499999 56 36 25
-3.4219999 -2.7379999 -0.55400002 112 82 72
-3.444 -2.8169999 -0.479 100 58 36
-3.454 -2.8099999 -0.49599999 145 91 45
-3.4449999 -2.806 -0.48699999 118 80 57
-3.0639999 -2.48 -0.66799998 178 122 89
-3.026 -2.4679999 -0.66799998 47 0 0
-3.026 -2.473 -0.66900003 58 20 0
-3.029 -2.4679999 -0.68300003 74 26 4
-2.9560001 -2.5439999 -0.75099999 163 105 57
-3.164 -2.6800001 -0.491 231 221 172
-3.158 -2.6689999 -0.49200001 239 200 143
-3.1700001 -2.665 -0.49000001 89 70 27
-3.1470001 -2.678 -0.49700001 251 247 176
-3.1400001 -2.6730001 -0.50300002 198 146 109
-3.1470001 -2.6789999 -0.49700001 191 109 35
-3.1530001 -2.674 -0.49700001 119 83 51
-3.4300001 -2.733 -0.54100001 123 78 55
-3.4200001 -2.7260001 -0.53500003 172 118 74
-3.312 -2.5439999 -0.87699997 79 56 24
-3.3570001 -2.5550001 -1.0140001 18 6 10
-3.3510001 -2.5409999 -1.0039999 48 26 15
-3.352 -2.55 -1.011 85 65 54
-3.3499999 -2.5669999 -1.026 23 4 0
-3.223 -2.5780001 -0.727 66 30 16
-3.223 -2.5669999 -0.74900001 34 19 12
-2.852 -2.517 -1.0039999 177 125 68
-2.846 -2.5109999 -1.0089999 17 4 0
-2.8559999 -2.52 -1.023 7 4 0
-2.872 -2.5320001 -0.95599997 41 21 10
-2.865 -2.5309999 -0.95700002 6 2 0
-2.8800001 -2.5039999 -0.96600002 119 107 107
-2.8640001 -2.5039999 -0.97100002 31 17 8
-2.8770001 -2.503 -0.98500001 2 0 3
-2.8570001 -2.4979999 -1.013 27 2 0
-2.928 -2.5 -1.029 42 20 9
-2.908 -2.4809999 -1.0089999 11 0 0
-2.9070001 -2.507 -1.022 12 1 0
-2.95 -2.45 -1.002 57 37 28
-2.9530001 -2.437 -1.018 1 1 3
-2.8970001 -2.4849999 -1.016 19 7 7
-2.888 -2.4820001 -1.015 17 9 6
-2.8900001 -2.5309999 -1.025 55 27 13
-2.9000001 -2.5250001 -1.002 61 39 16
-2.8989999 -2.5120001 -1.025 126 67 35
-2.8989999 -2.5380001 -0.95999998 79 35 10
-2.885 -2.4879999 -0.89200002 11 1 2
-2.8380001 -2.526 -0.87 34 17 10
-2.832 -2.4990001 -0.87 112 103 106
-2.829 -2.4990001 -0.80199999 48 24 12
-2.8299999 -2.5 -0.80599999 38 12 0
-2.855 -2.523 -1.027 10 0 0
-2.8440001 -2.526 -0.88 20 4 4
-2.8559999 -2.5320001 -0.88599998 28 19 20
-2.8510001 -2.527 -0.88700002 15 1 0
-2.8380001 -2.503 -0.95099998 2 1 0
-2.8380001 -2.507 -0.949 39 11 0
-2.8800001 -2.536 -0.88499999 27 11 0
-2.9219999 -2.5569999 -0.82499999 28 11 3
-2.8740001 -2.543 -0.84500003 41 20 17
-2.8829999 -2.549 -0.85399997 78 42 20
-2.9000001 -2.533 -0.89999998 23 9 0
-2.895 -2.5350001 -0.88999999 45 29 16
-2.8900001 -2.5320001 -0.89499998 21 6 3
-2.9159999 -2.5580001 -0.852 73 52 51
-2.915 -2.5580001 -0.85500002 48 29 22
-2.915 -2.5550001 -0.84899998 75 58 51
-2.8510001 -2.503 -0.77499998 17 7 6
-2.925 -2.563 -0.81400001 64 46 32
-2.9300001 -2.549 -0.84100002 29 10 6
-2.842 -2.493 -0.796 95 73 62
-2.8499999 -2.4790001 -0.824 114 68 44
-3.1559999 -2.51 -0.86799997 24 9 6
-3.1159999 -2.4909999 -0.847 71 52 38
-3.0350001 -2.4219999 -0.89099997 52 20 9
-3.026 -2.4300001 -0.91299999 15 0 0
-3.0369999 -2.3970001 -0.93800002 28 9 3
-3.1110001 -2.4519999 -0.949 25 2 0
-3.112 -2.4619999 -0.92299998 8 0 0
-3.033 -2.447 -0.92199999 28 14 13
-3.04 -2.457 -0.93300003 229 152 82
-3.0250001 -2.414 -0.94800001 61 59 64
-3.0369999 -2.46 -0.94 19 4 0
-3.0380001 -2.46 -0.949 37 16 11
-3.033 -2.4560001 -0.954 97 67 57
-3.0369999 -2.4630001 -0.954 41 21 20
-3.085 -2.487 -0.94199997 60 45 42
-3.096 -2.493 -0.93900001 120 103 96
-3.0899999 -2.4909999 -0.94999999 16 5 1
-3.2090001 -2.6719999 -0.95300001 38 19 13
-3.2090001 -2.671 -0.954 24 5 0
-3.217 -2.664 -0.949 97 61 37
-3.2119999 -2.6730001 -0.95200002 16 6 4
-3.233 -2.6659999 -0.96499997 75 63 63
-3.2290001 -2.6689999 -0.96399999 27 16 12
-3.2249999 -2.668 -0.958 25 16 11
-3.2019999 -2.6700001 -0.90499997 8 4 5
-3.1949999 -2.668 -0.90899998 5 1 2
-3.204 -2.6800001 -0.89999998 28 14 11
-3.243 -2.6530001 -0.90399998 4 0 0
-3.2420001 -2.6429999 -0.91600001 26 8 6
-3.2360001 -2.6600001 -0.91600001 11 1 2
-3.227 -2.6659999 -0.88800001 71 57 48
-3.2249999 -2.6570001 -0.847 97 80 73
-3.2290001 -2.6630001 -0.86199999 43 19 7
-3.227 -2.6359999 -0.83399999 22 4 4
-3.2249999 -2.6329999 -0.82800001 10 4 8
-3.2290001 -2.6240001 -0.82700002 22 7 2
-3.237 -2.701 -1.021 5 0 0
-3.2390001 -2.684 -1.024 18 3 0
-3.2349999 -2.687 -1.02 159 127 106
-3.0320001 -2.4749999 -0.84100002 35 7 0
-3.0309999 -2.4760001 -0.84100002 88 79 80
-3.1140001 -2.49 -0.86199999 20 5 0
-3.1630001 -2.4349999 -0.87699997 21 7 6
-3.033 -2.4749999 -0.91900003 98 87 85
-3.1329999 -2.5050001 -0.88700002 64 37 16
-3.135 -2.5090001 -0.88499999 31 16 9
-3.125 -2.5039999 -0.88300002 91 62 46
-3.0380001 -2.47 -0.92500001 43 22 17
-3.027 -2.484 -0.93900001 13 0 0
-3.0250001 -2.4890001 -0.95300001 163 129 104
-3.1459999 -2.5280001 -0.83399999 45 13 2
-3.148 -2.54 -0.83200002 20 2 0
-3.154 -2.5420001 -0.83200002 91 36 15
-3.1559999 -2.5339999 -0.83700001 60 33 26
-3.1370001 -2.5109999 -0.90200001 11 0 0
-3.1730001 -2.536 -0.83899999 4 0 1
-3.165 -2.5409999 -0.83399999 22 0 2
-3.1400001 -2.5680001 -0.97500002 119 83 57
-3.171 -2.5510001 -0.94999999 63 36 15
-3.1730001 -2.55 -0.94700003 61 39 15
-3.178 -2.5580001 -0.95300001 171 145 108
-3.1589999 -2.573 -0.977 17 3 0
-3.165 -2.573 -0.97799999 19 0 0
-3.171 -2.5669999 -0.97299999 21 2 0
-2.974 -2.467 -1.005 4 0 0
-3.023 -2.448 -0.97899997 107 99 97
-3 -2.4860001 -0.995 108 71 52
-3 -2.4849999 -0.99699998 75 38 20
-2.9979999 -2.4909999 -1.0039999 90 53 37
-3.2509999 -2.687 -1.01 9 1 0
-3.243 -2.688 -1.015 20 7 1
-3.221 -2.694 -0.96600002 7 3 4
-3.207 -2.677 -0.95499998 51 31 24
-3.2349999 -2.744 -0.778 35 5 5
-3.234 -2.747 -0.80299997 147 102 69
-3.24 -2.74 -0.77999997 25 4 1
-3.2349999 -2.7420001 -0.79900002 28 11 3
-3.243 -2.737 -0.78299999 24 6 2
-3.2479999 -2.734 -0.79100001 4 0 3
-3.214 -2.793 -0.89700001 13 0 0
-3.2149999 -2.7939999 -0.89499998 23 2 0
-3.223 -2.8069999 -0.90100002 204 173 145
-3.221 -2.803 -0.898 120 87 56
-3.3380001 -2.7980001 -0.736 57 25 14
-3.322 -2.8069999 -0.73699999 35 11 7
-3.3139999 -2.806 -0.73299998 61 29 14
-3.348 -2.796 -0.72500002 39 12 5
-3.348 -2.8069999 -0.72399998 148 98 73
-3.382 -2.819 -0.69199997 68 32 10
-3.381 -2.8180001 -0.68699998 141 97 72
-3.395 -2.8310001 -0.611 124 109 102
-3.4809999 -2.825 -0.52999997 94 65 49
-3.4430001 -2.7679999 -0.53200001 134 51 17
-3.4590001 -2.75 -0.57700002 28 10 0
-3.4560001 -2.753 -0.57700002 26 8 0
-3.4549999 -2.7620001 -0.57700002 66 35 17
-3.4579999 -2.7490001 -0.57300001 46 19 2
-3.4690001 -2.7409999 -0.56900001 69 47 33
-3.454 -2.7509999 -0.57300001 48 25 9
-3.467 -2.7550001 -0.57499999 78 57 30
-3.447 -2.777 -0.53500003 247 180 49
-3.411 -2.8399999 -0.57200003 37 7 0
-3.3959999 -2.8329999 -0.60299999 28 11 4
