ply
format ascii 1.0
comment PCL generated
element vertex 1291
property float x
property float y
property float z
property uchar red
property uchar green
property uchar blue
element camera 0
property float view_px
property float view_py
property float view_pz
property float x_axisx
property float x_axisy
property float x_axisz
property float y_axisx
property float y_axisy
property float y_axisz
property float z_axisx
property float z_axisy
property float z_axisz
property float focal
property float scalex
property float scaley
property float centerx
property float centery
property int viewportx
property int viewporty
property float k1
property float k2
end_header
-10.365 4.8990002 -1.0420001 164 133 102
-10.476 4.8969998 -0.97399998 250 232 170
-10.353 4.902 -1.0369999 214 176 111
-10.374 4.9219999 -0.787 85 41 14
-10.387 5 -0.77999997 69 38 17
-10.379 4.9949999 -0.78600001 151 113 92
-10.391 5.0019999 -0.78100002 152 84 35
-10.443 4.9380002 -0.74900001 200 132 67
-10.442 4.9499998 -0.74400002 137 73 25
-10.492 5.0029998 -1.08 147 95 19
-10.495 5.013 -1.0700001 127 92 64
-10.489 5.0120001 -1.075 203 145 61
-10.53 5.026 -1.053 168 120 71
-10.518 5.013 -1.0549999 165 91 30
-10.418 4.941 -0.74699998 161 120 100
-10.423 4.9349999 -0.75199997 143 82 37
-10.418 4.9450002 -0.745 167 106 39
-10.416 4.9439998 -0.74599999 158 98 46
-10.335 5.0209999 -1.049 195 136 76
-10.355 5.02 -1.036 180 119 56
-10.335 5.0110002 -1.046 246 154 67
-10.382 4.9819999 -0.77899998 143 90 48
-10.373 4.9920001 -0.78899997 105 68 41
-10.383 4.9829998 -0.78500003 132 90 74
-10.354 4.9070001 -1.048 179 129 58
-10.377 4.9970002 -0.79299998 118 81 54
-10.509 4.9520001 -1.038 77 44 25
-10.512 4.9679999 -1.033 231 176 83
-10.449 4.9109998 -0.99400002 215 152 98
-10.437 4.9109998 -0.97600001 207 162 123
-10.438 4.9130001 -0.97899997 253 164 96
-10.484 4.9039998 -0.98500001 141 70 14
-10.473 4.8959999 -0.97899997 246 225 158
-10.383 4.9250002 -0.79100001 113 58 17
-10.381 4.9219999 -0.78799999 142 95 67
-10.375 4.9590001 -0.78500003 74 43 15
-10.371 4.9559999 -0.77499998 143 81 34
-10.365 4.967 -0.77399999 125 85 59
-10.372 4.9530001 -0.77600002 99 58 28
-10.385 4.993 -0.77999997 140 110 84
-10.364 4.9549999 -0.76700002 74 42 19
-10.363 4.9499998 -0.759 165 82 38
-10.445 4.9439998 -0.75400001 134 92 54
-10.435 4.9330001 -0.75 113 41 0
-10.433 4.9320002 -0.76300001 195 107 43
-10.434 4.9320002 -0.75400001 130 73 28
-10.44 4.9330001 -0.759 143 106 77
-10.425 4.9310002 -0.75300002 239 176 109
-10.404 4.9450002 -0.75599998 169 97 49
-10.407 4.9419999 -0.76200002 159 111 63
-10.395 4.9439998 -0.75300002 134 68 16
-10.43 4.9640002 -0.75400001 124 68 35
-10.428 4.967 -0.74699998 183 115 68
-10.424 4.9660001 -0.75700003 72 22 0
-10.402 4.914 -0.78200001 82 37 0
-10.391 4.9219999 -0.77999997 158 86 46
-10.383 4.9159999 -0.787 190 114 62
-10.382 4.9190001 -0.78200001 125 75 42
-10.386 4.9239998 -0.787 103 44 0
-10.387 4.9590001 -0.78899997 119 65 27
-10.377 4.9590001 -0.792 120 60 24
-10.377 4.9380002 -0.759 195 114 49
-10.371 4.9439998 -0.75300002 111 77 52
-10.386 4.9689999 -0.741 66 34 19
-10.398 4.9569998 -0.736 125 86 47
-10.38 4.961 -0.73799998 210 118 35
-10.393 4.9650002 -0.74199998 199 119 56
-10.403 4.9689999 -0.74400002 122 63 29
-10.407 4.9380002 -0.95300001 121 85 63
-10.399 4.934 -0.97500002 189 143 93
-10.393 4.9380002 -0.97299999 91 39 0
-10.381 4.9260001 -0.80000001 74 37 19
-10.385 4.9169998 -0.80400002 69 23 0
-10.385 4.921 -0.80699998 89 53 27
-10.383 4.934 -0.801 170 117 67
-10.517 5.0050001 -1.0420001 202 145 56
-10.512 5.0040002 -1.044 175 133 83
-10.511 5 -1.04 195 113 65
-10.53 5.0229998 -1.05 156 120 96
-10.529 5.02 -1.048 207 147 84
-10.527 5.0190001 -1.045 71 36 16
-10.52 5.0120001 -1.058 230 168 91
-10.522 5.007 -1.046 247 200 154
-10.524 5.0089998 -1.04 213 158 93
-10.521 5.0170002 -1.044 69 31 12
-10.392 4.9299998 -0.99599999 169 118 55
-10.375 5.027 -1.05 154 95 37
-10.37 5.027 -1.048 99 34 0
-10.359 5.0339999 -1.057 129 77 19
-10.383 5.0240002 -1.038 141 105 79
-10.38 5.02 -1.044 115 68 40
-10.418 5.0110002 -1.0470001 125 41 0
-10.422 5.0159998 -1.043 187 127 67
-10.418 5.0180001 -1.051 158 108 59
-10.384 5.0019999 -1.039 180 145 117
-10.392 4.994 -0.95999998 130 77 35
-10.383 5.0079999 -0.958 156 114 89
-10.391 4.9990001 -0.954 184 110 65
-10.395 4.9780002 -0.949 191 148 113
-10.398 4.9840002 -0.95499998 121 118 111
-10.38 4.967 -0.79100001 183 135 97
-10.347 4.993 -1.044 194 148 54
-10.356 4.9829998 -1.025 222 163 105
-10.356 4.9970002 -1.026 132 76 15
-10.411 4.934 -1.126 204 165 74
-10.405 4.9390001 -1.132 254 226 143
-10.416 4.934 -1.133 208 153 86
-10.412 4.9380002 -1.1339999 230 206 100
-10.407 4.9429998 -1.1339999 137 100 45
-10.408 4.9400001 -1.13 186 150 88
-10.465 4.8930001 -0.986 192 140 90
-10.459 4.895 -0.98500001 181 120 75
-10.467 4.8930001 -0.991 222 155 85
-10.479 5.026 -1.044 159 117 79
-10.466 5.0229998 -1.058 194 140 94
-10.485 5.0279999 -1.046 173 130 96
-10.479 5.0229998 -1.05 161 112 71
-10.431 5.0489998 -0.97500002 177 111 61
-10.433 5.0500002 -0.972 66 42 32
-10.415 5.0539999 -0.96899998 164 111 67
-10.442 4.9359999 -1.133 249 195 105
-10.424 4.934 -1.1339999 194 138 51
-10.443 4.9330001 -1.133 255 203 109
-10.327 4.9840002 -1.058 79 46 37
-10.344 4.9879999 -1.068 141 78 34
-10.33 4.9889998 -1.063 255 230 176
-10.394 4.9650002 -1.133 255 246 171
-10.397 4.9640002 -1.1339999 255 244 155
-10.402 4.9699998 -1.1289999 249 225 163
-10.402 4.9660001 -1.1289999 243 223 152
-10.518 4.961 -1.035 129 72 5
-10.354 4.9060001 -1.048 116 67 24
-10.346 4.9219999 -1.027 130 40 0
-10.423 4.9190001 -0.97100002 150 105 82
-10.396 4.9250002 -1.013 206 162 125
-10.383 4.927 -1.0039999 201 133 70
-10.387 4.9190001 -1.021 174 134 98
-10.395 4.9289999 -1.006 122 69 17
-10.32 5.0089998 -1.071 83 50 35
-10.303 5.0110002 -1.075 191 132 74
-10.302 5.013 -1.0829999 89 52 25
-10.316 5.013 -1.076 99 66 49
-10.325 5.0120001 -1.077 194 132 85
-10.323 5.0139999 -1.08 212 144 63
-10.322 5.0409999 -1.084 172 113 47
-10.328 5.027 -1.067 145 91 29
-10.313 5.0159998 -1.074 194 142 94
-10.326 5.0180001 -1.068 184 125 69
-10.319 5.0190001 -1.073 168 112 63
-10.381 4.987 -0.78200001 155 119 83
-10.372 4.9689999 -0.76899999 88 42 6
-10.384 4.9819999 -0.77600002 117 67 18
-10.436 4.9320002 -0.75300002 104 33 0
-10.385 4.9429998 -0.76300001 136 73 20
-10.409 4.9450002 -0.74699998 227 129 66
-10.396 4.9520001 -0.74400002 207 135 77
-10.401 4.9549999 -0.741 240 146 50
-10.424 4.9640002 -0.73799998 117 79 32
-10.419 4.967 -0.74699998 241 139 77
-10.383 4.914 -0.79100001 140 87 55
-10.389 4.9250002 -0.787 120 54 2
-10.389 4.9060001 -0.78600001 230 142 71
-10.402 4.9099998 -0.787 171 137 102
-10.389 4.9450002 -0.75099999 212 147 93
-10.381 4.9460001 -0.75 169 105 57
-10.375 4.9489999 -0.76300001 147 72 32
-10.387 4.9499998 -0.74299997 169 106 39
-10.384 4.954 -0.74400002 162 105 52
-10.388 4.973 -0.74800003 147 94 60
-10.38 4.9770002 -0.74599999 119 69 44
-10.402 4.9689999 -0.755 167 78 20
-10.39 4.974 -0.75599998 157 97 35
-10.382 4.973 -0.75300002 128 75 41
-10.381 4.9720001 -0.75999999 60 19 1
-10.44 4.9089999 -0.97299999 214 169 104
-10.448 4.902 -0.97500002 220 163 120
-10.522 5.007 -1.039 255 214 159
-10.517 5.0089998 -1.039 223 167 84
-10.512 5.0050001 -1.051 225 182 140
-10.514 5.0089998 -1.043 255 207 109
-10.5 5.0029998 -1.0470001 161 85 1
-10.493 5.007 -1.046 117 57 29
-10.497 5.0029998 -1.045 234 177 87
-10.488 5.0229998 -1.035 154 72 24
-10.498 4.9959998 -1.062 180 142 106
-10.499 4.9879999 -1.056 187 116 36
-10.506 4.9819999 -1.038 230 197 84
-10.419 4.9369998 -0.75999999 165 110 79
-10.421 4.9369998 -0.76200002 115 37 1
-10.44 4.9549999 -0.74400002 170 85 28
-10.395 5.0050001 -0.78799999 143 102 70
-10.395 4.9980001 -0.77899998 147 102 73
-10.401 4.9980001 -0.78600001 133 86 60
-10.33 5.0110002 -1.057 111 52 18
-10.372 4.9580002 -0.90100002 70 35 7
-10.376 4.9689999 -0.89899999 55 27 6
-10.372 4.9619999 -0.88999999 61 26 0
-10.333 5.0100002 -1.075 155 110 87
-10.345 5.0139999 -1.073 44 14 6
-10.333 5.0120001 -1.0829999 95 50 27
-10.343 5.0170002 -1.08 96 67 33
-10.361 5.0219998 -1.073 115 58 3
-10.342 5.0240002 -1.081 102 66 44
-10.421 4.9369998 -1.1109999 160 122 103
-10.417 4.9419999 -1.114 202 162 100
-10.416 4.9419999 -1.117 255 230 149
-10.424 4.9369998 -1.107 243 192 126
-10.427 4.9359999 -1.1059999 176 116 46
-10.423 4.9390001 -1.089 140 76 5
-10.421 4.9400001 -1.092 69 25 0
-10.504 4.9629998 -1.0369999 101 54 8
-10.446 4.9039998 -0.95700002 204 148 91
-10.447 4.9050002 -0.97000003 144 88 39
-10.409 4.9369998 -1.1289999 240 204 116
-10.417 4.9569998 -1.115 128 78 5
-10.417 4.9460001 -1.112 139 95 60
-10.417 4.9450002 -1.115 202 159 116
-10.407 4.9640002 -1.107 117 78 35
-10.426 4.9349999 -1.114 133 66 0
-10.42 4.941 -1.105 248 194 120
-10.465 4.8930001 -0.98299998 144 74 14
-10.463 4.8959999 -0.97899997 127 69 19
-10.465 4.8959999 -0.98000002 165 99 49
-10.351 5.0279999 -1.071 114 43 15
-10.369 5.0209999 -1.0700001 108 33 0
-10.482 5.0100002 -1.058 255 243 140
-10.359 5.0250001 -1.063 120 94 81
-10.334 4.9980001 -1.072 106 68 49
-10.346 4.9959998 -1.067 226 169 124
-10.33 5.0029998 -1.063 170 118 42
-10.4 4.9650002 -1.132 255 252 165
-10.493 5.0019999 -1.041 158 97 34
-10.501 4.9899998 -1.0319999 176 130 32
-10.362 4.902 -1.044 106 49 6
-10.358 4.9070001 -1.049 212 149 98
-10.354 5.026 -1.052 235 161 98
-10.353 5.026 -1.044 113 59 12
-10.343 5.0240002 -1.0549999 231 162 97
-10.346 4.921 -1.023 224 158 61
-10.358 4.9299998 -1.005 135 97 76
-10.357 4.9429998 -1.008 234 179 115
-10.357 4.934 -0.99699998 226 122 49
-10.365 4.9060001 -1.034 224 169 113
-10.365 4.9039998 -1.043 131 60 16
-10.478 4.8990002 -0.99400002 103 57 31
-10.49 4.9120002 -0.99299997 96 49 19
-10.457 4.9000001 -0.98900002 193 132 67
-10.446 4.9089999 -0.98000002 255 208 130
-10.307 5.013 -1.076 208 138 79
-10.333 5.0209999 -1.085 165 103 56
-10.356 4.901 -1.039 57 25 2
-10.387 4.927 -0.79100001 127 61 26
-10.395 4.9070001 -0.79100001 189 125 61
-10.422 4.9330001 -0.77200001 154 87 32
-10.394 4.9439998 -0.76800001 115 64 21
-10.387 4.9790001 -0.77399999 138 72 20
-10.385 4.96 -0.79100001 157 101 54
-10.389 4.9629998 -0.79400003 143 98 57
-10.385 4.967 -0.79500002 90 59 41
-10.406 4.9180002 -0.78200001 241 194 116
-10.405 4.9120002 -0.78600001 237 165 115
-10.383 4.9889998 -0.78100002 154 103 58
-10.383 4.9829998 -0.79000002 106 70 44
-10.375 4.9640002 -0.74299997 173 90 46
-10.365 4.9679999 -0.745 139 91 53
-10.426 4.9229999 -0.963 182 127 73
-10.418 4.927 -0.95300001 145 89 38
-10.435 4.9159999 -0.96600002 226 184 136
-10.438 4.915 -0.963 252 209 167
-10.501 4.9369998 -1.034 255 222 119
-10.502 4.941 -1.029 168 132 58
-10.502 4.9400001 -1.0190001 168 88 15
-10.507 4.987 -1.035 251 212 107
-10.502 4.9710002 -1.03 241 203 96
-10.494 5.006 -1.051 203 131 72
-10.495 5.006 -1.0650001 248 209 116
-10.41 4.9889998 -0.78500003 140 55 0
-10.408 4.9689999 -0.75800002 200 101 46
-10.5 4.9679999 -1.043 167 120 76
-10.407 4.9650002 -0.745 187 113 64
-10.422 4.9629998 -0.741 125 73 36
-10.464 4.9289999 -0.84100002 176 97 41
-10.466 4.9400001 -0.83399999 237 192 111
-10.469 4.9349999 -0.82800001 206 113 56
-10.389 4.994 -0.778 218 149 84
-10.418 4.9349999 -0.95599997 234 197 127
-10.411 4.9380002 -0.94999999 255 227 152
-10.377 4.9159999 -1.021 157 93 47
-10.394 4.9349999 -0.99199998 132 80 33
-10.333 5 -1.0549999 123 75 39
-10.337 5.0029998 -1.044 87 37 0
-10.357 4.9450002 -1.012 247 183 119
-10.355 4.9460001 -1.03 118 46 0
-10.363 4.9499998 -1.015 156 96 42
-10.354 4.9429998 -1.027 249 197 96
-10.346 4.9349999 -1.028 255 224 119
-10.355 5.0149999 -1.035 255 204 126
-10.4 4.9749999 -0.958 79 44 22
-10.401 4.98 -0.963 119 60 26
-10.398 4.9640002 -0.94800001 76 40 8
-10.4 4.9689999 -0.95999998 155 108 54
-10.403 4.9889998 -0.96100003 161 107 73
-10.347 5.0019999 -1.043 153 100 24
-10.343 4.9970002 -1.048 102 68 56
-10.354 5.0100002 -1.072 31 0 0
-10.41 4.9559999 -1.061 197 128 61
-10.41 4.9549999 -1.067 177 109 46
-10.392 4.9439998 -1.0599999 113 71 57
-10.411 4.9460001 -1.061 150 98 58
-10.413 4.9499998 -1.073 234 175 109
-10.406 4.961 -1.08 152 87 55
-10.407 4.9549999 -1.086 246 187 147
-10.418 4.9419999 -1.104 120 72 36
-10.428 4.941 -1.092 164 112 55
-10.433 4.9439998 -1.09 133 93 57
-10.427 4.9429998 -1.087 215 184 119
-10.431 4.9380002 -1.098 163 109 39
-10.429 4.9400001 -1.095 214 181 110
-10.386 4.9200001 -1.045 152 100 53
-10.39 4.9380002 -1.057 171 102 43
-10.385 4.921 -1.051 196 155 111
-10.377 4.948 -1.035 121 83 64
-10.371 4.9590001 -1.029 186 118 45
-10.374 4.9580002 -1.029 167 89 25
-10.377 4.9710002 -1.046 139 94 65
-10.343 4.934 -1.031 180 135 50
-10.353 4.9390001 -1.033 247 194 82
-10.416 4.9429998 -1.114 186 140 65
-10.424 4.9400001 -1.099 148 109 92
-10.439 4.9320002 -1.108 255 218 137
-10.443 4.9419999 -1.108 165 122 87
-10.435 4.9429998 -1.096 189 91 30
-10.456 4.9060001 -0.995 186 121 29
-10.461 4.9039998 -0.99299997 207 146 63
-10.461 4.8979998 -0.97100002 237 183 139
-10.396 4.9099998 -0.80400002 158 85 34
-10.447 4.948 -0.99699998 204 149 67
-10.454 4.9569998 -1.006 124 78 44
-10.444 4.954 -1 127 67 7
-10.504 4.9460001 -1.025 171 134 108
-10.494 4.961 -1.045 254 237 131
-10.493 4.967 -1.0420001 53 27 14
-10.426 4.9489999 -1.079 202 120 34
-10.412 4.9380002 -1.127 103 62 0
-10.417 4.9380002 -1.125 252 224 140
-10.419 4.9349999 -1.133 255 217 113
-10.424 4.9369998 -1.126 254 195 103
-10.415 4.9619999 -1.1289999 73 34 3
-10.465 4.8959999 -0.991 205 137 62
-10.472 4.915 -0.96700001 248 196 112
-10.465 4.9039998 -0.96899998 156 99 46
-10.468 4.9070001 -0.97000003 151 80 26
-10.4 4.9400001 -0.97000003 231 183 137
-10.34 5.0279999 -1.071 91 24 0
-10.342 5.0240002 -1.058 104 53 6
-10.35 5.0250001 -1.0650001 233 162 98
-10.463 5.0170002 -1.045 163 112 65
-10.473 5.0250001 -1.034 97 40 0
-10.475 5.0149999 -1.033 157 95 38
-10.477 5.0219998 -1.035 69 22 4
-10.477 5.027 -1.04 156 107 74
-10.474 5.0040002 -1.036 165 111 73
-10.463 5.0079999 -1.039 247 187 115
-10.471 5.013 -1.0369999 168 85 15
-10.482 5.02 -1.046 249 204 165
-10.487 5.0149999 -1.035 255 189 100
-10.462 5.0009999 -1.038 78 30 0
-10.448 5.0050001 -1.033 161 109 70
-10.368 5.0250001 -1.053 125 78 50
-10.378 5.0170002 -1.056 209 167 119
-10.381 5.0040002 -1.067 147 64 12
-10.407 4.9689999 -1.128 155 118 65
-10.41 4.9629998 -1.135 255 223 146
-10.422 4.9780002 -1.132 218 115 49
-10.429 4.9889998 -1.132 173 137 111
-10.424 4.9899998 -1.13 87 55 30
-10.426 4.9650002 -1.133 53 18 0
-10.405 4.974 -1.081 171 119 72
-10.412 4.9790001 -1.084 94 57 12
-10.408 4.9749999 -1.075 163 108 67
-10.405 4.9860001 -1.0599999 155 105 56
-10.41 4.9629998 -1.099 151 99 60
-10.497 4.9959998 -1.071 71 37 10
-10.488 4.9840002 -1.071 218 170 124
-10.46 4.9819999 -1.041 159 87 3
-10.467 4.987 -1.036 153 117 83
-10.365 5.0250001 -1.041 243 178 120
-10.372 5.0229998 -1.039 174 129 90
-10.378 5.0159998 -1.02 89 60 30
-10.398 4.967 -1.131 255 245 171
-10.364 4.901 -1.044 242 208 147
-10.355 5.0139999 -1.036 109 59 8
-10.351 5.0149999 -1.0420001 146 84 47
-10.347 4.9250002 -1.035 82 45 18
-10.357 4.914 -1.025 173 137 103
-10.356 4.9089999 -1.031 224 138 89
-10.359 4.9159999 -1.023 215 170 105
-10.353 4.921 -1.021 255 194 95
-10.367 4.9120002 -1.029 220 167 115
-10.362 4.9169998 -1.022 212 150 109
-10.402 4.9289999 -1.012 184 128 67
-10.464 4.915 -0.99800003 230 173 68
-10.457 4.9169998 -0.991 255 199 102
-10.468 4.9190001 -1.003 247 193 87
-10.468 4.9180002 -0.99900001 255 207 98
-10.324 5.0229998 -1.082 177 114 45
-10.364 4.9710002 -0.755 84 47 21
-10.369 4.9720001 -0.75300002 234 159 104
-10.366 4.9689999 -0.759 161 119 97
-10.373 4.9759998 -0.74900001 78 28 0
-10.401 4.9089999 -0.801 126 77 37
-10.405 4.9070001 -0.796 150 121 91
-10.388 4.9190001 -0.81099999 107 58 25
-10.417 4.9400001 -0.76300001 195 133 76
-10.408 4.9650002 -0.76700002 143 60 8
-10.413 4.967 -0.76300001 86 43 24
-10.395 4.9790001 -0.77499998 123 60 6
-10.388 4.9130001 -0.79799998 180 104 52
-10.435 4.9229999 -0.95700002 178 91 0
-10.434 4.921 -0.96100003 137 90 36
-10.436 4.921 -0.97500002 232 185 139
-10.478 5.006 -1.067 159 91 28
-10.499 4.9970002 -1.0549999 212 174 137
-10.437 4.9299998 -1.127 208 151 62
-10.441 4.9299998 -1.119 153 95 45
-10.441 4.9299998 -1.126 180 121 61
-10.443 4.9320002 -1.128 219 158 75
-10.502 4.9419999 -1.03 192 142 93
-10.499 4.9369998 -1.033 177 140 122
-10.416 4.9679999 -0.77700001 124 87 60
-10.405 4.9660001 -0.77600002 147 75 25
-10.396 4.9879999 -0.77499998 213 124 64
-10.519 5.0110002 -1.038 184 103 22
-10.454 5 -0.92000002 165 112 58
-10.457 5.0029998 -0.912 64 31 12
-10.459 4.9980001 -0.91600001 121 89 68
-10.445 5.0219998 -0.91299999 172 112 50
-10.433 5.0250001 -0.949 123 83 57
-10.45 5.033 -0.96499997 187 114 61
-10.451 5.0370002 -0.96200001 134 54 3
-10.449 4.9520001 -0.75700003 108 64 37
-10.443 4.9489999 -0.76800001 198 117 64
-10.432 4.9510002 -0.764 131 92 59
-10.476 4.9130001 -0.97100002 145 90 0
-10.46 4.9190001 -0.83099997 188 118 32
-10.46 4.9190001 -0.82499999 237 171 85
-10.456 4.9070001 -0.96600002 149 77 18
-10.459 4.9070001 -0.96600002 148 87 43
-10.42 4.9970002 -0.79900002 192 144 80
-10.429 4.9770002 -0.792 101 60 30
-10.427 4.9949999 -0.80299997 166 121 79
-10.384 4.9819999 -0.796 75 44 24
-10.382 4.9879999 -0.792 177 96 49
-10.385 4.9879999 -0.79699999 45 17 3
-10.387 4.9660001 -0.824 132 81 54
-10.388 4.9699998 -0.83200002 150 99 68
-10.387 4.9650002 -0.83600003 65 36 20
-10.405 4.941 -0.97000003 221 176 109
-10.425 4.9250002 -0.96700001 232 185 131
-10.4 4.9689999 -0.96399999 117 73 24
-10.364 4.9450002 -1.005 125 73 13
-10.371 4.9499998 -1.003 196 158 77
-10.375 4.9489999 -1.018 244 216 93
-10.379 4.9499998 -1.016 252 199 105
-10.362 4.9070001 -1.033 197 167 139
-10.405 4.9369998 -0.98500001 123 86 67
-10.339 4.9889998 -1.0549999 105 62 30
-10.347 4.9850001 -1.048 104 74 46
-10.358 4.973 -1.04 199 131 66
-10.357 4.98 -1.025 84 60 32
-10.352 4.9660001 -1.041 124 47 5
-10.357 4.9369998 -1.0369999 139 98 76
-10.36 4.9359999 -1.044 179 105 32
-10.368 4.9489999 -0.884 113 77 45
-10.375 4.9439998 -0.90100002 114 72 48
-10.377 4.9380002 -0.89899999 163 115 66
-10.374 4.9439998 -0.89099997 159 111 73
-10.372 4.961 -0.88499999 109 70 39
-10.372 4.9559999 -0.87800002 104 55 23
-10.379 5.0050001 -1.043 144 82 21
-10.379 5.0079999 -1.035 218 166 119
-10.375 5.0229998 -1.04 212 135 67
-10.346 5.006 -1.044 223 164 94
-10.37 5 -1.024 150 91 31
-10.36 5.0040002 -1.027 121 63 26
-10.373 5.0079999 -1.022 82 33 0
-10.372 5.013 -1.026 211 153 80
-10.369 4.9920001 -1.023 232 153 74
-10.379 4.987 -1.027 255 206 127
-10.389 4.993 -1.026 158 102 45
-10.392 4.9650002 -0.98299998 104 94 82
-10.382 4.96 -0.995 155 108 20
-10.386 4.9640002 -0.99299997 235 183 107
-10.393 4.9699998 -0.99400002 110 56 18
-10.393 4.967 -0.99000001 198 139 73
-10.389 4.9569998 -0.99000001 185 140 59
-10.401 4.9699998 -0.98400003 150 96 52
-10.404 4.9710002 -0.98000002 118 68 33
-10.399 4.9569998 -0.98000002 127 99 78
-10.396 5.0380001 -0.95499998 208 148 98
-10.394 5.02 -0.95700002 169 101 56
-10.398 5.033 -0.96799999 153 92 61
-10.399 5.0370002 -0.96499997 74 37 10
-10.399 5.033 -0.96100003 136 74 33
-10.399 5.0040002 -0.94700003 188 140 102
-10.389 5.007 -0.95200002 165 130 102
-10.397 5.013 -0.95099998 80 46 18
-10.401 5.0139999 -0.94800001 63 26 8
-10.42 4.9990001 -0.95899999 107 51 16
-10.426 5.0050001 -0.954 60 28 13
-10.436 4.9889998 -0.94599998 55 23 0
-10.42 4.9889998 -0.963 50 20 9
-10.361 4.9619999 -0.75599998 188 137 82
-10.377 4.9499998 -0.76499999 151 79 20
-10.39 4.9349999 -1.062 181 106 38
-10.332 4.994 -1.061 255 232 163
-10.349 5.0170002 -1.073 207 155 82
-10.42 4.9860001 -1.076 149 73 13
-10.413 4.98 -1.086 126 72 28
-10.406 4.9720001 -1.063 102 44 0
-10.403 4.9559999 -1.048 159 124 104
-10.414 4.947 -1.087 123 79 8
-10.411 4.954 -1.082 197 148 92
-10.419 4.9460001 -1.085 116 70 11
-10.399 4.947 -1.0369999 92 46 20
-10.409 4.9499998 -1.026 151 111 85
-10.415 4.9520001 -1.03 173 120 70
-10.416 4.9450002 -1.021 254 190 116
-10.387 4.9349999 -1.054 147 95 47
-10.394 4.9429998 -1.039 176 108 35
-10.366 4.9089999 -1.043 251 197 151
-10.356 4.9229999 -1.048 147 65 18
-10.396 4.993 -1.045 57 17 0
-10.387 4.9910002 -1.053 121 88 69
-10.396 4.987 -1.0549999 102 51 6
-10.384 4.9949999 -1.046 255 167 90
-10.403 4.9920001 -1.045 243 168 101
-10.49 4.9130001 -0.99599999 198 122 60
-10.487 4.9200001 -0.99599999 119 42 0
-10.426 4.9400001 -1.094 137 88 47
-10.423 4.9400001 -1.103 207 155 105
-10.429 4.9390001 -1.022 139 71 22
-10.458 4.9429998 -1.03 161 105 58
-10.449 4.9439998 -1.027 107 72 44
-10.461 4.9320002 -1.017 187 147 111
-10.442 4.9130001 -0.95599997 198 163 99
-10.39 4.914 -0.80599999 94 39 0
-10.423 4.9829998 -0.96499997 102 66 40
-10.426 4.98 -0.97500002 69 24 1
-10.42 4.9850001 -0.96799999 48 20 9
-10.42 4.9879999 -0.96399999 155 110 79
-10.431 4.9679999 -1.132 54 22 1
-10.437 4.9419999 -1.125 210 151 81
-10.44 4.941 -1.132 199 141 77
-10.448 4.947 -1.118 255 212 130
-10.418 4.9460001 -1.108 99 51 13
-10.443 4.947 -1.105 218 179 110
-10.424 4.934 -1.122 248 192 131
-10.432 4.934 -1.118 212 182 96
-10.432 4.934 -1.12 247 196 117
-10.45 4.941 -1.119 255 202 133
-10.458 4.9450002 -1.114 255 215 153
-10.413 4.9580002 -1.053 148 105 88
-10.421 4.9619999 -1.054 138 61 7
-10.425 4.9510002 -1.067 255 197 124
-10.466 4.9819999 -1.027 255 199 141
-10.5 4.9640002 -1.026 82 39 22
-10.463 4.9180002 -0.95499998 194 102 25
-10.421 4.9460001 -1.084 136 84 27
-10.453 4.941 -1.11 232 164 99
-10.439 4.9380002 -1.133 140 88 2
-10.427 4.9380002 -1.125 222 186 150
-10.417 4.934 -1.124 251 229 130
-10.416 4.967 -1.13 85 42 0
-10.404 4.9640002 -1.133 250 230 143
-10.414 4.9619999 -1.132 161 119 77
-10.433 4.934 -1.114 247 211 125
-10.403 4.954 -0.954 131 119 103
-10.401 4.9510002 -0.94400001 210 165 110
-10.45 5.0029998 -1.0700001 57 25 10
-10.465 5.0170002 -1.0599999 187 145 103
-10.456 5.0079999 -1.08 151 91 41
-10.465 5.0170002 -1.052 169 114 60
-10.456 5.033 -0.96799999 145 96 64
-10.471 5.02 -1.044 255 204 139
-10.48 5.026 -1.036 135 89 66
-10.487 5.006 -1.0369999 246 164 78
-10.489 4.9970002 -1.04 108 38 0
-10.378 5.0159998 -1.052 128 85 51
-10.355 5.027 -1.0599999 215 145 76
-10.362 5.026 -1.0599999 128 50 14
-10.418 4.9749999 -1.128 119 72 28
-10.381 5.006 -1.059 236 181 140
-10.404 4.9850001 -1.052 88 50 39
-10.409 4.967 -1.102 175 88 11
-10.409 4.974 -1.099 84 43 13
-10.418 4.9770002 -1.108 133 81 0
-10.39 5.0050001 -1.027 187 121 60
-10.382 5.0019999 -1.029 116 74 60
-10.416 5.052 -0.96799999 48 23 16
-10.427 5.0489998 -0.96899998 180 136 107
-10.365 5.0170002 -1.028 128 63 9
-10.366 5.0279999 -1.051 78 48 20
-10.35 5.0190001 -1.043 149 91 18
-10.359 4.921 -1.0190001 202 109 50
-10.353 4.9219999 -1.021 189 122 79
-10.353 4.9250002 -1.022 245 182 89
-10.349 4.9299998 -1.026 255 217 106
-10.395 4.9429998 -1.031 177 125 67
-10.436 4.9439998 -0.98900002 120 59 15
-10.431 4.9390001 -1.002 106 54 7
-10.427 4.9419999 -0.98699999 129 93 71
-10.425 4.9429998 -0.99900001 216 150 92
-10.464 4.9029999 -0.99299997 189 115 54
-10.469 4.927 -0.99800003 247 199 89
-10.459 4.9400001 -1.011 188 135 83
-10.442 4.9359999 -1.005 118 96 85
-10.46 4.9439998 -0.99699998 126 75 30
-10.47 4.9310002 -1.0140001 181 132 73
-10.458 4.8959999 -0.98900002 202 139 60
-10.445 4.9120002 -0.98299998 255 228 157
-10.422 4.9369998 -1.115 255 237 143
-10.397 4.9089999 -0.79500002 213 119 49
-10.41 4.9569998 -0.73900002 214 159 103
-10.407 4.9330001 -0.78299999 248 204 133
-10.377 4.9699998 -0.764 48 4 0
-10.376 4.9699998 -0.759 77 29 7
-10.394 4.9099998 -0.79799998 173 97 39
-10.393 4.9120002 -0.80400002 164 122 80
-10.392 4.9400001 -0.78799999 197 139 93
-10.387 4.9549999 -0.77700001 254 212 172
-10.388 4.9520001 -0.773 255 215 183
-10.395 4.9569998 -0.79299998 121 57 21
-10.443 4.914 -0.98199999 229 171 98
-10.386 4.927 -0.80299997 107 47 0
-10.389 4.9239998 -0.80900002 183 96 42
-10.476 5.0089998 -1.0599999 179 118 38
-10.465 5.0009999 -1.0700001 45 16 0
-10.464 5.006 -1.084 90 42 2
-10.498 4.9949999 -1.049 125 62 11
-10.447 4.941 -1.1289999 242 184 102
-10.435 4.9320002 -1.123 255 218 133
-10.501 4.9400001 -1.033 248 184 122
-10.489 5.007 -1.049 169 120 17
-10.442 4.948 -0.759 159 88 34
-10.438 4.9439998 -0.76599997 174 126 77
-10.424 4.9660001 -0.76099998 58 15 0
-10.398 4.9949999 -0.78100002 225 165 79
-10.42 5.0359998 -0.95499998 169 117 78
-10.43 5.0419998 -0.96799999 49 21 9
-10.461 4.9330001 -0.82599998 117 99 85
-10.471 4.9169998 -0.97799999 80 39 9
-10.465 4.9260001 -0.94999999 162 91 35
-10.465 4.9250002 -0.95099998 179 153 120
-10.467 4.9320002 -0.94999999 146 80 22
-10.461 4.9219999 -0.83499998 236 170 118
-10.454 4.9130001 -0.95999998 164 87 31
-10.446 5.0219998 -0.90899998 252 197 132
-10.454 5.006 -0.90399998 75 46 32
-10.445 5.027 -0.91299999 95 60 40
-10.45 4.993 -0.89399999 192 122 60
-10.386 5.0029998 -0.79400003 107 66 34
-10.387 4.9959998 -0.80199999 151 116 97
-10.386 4.9780002 -0.80800003 113 90 58
-10.391 4.9790001 -0.83099997 92 49 17
-10.384 4.9419999 -0.995 154 84 48
-10.389 4.948 -0.99199998 82 32 0
-10.378 4.9429998 -0.99400002 122 71 16
-10.383 4.948 -0.99400002 105 66 27
-10.414 4.9310002 -0.97600001 190 100 37
-10.424 4.9260001 -0.97000003 250 220 166
-10.332 5.027 -1.064 205 136 69
-10.336 5.0219998 -1.059 180 121 63
-10.335 4.9879999 -1.061 248 226 176
-10.353 4.9759998 -1.054 169 118 91
-10.356 4.974 -1.049 245 187 90
-10.359 4.9809999 -1.056 79 21 0
-10.362 4.98 -1.0549999 138 81 38
-10.359 4.9770002 -1.052 79 27 3
-10.353 4.9720001 -1.046 198 120 46
-10.356 4.9819999 -1.044 121 53 6
-10.388 4.9619999 -1 215 144 66
-10.395 4.9660001 -1.006 247 178 100
-10.378 4.927 -1.045 127 56 0
-10.367 4.9320002 -1.046 207 161 111
-10.38 4.9419999 -1.039 241 161 88
-10.364 4.9710002 -1.045 172 127 104
-10.363 4.9460001 -1.03 195 160 138
-10.369 4.9439998 -1.0369999 154 89 35
-10.399 4.9689999 -0.926 81 46 18
-10.404 4.9590001 -0.93900001 81 30 0
-10.39 4.9460001 -0.91299999 73 32 10
-10.403 4.9530001 -0.93199998 130 61 20
-10.396 4.9559999 -0.92000002 58 22 0
-10.373 4.9499998 -0.89099997 85 40 17
-10.376 4.948 -0.89999998 183 139 114
-10.453 5.007 -0.90700001 183 111 37
-10.4 4.9790001 -0.94400001 84 36 0
-10.403 4.9860001 -0.92500001 119 76 41
-10.406 4.98 -0.935 63 30 15
-10.405 5.006 -0.94700003 90 56 31
-10.396 5.0019999 -0.963 87 50 21
-10.397 5.0040002 -0.96399999 171 143 131
-10.396 5.0089998 -0.963 82 42 16
-10.403 4.9710002 -0.98799998 202 158 111
-10.421 4.9720001 -0.986 75 32 0
-10.418 5.0510001 -0.97299999 36 13 5
-10.417 5.0479999 -0.97600001 83 48 26
-10.414 5.0500002 -0.96799999 101 51 14
-10.427 5.0430002 -0.97600001 24 2 0
-10.402 5.04 -0.96700001 141 88 46
-10.402 5.033 -0.97000003 127 87 52
-10.372 5.0170002 -1.031 216 151 93
-10.344 5.0040002 -1.044 208 154 84
-10.377 4.9970002 -1.026 169 135 110
-10.383 4.9530001 -0.99199998 165 147 145
-10.379 4.9559999 -0.99699998 192 146 60
-10.378 4.9489999 -0.99699998 211 160 97
-10.403 5 -0.92299998 87 56 35
-10.398 5.0170002 -0.95200002 197 145 95
-10.412 5.026 -0.95200002 209 123 48
-10.411 5.033 -0.95300001 180 101 45
-10.403 5.0320001 -0.95499998 199 156 122
-10.41 5.0289998 -0.95300001 169 88 33
-10.406 5.0359998 -0.95599997 149 82 29
-10.422 5.0040002 -0.96600002 62 26 2
-10.422 5.0110002 -0.96499997 61 34 23
-10.425 5.0089998 -0.97299999 116 78 59
-10.365 4.967 -0.75 237 179 129
-10.372 4.9689999 -0.75800002 213 137 61
-10.414 4.947 -1.072 217 160 89
-10.408 4.9549999 -1.033 119 62 9
-10.435 4.9819999 -1.027 172 95 27
-10.427 4.993 -1.03 125 72 20
-10.436 4.9920001 -1.0319999 197 145 95
-10.428 4.9850001 -1.029 180 114 53
-10.354 5.0029998 -1.034 138 74 0
-10.357 4.994 -1.0369999 99 33 0
-10.443 4.9569998 -1.079 133 60 5
-10.436 4.961 -1.064 130 58 0
-10.448 4.9640002 -1.073 239 193 134
-10.41 4.9450002 -1.0930001 151 106 73
-10.385 4.9250002 -1.035 141 94 68
-10.385 4.928 -1.038 181 98 18
-10.388 4.9330001 -1.03 204 136 53
-10.389 4.9390001 -1.038 187 125 68
-10.396 4.947 -1.04 126 45 0
-10.416 4.9590001 -1.0470001 112 58 12
-10.426 4.9590001 -1.041 241 163 81
-10.432 4.9629998 -1.053 128 56 16
-10.38 4.9770002 -1.0549999 199 105 51
-10.378 4.9770002 -1.0700001 103 40 7
-10.384 4.9699998 -1.069 94 30 3
-10.386 4.974 -1.069 107 47 19
-10.385 4.9489999 -1.036 224 162 89
-10.355 4.9099998 -1.046 244 192 135
-10.37 4.915 -1.051 187 139 99
-10.363 4.9310002 -1.046 224 170 106
-10.385 4.9889998 -1.054 199 137 78
-10.485 4.9320002 -1.027 181 147 120
-10.488 4.9289999 -1.034 156 133 117
-10.491 4.9390001 -1.017 171 120 54
-10.447 4.9380002 -1.013 144 88 41
-10.427 4.954 -1.026 120 68 29
-10.426 4.947 -1.023 139 79 25
-10.483 4.9299998 -1.031 114 81 48
-10.482 4.9349999 -1.034 184 112 53
-10.391 4.9130001 -0.80400002 149 70 13
-10.414 4.9699998 -0.99400002 142 97 64
-10.407 4.9689999 -0.99199998 226 165 102
-10.486 4.9699998 -1.026 139 101 82
-10.486 4.974 -1.03 93 57 33
-10.449 4.973 -1.029 199 128 48
-10.436 4.9770002 -1.036 120 79 61
-10.463 4.9200001 -0.949 216 182 137
-10.463 4.9180002 -0.95599997 218 179 114
-10.463 4.908 -0.96600002 225 133 56
-10.455 4.915 -0.958 212 179 144
-10.493 4.9569998 -1.021 255 214 110
-10.489 4.9520001 -1.0190001 243 196 92
-10.486 4.9559999 -1.016 246 211 111
-10.483 4.9510002 -1.008 158 107 62
-10.495 4.941 -1.026 246 215 125
-10.474 4.9530001 -1.033 85 37 0
-10.46 4.961 -1.0319999 193 105 41
-10.468 4.9840002 -1.041 162 116 41
-10.465 4.9860001 -1.046 128 82 59
-10.47 4.9860001 -1.031 132 74 11
-10.454 4.9510002 -1.113 199 138 81
-10.495 4.9299998 -1.04 249 171 96
-10.493 4.9419999 -1.0470001 98 61 34
-10.501 4.948 -1.04 249 186 107
-10.485 4.9530001 -1.044 129 60 19
-10.456 4.9650002 -1.08 133 90 74
-10.458 4.9749999 -1.067 186 127 83
-10.453 4.967 -1.073 202 125 69
-10.427 4.947 -1.0829999 108 72 48
-10.425 4.934 -1.127 166 131 37
-10.417 4.934 -1.128 255 215 119
-10.434 4.9549999 -1.115 254 234 147
-10.443 4.967 -1.112 180 100 51
-10.413 4.9330001 -1.126 216 161 94
-10.43 4.9349999 -1.1109999 254 194 106
-10.403 4.9619999 -0.958 73 43 19
-10.478 4.961 -1.016 146 99 69
-10.475 4.9559999 -1.0039999 168 132 106
-10.439 5.0029998 -1.071 56 24 11
-10.432 5.0019999 -1.0700001 63 30 15
-10.427 5.0009999 -1.072 169 89 36
-10.469 5.0190001 -1.036 176 111 57
-10.475 5.0040002 -1.036 181 96 32
-10.477 4.9899998 -1.038 84 51 18
-10.485 5.0079999 -1.034 255 184 104
-10.49 5.0079999 -1.045 255 189 103
-10.36 5.0149999 -1.067 115 36 0
-10.364 5.007 -1.0599999 204 118 57
-10.42 4.9759998 -1.123 134 94 69
-10.368 4.9829998 -1.0549999 85 28 0
-10.37 5.0040002 -1.058 81 20 0
-10.368 4.9910002 -1.059 142 91 38
-10.409 4.98 -1.095 77 33 8
-10.417 4.9920001 -1.101 206 174 115
-10.414 4.9840002 -1.098 107 71 47
-10.414 4.98 -1.102 84 44 19
-10.4 4.9580002 -1.045 73 41 20
-10.361 5.0139999 -1.03 237 171 93
-10.403 5.0430002 -0.96700001 76 35 5
-10.404 5.0409999 -0.96200001 228 169 125
-10.351 5.0240002 -1.051 247 185 124
-10.349 5.02 -1.046 149 94 37
-10.366 4.9169998 -1.022 171 137 109
-10.352 4.9159999 -1.04 152 95 28
-10.362 4.9229999 -1.016 220 175 142
-10.357 4.9229999 -1.0190001 156 102 66
-10.36 4.9359999 -1.008 188 128 66
-10.38 4.921 -1.023 175 104 48
-10.391 4.9390001 -1.033 186 124 73
-10.442 4.948 -0.995 155 97 57
-10.466 4.9169998 -0.99800003 201 132 55
-10.457 4.9229999 -0.98400003 198 121 65
-10.463 4.9400001 -0.977 231 146 66
-10.454 4.928 -0.977 217 167 130
-10.404 4.9099998 -0.80400002 136 80 45
-10.4 4.9349999 -0.78399998 133 90 73
-10.386 4.9860001 -0.778 111 74 45
-10.415 4.9169998 -0.79799998 77 45 24
-10.409 4.9120002 -0.79400003 175 117 77
-10.414 4.9180002 -0.792 95 44 1
-10.401 4.9770002 -0.78299999 162 120 70
-10.406 4.9790001 -0.78600001 119 90 76
-10.396 4.9619999 -0.80199999 149 105 80
-10.402 4.947 -0.76899999 99 35 0
-10.369 4.9559999 -0.74599999 116 55 1
-10.377 4.9549999 -0.74699998 207 156 109
-10.372 4.9499998 -0.75199997 133 69 23
-10.441 4.9120002 -0.96700001 185 97 26
-10.429 4.9369998 -0.98000002 118 82 56
-10.444 4.9239998 -0.977 112 71 7
-10.434 4.934 -0.97299999 89 53 27
-10.43 4.9559999 -0.97899997 144 105 74
-10.429 4.9689999 -0.96799999 157 122 92
-10.422 4.9679999 -0.98400003 121 49 0
-10.445 4.915 -0.98400003 252 211 145
-10.441 4.921 -0.98400003 216 172 99
-10.472 5.0019999 -1.068 68 37 16
-10.455 5.0050001 -1.073 90 43 0
-10.506 4.9499998 -1.034 220 173 69
-10.426 4.9510002 -0.78399998 115 41 0
-10.425 4.9390001 -0.76899999 86 51 23
-10.429 4.9559999 -0.773 129 70 40
-10.428 4.9619999 -0.77700001 121 63 15
-10.447 4.9660001 -0.78899997 44 15 0
-10.445 4.9710002 -0.79100001 126 77 36
-10.43 4.9530001 -0.76499999 198 121 77
-10.433 4.9400001 -0.76800001 159 104 74
-10.413 4.9889998 -0.79000002 178 125 83
-10.391 4.9429998 -0.90600002 125 64 17
-10.39 4.941 -0.89700001 77 32 1
-10.43 5.0310001 -0.95499998 157 104 64
-10.419 5.0430002 -0.96499997 73 45 31
-10.41 5.0430002 -0.958 110 53 0
-10.451 4.914 -0.833 140 95 62
-10.444 4.9120002 -0.82200003 102 50 10
-10.443 4.9109998 -0.83399999 105 33 0
-10.408 4.9070001 -0.78899997 153 120 89
-10.414 4.908 -0.80500001 154 127 97
-10.41 4.9190001 -0.78899997 166 82 20
-10.47 4.9239998 -0.97899997 129 66 12
-10.461 4.9219999 -0.83399999 79 37 12
-10.446 4.9689999 -0.796 179 129 94
-10.395 4.9829998 -0.833 83 39 12
-10.394 4.98 -0.83499998 82 38 11
-10.399 4.9980001 -0.84799999 77 36 8
-10.39 5.0019999 -0.79400003 65 20 0
-10.395 4.9920001 -0.81 113 78 48
-10.394 4.9920001 -0.80299997 34 7 0
-10.417 4.9380002 -0.94800001 255 207 124
-10.417 4.941 -0.94499999 232 188 113
-10.408 4.9419999 -0.94800001 235 194 132
-10.415 4.9429998 -0.94499999 169 127 67
-10.416 4.9450002 -0.94099998 158 88 26
-10.375 4.948 -0.99900001 246 205 123
-10.375 4.9460001 -0.99900001 108 76 61
-10.374 4.9330001 -1.001 159 107 57
-10.367 4.9219999 -1.012 171 126 71
-10.365 4.927 -1.008 153 96 43
-10.389 4.9450002 -0.99299997 142 77 23
-10.411 4.9380002 -0.98100001 168 106 55
-10.421 4.941 -0.98500001 133 78 24
-10.4 4.9330001 -1.002 220 133 66
-10.405 4.9390001 -0.99400002 132 70 11
-10.407 4.934 -1.0089999 154 144 142
-10.331 5.0149999 -1.063 141 90 24
-10.357 4.9850001 -1.057 198 137 57
-10.357 4.9899998 -1.04 172 112 39
-10.364 4.974 -1.026 217 151 77
-10.386 4.9580002 -1.011 146 89 22
-10.391 4.987 -1.028 204 161 108
-10.394 4.987 -1.03 128 49 6
-10.371 4.9450002 -1.039 234 153 88
-10.369 4.9770002 -1.049 90 31 1
-10.442 5.0240002 -0.91299999 104 72 51
-10.434 5.0190001 -0.91299999 168 99 42
-10.427 5.0089998 -0.92799997 52 20 7
-10.429 5.0029998 -0.92900002 38 14 4
-10.445 5.0040002 -0.91600001 93 40 6
-10.418 5.0180001 -0.95099998 176 137 108
-10.423 5.0079999 -0.95200002 134 96 75
-10.408 5.0139999 -0.94800001 82 47 25
-10.379 4.9650002 -0.90600002 62 34 20
-10.383 4.9530001 -0.90399998 53 23 15
-10.394 4.9439998 -0.912 148 89 57
-10.398 4.9390001 -0.90799999 113 58 28
-10.403 4.941 -0.92000002 69 33 7
-10.372 4.954 -0.88999999 87 41 17
-10.445 5.0139999 -0.91000003 81 48 29
-10.405 5.0180001 -0.96700001 122 82 57
-10.374 5 -1.025 215 157 83
-10.415 5.0079999 -0.91299999 141 119 95
-10.412 5.0019999 -0.91600001 40 12 0
-10.408 4.9899998 -0.90499997 97 47 10
-10.405 5.026 -0.95499998 50 24 11
-10.417 5.0040002 -0.97000003 209 154 98
-10.42 5.007 -0.97000003 76 38 17
-10.407 4.9860001 -0.96399999 62 34 23
-10.401 4.9710002 -0.99299997 224 177 135
-10.401 4.9710002 -1.003 177 127 68
-10.405 5.0019999 -0.94599998 161 109 70
-10.41 5 -0.926 80 34 11
-10.364 4.9580002 -0.759 180 107 66
-10.37 4.9679999 -0.76099998 223 155 80
-10.437 4.9520001 -1.025 140 77 23
-10.413 4.9889998 -1.039 160 104 47
-10.403 4.9759998 -1.0140001 152 70 10
-10.411 4.9749999 -1.0089999 89 25 0
-10.417 4.9790001 -1.02 144 80 8
-10.433 4.9590001 -1.068 176 121 80
-10.43 4.9569998 -1.072 142 70 11
-10.379 4.9180002 -1.048 82 47 17
-10.373 4.9180002 -1.039 135 75 21
-10.384 4.9299998 -1.04 190 119 41
-10.392 4.9419999 -1.0549999 170 90 19
-10.421 4.96 -1.039 148 92 35
-10.424 4.9629998 -1.053 117 64 12
-10.442 4.9689999 -1.049 131 82 41
-10.435 4.9749999 -1.046 198 132 54
-10.441 4.973 -1.03 157 86 32
-10.425 4.9689999 -0.995 255 226 156
-10.434 4.973 -1.0089999 130 61 20
-10.429 4.9770002 -1.01 153 113 61
-10.43 4.9710002 -1.006 139 89 54
-10.399 4.967 -1.05 179 113 55
-10.384 4.9689999 -1.043 252 187 107
-10.362 4.9159999 -1.049 196 122 61
-10.363 4.9159999 -1.049 254 205 126
-10.368 4.9250002 -1.045 111 39 0
-10.377 4.9949999 -1.026 160 116 77
-10.389 4.9720001 -1.052 218 148 99
-10.484 4.9359999 -1.015 202 153 112
-10.485 4.9400001 -1.012 167 118 52
-10.475 4.9390001 -1.006 227 149 66
-10.452 4.9400001 -1.021 171 115 64
-10.456 4.902 -0.97299999 103 64 33
-10.425 4.9330001 -0.94800001 255 210 119
-10.445 4.9790001 -1.114 130 54 5
-10.445 4.98 -1.112 188 145 111
-10.438 4.98 -1.1160001 92 57 37
-10.427 4.9879999 -1.127 177 143 118
-10.413 4.9689999 -1.124 196 158 113
-10.492 4.9809999 -1.048 255 238 119
-10.489 4.98 -1.04 255 223 104
-10.482 4.9840002 -1.0420001 166 92 19
-10.484 4.9840002 -1.066 237 192 127
-10.475 4.98 -1.04 175 103 29
-10.484 4.9819999 -1.033 245 175 89
-10.488 4.9879999 -1.039 115 49 1
-10.477 4.974 -1.028 68 31 12
-10.453 4.973 -1.0089999 208 150 66
-10.449 4.9720001 -1.007 98 53 24
-10.46 4.9720001 -1.0089999 212 152 66
-10.455 4.974 -1.013 71 29 7
-10.455 4.9159999 -0.954 150 105 64
-10.491 4.9499998 -1.02 255 206 107
-10.487 4.9460001 -1.011 81 62 58
-10.468 4.9689999 -1.035 62 36 23
-10.474 4.9710002 -1.036 255 235 137
-10.479 4.9429998 -1.031 98 63 33
-10.46 4.9549999 -1.028 192 110 34
-10.498 4.9390001 -1.038 255 232 132
-10.447 4.9489999 -1.104 255 203 109
-10.451 4.9720001 -1.115 157 80 24
-10.452 4.9510002 -1.113 231 144 51
-10.482 4.9829998 -1.067 189 119 57
-10.48 4.9809999 -1.073 202 132 70
-10.424 4.934 -1.131 178 128 41
-10.433 4.9429998 -1.118 255 234 140
-10.421 4.9489999 -1.113 132 87 58
-10.451 4.954 -1.11 253 202 136
-10.44 4.9650002 -1.095 212 138 75
-10.414 4.9330001 -1.127 249 200 121
-10.407 4.9660001 -1.131 239 210 144
-10.46 4.967 -1.005 142 69 26
-10.442 4.9640002 -1.002 171 134 53
-10.448 4.9689999 -1.007 85 40 11
-10.465 4.9559999 -1.007 204 171 152
-10.456 4.9689999 -1.028 101 30 0
-10.473 5.0240002 -1.039 180 127 93
-10.377 5.0079999 -1.053 219 163 116
-10.417 4.9809999 -1.09 199 156 124
-10.434 5.0310001 -0.97000003 78 36 11
-10.423 5.0300002 -0.97299999 115 74 54
-10.43 5.0289998 -0.963 150 106 77
-10.461 5.0050001 -1.051 112 38 1
-10.356 4.9320002 -1.023 245 197 87
-10.437 4.96 -0.99699998 190 145 112
-10.472 4.9330001 -1.008 207 159 95
-10.445 4.934 -0.96899998 250 199 134
-10.449 4.9359999 -0.96700001 144 124 115
-10.431 4.9390001 -0.97799999 123 71 23
-10.465 4.9359999 -0.97299999 108 63 42
-10.396 4.9120002 -0.80800003 145 71 24
-10.382 4.9689999 -0.78100002 160 87 44
-10.409 4.9949999 -0.79500002 128 76 36
-10.386 4.9850001 -0.79900002 104 67 38
-10.371 4.9619999 -0.74400002 122 81 59
-10.427 4.9200001 -0.96799999 158 112 63
-10.451 4.9190001 -0.98500001 198 132 58
-10.401 4.9619999 -0.96399999 82 37 16
-10.434 4.9559999 -0.97100002 101 36 0
-10.459 4.9400001 -0.95300001 160 89 35
-10.459 4.9310002 -0.96100003 182 141 77
-10.446 4.9720001 -0.94099998 63 20 1
-10.448 4.9650002 -0.93599999 152 74 26
-10.445 4.9640002 -0.94300002 147 102 61
-10.436 4.9499998 -0.96600002 158 83 41
-10.433 4.9559999 -0.96200001 163 101 52
-10.437 4.9489999 -0.963 130 77 35
-10.392 4.9320002 -0.80599999 112 56 23
-10.39 4.9330001 -0.80299997 166 92 45
-10.4 4.9380002 -0.81099999 153 82 38
-10.451 5.0019999 -1.066 65 32 15
-10.5 4.9460001 -1.039 115 74 54
-10.429 4.9569998 -0.77899998 160 111 68
-10.395 4.941 -0.90799999 205 146 104
-10.414 4.9590001 -0.74000001 171 109 58
-10.443 5.0240002 -0.91299999 207 145 84
-10.446 4.9130001 -0.82999998 197 106 35
-10.439 4.9299998 -0.81999999 136 88 52
-10.438 4.9200001 -0.81999999 203 122 57
-10.427 4.9180002 -0.81300002 202 132 73
-10.436 4.914 -0.81699997 118 70 34
-10.431 4.9530001 -0.78200001 124 76 38
-10.468 4.9250002 -0.97100002 238 186 113
-10.463 4.941 -0.83399999 220 165 82
-10.462 4.9460001 -0.83700001 167 122 80
-10.434 4.9899998 -0.824 151 112 53
-10.429 4.98 -0.81400001 71 27 2
-10.432 4.9780002 -0.80199999 65 27 0
-10.383 4.9510002 -0.84799999 100 64 38
-10.382 4.9439998 -0.84899998 121 73 35
-10.379 4.9460001 -0.85900003 144 95 55
-10.392 4.9689999 -0.85399997 98 57 29
-10.398 4.9829998 -0.866 80 43 16
-10.386 4.9660001 -0.86500001 48 21 10
-10.424 4.994 -0.89200002 252 222 162
-10.417 4.994 -0.89600003 154 112 74
-10.426 4.9949999 -0.89600003 125 86 29
-10.431 5.0089998 -0.90499997 105 67 44
-10.436 5.0089998 -0.90100002 194 153 91
-10.439 5.0139999 -0.90200001 203 157 107
-10.39 4.9910002 -0.80900002 133 58 18
-10.397 4.9980001 -0.79299998 117 47 0
-10.403 4.954 -0.95300001 128 61 19
-10.439 4.9460001 -0.96200001 62 30 15
-10.442 4.973 -0.94099998 120 51 12
-10.439 4.9699998 -0.94199997 138 62 4
-10.446 4.9840002 -0.92900002 123 54 12
-10.438 4.9809999 -0.94199997 212 141 85
-10.432 4.9899998 -0.93000001 110 66 29
-10.4 4.9460001 -0.97600001 144 93 48
-10.391 4.9330001 -1.018 170 103 32
-10.394 4.9330001 -1.015 235 173 100
-10.391 4.9260001 -1.013 124 74 37
-10.372 4.9289999 -1.006 229 165 103
-10.374 4.9359999 -0.99800003 255 202 114
-10.37 4.9380002 -1.001 231 212 107
-10.368 4.921 -1.0140001 124 82 57
-10.412 4.9390001 -1.012 124 53 0
-10.425 4.9439998 -1.01 139 71 10
-10.408 4.9380002 -1 125 104 99
-10.349 4.9949999 -1.066 253 220 143
-10.371 4.9780002 -1.028 120 37 0
-10.385 4.9569998 -1.02 90 34 0
-10.369 4.9429998 -1.04 122 52 0
-10.432 5.0250001 -0.95099998 137 63 18
-10.414 5.0110002 -0.92400002 86 54 31
-10.42 5 -0.93199998 51 18 3
-10.39 4.9530001 -0.91399997 239 188 135
-10.384 4.9439998 -0.90399998 174 119 88
-10.442 5.0159998 -0.91100001 113 53 0
-10.407 4.9920001 -0.92699999 132 69 34
-10.393 5.0079999 -0.96100003 90 53 11
-10.394 5.0110002 -0.95899999 84 42 20
-10.392 5.0110002 -0.95300001 54 20 10
-10.416 5.0250001 -0.97399998 148 103 72
-10.413 5.0229998 -0.972 114 103 97
-10.341 5.006 -1.045 179 124 67
-10.391 4.9790001 -0.903 50 24 9
-10.413 4.9990001 -0.912 141 115 98
-10.417 5.0009999 -0.90700001 121 84 55
-10.402 4.9920001 -0.949 53 18 0
-10.415 5.0079999 -0.94999999 97 65 42
-10.41 4.9959998 -0.96600002 95 42 0
-10.408 5.0040002 -0.96700001 99 69 58
-10.411 4.9689999 -0.99599999 131 80 49
-10.366 4.9569998 -0.75400001 157 90 38
-10.366 4.9679999 -0.76300001 203 127 77
-10.449 4.9660001 -1.007 225 174 83
-10.453 4.9530001 -1.023 165 97 34
-10.4 4.9899998 -1.0319999 225 137 66
-10.414 4.9809999 -1.0599999 161 72 12
-10.43 4.994 -1.0369999 213 146 93
-10.442 5.0079999 -1.034 203 133 81
-10.43 4.9520001 -1.08 152 91 8
-10.44 4.9580002 -1.086 222 155 84
-10.424 4.9860001 -1.0599999 107 59 13
-10.419 4.9790001 -1.053 67 15 0
-10.374 4.9190001 -1.018 130 76 32
-10.382 4.9180002 -1.046 101 83 81
-10.423 4.9619999 -1.046 144 88 31
-10.444 4.9699998 -1.0549999 153 106 88
-10.439 4.954 -1.026 209 148 94
-10.406 4.974 -1.063 100 41 7
-10.447 4.9429998 -1.023 82 32 0
-10.46 4.9359999 -1.015 189 146 111
-10.438 4.9369998 -1.0039999 246 192 146
-10.432 4.927 -0.95099998 122 76 27
-10.432 4.9330001 -0.94199997 96 55 23
-10.434 4.9320002 -0.94300002 184 136 100
-10.439 4.9239998 -0.954 181 146 92
-10.454 4.9780002 -1.1109999 94 37 7
-10.427 4.98 -1.114 120 38 0
-10.423 4.9840002 -1.102 136 101 82
-10.431 4.9910002 -1.091 90 42 6
-10.413 4.9679999 -1.1289999 84 44 0
-10.423 4.967 -1.1289999 53 12 0
-10.457 4.9920001 -1.052 180 129 64
-10.486 4.9889998 -1.039 224 172 63
-10.467 4.974 -1.021 66 28 7
-10.44 5.0019999 -1.03 177 110 55
-10.432 4.9759998 -1.0140001 159 94 14
-10.451 4.9720001 -1.012 61 19 0
-10.442 4.9710002 -1.01 61 19 0
-10.442 4.9720001 -1.0140001 148 98 63
-10.467 4.9359999 -1.022 102 64 43
-10.475 4.9390001 -1.026 255 212 151
-10.476 4.9580002 -1.013 244 202 90
-10.442 4.9260001 -0.95099998 232 150 51
-10.455 4.928 -0.94499999 124 74 39
-10.45 4.9390001 -0.88800001 147 81 29
-10.451 4.9380002 -0.88300002 148 99 66
-10.45 4.9369998 -0.88999999 83 39 4
-10.451 4.9390001 -0.89899999 133 67 7
-10.45 4.974 -0.89899999 189 139 80
-10.449 4.967 -0.89300001 177 126 61
-10.446 4.961 -0.91100001 186 129 86
-10.451 4.973 -0.88800001 177 141 109
-10.447 4.9829998 -0.90100002 233 185 121
-10.454 4.9169998 -0.84200001 149 86 19
-10.45 4.9260001 -0.85299999 103 39 1
-10.448 4.9250002 -0.94599998 223 141 85
-10.442 4.9310002 -0.94599998 181 122 64
-10.496 4.9569998 -1.025 255 223 115
-10.499 4.9499998 -1.026 255 230 113
-10.483 4.9710002 -1.034 53 20 3
-10.478 4.96 -1.036 219 153 95
-10.465 4.9640002 -1.0319999 165 100 60
-10.478 4.9400001 -1.029 255 240 160
-10.46 4.9450002 -1.029 106 43 0
-10.498 4.9390001 -1.038 255 232 132
-10.441 4.9619999 -1.089 232 158 83
-10.447 4.9679999 -1.0829999 179 114 50
-10.422 4.9400001 -1.12 217 187 114
-10.453 4.9489999 -1.1109999 182 90 13
-10.454 4.9749999 -1.017 58 20 1
-10.471 4.9530001 -1.001 236 185 138
-10.426 4.98 -1.022 249 190 110
-10.433 4.987 -1.041 80 30 0
-10.432 4.9860001 -1.046 129 61 0
-10.41 4.9759998 -1.0930001 59 16 0
-10.433 5.0310001 -0.97000003 190 135 94
-10.423 5.013 -0.96799999 74 38 14
-10.484 5 -1.0779999 206 159 103
-10.487 4.9970002 -1.082 250 210 148
-10.46 5.006 -1.0420001 121 67 7
-10.462 5.007 -1.046 132 84 38
-10.417 4.9749999 -1.0039999 234 172 89
-10.381 4.9549999 -1.001 211 149 62
-10.392 4.9159999 -0.81199998 57 25 2
-10.405 4.9099998 -0.80599999 177 130 84
-10.439 4.9850001 -0.83600003 138 93 64
-10.438 4.9920001 -0.838 116 51 21
-10.412 4.9260001 -0.787 161 103 65
-10.42 4.9980001 -0.80699998 117 72 17
-10.388 4.9720001 -0.80299997 157 88 47
-10.397 4.961 -0.801 168 92 40
-10.401 4.9629998 -0.815 117 63 29
-10.404 4.9390001 -0.80900002 114 59 18
-10.395 4.9629998 -0.81599998 139 95 66
-10.393 4.967 -0.80900002 113 62 35
-10.382 4.9510002 -0.77100003 138 72 22
-10.449 4.9200001 -0.98400003 139 79 16
-10.447 4.914 -0.95700002 177 111 50
-10.413 4.974 -0.97299999 86 50 26
-10.403 4.9530001 -0.97500002 134 66 27
-10.433 4.9689999 -0.96100003 98 38 2
-10.394 4.9299998 -0.81800002 75 40 21
-10.459 5.0019999 -1.049 81 32 0
-10.449 4.9949999 -1.062 81 39 14
-10.432 4.9710002 -0.79299998 146 103 58
-10.407 4.9629998 -0.74400002 140 78 41
-10.438 4.9250002 -0.82099998 196 135 72
-10.439 4.9130001 -0.84100002 150 111 78
-10.436 4.9109998 -0.83499998 162 71 14
-10.435 4.9120002 -0.824 168 136 97
-10.455 4.9169998 -0.83099997 241 177 115
-10.452 4.9159999 -0.82700002 254 191 140
-10.453 4.9200001 -0.824 249 178 90
-10.45 4.9229999 -0.82099998 177 130 102
-10.418 4.9260001 -0.79000002 156 97 41
-10.42 4.9089999 -0.81400001 168 139 107
-10.431 4.914 -0.82099998 144 58 7
-10.415 4.9089999 -0.81099999 158 69 13
-10.431 4.914 -0.84500003 146 82 44
-10.42 4.9130001 -0.83700001 180 156 130
-10.436 4.9679999 -0.796 233 172 127
-10.438 4.9710002 -0.796 152 95 50
-10.452 4.9299998 -0.82300001 231 163 66
-10.452 4.9380002 -0.82200003 250 201 106
-10.376 4.9629998 -0.88599998 138 101 72
-10.4 5 -0.852 77 36 6
-10.446 5.013 -0.90600002 105 68 41
-10.401 4.9860001 -0.78299999 110 52 4
-10.438 4.9910002 -0.90700001 94 38 5
-10.399 4.9489999 -0.98100001 163 105 57
-10.412 4.9450002 -0.94499999 221 171 102
-10.414 4.948 -0.93599999 66 31 3
-10.386 4.9219999 -1.018 184 130 68
-10.377 4.9200001 -1.018 155 92 39
-10.372 4.9239998 -1.0089999 157 104 50
-10.37 4.9359999 -0.99900001 213 151 94
-10.369 4.9200001 -1.017 225 183 145
-10.409 4.941 -1.0140001 205 138 70
-10.415 4.9450002 -0.99299997 195 110 43
-10.373 4.987 -1.027 138 85 31
-10.377 4.9660001 -1.03 182 113 58
-10.392 4.9710002 -1.028 209 133 83
-10.442 4.9879999 -0.92299998 141 85 38
-10.415 5.0120001 -0.921 136 97 66
-10.385 4.9460001 -0.90600002 179 105 60
-10.386 4.9559999 -0.90600002 97 52 23
-10.393 4.9580002 -0.91500002 51 28 20
-10.426 4.9790001 -0.95099998 144 78 30
-10.38 4.9590001 -0.86400002 107 63 26
-10.374 4.9520001 -0.88099998 128 59 20
-10.381 4.954 -0.86900002 144 94 43
-10.397 5.007 -0.963 103 55 17
-10.413 5.0359998 -0.97299999 124 72 33
-10.411 5.0190001 -0.97100002 103 53 18
-10.403 4.9879999 -0.912 100 64 40
-10.384 4.9790001 -0.89099997 115 84 63
