ply
format ascii 1.0
comment PCL generated
element vertex 229
property float x
property float y
property float z
property uchar red
property uchar green
property uchar blue
element camera 1
property float view_px
property float view_py
property float view_pz
property float x_axisx
property float x_axisy
property float x_axisz
property float y_axisx
property float y_axisy
property float y_axisz
property float z_axisx
property float z_axisy
property float z_axisz
property float focal
property float scalex
property float scaley
property float centerx
property float centery
property int viewportx
property int viewporty
property float k1
property float k2
end_header
-5.0050001 14.558 -0.98799998 116 90 75
-5.0050001 14.558 -0.995 126 90 56
-5.0019999 14.551 -0.99199998 208 127 48
-4.9949999 14.565 -1.011 126 53 8
-4.9910002 14.567 -1.021 154 75 9
-4.9829998 14.57 -1.017 242 228 254
-4.9850001 14.563 -1.028 46 19 12
-5.0229998 14.581 -0.91299999 115 74 44
-5.0279999 14.573 -0.926 70 40 16
-5.027 14.577 -0.912 159 84 26
-5.027 14.568 -0.93800002 64 41 23
-5.033 14.564 -0.93800002 203 141 90
-5.0170002 14.613 -0.92199999 193 142 99
-5.0029998 14.613 -0.91900003 144 73 27
-5.0120001 14.596 -0.90499997 123 75 39
-5.0009999 14.61 -0.91600001 175 114 70
-5.0209999 14.569 -0.903 78 29 0
-5.0219998 14.571 -0.91000003 190 155 125
-4.9970002 14.574 -0.99800003 124 65 35
-4.9949999 14.585 -0.99900001 54 44 68
-4.994 14.585 -1.0039999 170 99 53
-4.987 14.586 -1.018 127 95 74
-4.9899998 14.577 -1.012 123 51 11
-4.9910002 14.571 -1.0319999 124 98 83
-5.0120001 14.587 -0.90700001 56 34 11
-5.0190001 14.567 -0.90100002 136 71 31
-5.0089998 14.563 -0.98000002 154 70 6
-4.974 14.594 -0.97600001 111 70 42
-4.9629998 14.588 -0.95899999 122 81 53
-4.9780002 14.6 -0.96499997 78 18 0
-4.9580002 14.581 -0.98000002 63 12 0
-4.98 14.579 -1.026 153 115 78
-4.9840002 14.576 -1.034 133 90 56
-4.98 14.579 -1.012 85 21 0
-4.9889998 14.576 -1.015 111 88 74
-4.98 14.58 -0.995 162 74 24
-4.9829998 14.566 -0.991 65 32 17
-4.9710002 14.583 -0.995 147 75 27
-4.967 14.58 -0.991 63 30 13
-4.9569998 14.581 -0.95899999 150 96 60
-4.961 14.581 -0.95599997 107 54 4
-4.961 14.582 -0.95700002 101 61 53
-4.954 14.573 -0.92699999 132 70 19
-4.9530001 14.589 -0.91000003 78 45 30
-4.948 14.577 -0.92900002 103 70 55
-4.948 14.565 -0.90700001 76 41 22
-4.9549999 14.566 -0.90200001 242 240 253
-4.9489999 14.561 -0.90200001 228 141 48
-4.9879999 14.563 -1.03 204 126 52
-4.993 14.569 -1.0599999 172 89 23
-4.993 14.56 -1.062 159 76 0
-4.9920001 14.557 -1.052 181 93 19
-4.993 14.566 -1.0650001 77 49 28
-4.9510002 14.571 -0.93300003 85 44 24
-4.9699998 14.572 -0.96899998 124 85 52
-5.0050001 14.555 -0.97299999 172 88 18
-5.0120001 14.563 -0.96499997 182 101 35
-5.0170002 14.558 -0.958 162 124 88
-5.006 14.568 -0.98699999 69 44 39
-5.006 14.561 -0.98299998 140 102 66
-5.0050001 14.572 -0.98299998 148 103 80
-5.0050001 14.574 -0.90700001 132 69 18
-5.0089998 14.574 -0.90799999 247 173 84
-5.0170002 14.576 -0.93800002 149 91 45
-4.96 14.586 -0.90799999 192 127 71
-4.9679999 14.578 -0.90700001 236 184 137
-5.0019999 14.581 -0.90799999 255 180 96
-5.0040002 14.586 -0.90899998 85 44 22
-5.0089998 14.615 -0.92299998 146 125 106
-5.0110002 14.619 -0.92900002 192 110 52
-4.9819999 14.584 -0.99199998 131 68 33
-4.9770002 14.588 -0.98299998 81 27 0
-4.987 14.585 -0.995 123 42 0
-4.9780002 14.586 -0.99699998 71 25 2
-4.9710002 14.587 -0.99299997 126 58 13
-4.9619999 14.583 -0.98400003 96 55 25
-4.9660001 14.584 -0.96899998 132 76 43
-4.9809999 14.57 -1.04 160 87 10
-4.98 14.569 -1.049 142 64 0
-4.9780002 14.576 -1.054 130 90 55
-4.9850001 14.568 -1.0549999 53 29 17
-5.0009999 14.591 -0.99000001 110 82 61
-5 14.594 -0.98199999 81 49 34
-5.0029998 14.59 -0.98199999 177 93 33
-4.9889998 14.564 -1.049 148 67 1
-4.9899998 14.556 -1.0470001 150 108 70
-4.9879999 14.563 -1.04 196 118 44
-4.9959998 14.598 -0.96600002 92 81 63
-4.9970002 14.59 -0.96200001 161 114 86
-5.0029998 14.572 -0.91799998 207 137 85
-5.0040002 14.57 -0.91600001 105 56 39
-5.027 14.568 -0.91900003 64 38 21
-5.0300002 14.557 -0.93400002 144 108 74
-5.026 14.551 -0.926 215 145 50
-5.0240002 14.553 -0.93400002 83 54 40
-4.9660001 14.579 -0.97000003 78 43 23
-4.993 14.559 -0.98900002 170 99 57
-4.9899998 14.573 -0.98100001 112 83 67
-5.0009999 14.559 -0.98299998 160 113 83
-5.0019999 14.551 -0.98199999 194 112 36
-4.9970002 14.551 -0.98299998 129 61 14
-4.9949999 14.557 -0.991 154 77 7
-5.0289998 14.562 -0.94 127 82 51
-4.9809999 14.59 -0.97799999 59 22 4
-4.993 14.605 -0.963 129 82 56
-5.006 14.573 -0.991 104 64 39
-5.0120001 14.574 -0.90899998 189 167 146
-5.0149999 14.565 -0.90700001 162 100 63
-5.0110002 14.562 -0.95499998 189 111 39
-5.006 14.56 -0.96200001 161 93 48
-4.9650002 14.584 -0.90799999 237 181 146
-4.9580002 14.586 -0.89700001 255 209 139
-4.9640002 14.579 -0.88599998 206 119 39
-4.9650002 14.58 -0.89499998 141 88 56
-4.9559999 14.584 -0.88599998 180 97 19
-4.96 14.574 -0.89499998 255 170 79
-4.967 14.577 -0.89700001 211 158 106
-4.9749999 14.582 -0.89399999 133 85 49
-4.9699998 14.578 -0.88999999 88 52 38
-4.9990001 14.612 -0.92199999 157 106 61
-4.9829998 14.611 -0.91000003 103 55 32
-5.0019999 14.613 -0.92799997 80 55 33
-4.994 14.609 -0.92699999 208 132 74
-4.9770002 14.61 -0.91600001 155 107 71
-4.994 14.561 -1 146 75 33
-4.9819999 14.583 -1.002 90 27 0
-4.9679999 14.586 -0.98799998 72 45 38
-4.9889998 14.579 -1.013 171 101 42
-4.9910002 14.578 -1.0089999 99 58 36
-4.9879999 14.573 -1.022 144 67 15
-4.9819999 14.569 -1.036 225 209 238
-4.9829998 14.572 -1.031 189 118 38
-4.9990001 14.593 -0.986 154 91 56
-4.9899998 14.571 -1.0470001 133 101 76
-5.007 14.614 -0.92199999 136 81 40
-5.0079999 14.613 -0.93400002 154 131 115
-4.9699998 14.572 -0.88800001 140 69 23
-5.0110002 14.565 -0.91799998 195 125 73
-5.0240002 14.568 -0.91399997 173 119 81
-4.9640002 14.579 -0.96200001 187 100 31
-4.9699998 14.576 -0.98400003 131 74 44
-4.974 14.574 -0.98299998 175 84 27
-5.02 14.547 -0.92799997 156 125 97
-5.013 14.551 -0.92799997 172 93 36
-5.0019999 14.556 -0.972 130 62 17
-4.9910002 14.576 -1.0470001 113 78 48
-5.0110002 14.564 -0.958 182 150 129
-5.0089998 14.577 -0.935 86 57 43
-5 14.582 -0.972 138 97 65
-5.0040002 14.58 -0.97500002 125 89 67
-5.0029998 14.574 -0.97799999 57 24 9
-5.0040002 14.575 -0.97100002 125 78 52
-4.9580002 14.592 -0.90700001 121 54 2
-4.974 14.595 -0.926 127 92 64
-4.9590001 14.577 -0.89099997 123 85 64
-4.9499998 14.585 -0.884 217 165 125
-4.9920001 14.602 -0.93599999 67 31 15
-4.9980001 14.605 -0.93000001 164 103 59
-4.9759998 14.593 -0.92000002 138 88 39
-4.987 14.578 -0.96799999 80 51 47
-5.007 14.579 -0.90899998 115 82 77
-4.9949999 14.599 -0.90399998 130 81 38
-4.993 14.604 -0.91100001 138 102 68
-4.993 14.599 -0.90899998 230 142 55
-4.9879999 14.57 -1.0089999 52 25 18
-4.9679999 14.587 -0.96799999 83 52 47
-4.9850001 14.585 -0.99900001 115 58 31
-4.9850001 14.564 -1.035 152 112 77
-4.9809999 14.602 -0.94499999 134 93 71
-4.9770002 14.603 -0.94 135 65 14
-4.9889998 14.592 -0.95700002 179 121 84
-4.987 14.592 -0.95599997 193 107 30
-5.0100002 14.612 -0.92500001 204 167 140
-5.007 14.587 -0.92400002 95 67 43
-4.9720001 14.593 -0.93000001 95 70 50
-4.9780002 14.593 -0.92299998 145 109 83
-4.9819999 14.59 -0.92000002 178 123 82
-4.9860001 14.604 -0.93199998 124 55 13
-4.9819999 14.604 -0.912 72 39 24
-4.9920001 14.6 -0.96100003 69 32 14
-5.0139999 14.549 -0.92199999 245 253 255
-4.9759998 14.592 -0.954 80 36 0
-4.9790001 14.578 -0.96899998 158 104 70
-4.9780002 14.576 -0.98000002 136 73 38
-4.9850001 14.578 -0.97399998 143 107 83
-4.9720001 14.575 -0.97100002 132 93 64
-4.967 14.577 -0.98000002 173 118 87
-5.0029998 14.555 -0.97000003 156 116 81
-4.9819999 14.572 -1.048 131 87 50
-5.0209999 14.569 -0.90899998 177 147 121
-5.0240002 14.567 -0.93900001 159 79 26
-5.0180001 14.564 -0.92900002 94 80 77
-5.0139999 14.569 -0.92900002 172 142 116
-5.0250001 14.569 -0.93400002 85 49 33
-5.0219998 14.56 -0.92400002 159 83 25
-5.0110002 14.569 -0.96600002 199 115 53
-4.9710002 14.577 -0.903 241 193 145
-4.9910002 14.578 -0.97100002 137 78 44
-5.006 14.569 -0.96700001 73 44 40
-4.9910002 14.602 -0.93199998 133 101 76
-4.9850001 14.593 -0.91799998 143 72 26
-4.9749999 14.587 -0.90200001 189 119 68
-4.9819999 14.589 -0.93800002 134 77 32
-4.9850001 14.589 -0.917 212 120 47
-4.993 14.562 -1.003 106 64 39
-4.9920001 14.568 -1.012 133 59 0
-4.9949999 14.569 -1.0089999 99 60 29
-4.967 14.585 -0.98299998 112 63 31
-4.9759998 14.596 -0.95700002 79 38 8
-4.974 14.59 -0.94 177 131 95
-4.9770002 14.601 -0.926 148 79 22
-4.9759998 14.598 -0.912 198 137 74
-4.9889998 14.588 -0.95899999 147 111 89
-4.9860001 14.583 -0.96700001 185 108 54
-5.0149999 14.556 -0.92699999 165 112 78
-4.9689999 14.571 -0.88599998 211 167 120
-5.0240002 14.562 -0.926 44 23 2
-5.0190001 14.572 -0.93699998 207 128 51
-4.954 14.582 -0.89499998 255 181 96
-5.0100002 14.574 -0.92299998 107 111 120
-5.0149999 14.582 -0.93000001 107 80 63
-4.9879999 14.563 -1.001 157 87 28
-4.9920001 14.57 -1.012 130 86 57
-4.9689999 14.579 -0.98799998 103 72 44
-4.9770002 14.596 -0.96200001 149 99 72
-4.9720001 14.592 -0.95599997 162 102 65
-4.9759998 14.604 -0.91000003 128 74 40
-4.9520001 14.586 -0.88999999 71 35 21
-5.013 14.588 -0.92000002 83 55 33
0 0 0 1 0 0 0 1 0 0 0 1 0 0 0 0 0 229 1 0 0
