ply
format ascii 1.0
comment PCL generated
element vertex 616
property float x
property float y
property float z
property uchar red
property uchar green
property uchar blue
element camera 1
property float view_px
property float view_py
property float view_pz
property float x_axisx
property float x_axisy
property float x_axisz
property float y_axisx
property float y_axisy
property float y_axisz
property float z_axisx
property float z_axisy
property float z_axisz
property float focal
property float scalex
property float scaley
property float centerx
property float centery
property int viewportx
property int viewporty
property float k1
property float k2
end_header
6.572 6.8460002 -0.70200002 89 52 25
6.579 6.8439999 -0.71600002 94 68 43
6.5650001 6.836 -0.71700001 148 107 79
6.5669999 6.842 -0.70999998 114 85 43
6.5650001 7.0120001 -0.85299999 185 173 121
6.5760002 7.027 -0.861 142 100 60
6.5650001 7.02 -0.85100001 95 64 36
6.5669999 7.0159998 -0.86000001 146 134 84
6.5799999 6.8509998 -0.70499998 63 36 7
6.585 6.9400001 -0.898 52 32 23
6.5929999 6.9330001 -0.89899999 52 36 13
6.585 6.9369998 -0.89499998 70 51 47
6.5879998 6.9419999 -0.903 76 57 51
6.5689998 6.9419999 -0.87599999 92 44 21
6.579 6.954 -0.88599998 102 59 27
6.6009998 6.9349999 -0.889 167 138 124
6.5970001 6.9359999 -0.89600003 77 59 59
6.5929999 6.9390001 -0.89600003 81 63 61
6.599 6.9400001 -0.89300001 61 25 11
6.5999999 6.9390001 -0.889 63 39 29
6.5949998 6.9460001 -0.86900002 117 99 89
6.5380001 7.0359998 -0.88999999 75 37 1
6.5339999 7.0359998 -0.89999998 67 28 0
6.5300002 7.039 -0.89700001 142 118 106
6.5219998 7.0430002 -0.88599998 143 106 53
6.5510001 7.02 -0.88599998 93 64 22
6.533 7.027 -0.89999998 62 27 0
6.5300002 7.0479999 -0.87199998 70 56 27
6.52 7.0370002 -0.87800002 75 37 0
6.5209999 7.0500002 -0.875 165 134 70
6.5710001 7.086 -0.86199999 166 138 116
6.5679998 7.0819998 -0.86000001 137 133 130
6.5679998 7.0910001 -0.86400002 165 132 101
6.5749998 7.0819998 -0.861 165 161 150
6.5089998 7.0489998 -0.838 136 96 60
6.4990001 7.0469999 -0.83200002 62 38 14
6.494 7.052 -0.83999997 171 152 119
6.493 7.033 -0.83999997 203 160 109
6.4920001 7.0479999 -0.838 187 173 144
6.4980001 7.0279999 -0.83600003 177 111 59
6.5760002 7.085 -0.86299998 82 39 7
6.5760002 7.0949998 -0.86900002 174 129 72
6.5619998 7.0890002 -0.87 102 71 42
6.566 7.0949998 -0.86900002 135 108 89
6.5650001 7.0949998 -0.87199998 75 50 28
6.5809999 7.0929999 -0.88099998 65 19 0
6.5869999 7.0939999 -0.89200002 114 86 65
6.5809999 7.0879998 -0.884 75 40 18
6.5760002 7.0760002 -0.88099998 101 54 24
6.586 7.0869999 -0.89899999 193 161 140
6.5419998 6.8530002 -0.72299999 69 44 3
6.5570002 6.8369999 -0.72000003 104 79 49
6.54 6.8530002 -0.71899998 69 46 0
6.5510001 6.8449998 -0.71799999 95 57 20
6.5949998 6.875 -0.75700003 159 139 66
6.5830002 6.8720002 -0.741 91 68 18
6.5890002 6.8769999 -0.741 87 61 38
6.5630002 6.842 -0.70899999 191 181 156
6.5609999 6.849 -0.70499998 166 140 105
6.5599999 6.8410001 -0.70999998 99 71 31
6.5669999 6.848 -0.70300001 101 73 52
6.552 6.9400001 -0.84500003 174 129 98
6.5539999 6.948 -0.85399997 98 57 25
6.5539999 6.9510002 -0.85399997 210 169 137
6.5830002 6.9549999 -0.884 109 64 31
6.5760002 6.96 -0.903 60 27 12
6.5700002 6.914 -0.82800001 139 118 99
6.552 6.9200001 -0.83600003 149 104 71
6.5469999 6.908 -0.82200003 165 139 102
6.5040002 7.0240002 -0.83700001 88 76 38
6.5050001 7.02 -0.83999997 42 30 18
6.4990001 7.0180001 -0.83600003 158 113 58
6.5079999 7.027 -0.83700001 120 90 56
6.6059999 6.9520001 -0.82800001 101 81 57
6.599 6.9460001 -0.81800002 88 66 43
6.599 6.9400001 -0.81900001 109 90 57
6.6090002 6.9499998 -0.83399999 127 104 86
6.5710001 7.0830002 -0.89700001 73 36 10
6.579 7.0939999 -0.89499998 108 59 26
6.566 7.0840001 -0.89399999 108 54 16
6.5209999 7.04 -0.889 84 50 4
6.5949998 6.9619999 -0.87199998 85 59 42
6.5939999 6.9619999 -0.86400002 88 61 42
6.5970001 6.9689999 -0.866 136 80 45
6.5669999 7.0149999 -0.866 93 79 40
6.5139999 7.027 -0.889 93 59 11
6.513 7.0300002 -0.889 77 44 0
6.5170002 7.0419998 -0.88099998 107 71 19
6.5139999 7.0440001 -0.87599999 44 30 3
6.5110002 7.0370002 -0.88200003 100 67 22
6.5630002 7.0799999 -0.85900003 154 123 103
6.5289998 7.052 -0.87099999 140 115 59
6.5240002 7.0510001 -0.87199998 179 149 87
6.4879999 7.0440001 -0.84399998 56 44 6
6.4920001 7.0479999 -0.84200001 62 49 15
6.5040002 7.046 -0.847 42 40 43
6.573 7.0640001 -0.884 95 40 0
6.5650001 7.0120001 -0.847 203 191 149
6.4970002 7.0219998 -0.84100002 78 68 32
6.4920001 7.0310001 -0.84399998 95 91 43
6.4949999 7.0250001 -0.84500003 63 55 16
6.559 6.8410001 -0.71499997 79 62 44
6.5479999 6.8520002 -0.70700002 161 149 125
6.5479999 6.8470001 -0.71499997 165 108 78
6.5560002 6.8509998 -0.72799999 78 62 26
6.5500002 6.8579998 -0.73699999 90 68 21
6.5539999 6.8509998 -0.72500002 166 123 80
6.6020002 6.8829999 -0.75199997 215 194 127
6.5929999 6.8839998 -0.741 63 28 6
6.5970001 6.875 -0.76099998 130 111 43
6.5910001 6.881 -0.745 166 128 105
6.5539999 6.8470001 -0.708 114 100 73
6.5679998 6.9549999 -0.87900001 67 40 29
6.5770001 6.9590001 -0.90499997 96 73 59
6.5780001 6.96 -0.91100001 89 63 50
6.5689998 6.9619999 -0.90899998 65 30 11
6.5710001 6.9250002 -0.85799998 130 87 55
6.579 6.927 -0.85699999 170 118 81
6.572 6.921 -0.85399997 117 79 56
6.5159998 7.0289998 -0.83999997 163 120 101
6.507 7.0250001 -0.84100002 152 101 58
6.5120001 7.033 -0.84399998 52 49 0
6.507 7.0279999 -0.84200001 111 103 56
6.599 6.888 -0.78200001 45 33 11
6.6040001 6.8940001 -0.79500002 160 146 135
6.5890002 6.8800001 -0.78500003 165 136 76
6.5929999 6.9109998 -0.764 61 38 7
6.599 6.9099998 -0.76999998 120 112 75
6.6069999 6.8979998 -0.75099999 62 50 26
6.6069999 6.8979998 -0.75400001 123 110 76
6.513 7.0510001 -0.86900002 173 141 80
6.507 7.0419998 -0.86900002 117 88 30
6.5100002 7.033 -0.88499999 73 44 4
6.585 6.9660001 -0.87800002 172 120 80
6.5830002 6.9580002 -0.884 156 104 64
6.5799999 6.961 -0.88700002 136 81 42
6.5700002 6.9689999 -0.88499999 69 38 18
6.5609999 6.967 -0.87699997 91 55 31
6.5669999 6.9759998 -0.88 132 117 112
6.5640001 6.9749999 -0.875 152 137 130
6.5739999 6.9770002 -0.875 67 22 0
6.5780001 6.9720001 -0.88 73 52 35
6.5229998 7.0229998 -0.88800001 116 84 33
6.5159998 7.0149999 -0.86900002 190 144 84
6.5180001 7.0250001 -0.88700002 92 60 11
6.539 7.052 -0.86400002 74 50 16
6.5209999 7.0409999 -0.86400002 138 113 91
6.5250001 7.0469999 -0.85500002 74 50 14
6.5219998 7.027 -0.86900002 93 51 11
6.5050001 7.0440001 -0.86199999 61 52 23
6.4990001 7.039 -0.85900003 107 69 20
6.5050001 7.0380001 -0.86799997 123 98 44
6.5009999 7.0469999 -0.84200001 69 58 26
6.5710001 7.0650001 -0.875 112 88 44
6.5689998 7.092 -0.87800002 74 50 24
6.5739999 7.0939999 -0.88700002 100 75 45
6.5710001 7.0949998 -0.86900002 30 16 7
6.5749998 7.098 -0.88800001 100 79 50
6.5739999 7.0939999 -0.88300002 82 58 30
6.5739999 7.0819998 -0.86699998 37 32 13
6.5640001 7.0640001 -0.866 151 124 103
6.5689998 7.0580001 -0.86199999 104 98 66
6.5679998 7.0560002 -0.86799997 80 70 34
6.5510001 7.059 -0.87300003 63 44 4
6.54 7.0609999 -0.86400002 175 134 78
6.5580001 7.0190001 -0.88099998 128 107 76
6.5450001 7.0149999 -0.86799997 90 72 36
6.5679998 7.0300002 -0.86900002 139 122 76
6.5650001 7.0240002 -0.88099998 67 51 35
6.5700002 7.0469999 -0.87800002 105 89 53
6.5710001 7.0609999 -0.88700002 92 77 48
6.5669999 7.0679998 -0.88200003 58 43 20
6.553 7.0570002 -0.88 136 76 26
6.5650001 6.9369998 -0.796 94 83 79
6.5549998 6.928 -0.78500003 68 27 5
6.5739999 6.9359999 -0.792 158 125 106
6.5100002 7.0430002 -0.83399999 98 80 58
6.5700002 7.0560002 -0.85799998 70 52 32
6.5679998 7.052 -0.85600001 71 44 27
6.5609999 7.0120001 -0.84600002 37 14 0
6.5549998 7.0170002 -0.847 54 27 6
6.5630002 6.928 -0.79100001 146 120 93
6.559 6.8979998 -0.76999998 130 114 78
6.5539999 6.9029999 -0.76800001 109 91 29
6.5619998 6.8889999 -0.75999999 96 51 20
6.552 6.9060001 -0.79299998 74 48 11
6.5469999 6.9190001 -0.71899998 247 239 192
6.5450001 6.908 -0.71399999 248 244 171
6.5479999 6.9050002 -0.72600001 141 107 79
6.5609999 6.881 -0.74800003 93 49 12
6.5599999 6.8730001 -0.745 92 73 56
6.5609999 6.8800001 -0.745 156 141 82
6.5570002 6.8959999 -0.73900002 80 51 19
6.5539999 6.8559999 -0.741 133 117 65
6.5599999 6.8629999 -0.745 108 88 29
6.5580001 6.8460002 -0.74699998 120 113 120
6.5580001 6.8509998 -0.74000001 111 96 53
6.566 6.8779998 -0.75700003 162 146 84
6.5689998 6.869 -0.76200002 122 91 73
6.5650001 6.8579998 -0.74800003 134 112 71
6.579 6.869 -0.74800003 92 51 19
6.5770001 6.8610001 -0.74000001 90 68 55
6.5609999 6.849 -0.74000001 82 43 12
6.5469999 6.902 -0.71399999 246 239 187
6.552 6.9050002 -0.708 53 42 38
6.5799999 6.869 -0.73299998 96 76 65
6.6059999 6.8889999 -0.75300002 54 23 0
6.5689998 6.8470001 -0.72299999 78 63 42
6.566 6.8460002 -0.72299999 97 74 60
6.5679998 6.855 -0.70599997 146 116 80
6.5739999 6.8509998 -0.70499998 65 36 6
6.5180001 7.0349998 -0.83399999 104 84 57
6.5830002 6.9569998 -0.84500003 95 68 47
6.5840001 6.9660001 -0.85399997 86 55 37
6.5799999 6.9679999 -0.85000002 118 83 63
6.5840001 6.947 -0.87300003 98 71 60
6.586 6.9400001 -0.866 84 56 45
6.5760002 6.9429998 -0.87300003 75 38 19
6.5809999 6.9619999 -0.884 160 101 61
6.5760002 6.9640002 -0.88599998 105 51 15
6.579 6.9590001 -0.88999999 67 37 26
6.5819998 6.9310002 -0.85900003 103 77 52
6.6040001 6.948 -0.83999997 137 111 96
6.5939999 6.8870001 -0.79000002 113 81 42
6.5900002 6.8889999 -0.74900001 93 52 20
6.579 6.908 -0.75400001 62 44 22
6.5749998 6.9039998 -0.75199997 165 124 102
6.5910001 6.895 -0.75999999 81 62 0
6.5970001 6.901 -0.76499999 66 53 8
6.5149999 7.052 -0.87 68 57 29
6.5159998 7.052 -0.866 181 152 96
6.4899998 7.027 -0.85000002 83 78 38
6.5830002 6.9660001 -0.88 89 63 46
6.5890002 6.9689999 -0.87199998 79 52 33
6.5819998 6.974 -0.87099999 115 62 30
6.5679998 6.9790001 -0.86500001 165 124 106
6.5770001 6.9759998 -0.875 77 31 8
6.54 7.02 -0.87900001 70 46 12
6.5500002 7.02 -0.875 119 104 71
6.546 7.0219998 -0.87400001 94 82 56
6.5539999 7.0250001 -0.87099999 131 104 61
6.5450001 7.0159998 -0.861 100 50 13
6.5209999 7.0289998 -0.88 100 71 31
6.5599999 7.027 -0.866 31 14 7
6.5689998 6.9720001 -0.884 154 136 126
6.5320001 7.0170002 -0.88 84 49 17
6.539 7.0100002 -0.86199999 105 87 41
6.5250001 7.0310001 -0.89399999 104 72 31
6.5050001 7.0349998 -0.87199998 75 48 3
6.5050001 7.0349998 -0.86799997 99 77 30
6.5040002 7.0310001 -0.86000001 65 55 19
6.513 7.02 -0.87300003 73 49 15
6.5159998 7.0240002 -0.88200003 101 73 26
6.5359998 7.059 -0.861 72 55 27
6.5209999 7.0500002 -0.86199999 92 75 57
6.4990001 7.039 -0.83600003 105 67 30
6.4949999 7.046 -0.84299999 57 49 13
6.506 7.0450001 -0.85399997 98 83 40
6.566 7.0749998 -0.87 155 126 94
6.5409999 7.0599999 -0.86500001 85 59 26
6.573 7.0939999 -0.87400001 101 54 24
6.5749998 7.085 -0.87199998 69 24 0
6.5819998 7.0879998 -0.89099997 186 154 131
6.572 7.0830002 -0.889 88 55 4
6.566 7.059 -0.86199999 114 90 44
6.552 7.0560002 -0.87400001 78 55 23
6.552 7.02 -0.87900001 110 90 57
6.5640001 7.02 -0.88700002 109 83 48
6.5549998 7.007 -0.86000001 178 158 107
6.5679998 7.0430002 -0.875 131 89 41
6.5630002 7.033 -0.86900002 92 77 34
6.5640001 7.0479999 -0.87800002 104 89 58
6.5560002 7.007 -0.84500003 167 157 122
6.5479999 6.9330001 -0.79400003 100 78 65
6.5469999 6.9180002 -0.787 89 74 45
6.5599999 7.0549998 -0.85500002 205 204 150
6.5640001 7.0489998 -0.85399997 126 121 101
6.5609999 7.0339999 -0.86000001 127 97 47
6.5619998 6.9429998 -0.82200003 160 127 120
6.572 6.948 -0.83499998 28 13 8
6.5749998 6.9460001 -0.81199998 129 106 92
6.5539999 6.9070001 -0.80900002 103 81 42
6.5560002 6.9060001 -0.80900002 122 112 103
6.5640001 6.881 -0.792 165 142 74
6.5599999 6.8839998 -0.79400003 141 118 48
6.5630002 6.8790002 -0.79400003 149 130 98
6.5700002 6.8899999 -0.79799998 194 169 89
6.559 6.9260001 -0.78899997 204 190 151
6.5939999 6.9320002 -0.81999999 147 127 120
6.5929999 6.927 -0.81 146 125 80
6.5900002 6.9180002 -0.82700002 62 45 37
6.5609999 6.908 -0.77700001 119 76 42
6.5599999 6.9130001 -0.75999999 132 109 91
6.5749998 6.915 -0.76099998 113 95 55
6.5689998 6.914 -0.74400002 199 185 114
6.559 6.9000001 -0.75999999 136 125 63
6.5609999 6.915 -0.73400003 77 63 14
6.5500002 6.9229999 -0.71600002 215 199 163
6.5689998 6.9190001 -0.73400003 139 99 73
6.5619998 6.9219999 -0.71700001 150 130 95
6.5679998 6.9200001 -0.71600002 86 38 2
6.5630002 6.9180002 -0.71499997 120 111 102
6.5609999 6.915 -0.71499997 184 168 117
6.5479999 6.9120002 -0.71899998 239 236 165
6.5669999 6.8670001 -0.75 101 79 40
6.5900002 6.8800001 -0.78100002 143 115 50
6.5939999 6.8779998 -0.764 100 82 8
6.5900002 6.8769999 -0.76599997 205 186 118
6.5900002 6.8730001 -0.76200002 133 113 50
6.5710001 6.8530002 -0.73400003 93 66 47
6.5500002 6.8579998 -0.71899998 92 67 10
6.5450001 6.8509998 -0.71399999 156 134 110
6.546 6.8540001 -0.71399999 123 95 32
6.5469999 6.8530002 -0.708 82 61 44
6.552 6.8579998 -0.72299999 69 48 0
6.5549998 6.8590002 -0.72799999 81 54 9
6.6069999 6.895 -0.75400001 194 182 132
6.5949998 6.8959999 -0.77499998 160 148 96
6.5960002 6.8889999 -0.76899999 107 84 14
6.5949998 6.882 -0.76800001 243 224 148
6.5960002 6.8850002 -0.76899999 146 126 53
6.5890002 6.8800001 -0.76999998 160 143 65
6.5419998 7 -0.85500002 118 99 59
6.539 7.006 -0.85799998 117 98 42
6.559 6.9660001 -0.85399997 103 65 44
6.5669999 6.9720001 -0.84600002 252 234 224
6.5609999 6.9580002 -0.85399997 55 30 8
6.5669999 6.9650002 -0.852 158 117 89
6.5609999 6.9499998 -0.85100001 156 123 108
6.5640001 6.9590001 -0.86699998 71 49 26
6.5500002 6.9200001 -0.81800002 108 88 77
6.5599999 6.9359999 -0.85799998 91 58 39
6.566 6.9229999 -0.84500003 135 90 51
6.5700002 6.9780002 -0.87099999 138 119 102
6.5710001 6.9320002 -0.86199999 144 94 57
6.5630002 6.9330001 -0.86400002 112 68 41
6.5869999 6.9590001 -0.85600001 89 57 36
6.5749998 6.9640002 -0.84799999 105 70 51
6.5710001 6.9689999 -0.847 155 128 111
6.585 6.9530001 -0.88099998 102 69 54
6.5770001 6.9679999 -0.88700002 115 70 39
6.5939999 6.9429998 -0.86299998 71 52 38
6.598 6.9349999 -0.84600002 62 49 40
6.599 6.9400001 -0.83099997 130 115 110
6.5929999 6.9299998 -0.83099997 78 52 29
6.572 6.9349999 -0.86299998 142 90 50
6.5689998 6.8720002 -0.76300001 150 136 75
6.5929999 6.8779998 -0.75199997 123 104 28
6.5949998 6.8850002 -0.74599999 89 67 17
6.6009998 6.8940001 -0.787 206 191 162
6.5960002 6.8969998 -0.79299998 130 121 82
6.5770001 6.9699998 -0.85799998 169 116 76
6.5809999 6.974 -0.87199998 74 51 33
6.5339999 7.0219998 -0.88499999 148 117 70
6.54 7.0100002 -0.85100001 236 217 159
6.5170002 7.046 -0.85799998 187 126 71
6.5050001 7.033 -0.85799998 140 123 105
6.4990001 7.027 -0.85000002 84 57 36
6.5180001 7.0359998 -0.85600001 216 166 107
6.5159998 7.0310001 -0.84100002 126 118 71
6.5019999 7.0339999 -0.85900003 84 71 26
6.5240002 7.0170002 -0.86900002 86 46 11
6.5300002 7.0180001 -0.87900001 98 70 30
6.5100002 7.0289998 -0.88 70 41 1
6.5219998 7.0229998 -0.884 114 84 34
6.5180001 7.02 -0.87599999 34 17 0
6.52 7.0310001 -0.87099999 109 70 11
6.526 7.0510001 -0.866 114 94 44
6.5089998 7.039 -0.833 95 74 69
6.5019999 7.0419998 -0.85500002 47 37 10
6.5029998 7.0440001 -0.85299999 119 115 116
6.566 7.0650001 -0.875 76 66 41
6.5689998 7.0710001 -0.87099999 59 51 28
6.5780001 7.0840001 -0.88200003 158 96 47
6.5739999 7.0830002 -0.87400001 205 180 139
6.5739999 7.0830002 -0.87099999 241 209 170
6.552 7.0209999 -0.88300002 77 51 14
6.5479999 7.0229998 -0.87800002 166 149 119
6.5500002 7.013 -0.86299998 217 198 142
6.5500002 7.0089998 -0.85900003 195 177 113
6.5539999 7.006 -0.84600002 144 113 58
6.5440001 6.9980001 -0.847 88 38 13
6.5630002 7.006 -0.84899998 39 29 28
6.5700002 6.9429998 -0.80800003 167 116 71
6.5580001 7.0500002 -0.85399997 154 151 96
6.5650001 7.0489998 -0.87199998 102 89 54
6.5580001 7.0320001 -0.86799997 136 87 57
6.5679998 7.0289998 -0.861 122 84 48
6.559 6.9419999 -0.84399998 145 105 80
6.5500002 6.9089999 -0.815 121 91 37
6.5580001 6.9039998 -0.80599999 85 63 26
6.5580001 6.9039998 -0.78799999 93 61 10
6.5619998 6.8979998 -0.773 93 61 23
6.552 6.9250002 -0.78899997 101 73 51
6.586 6.915 -0.79500002 201 184 115
6.5900002 6.9330001 -0.81 134 119 116
6.5939999 6.9390001 -0.81300002 136 120 97
6.5869999 6.941 -0.81300002 106 92 89
6.5879998 6.9460001 -0.815 156 109 91
6.5650001 6.9260001 -0.79400003 114 90 54
6.579 6.908 -0.78200001 156 98 52
6.5809999 6.9180002 -0.79500002 194 174 111
6.5630002 6.9089999 -0.745 193 177 99
6.5599999 6.9050002 -0.755 116 99 19
6.5560002 6.9039998 -0.76499999 118 101 29
6.5609999 6.8920002 -0.74900001 130 112 98
6.5580001 6.9130001 -0.727 33 27 13
6.6020002 6.8940001 -0.74900001 70 56 19
6.5689998 6.869 -0.759 172 153 97
6.559 6.8439999 -0.72500002 176 121 90
6.5630002 6.848 -0.72799999 71 55 29
6.566 6.8499999 -0.73100001 67 50 34
6.5479999 6.9089999 -0.71899998 242 243 167
6.5619998 6.902 -0.71799999 232 222 186
6.5700002 6.914 -0.73299998 137 128 61
6.5500002 6.8579998 -0.71499997 118 92 33
6.5749998 6.8579998 -0.73100001 125 110 89
6.5739999 6.8499999 -0.71799999 94 72 33
6.5549998 6.948 -0.85799998 89 44 11
6.5669999 6.9530001 -0.84799999 139 112 91
6.553 7.0029998 -0.85500002 113 92 49
6.5570002 6.9419999 -0.81699997 64 36 25
6.5510001 6.9369998 -0.80299997 65 40 20
6.5489998 6.9359999 -0.80599999 80 54 31
6.5500002 6.9359999 -0.79900002 143 119 107
6.5580001 6.9349999 -0.79699999 89 66 48
6.5549998 6.927 -0.80299997 68 40 0
6.5770001 6.9169998 -0.82999998 95 75 66
6.572 6.928 -0.84299999 178 124 80
6.5599999 6.9289999 -0.84399998 50 17 0
6.5630002 6.9299998 -0.84799999 211 145 87
6.5570002 6.928 -0.83700001 36 7 0
6.5630002 6.9710002 -0.87400001 115 89 72
6.6030002 6.947 -0.83200002 86 65 48
6.5939999 6.9450002 -0.829 109 60 28
6.5869999 6.882 -0.78600001 95 65 29
6.592 6.8839998 -0.77499998 78 50 11
6.586 6.908 -0.764 64 55 12
6.5739999 6.934 -0.792 84 55 21
6.5819998 6.8920002 -0.80199999 78 39 6
6.5749998 6.888 -0.796 207 182 92
6.5770001 6.881 -0.78500003 205 179 95
6.5809999 6.882 -0.77499998 142 118 28
6.5819998 6.869 -0.75099999 68 38 10
6.5359998 7.007 -0.85100001 112 56 19
6.5229998 7.04 -0.85399997 65 41 5
6.5240002 7.0430002 -0.852 44 33 13
6.5079999 7.0359998 -0.87599999 70 39 0
6.5139999 7.027 -0.88499999 109 76 33
6.5100002 7.0289998 -0.884 74 42 1
6.5289998 7.0209999 -0.88099998 145 127 117
6.5209999 7.0190001 -0.87599999 104 78 41
6.494 7.0359998 -0.83999997 47 32 13
6.5679998 7.0780001 -0.88300002 161 129 82
6.5549998 6.9260001 -0.80500001 162 124 88
6.566 6.9390001 -0.80699998 66 41 19
6.5209999 7.0430002 -0.84399998 151 150 94
6.513 7.0440001 -0.84200001 104 102 54
6.5190001 7.039 -0.84299999 99 98 41
6.5619998 6.902 -0.80400002 136 108 60
6.5700002 6.9070001 -0.78399998 129 103 54
6.5710001 6.9039998 -0.77700001 199 179 92
6.5780001 6.9400001 -0.80800003 62 40 19
6.5840001 6.947 -0.81800002 67 43 19
6.5599999 6.908 -0.76300001 90 76 27
6.5609999 6.8990002 -0.75300002 88 58 22
6.5669999 6.8909998 -0.77499998 171 135 121
6.5479999 6.9159999 -0.71899998 235 231 170
6.5549998 6.9120002 -0.73299998 107 82 60
6.5970001 6.8889999 -0.74699998 91 74 28
6.5479999 6.9159999 -0.71499997 247 238 181
6.5479999 6.9190001 -0.71600002 252 239 194
6.5570002 6.9109998 -0.71399999 179 167 109
6.5570002 6.8429999 -0.72600001 157 118 77
6.5650001 6.8509998 -0.73500001 86 70 44
6.5609999 6.881 -0.73699999 116 98 84
6.5619998 6.9000001 -0.72399998 124 81 49
6.5570002 6.8629999 -0.722 94 71 21
6.5510001 6.8579998 -0.71200001 255 232 178
6.5560002 6.8629999 -0.71399999 127 103 59
6.599 6.8790002 -0.75800002 114 95 16
6.5970001 6.8870001 -0.76700002 143 130 96
6.6020002 6.8899999 -0.75599998 126 113 43
6.579 6.9510002 -0.84200001 126 102 90
6.5650001 6.9499998 -0.86500001 144 95 63
6.5710001 6.9380002 -0.86699998 111 64 36
6.586 6.9549999 -0.85000002 66 25 5
6.5640001 6.9429998 -0.815 53 30 16
6.5549998 6.9380002 -0.81599998 68 33 13
6.5539999 6.9369998 -0.83399999 75 33 11
6.559 6.9390001 -0.82499999 67 28 11
6.5640001 6.9749999 -0.87199998 255 243 234
6.5910001 6.9390001 -0.852 151 141 142
6.599 6.9369998 -0.83999997 69 40 8
6.5970001 6.934 -0.84299999 93 45 22
6.5879998 6.9099998 -0.77700001 74 63 18
6.5890002 6.908 -0.78799999 212 199 129
6.573 6.9310002 -0.801 129 105 79
6.5830002 6.9089999 -0.80000001 197 179 117
6.5840001 6.8969998 -0.79699999 72 54 50
6.5549998 6.9120002 -0.796 96 72 44
6.5830002 6.882 -0.78299999 173 143 55
6.5830002 6.8790002 -0.73799998 63 34 4
6.5700002 6.8829999 -0.73699999 67 37 1
6.533 7.0110002 -0.85600001 179 158 111
6.5469999 7.0029998 -0.85600001 74 61 16
6.5100002 7.0440001 -0.84600002 76 60 35
6.5190001 7.0349998 -0.84299999 136 133 78
6.5089998 7.0320001 -0.88 46 30 4
6.513 7.0229998 -0.87699997 111 84 41
6.493 7.0419998 -0.84600002 75 66 25
6.5770001 7.0819998 -0.884 182 147 125
6.586 6.9239998 -0.80800003 73 48 8
6.553 7.0079999 -0.84799999 121 110 108
6.5570002 6.9299998 -0.82200003 168 139 125
6.5669999 6.8990002 -0.80199999 174 143 79
6.559 6.9039998 -0.796 108 76 25
6.5960002 6.9000001 -0.78899997 50 39 9
6.5580001 6.9039998 -0.76200002 132 117 36
6.5710001 6.9089999 -0.764 52 46 14
6.566 6.8959999 -0.78200001 230 206 82
6.5689998 6.8829999 -0.79000002 173 149 61
6.5619998 6.9190001 -0.71600002 151 132 90
6.5469999 6.9120002 -0.71499997 241 236 170
6.5599999 6.914 -0.73299998 162 153 120
6.5500002 6.908 -0.72600001 72 49 31
6.6020002 6.8870001 -0.75199997 229 212 142
6.5549998 6.9070001 -0.713 251 238 183
6.5570002 6.8610001 -0.73000002 133 119 74
6.5549998 6.8590002 -0.73500001 111 87 41
6.5619998 6.8639998 -0.727 87 65 18
6.5580001 6.8610001 -0.73500001 66 50 16
6.5609999 6.8639998 -0.71200001 90 67 36
6.6030002 6.8829999 -0.75599998 167 150 72
6.5580001 6.8629999 -0.71799999 150 124 75
6.5689998 6.9489999 -0.84399998 85 57 43
6.592 6.9439998 -0.861 141 131 130
6.5539999 6.9369998 -0.838 125 80 51
6.553 6.9099998 -0.81999999 163 133 83
6.5560002 6.914 -0.82099998 187 148 89
6.5609999 6.915 -0.81999999 128 90 25
6.5539999 6.9200001 -0.83099997 125 93 72
6.5739999 6.914 -0.80900002 152 133 119
6.5830002 6.9229999 -0.82099998 139 121 111
6.5780001 6.9120002 -0.80599999 135 113 63
6.5809999 6.941 -0.83499998 131 107 95
6.5929999 6.9450002 -0.824 61 39 18
6.5739999 6.8870001 -0.77700001 200 170 50
6.5809999 6.9070001 -0.77899998 138 116 95
6.5830002 6.8889999 -0.79500002 186 159 56
6.5760002 6.9070001 -0.80599999 139 90 49
6.5669999 6.8870001 -0.73400003 142 100 78
6.539 7.013 -0.86199999 96 77 35
6.5469999 7.0019999 -0.84899998 150 128 89
6.4970002 7.0359998 -0.85399997 234 189 134
6.5180001 7.0300002 -0.86799997 92 78 51
6.5190001 7.0219998 -0.87900001 140 111 67
6.5869999 6.9130001 -0.80000001 137 116 97
6.5890002 6.9050002 -0.79100001 109 81 42
6.585 6.9190001 -0.80900002 118 91 74
6.5570002 6.934 -0.79400003 120 94 61
6.5570002 6.9380002 -0.81300002 90 62 38
6.5650001 6.941 -0.82099998 154 111 68
6.5640001 6.9359999 -0.79799998 122 95 78
6.5539999 6.9200001 -0.81 90 56 0
6.5580001 6.9380002 -0.82099998 73 34 17
6.5549998 6.9070001 -0.79100001 98 70 33
6.5689998 6.9099998 -0.81 90 68 27
6.5599999 6.902 -0.74900001 138 127 71
6.5599999 6.9029999 -0.74800003 110 95 90
6.573 6.895 -0.74299997 179 138 116
6.5560002 6.9000001 -0.713 232 218 183
6.559 6.849 -0.73699999 85 55 29
6.5710001 6.9089999 -0.73900002 42 34 11
6.572 6.908 -0.73699999 99 86 18
6.5650001 6.9130001 -0.72799999 167 163 90
6.5669999 6.8649998 -0.73100001 148 104 65
6.5650001 6.8629999 -0.72600001 100 52 16
6.559 6.8600001 -0.71100003 224 198 161
6.5999999 6.8829999 -0.759 114 98 21
6.5970001 6.8790002 -0.76099998 131 112 36
6.5960002 6.882 -0.76499999 144 125 56
6.6020002 6.8870001 -0.75599998 148 135 57
6.5770001 6.8569999 -0.71700001 123 66 23
6.5640001 6.8629999 -0.71899998 112 68 33
6.5819998 6.9590001 -0.847 99 46 14
6.5609999 6.941 -0.83399999 112 98 95
6.5760002 6.9260001 -0.852 168 119 79
6.5570002 6.9120002 -0.81699997 83 57 34
6.585 6.9250002 -0.833 105 81 69
6.566 6.9299998 -0.85299999 163 96 43
6.5780001 6.8850002 -0.78899997 156 131 31
6.5479999 7.0050001 -0.85000002 93 81 41
6.4920001 7.0339999 -0.84399998 124 118 70
6.4949999 7.039 -0.85000002 85 72 27
6.5539999 6.9200001 -0.80599999 98 74 14
6.5770001 6.941 -0.81900001 118 90 51
6.5689998 6.9070001 -0.80699998 72 45 0
6.5599999 6.9029999 -0.755 143 131 71
6.566 6.8930001 -0.73799998 82 44 21
6.566 6.8959999 -0.77899998 252 231 103
6.598 6.8899999 -0.74800003 80 52 31
6.5570002 6.9070001 -0.73900002 205 190 109
6.5700002 6.862 -0.71499997 97 75 61
6.586 6.9260001 -0.85100001 122 105 89
6.5830002 6.934 -0.85799998 88 61 42
6.5679998 6.927 -0.85699999 141 89 49
6.572 6.8940001 -0.79900002 172 144 60
6.5760002 6.8979998 -0.801 144 109 27
6.5630002 6.9120002 -0.81199998 83 60 8
6.5760002 6.9050002 -0.73799998 83 70 18
6.5560002 6.9099998 -0.736 173 161 89
6.5700002 6.947 -0.84100002 100 72 58
6.5949998 6.934 -0.84200001 190 159 141
6.5809999 6.9299998 -0.84600002 87 63 39
6.573 6.9039998 -0.80400002 119 87 30
0 0 0 1 0 0 0 1 0 0 0 1 0 0 0 0 0 616 1 0 0
