ply
format ascii 1.0
comment PCL generated
element vertex 1353
property float x
property float y
property float z
property uchar red
property uchar green
property uchar blue
element camera 0
property float view_px
property float view_py
property float view_pz
property float x_axisx
property float x_axisy
property float x_axisz
property float y_axisx
property float y_axisy
property float y_axisz
property float z_axisx
property float z_axisy
property float z_axisz
property float focal
property float scalex
property float scaley
property float centerx
property float centery
property int viewportx
property int viewporty
property float k1
property float k2
end_header
-10.548 -1.595 -0.616 162 119 87
-10.556 -1.5829999 -0.616 249 186 93
-10.607 -1.587 -0.662 158 94 59
-10.549 -1.59 -0.64200002 72 34 15
-10.654 -1.442 -0.68599999 130 95 55
-10.59 -1.523 -0.625 255 237 163
-10.609 -1.4450001 -0.59299999 171 123 85
-10.604 -1.4450001 -0.59799999 148 77 33
-10.63 -1.4400001 -0.59100002 126 51 9
-10.614 -1.5190001 -0.616 91 56 34
-10.595 -1.418 -0.588 85 53 32
-10.593 -1.372 -0.69099998 87 73 62
-10.63 -1.433 -0.58399999 180 109 57
-10.639 -1.414 -0.57999998 211 112 44
-10.628 -1.4119999 -0.58099997 82 47 28
-10.57 -1.625 -0.98900002 102 58 23
-10.571 -1.619 -1.002 98 45 13
-10.571 -1.641 -0.99900001 80 53 26
-10.612 -1.608 -1.059 40 0 0
-10.606 -1.604 -1.063 68 31 25
-10.61 -1.604 -1.064 39 0 0
-10.575 -1.618 -0.99400002 97 57 22
-10.566 -1.624 -1.007 90 70 43
-10.575 -1.625 -1.015 78 53 31
-10.582 -1.618 -1.021 106 62 27
-10.581 -1.624 -1.0190001 92 18 0
-10.649 -1.597 -1.061 156 128 125
-10.637 -1.582 -1.068 161 146 141
-10.657 -1.5779999 -1.064 90 70 63
-10.532 -1.59 -0.616 127 81 55
-10.52 -1.575 -0.64600003 87 42 9
-10.517 -1.587 -0.62599999 227 181 96
-10.74 -1.602 -0.78299999 67 18 3
-10.559 -1.566 -0.708 70 29 9
-10.563 -1.561 -0.71700001 71 30 12
-10.558 -1.561 -0.70499998 34 0 0
-10.581 -1.572 -0.63099998 156 86 37
-10.568 -1.5779999 -0.62699997 128 99 85
-10.582 -1.573 -0.634 121 50 8
-10.622 -1.415 -0.829 135 106 90
-10.626 -1.404 -0.81 49 20 4
-10.709 -1.568 -1.048 29 3 6
-10.713 -1.561 -1.059 160 140 133
-10.727 -1.557 -1.038 61 18 0
-10.732 -1.557 -1.035 79 34 15
-10.729 -1.554 -1.0420001 135 88 70
-10.738 -1.562 -1.043 45 2 0
-10.736 -1.5650001 -1.0369999 53 12 6
-10.729 -1.567 -1.04 43 3 0
-10.737 -1.551 -1.041 85 43 29
-10.514 -1.563 -0.64899999 111 59 37
-10.564 -1.375 -0.71200001 153 122 94
-10.553 -1.387 -0.70700002 149 99 64
-10.575 -1.374 -0.70899999 203 151 112
-10.662 -1.466 -0.71200001 103 53 26
-10.659 -1.4630001 -0.713 72 48 38
-10.664 -1.461 -0.70999998 72 36 24
-10.628 -1.431 -0.69 131 90 70
-10.606 -1.388 -0.68599999 41 11 0
-10.604 -1.39 -0.69499999 147 75 35
-10.679 -1.494 -1.05 24 3 0
-10.688 -1.487 -0.949 87 61 48
-10.685 -1.4859999 -0.94400001 26 0 0
-10.674 -1.473 -0.963 34 5 1
-10.707 -1.4960001 -0.94999999 143 96 78
-10.693 -1.493 -0.93800002 111 61 36
-10.677 -1.492 -0.87199998 32 12 11
-10.666 -1.484 -0.87199998 64 46 32
-10.683 -1.49 -0.86500001 46 22 12
-10.665 -1.48 -0.87400001 150 115 95
-10.664 -1.49 -0.88 52 19 10
-10.676 -1.48 -0.85299999 47 24 8
-10.682 -1.485 -0.85900003 59 36 20
-10.662 -1.469 -0.85299999 28 9 5
-10.751 -1.557 -0.81599998 76 49 42
-10.754 -1.5599999 -0.81099999 75 24 5
-10.755 -1.5599999 -0.82300001 49 13 0
-10.751 -1.557 -0.815 37 9 0
-10.595 -1.442 -0.80800003 70 37 22
-10.626 -1.424 -0.83399999 69 28 10
-10.63 -1.42 -0.85699999 102 66 52
-10.638 -1.518 -0.85299999 135 117 107
-10.639 -1.516 -0.85900003 109 85 73
-10.634 -1.5140001 -0.85500002 45 4 0
-10.647 -1.522 -0.85799998 37 14 0
-10.65 -1.508 -0.86699998 119 84 56
-10.661 -1.499 -0.85000002 39 4 0
-10.665 -1.483 -0.83999997 94 66 52
-10.66 -1.484 -0.84200001 119 84 54
-10.611 -1.387 -0.889 96 73 65
-10.611 -1.3890001 -0.89200002 93 69 57
-10.606 -1.385 -0.88999999 90 70 63
-10.639 -1.448 -1.002 13 1 1
-10.624 -1.441 -0.98500001 124 105 91
-10.621 -1.449 -1.002 18 0 0
-10.628 -1.4349999 -0.97899997 56 38 24
-10.629 -1.443 -0.986 27 9 0
-10.667 -1.4630001 -1.027 51 36 29
-10.67 -1.4680001 -1.023 130 69 40
-10.675 -1.472 -1.013 61 32 14
-10.65 -1.461 -0.79799998 107 76 55
-10.64 -1.465 -0.787 95 35 1
-10.637 -1.452 -0.792 139 79 51
-10.608 -1.5599999 -0.75400001 91 47 22
-10.612 -1.566 -0.74400002 46 19 2
-10.617 -1.567 -0.76300001 57 32 12
-10.581 -1.563 -0.75999999 64 38 23
-10.605 -1.566 -0.75400001 153 100 46
-10.603 -1.433 -0.787 161 129 104
-10.606 -1.441 -0.792 73 16 0
-10.612 -1.439 -0.78799999 58 30 26
-10.634 -1.512 -0.787 117 94 80
-10.633 -1.522 -0.77899998 39 0 0
-10.625 -1.511 -0.792 100 70 42
-10.643 -1.469 -0.78799999 42 12 2
-10.686 -1.4579999 -0.73000002 121 86 56
-10.646 -1.4299999 -0.73000002 87 42 9
-10.657 -1.426 -0.72000003 110 65 34
-10.595 -1.551 -0.82099998 58 36 25
-10.605 -1.557 -0.81199998 49 30 16
-10.617 -1.556 -0.81800002 151 112 105
-10.589 -1.586 -0.68599999 78 56 42
-10.593 -1.587 -0.68199998 122 71 40
-10.583 -1.5880001 -0.68300003 158 97 66
-10.571 -1.559 -0.77200001 75 37 16
-10.563 -1.5650001 -0.76499999 110 95 90
-10.555 -1.566 -0.778 98 65 50
-10.641 -1.591 -0.77200001 105 83 72
-10.642 -1.589 -0.76800001 74 65 66
-10.638 -1.5779999 -0.764 73 46 35
-10.636 -1.591 -0.76899999 89 46 29
-10.614 -1.567 -0.77499998 73 31 7
-10.631 -1.538 -0.74299997 79 52 35
-10.628 -1.533 -0.73699999 49 27 16
-10.626 -1.539 -0.74400002 33 6 0
-10.631 -1.543 -0.75199997 124 106 94
-10.578 -1.559 -0.77100003 35 0 0
-10.573 -1.558 -0.76200002 70 28 6
-10.569 -1.559 -0.74599999 65 13 0
-10.584 -1.563 -0.76800001 95 54 36
-10.614 -1.572 -0.68300003 137 102 74
-10.616 -1.524 -0.72299999 54 30 20
-10.616 -1.523 -0.713 135 111 101
-10.618 -1.523 -0.71100003 63 38 16
-10.604 -1.5549999 -0.704 67 16 0
-10.605 -1.5599999 -0.69199997 80 64 51
-10.62 -1.5319999 -0.73900002 103 77 54
-10.624 -1.5779999 -0.76999998 80 29 0
-10.621 -1.581 -0.77899998 131 101 90
-10.611 -1.548 -0.96499997 41 10 0
-10.613 -1.55 -0.97000003 60 34 21
-10.614 -1.5420001 -0.96799999 67 30 11
-10.615 -1.3940001 -0.71399999 124 82 66
-10.624 -1.409 -0.70300001 86 55 35
-10.627 -1.414 -0.71399999 87 36 5
-10.639 -1.415 -0.72399998 70 42 30
-10.663 -1.425 -0.70300001 85 63 52
-10.67 -1.4299999 -0.699 186 113 72
-10.666 -1.4299999 -0.69199997 133 100 67
-10.755 -1.585 -0.745 108 79 61
-10.634 -1.524 -0.62699997 212 131 66
-10.669 -1.436 -0.74800003 56 21 0
-10.675 -1.439 -0.74699998 50 28 14
-10.608 -1.399 -0.58899999 143 105 84
-10.621 -1.409 -0.579 117 69 46
-10.719 -1.5549999 -1.062 30 2 0
-10.707 -1.558 -1.063 25 4 3
-10.701 -1.551 -1.061 26 3 0
-10.677 -1.498 -0.87900001 70 36 26
-10.759 -1.585 -0.778 80 54 39
-10.765 -1.585 -0.778 26 18 7
-10.736 -1.595 -0.79699999 103 56 38
-10.737 -1.589 -0.79699999 117 71 55
-10.735 -1.602 -0.79500002 46 0 0
-10.756 -1.567 -0.83399999 118 85 76
-10.743 -1.552 -0.84399998 25 10 3
-10.689 -1.487 -0.85299999 40 10 0
-10.686 -1.484 -0.84600002 39 16 0
-10.688 -1.482 -0.84100002 41 19 6
-10.68 -1.549 -0.87099999 98 29 0
-10.688 -1.5470001 -0.866 22 6 6
-10.717 -1.564 -1.021 79 38 18
-10.724 -1.567 -1.026 170 128 114
-10.704 -1.595 -1.015 58 36 15
-10.718 -1.5930001 -1.022 56 9 0
-10.715 -1.597 -1.016 49 2 0
-10.704 -1.598 -1.0089999 81 42 13
-10.682 -1.575 -0.89999998 35 4 0
-10.686 -1.574 -0.90399998 58 16 2
-10.662 -1.546 -0.86799997 59 25 15
-10.659 -1.533 -0.84799999 25 6 0
-10.651 -1.538 -0.84600002 41 21 23
-10.671 -1.541 -0.83999997 82 50 29
-10.669 -1.571 -0.88300002 26 3 0
-10.651 -1.581 -0.84799999 42 14 2
-10.653 -1.5779999 -0.84500003 77 62 59
-10.596 -1.574 -0.89200002 33 14 0
-10.593 -1.582 -0.87800002 43 15 11
-10.593 -1.579 -0.87800002 38 16 0
-10.594 -1.585 -0.87900001 84 41 25
-10.574 -1.455 -0.92799997 22 5 0
-10.575 -1.47 -0.92500001 74 19 0
-10.595 -1.5829999 -0.86699998 26 6 0
-10.592 -1.571 -0.85900003 53 21 6
-10.587 -1.5650001 -0.86900002 78 57 52
-10.615 -1.592 -0.81800002 64 38 25
-10.598 -1.586 -0.82499999 75 38 29
-10.619 -1.597 -0.82599998 104 56 34
-10.623 -1.582 -0.88800001 27 0 0
-10.614 -1.585 -0.884 24 0 0
-10.626 -1.587 -0.86799997 21 1 0
-10.6 -1.5829999 -0.89700001 29 1 0
-10.602 -1.595 -0.87900001 62 24 13
-10.597 -1.5880001 -0.87900001 41 18 2
-10.593 -1.564 -0.78399998 69 30 13
-10.584 -1.566 -0.79400003 52 16 2
-10.596 -1.564 -0.80199999 89 28 0
-10.581 -1.584 -0.787 75 30 7
-10.597 -1.595 -0.78299999 76 50 37
-10.637 -1.582 -0.85900003 64 25 10
-10.632 -1.587 -0.85000002 51 28 20
-10.562 -1.568 -0.76099998 49 24 17
-10.562 -1.572 -0.76599997 106 57 24
-10.552 -1.562 -0.71799999 76 56 45
-10.567 -1.5549999 -0.72299999 55 19 3
-10.604 -1.556 -0.63999999 110 76 41
-10.592 -1.562 -0.63700002 214 132 74
-10.547 -1.598 -0.61900002 196 156 130
-10.555 -1.594 -0.62599999 97 26 0
-10.545 -1.6 -0.62300003 128 69 37
-10.545 -1.594 -0.64600003 189 150 111
-10.534 -1.601 -0.63499999 35 1 0
-10.537 -1.6 -0.62599999 228 161 108
-10.545 -1.601 -0.62199998 154 101 33
-10.53 -1.601 -0.63099998 118 71 25
-10.539 -1.595 -0.63700002 127 82 25
-10.518 -1.592 -0.64700001 59 16 0
-10.515 -1.598 -0.65100002 135 84 63
-10.584 -1.551 -0.63 175 132 79
-10.635 -1.574 -0.76599997 82 58 46
-10.719 -1.575 -0.82700002 97 49 27
-10.721 -1.559 -0.84600002 32 10 0
-10.724 -1.563 -0.847 50 21 3
-10.657 -1.538 -0.79900002 92 35 8
-10.653 -1.5369999 -0.78200001 27 4 0
-10.673 -1.546 -0.79000002 111 76 57
-10.61 -1.5599999 -0.67900002 125 86 53
-10.613 -1.524 -0.708 73 22 1
-10.584 -1.556 -0.69400001 96 42 14
-10.608 -1.442 -0.58999997 207 141 93
-10.625 -1.454 -0.60900003 88 27 6
-10.622 -1.451 -0.61299998 87 37 10
-10.642 -1.441 -0.61400002 111 55 30
-10.528 -1.549 -0.616 115 74 44
-10.625 -1.441 -0.59899998 209 127 67
-10.614 -1.4400001 -0.59500003 101 28 0
-10.6 -1.427 -0.58999997 82 41 13
-10.623 -1.423 -0.57999998 79 35 10
-10.621 -1.436 -0.588 222 165 112
-10.576 -1.618 -0.99400002 126 72 34
-10.584 -1.62 -0.98500001 116 84 71
-10.573 -1.623 -0.98799998 108 46 9
-10.581 -1.649 -0.99800003 111 42 3
-10.573 -1.6440001 -1.008 112 53 11
-10.589 -1.601 -1.006 116 93 85
-10.587 -1.615 -0.99400002 155 113 97
-10.61 -1.609 -1.054 47 4 0
-10.567 -1.627 -1.003 83 44 13
-10.631 -1.529 -1.068 23 9 6
-10.631 -1.534 -1.074 16 5 1
-10.648 -1.535 -1.0650001 121 103 101
-10.665 -1.589 -1.0599999 28 11 1
-10.641 -1.582 -1.064 43 0 0
-10.662 -1.591 -1.049 64 18 2
-10.662 -1.592 -1.045 79 32 12
-10.655 -1.599 -1.052 119 97 84
-10.658 -1.601 -1.057 109 85 73
-10.658 -1.6059999 -1.061 138 116 102
-10.654 -1.596 -1.063 58 16 2
-10.649 -1.604 -1.0549999 39 6 0
-10.649 -1.597 -1.039 137 109 98
-10.661 -1.592 -1.04 91 43 21
-10.617 -1.619 -1.0420001 147 127 118
-10.631 -1.6160001 -1.04 83 48 28
-10.62 -1.6109999 -1.053 99 38 7
-10.599 -1.618 -1.041 53 6 0
-10.607 -1.62 -1.038 100 48 27
-10.596 -1.643 -0.986 72 29 0
-10.59 -1.64 -0.986 91 61 51
-10.62 -1.604 -1.062 53 9 0
-10.609 -1.591 -1.068 148 121 112
-10.537 -1.5880001 -0.61500001 145 108 90
-10.513 -1.566 -0.63999999 167 94 53
-10.51 -1.557 -0.653 66 42 30
-10.527 -1.587 -0.61799997 188 143 112
-10.534 -1.581 -0.61199999 182 141 89
-10.593 -1.589 -0.76800001 125 100 78
-10.585 -1.585 -0.75800002 118 91 80
-10.602 -1.592 -0.77700001 132 95 79
-10.586 -1.587 -0.76800001 67 41 24
-10.635 -1.582 -0.75999999 75 48 39
-10.722 -1.59 -0.796 97 68 60
-10.732 -1.597 -0.80299997 124 100 90
-10.613 -1.521 -0.72500002 108 74 65
-10.574 -1.558 -0.73500001 56 23 8
-10.576 -1.561 -0.74000001 73 51 54
-10.576 -1.5549999 -0.74000001 45 14 0
-10.552 -1.564 -0.708 87 68 61
-10.553 -1.567 -0.70300001 112 93 87
-10.552 -1.567 -0.70499998 117 98 91
-10.55 -1.564 -0.71700001 23 4 0
-10.553 -1.5700001 -0.704 20 0 0
-10.585 -1.568 -0.63300002 122 50 0
-10.558 -1.573 -0.65499997 118 47 19
-10.57 -1.571 -0.66299999 107 41 19
-10.576 -1.574 -0.66399997 93 24 9
-10.553 -1.579 -0.66000003 86 41 10
-10.546 -1.587 -0.64600003 163 101 40
-10.539 -1.58 -0.65399998 128 60 11
-10.541 -1.5779999 -0.65700001 62 16 1
-10.547 -1.575 -0.67400002 81 62 47
-10.552 -1.576 -0.676 97 29 0
-10.553 -1.5700001 -0.69599998 116 97 83
-10.551 -1.571 -0.67900002 67 22 3
-10.568 -1.579 -0.63700002 148 62 13
-10.556 -1.577 -0.64200002 138 65 22
-10.554 -1.579 -0.64300001 114 40 13
-10.678 -1.446 -0.79900002 48 34 23
-10.684 -1.451 -0.792 125 111 100
-10.687 -1.4450001 -0.79000002 37 16 11
-10.681 -1.45 -0.78799999 103 89 80
-10.673 -1.462 -0.80800003 89 74 67
-10.665 -1.442 -0.80699998 129 113 114
-10.666 -1.456 -0.80500001 14 0 0
-10.653 -1.457 -0.815 57 18 11
-10.655 -1.45 -0.81 22 4 0
-10.668 -1.439 -0.77700001 81 58 52
-10.567 -1.577 -0.62099999 114 84 73
-10.702 -1.559 -1.058 15 0 0
-10.707 -1.553 -1.061 163 143 136
-10.705 -1.5420001 -1.053 165 142 134
-10.687 -1.5650001 -1.061 78 40 29
-10.768 -1.58 -0.755 103 77 64
-10.752 -1.563 -0.81400001 50 2 0
-10.583 -1.429 -0.79699999 64 26 3
-10.621 -1.406 -0.75099999 105 63 41
-10.623 -1.411 -0.77600002 71 48 32
-10.619 -1.418 -0.75599998 43 1 0
-10.624 -1.419 -0.75199997 124 89 70
-10.644 -1.432 -0.76999998 54 37 29
-10.638 -1.427 -0.787 77 39 18
-10.639 -1.433 -0.773 50 23 6
-10.674 -1.439 -0.796 81 49 24
-10.563 -1.377 -0.699 124 72 51
-10.566 -1.381 -0.69099998 92 39 7
-10.621 -1.419 -0.68900001 52 24 12
-10.631 -1.419 -0.699 151 104 74
-10.627 -1.423 -0.68800002 147 96 67
-10.622 -1.4170001 -0.68199998 101 38 0
-10.603 -1.424 -0.69099998 53 24 8
-10.603 -1.42 -0.69499999 52 23 7
-10.607 -1.416 -0.69300002 61 5 0
-10.63 -1.42 -0.67799997 141 112 94
-10.596 -1.382 -0.68400002 170 115 61
-10.638 -1.413 -0.685 131 73 35
-10.624 -1.513 -1.069 25 8 1
-10.636 -1.512 -1.067 58 39 32
-10.637 -1.518 -1.064 28 4 2
-10.625 -1.456 -1.0140001 15 0 0
-10.635 -1.455 -1.025 97 75 61
-10.609 -1.471 -1.046 55 19 0
-10.594 -1.467 -1.0420001 29 10 3
-10.592 -1.469 -1.044 174 107 64
-10.633 -1.548 -1.063 70 30 18
-10.706 -1.5470001 -1.044 152 132 123
-10.71 -1.543 -1.028 161 144 137
-10.736 -1.5470001 -1.053 54 30 20
-10.677 -1.505 -1.031 13 1 1
-10.677 -1.484 -1.033 154 135 129
-10.621 -1.4170001 -0.83899999 37 9 0
-10.63 -1.5 -0.88200003 44 20 18
-10.631 -1.507 -0.86699998 77 22 2
-10.645 -1.493 -0.87400001 101 75 60
-10.622 -1.467 -0.84200001 45 11 0
-10.629 -1.47 -0.83499998 77 44 27
-10.62 -1.465 -0.83399999 33 3 0
-10.709 -1.598 -0.99900001 150 113 84
-10.69 -1.59 -0.99900001 64 39 32
-10.689 -1.59 -0.98900002 60 35 28
-10.617 -1.392 -0.88 122 104 102
-10.617 -1.398 -0.88300002 28 10 6
-10.62 -1.4119999 -0.89399999 28 4 0
-10.618 -1.4 -0.866 79 42 23
-10.608 -1.398 -0.86699998 59 32 23
-10.615 -1.399 -0.86799997 50 18 5
-10.617 -1.403 -0.861 112 67 44
-10.678 -1.523 -0.84100002 87 29 9
-10.578 -1.46 -0.91299999 75 45 37
-10.635 -1.479 -0.83399999 21 2 0
-10.635 -1.477 -0.833 65 39 26
-10.644 -1.4859999 -0.83700001 53 14 7
-10.63 -1.512 -0.84100002 45 16 2
-10.625 -1.5039999 -0.83899999 45 17 14
-10.637 -1.516 -0.838 131 114 106
-10.646 -1.482 -0.86400002 38 0 0
-10.648 -1.484 -0.87300003 69 46 32
-10.629 -1.4349999 -0.81199998 54 26 12
-10.648 -1.437 -0.81 50 11 0
-10.644 -1.4400001 -0.801 33 0 0
-10.622 -1.42 -0.81 185 148 119
-10.636 -1.518 -0.833 26 6 0
-10.646 -1.511 -0.824 63 20 11
-10.649 -1.488 -0.84399998 25 0 0
-10.658 -1.5 -0.86000001 80 34 19
-10.654 -1.522 -0.866 65 38 31
-10.669 -1.5089999 -0.86299998 39 20 13
-10.652 -1.495 -0.86500001 54 26 15
-10.679 -1.498 -0.87199998 21 1 0
-10.685 -1.497 -0.86000001 91 73 69
-10.62 -1.447 -0.98199999 125 103 92
-10.58 -1.467 -0.91600001 42 14 0
-10.677 -1.478 -1.034 38 1 0
-10.648 -1.456 -0.74699998 152 108 69
-10.648 -1.4529999 -0.75700003 116 102 93
-10.638 -1.444 -0.74699998 145 95 68
-10.65 -1.456 -0.755 125 109 96
-10.635 -1.443 -0.741 117 58 28
-10.644 -1.4450001 -0.76200002 132 118 109
-10.638 -1.441 -0.75999999 95 78 70
-10.649 -1.455 -0.76499999 59 40 26
-10.632 -1.437 -0.74299997 122 72 39
-10.637 -1.4400001 -0.74599999 72 25 7
-10.643 -1.425 -0.75300002 99 36 5
-10.651 -1.424 -0.75400001 64 44 33
-10.648 -1.454 -0.801 76 42 14
-10.652 -1.454 -0.80599999 58 27 7
-10.641 -1.479 -0.83700001 124 83 65
-10.63 -1.516 -0.78899997 142 119 105
-10.624 -1.534 -0.74699998 66 15 0
-10.62 -1.512 -0.73199999 170 106 78
-10.621 -1.5190001 -0.74400002 73 39 27
-10.633 -1.531 -0.74900001 108 84 58
-10.638 -1.54 -0.75 48 26 12
-10.61 -1.441 -0.79400003 67 28 13
-10.618 -1.4349999 -0.787 160 128 107
-10.665 -1.518 -0.81999999 96 25 0
-10.664 -1.512 -0.81800002 125 110 103
-10.667 -1.513 -0.82499999 126 109 101
-10.682 -1.448 -0.72500002 62 15 0
-10.67 -1.45 -0.70999998 79 37 13
-10.68 -1.454 -0.72600001 107 66 46
-10.683 -1.439 -0.73000002 48 12 0
-10.68 -1.442 -0.73699999 84 24 0
-10.664 -1.425 -0.72000003 71 49 38
-10.644 -1.438 -0.73400003 47 20 1
-10.621 -1.429 -0.74400002 46 32 31
-10.59 -1.549 -0.81999999 71 50 33
-10.589 -1.5650001 -0.80500001 52 18 6
-10.598 -1.584 -0.68699998 90 75 72
-10.584 -1.577 -0.75099999 128 102 85
-10.584 -1.575 -0.74900001 156 117 88
-10.604 -1.571 -0.69400001 72 40 15
-10.561 -1.568 -0.77399999 46 22 12
-10.575 -1.557 -0.74400002 56 24 3
-10.57 -1.563 -0.75400001 45 13 0
-10.567 -1.563 -0.74599999 43 24 7
-10.563 -1.567 -0.736 34 6 0
-10.563 -1.568 -0.75599998 40 12 1
-10.567 -1.567 -0.74400002 90 57 38
-10.611 -1.5650001 -0.79100001 28 0 0
-10.622 -1.543 -0.78899997 35 0 0
-10.626 -1.566 -0.78899997 63 39 27
-10.605 -1.559 -0.78799999 119 56 23
-10.615 -1.538 -0.78500003 119 69 44
-10.618 -1.536 -0.79000002 45 2 0
-10.579 -1.562 -0.76599997 55 13 1
-10.599 -1.47 -1.034 23 2 0
-10.599 -1.471 -1.038 15 0 0
-10.597 -1.58 -0.90700001 67 13 1
-10.578 -1.476 -0.93599999 48 25 17
-10.584 -1.479 -0.93900001 11 0 0
-10.592 -1.487 -0.93599999 29 6 0
-10.586 -1.482 -0.92500001 163 104 74
-10.579 -1.467 -0.94099998 33 4 0
-10.605 -1.3839999 -0.71499997 38 10 0
-10.622 -1.39 -0.72799999 66 38 16
-10.621 -1.402 -0.71499997 65 33 10
-10.637 -1.4220001 -0.704 103 38 0
-10.642 -1.425 -0.736 50 22 1
-10.653 -1.425 -0.69700003 125 65 28
-10.644 -1.416 -0.69 52 31 26
-10.764 -1.581 -0.75099999 61 34 17
-10.756 -1.582 -0.74800003 129 110 103
-10.634 -1.518 -0.634 85 51 6
-10.627 -1.511 -0.62900001 255 233 203
-10.681 -1.447 -0.70099998 132 101 80
-10.675 -1.442 -0.70499998 71 42 24
-10.68 -1.457 -0.699 161 71 9
-10.636 -1.438 -0.61699998 74 22 0
-10.65 -1.446 -0.69400001 175 106 67
-10.647 -1.4400001 -0.70499998 118 54 18
-10.645 -1.441 -0.708 60 21 6
-10.655 -1.452 -0.67900002 96 65 37
-10.659 -1.451 -0.68000001 73 42 21
-10.674 -1.454 -0.68300003 202 164 127
-10.628 -1.405 -0.60799998 45 18 1
-10.62 -1.399 -0.61199999 106 73 42
-10.638 -1.408 -0.60900003 47 25 12
-10.613 -1.419 -0.579 100 59 39
-10.73 -1.554 -1.0599999 37 0 0
-10.666 -1.436 -0.75099999 66 25 5
-10.738 -1.601 -0.80400002 94 66 55
-10.744 -1.55 -0.81400001 58 21 3
-10.727 -1.6059999 -0.875 44 1 0
-10.729 -1.604 -0.86699998 54 9 4
-10.719 -1.604 -0.87300003 124 88 64
-10.741 -1.609 -0.861 99 56 39
-10.741 -1.6059999 -0.85500002 75 53 42
-10.746 -1.605 -0.85699999 42 18 6
-10.713 -1.567 -0.88300002 22 1 0
-10.71 -1.568 -0.87 70 46 34
-10.719 -1.577 -0.88499999 44 17 0
-10.707 -1.576 -0.89600003 76 68 55
-10.709 -1.584 -0.89899999 115 52 21
-10.727 -1.564 -0.84200001 42 18 8
-10.741 -1.556 -0.82999998 54 12 0
-10.738 -1.554 -0.82200003 54 16 3
-10.728 -1.548 -0.84899998 43 13 5
-10.737 -1.551 -0.85299999 24 1 0
-10.733 -1.561 -0.83899999 34 7 0
-10.728 -1.574 -1.029 39 0 0
-10.73 -1.566 -1.031 53 12 6
-10.721 -1.59 -1.011 124 89 67
-10.738 -1.559 -1.0319999 57 14 0
-10.711 -1.59 -1.017 36 0 0
-10.72 -1.579 -0.89999998 73 34 27
-10.714 -1.572 -0.90600002 44 7 0
-10.691 -1.572 -0.91299999 37 8 2
-10.646 -1.5420001 -0.84500003 44 19 12
-10.653 -1.535 -0.85699999 32 3 0
-10.665 -1.5779999 -0.88 45 5 0
-10.642 -1.586 -0.84500003 43 15 12
-10.651 -1.59 -0.82700002 56 24 0
-10.6 -1.589 -0.866 108 70 33
-10.603 -1.589 -0.87199998 67 35 22
-10.602 -1.582 -0.85900003 30 7 1
-10.6 -1.58 -0.84200001 155 123 112
-10.587 -1.5779999 -0.82099998 59 35 9
-10.617 -1.594 -0.82200003 47 3 0
-10.608 -1.585 -0.898 88 73 66
-10.613 -1.587 -0.86699998 36 13 7
-10.604 -1.591 -0.87800002 51 32 26
-10.614 -1.586 -0.87199998 42 19 11
-10.614 -1.586 -0.87800002 32 4 0
-10.619 -1.5829999 -0.88 48 33 28
-10.597 -1.564 -0.80900002 103 85 83
-10.646 -1.5319999 -0.861 124 105 91
-10.638 -1.534 -0.852 82 45 19
-10.626 -1.5880001 -0.84600002 30 2 0
-10.676 -1.48 -0.84299999 49 26 18
-10.67 -1.477 -0.85100001 40 13 6
-10.627 -1.437 -0.84500003 107 69 48
-10.63 -1.4450001 -0.83899999 119 100 96
-10.644 -1.447 -0.85500002 115 74 42
-10.641 -1.444 -0.85900003 22 4 2
-10.632 -1.448 -0.84500003 50 16 7
-10.681 -1.482 -0.84100002 48 25 11
-10.685 -1.476 -0.83099997 23 5 1
-10.616 -1.539 -0.63 222 135 55
-10.62 -1.54 -0.62699997 132 101 54
-10.595 -1.554 -0.64700001 152 85 42
-10.588 -1.5829999 -0.66900003 103 52 23
-10.533 -1.6 -0.63700002 69 34 15
-10.558 -1.577 -0.68300003 104 38 4
-10.556 -1.554 -0.62199998 212 159 83
-10.555 -1.545 -0.62099999 120 74 25
-10.594 -1.54 -0.625 150 105 64
-10.66 -1.533 -0.78100002 32 5 0
-10.679 -1.534 -0.79000002 64 28 6
-10.654 -1.535 -0.778 59 33 20
-10.633 -1.535 -0.78500003 101 58 24
-10.636 -1.545 -0.75700003 149 133 118
-10.631 -1.526 -0.764 31 1 0
-10.622 -1.5779999 -0.78200001 56 36 27
-10.624 -1.573 -0.78500003 95 74 47
-10.692 -1.554 -0.815 95 72 64
-10.708 -1.559 -0.81 97 61 37
-10.697 -1.559 -0.81900001 32 10 0
-10.713 -1.5700001 -0.81099999 71 41 17
-10.725 -1.564 -0.829 67 27 19
-10.686 -1.5599999 -0.82599998 52 32 21
-10.687 -1.551 -0.87099999 36 12 2
-10.663 -1.522 -0.80599999 60 32 11
-10.673 -1.528 -0.79699999 62 21 0
-10.663 -1.517 -0.80400002 52 25 16
-10.664 -1.521 -0.82200003 35 8 0
-10.642 -1.572 -0.84299999 28 4 0
-10.642 -1.567 -0.86000001 44 1 0
-10.622 -1.503 -0.63200003 65 31 6
-10.603 -1.512 -0.72500002 54 22 7
-10.589 -1.569 -0.69499999 108 59 29
-10.581 -1.562 -0.69300002 119 46 13
-10.615 -1.494 -0.63599998 82 41 9
-10.616 -1.495 -0.63499999 79 43 19
-10.612 -1.488 -0.63099998 90 57 38
-10.534 -1.539 -0.625 91 37 0
-10.531 -1.5369999 -0.62400001 174 124 73
-10.581 -1.508 -0.62699997 73 47 32
-10.595 -1.502 -0.62199998 88 36 0
-10.591 -1.4859999 -0.62400001 212 188 144
-10.611 -1.495 -0.62099999 155 121 76
-10.62 -1.508 -0.62099999 159 122 96
-10.625 -1.448 -0.60600001 107 39 4
-10.616 -1.512 -0.61699998 168 142 117
-10.619 -1.527 -0.62 97 35 0
-10.59 -1.516 -0.62400001 212 179 148
-10.601 -1.518 -0.62099999 141 94 50
-10.596 -1.51 -0.62199998 148 77 21
-10.606 -1.516 -0.61799997 31 3 0
-10.535 -1.557 -0.61400002 106 79 60
-10.595 -1.41 -0.60000002 128 105 91
-10.592 -1.424 -0.602 98 89 60
-10.595 -1.4220001 -0.59600002 147 87 33
-10.607 -1.4220001 -0.58499998 255 238 179
-10.635 -1.42 -0.58099997 152 96 61
-10.63 -1.436 -0.59799999 183 126 59
-10.63 -1.433 -0.59299999 176 97 41
-10.639 -1.424 -0.60699999 145 71 26
-10.634 -1.436 -0.61400002 51 14 0
-10.633 -1.418 -0.611 72 32 20
-10.631 -1.428 -0.59799999 188 135 81
-10.598 -1.6390001 -1.013 238 190 167
-10.576 -1.619 -0.99900001 123 64 20
-10.586 -1.604 -1.013 103 32 2
-10.589 -1.596 -1.016 78 29 14
-10.595 -1.589 -1.007 85 38 20
-10.575 -1.62 -1.011 106 40 8
-10.605 -1.6109999 -1.048 69 29 19
-10.602 -1.602 -1.063 60 30 22
-10.614 -1.6109999 -1.05 54 10 0
-10.599 -1.596 -1.058 105 67 46
-10.643 -1.568 -1.0599999 30 11 7
-10.642 -1.559 -1.066 23 12 10
-10.662 -1.597 -1.0599999 40 3 0
-10.658 -1.596 -1.051 52 10 0
-10.624 -1.618 -1.0369999 67 44 36
-10.634 -1.618 -1.017 97 52 31
-10.682 -1.585 -0.98900002 37 11 0
-10.697 -1.592 -0.972 141 90 59
-10.662 -1.587 -0.96100003 95 56 25
-10.667 -1.585 -0.96200001 54 31 0
-10.656 -1.589 -0.972 63 34 28
-10.657 -1.5829999 -0.95499998 80 54 37
-10.546 -1.594 -0.61699998 178 131 63
-10.517 -1.59 -0.62900001 177 131 97
-10.514 -1.567 -0.63200003 92 21 0
-10.512 -1.5779999 -0.63300002 104 39 11
-10.514 -1.585 -0.63200003 54 27 8
-10.525 -1.577 -0.61400002 207 179 158
-10.534 -1.598 -0.62199998 169 105 59
-10.613 -1.587 -0.759 207 157 94
-10.626 -1.58 -0.75099999 78 72 74
-10.619 -1.5880001 -0.759 120 77 58
-10.604 -1.574 -0.74699998 116 85 65
-10.607 -1.573 -0.74900001 103 71 60
-10.731 -1.59 -0.796 122 94 83
-10.717 -1.584 -0.79500002 41 18 4
-10.727 -1.597 -0.84600002 81 45 13
-10.732 -1.6 -0.85600001 42 2 0
-10.617 -1.524 -0.74000001 36 1 0
-10.568 -1.5599999 -0.73000002 40 7 0
-10.561 -1.571 -0.69499999 68 44 32
-10.554 -1.5700001 -0.70200002 132 112 101
-10.555 -1.5650001 -0.71700001 28 9 3
-10.551 -1.564 -0.72299999 22 2 0
-10.563 -1.564 -0.727 78 55 41
-10.568 -1.576 -0.67400002 76 35 7
-10.567 -1.573 -0.671 123 87 53
-10.532 -1.576 -0.65100002 160 123 70
-10.554 -1.576 -0.66900003 115 50 10
-10.571 -1.575 -0.634 198 117 54
-10.679 -1.474 -0.82599998 113 98 93
-10.679 -1.489 -0.83099997 84 49 30
-10.68 -1.4859999 -0.83999997 37 9 0
-10.662 -1.465 -0.80199999 149 110 79
-10.615 -1.404 -0.81099999 34 5 0
-10.656 -1.441 -0.80400002 45 18 7
-10.681 -1.449 -0.76599997 24 9 2
-10.666 -1.439 -0.773 46 13 4
-10.719 -1.561 -1.052 35 4 1
-10.718 -1.5650001 -1.044 190 167 159
-10.718 -1.562 -1.038 186 165 160
-10.729 -1.5549999 -0.801 136 77 45
-10.716 -1.548 -0.81099999 56 20 6
-10.722 -1.5549999 -0.80199999 63 30 13
-10.764 -1.581 -0.75599998 118 100 90
-10.722 -1.576 -0.81800002 74 39 11
-10.721 -1.5829999 -0.79900002 42 19 3
-10.591 -1.4299999 -0.792 175 113 88
-10.594 -1.432 -0.792 85 16 0
-10.647 -1.433 -0.77100003 38 12 0
-10.654 -1.431 -0.76200002 61 33 22
-10.651 -1.437 -0.78799999 103 72 54
-10.628 -1.4170001 -0.801 48 16 1
-10.615 -1.408 -0.79299998 39 16 10
-10.568 -1.385 -0.71700001 43 5 0
-10.573 -1.381 -0.72000003 161 133 111
-10.669 -1.452 -0.70899999 85 42 10
-10.659 -1.448 -0.71600002 126 79 37
-10.663 -1.461 -0.72600001 154 104 81
-10.652 -1.447 -0.70099998 193 149 104
-10.645 -1.428 -0.69700003 153 86 41
-10.634 -1.418 -0.67400002 51 5 0
-10.618 -1.523 -0.72399998 75 50 30
-10.62 -1.404 -0.69800001 173 90 40
-10.662 -1.473 -1.045 20 0 0
-10.65 -1.4579999 -1.035 30 9 4
-10.668 -1.49 -1.049 153 138 133
-10.64 -1.454 -1.027 147 124 110
-10.639 -1.4529999 -1.03 70 44 31
-10.647 -1.452 -1.013 80 62 52
-10.645 -1.446 -0.99400002 34 13 8
-10.648 -1.4529999 -1.0039999 114 89 82
-10.6 -1.47 -1.043 21 2 0
-10.623 -1.545 -1.061 61 27 17
-10.618 -1.54 -1.059 46 10 0
-10.637 -1.5470001 -1.064 10 0 0
-10.712 -1.546 -1.053 18 0 0
-10.675 -1.511 -1.056 110 96 95
-10.686 -1.52 -1.046 42 9 0
-10.671 -1.511 -1.059 164 145 139
-10.661 -1.499 -1.053 52 16 2
-10.696 -1.5470001 -1.059 159 136 128
-10.674 -1.523 -1.04 22 1 0
-10.687 -1.52 -1.039 15 1 0
-10.667 -1.515 -1.0549999 165 151 148
-10.656 -1.524 -1.045 55 34 29
-10.685 -1.476 -1.0140001 16 1 0
-10.679 -1.47 -1.002 69 46 32
-10.715 -1.541 -1.023 23 8 5
-10.604 -1.581 -1.0089999 30 0 0
-10.618 -1.575 -0.99800003 19 1 0
-10.6 -1.575 -1.006 56 35 14
-10.609 -1.391 -0.88999999 132 112 103
-10.611 -1.4 -0.87300003 19 1 0
-10.609 -1.395 -0.87400001 35 14 9
-10.611 -1.413 -0.87599999 115 96 89
-10.621 -1.415 -0.83099997 64 37 20
-10.616 -1.404 -0.861 61 27 17
-10.62 -1.41 -0.87599999 52 30 19
-10.613 -1.507 -0.89200002 40 21 15
-10.613 -1.499 -0.90200001 18 2 2
-10.628 -1.5039999 -0.88499999 26 1 0
-10.619 -1.511 -0.87699997 65 35 25
-10.627 -1.508 -0.87099999 30 14 17
-10.644 -1.493 -0.89099997 28 10 6
-10.63 -1.51 -0.89700001 68 36 15
-10.641 -1.506 -0.89999998 56 28 16
-10.625 -1.488 -0.90600002 21 0 0
-10.61 -1.459 -0.861 119 87 76
-10.606 -1.454 -0.85500002 29 9 10
-10.617 -1.462 -0.85699999 33 8 1
-10.621 -1.48 -0.866 60 28 15
-10.633 -1.549 -0.96499997 43 15 1
-10.628 -1.5549999 -0.96799999 14 0 0
-10.586 -1.427 -0.81800002 110 92 90
-10.618 -1.466 -0.86699998 21 6 0
-10.631 -1.51 -0.89399999 95 67 63
-10.612 -1.3940001 -0.87199998 91 54 28
-10.61 -1.387 -0.88800001 17 2 0
-10.604 -1.401 -0.82099998 71 29 5
-10.61 -1.405 -0.81199998 56 30 17
-10.6 -1.401 -0.81699997 92 65 48
-10.608 -1.405 -0.81400001 54 26 14
-10.589 -1.415 -0.81900001 62 24 3
-10.596 -1.424 -0.838 64 33 13
-10.6 -1.413 -0.84100002 105 57 21
-10.618 -1.415 -0.84399998 85 42 23
-10.674 -1.53 -0.87300003 48 22 9
-10.659 -1.53 -0.86299998 47 27 18
-10.672 -1.535 -0.87 64 36 22
-10.668 -1.5420001 -0.86799997 120 91 85
-10.576 -1.5829999 -0.78200001 46 12 2
-10.571 -1.5829999 -0.77999997 42 8 0
-10.642 -1.485 -0.84100002 26 3 0
-10.636 -1.516 -0.84100002 154 136 124
-10.596 -1.546 -0.84799999 71 14 0
-10.584 -1.559 -0.84200001 7 2 0
-10.589 -1.544 -0.83399999 42 18 8
-10.622 -1.511 -0.86699998 60 29 8
-10.626 -1.524 -0.85399997 49 11 2
-10.624 -1.5140001 -0.852 89 63 50
-10.625 -1.526 -0.85900003 25 5 6
-10.633 -1.472 -0.86500001 37 7 0
-10.638 -1.4450001 -0.80400002 50 6 0
-10.627 -1.438 -0.80699998 56 34 20
-10.625 -1.527 -0.78899997 59 20 13
-10.654 -1.531 -0.85299999 29 10 3
-10.669 -1.503 -0.85900003 177 149 125
-10.665 -1.501 -0.852 80 57 43
-10.675 -1.494 -0.85600001 71 39 24
-10.661 -1.499 -0.85100001 41 18 10
-10.664 -1.501 -0.85699999 30 10 3
-10.654 -1.5039999 -0.87199998 43 14 8
-10.648 -1.494 -0.89300001 84 60 58
-10.642 -1.508 -0.87800002 73 43 33
-10.672 -1.502 -0.86799997 31 3 0
-10.67 -1.507 -0.87199998 29 1 0
-10.659 -1.484 -0.88200003 25 10 5
-10.638 -1.4400001 -0.98199999 53 29 27
-10.642 -1.444 -0.98799998 21 6 3
-10.628 -1.437 -0.96499997 51 29 18
-10.622 -1.508 -0.89600003 66 22 11
-10.626 -1.568 -0.96799999 40 18 4
-10.617 -1.5700001 -0.991 9 1 0
-10.615 -1.561 -0.98699999 106 69 43
-10.626 -1.556 -0.97600001 46 12 2
-10.622 -1.568 -0.96200001 113 89 79
-10.655 -1.457 -0.99900001 26 3 0
-10.654 -1.454 -0.98900002 97 86 82
-10.658 -1.4630001 -0.99299997 29 11 7
-10.661 -1.4630001 -1.016 36 0 0
-10.627 -1.511 -0.72799999 151 105 92
-10.621 -1.518 -0.73000002 102 58 49
-10.644 -1.425 -0.75 83 57 40
-10.631 -1.408 -0.74400002 125 97 85
-10.632 -1.408 -0.73699999 104 64 54
-10.64 -1.431 -0.76200002 54 21 6
-10.635 -1.431 -0.74900001 65 14 0
-10.627 -1.539 -0.74699998 25 2 0
-10.628 -1.525 -0.759 41 13 10
-10.627 -1.524 -0.74299997 35 7 0
-10.633 -1.428 -0.787 65 42 26
-10.617 -1.413 -0.77600002 53 30 12
-10.623 -1.437 -0.801 52 15 0
-10.662 -1.517 -0.83600003 35 12 6
-10.651 -1.51 -0.824 146 131 126
-10.68 -1.437 -0.72899997 125 91 63
-10.659 -1.4220001 -0.71499997 77 63 50
-10.648 -1.421 -0.70700002 100 40 12
-10.639 -1.418 -0.72000003 75 34 16
-10.661 -1.449 -0.73100001 78 38 3
-10.659 -1.448 -0.74000001 60 31 23
-10.64 -1.5039999 -0.796 78 37 19
-10.643 -1.499 -0.792 83 27 4
-10.65 -1.5 -0.80699998 47 25 14
-10.638 -1.515 -0.82200003 119 82 64
-10.57 -1.563 -0.75800002 57 25 14
-10.566 -1.572 -0.75800002 39 12 0
-10.568 -1.573 -0.76200002 39 12 3
-10.576 -1.577 -0.76300001 141 108 93
-10.574 -1.575 -0.755 118 94 82
-10.6 -1.577 -0.69099998 73 41 26
-10.561 -1.568 -0.77700001 30 6 2
-10.567 -1.568 -0.74800003 52 19 4
-10.573 -1.5700001 -0.75 37 10 0
-10.522 -1.586 -0.64499998 85 25 0
-10.526 -1.582 -0.64499998 114 76 57
-10.525 -1.586 -0.64399999 178 115 46
-10.598 -1.569 -0.76300001 87 61 46
-10.611 -1.564 -0.79400003 38 19 13
-10.582 -1.572 -0.74599999 97 58 27
-10.588 -1.572 -0.75099999 145 125 127
-10.585 -1.561 -0.77200001 57 13 2
-10.613 -1.568 -0.67900002 134 81 49
-10.609 -1.5549999 -0.667 87 59 47
-10.609 -1.561 -0.67000002 125 85 59
-10.6 -1.561 -0.69800001 77 63 36
-10.601 -1.559 -0.699 106 53 21
-10.535 -1.5930001 -0.64600003 77 16 0
-10.622 -1.575 -0.77499998 44 1 0
-10.624 -1.592 -0.81 55 23 12
-10.606 -1.581 -0.80299997 58 22 0
-10.62 -1.577 -0.78799999 86 62 50
-10.609 -1.5880001 -0.77700001 87 49 30
-10.612 -1.582 -0.78799999 51 8 0
-10.613 -1.581 -0.79900002 49 22 11
-10.611 -1.582 -0.81699997 50 24 11
-10.757 -1.5930001 -0.80400002 109 46 13
-10.741 -1.595 -0.81 65 19 4
-10.615 -1.474 -1.011 22 7 4
-10.611 -1.485 -0.99699998 121 80 60
-10.615 -1.4859999 -1.006 59 28 8
-10.622 -1.457 -0.99900001 149 128 125
-10.625 -1.449 -0.99699998 139 116 110
-10.584 -1.478 -0.935 38 15 7
-10.598 -1.477 -0.94199997 17 7 6
-10.633 -1.4349999 -0.88200003 45 17 5
-10.637 -1.452 -0.88700002 24 3 0
-10.631 -1.4349999 -0.88499999 90 61 47
-10.659 -1.429 -0.69199997 160 97 62
-10.754 -1.584 -0.74800003 134 117 110
-10.684 -1.4579999 -0.69499999 183 105 30
-10.679 -1.45 -0.68800002 161 141 106
-10.633 -1.527 -0.62800002 69 50 46
-10.677 -1.436 -0.68800002 160 128 87
-10.677 -1.4400001 -0.69199997 53 21 0
-10.627 -1.426 -0.63099998 41 13 9
-10.627 -1.418 -0.634 101 70 52
-10.637 -1.419 -0.63700002 110 74 62
-10.659 -1.454 -0.68599999 189 112 66
-10.615 -1.41 -0.57999998 170 149 132
-10.616 -1.4220001 -0.579 231 138 71
-10.731 -1.552 -1.053 51 13 4
-10.73 -1.553 -1.052 104 53 34
-10.66 -1.432 -0.75199997 64 36 25
-10.664 -1.439 -0.76200002 65 31 22
-10.661 -1.494 -0.88700002 29 5 1
-10.757 -1.572 -0.80599999 100 73 66
-10.763 -1.587 -0.78299999 124 98 83
-10.759 -1.581 -0.79500002 56 20 4
-10.747 -1.5549999 -0.80400002 45 18 7
-10.75 -1.5650001 -0.80500001 111 58 27
-10.74 -1.562 -0.79799998 112 81 63
-10.752 -1.552 -0.86400002 127 109 107
-10.756 -1.553 -0.86299998 112 97 94
-10.744 -1.553 -0.85500002 65 48 41
-10.674 -1.5599999 -0.88 124 106 96
-10.75 -1.572 -0.847 31 3 0
-10.755 -1.576 -0.85000002 90 72 62
-10.73 -1.573 -0.84600002 80 47 32
-10.746 -1.5549999 -0.82300001 51 15 1
-10.742 -1.558 -0.83499998 40 2 0
-10.721 -1.584 -0.995 18 0 0
-10.724 -1.586 -0.991 35 1 0
-10.722 -1.589 -0.99800003 41 6 2
-10.719 -1.586 -0.99800003 22 1 0
-10.727 -1.595 -0.98500001 181 113 64
-10.711 -1.597 -1.011 39 4 0
-10.695 -1.581 -0.977 102 62 26
-10.698 -1.582 -0.96600002 22 4 4
-10.71 -1.543 -1.018 13 0 0
-10.696 -1.55 -1.0140001 170 150 149
-10.71 -1.541 -1.023 162 147 142
-10.699 -1.574 -0.90499997 61 50 46
-10.679 -1.573 -0.91600001 40 15 11
-10.671 -1.577 -0.92799997 55 23 10
-10.662 -1.586 -0.98100001 51 24 17
-10.655 -1.58 -0.93300003 40 10 2
-10.666 -1.5779999 -0.93699998 32 2 0
-10.668 -1.5140001 -0.86900002 172 143 139
-10.611 -1.5829999 -0.85600001 16 1 0
-10.645 -1.576 -0.86299998 70 21 7
-10.642 -1.586 -0.84399998 22 1 0
-10.608 -1.582 -0.84399998 48 20 6
-10.591 -1.571 -0.83099997 48 13 7
-10.594 -1.564 -0.815 57 25 14
-10.592 -1.566 -0.81999999 40 16 12
-10.591 -1.5700001 -0.81800002 103 66 47
-10.598 -1.582 -0.81999999 97 68 70
-10.616 -1.585 -0.852 47 7 7
-10.622 -1.582 -0.89300001 34 9 5
-10.61 -1.585 -0.88700002 15 1 1
-10.604 -1.584 -0.89899999 86 71 66
-10.618 -1.587 -0.86799997 42 10 0
-10.621 -1.5650001 -0.81400001 39 19 12
-10.628 -1.5700001 -0.81400001 32 5 0
-10.639 -1.561 -0.81900001 29 7 0
-10.633 -1.5650001 -0.81900001 61 25 13
-10.639 -1.5650001 -0.81900001 64 44 35
-10.605 -1.562 -0.80699998 91 72 66
-10.602 -1.5829999 -0.82599998 29 5 3
-10.624 -1.535 -0.84799999 16 2 2
-10.632 -1.536 -0.86900002 39 15 5
-10.625 -1.421 -0.85299999 25 0 0
-10.684 -1.485 -0.84600002 77 50 33
-10.68 -1.487 -0.85000002 52 22 11
-10.677 -1.485 -0.85900003 37 14 0
-10.594 -1.568 -0.66000003 140 100 75
-10.588 -1.566 -0.65899998 70 24 0
-10.598 -1.569 -0.66100001 191 153 130
-10.608 -1.5599999 -0.66100001 170 107 56
-10.615 -1.573 -0.67199999 152 113 84
-10.613 -1.548 -0.65200001 210 193 175
-10.531 -1.601 -0.63499999 59 27 14
-10.553 -1.5700001 -0.699 32 12 1
-10.575 -1.5650001 -0.62400001 214 165 107
-10.552 -1.561 -0.61900002 183 151 126
-10.589 -1.54 -0.63099998 255 223 173
-10.674 -1.5420001 -0.792 45 28 21
-10.671 -1.539 -0.792 149 85 50
-10.678 -1.535 -0.79500002 63 36 29
-10.663 -1.534 -0.78500003 90 61 53
-10.62 -1.5650001 -0.76899999 61 17 6
-10.633 -1.576 -0.75999999 45 25 16
-10.621 -1.576 -0.78600001 85 34 5
-10.717 -1.559 -0.80400002 131 70 39
-10.686 -1.548 -0.833 101 56 33
-10.683 -1.543 -0.833 105 73 58
-10.691 -1.546 -0.83499998 40 5 3
-10.673 -1.554 -0.83600003 106 71 51
-10.647 -1.535 -0.78799999 52 21 1
-10.647 -1.535 -0.79400003 54 22 7
-10.636 -1.563 -0.838 25 0 0
-10.637 -1.5549999 -0.84100002 46 4 0
-10.64 -1.545 -0.84500003 23 2 1
-10.623 -1.5650001 -0.85000002 51 8 0
-10.6 -1.5549999 -0.68300003 110 63 35
-10.617 -1.518 -0.71700001 77 28 14
-10.586 -1.569 -0.69400001 132 65 20
-10.623 -1.5089999 -0.63200003 253 228 198
-10.614 -1.511 -0.64300001 99 64 44
-10.614 -1.529 -0.64700001 255 227 187
-10.618 -1.528 -0.65399998 92 58 21
-10.563 -1.551 -0.63099998 161 113 67
-10.557 -1.546 -0.62900001 133 103 67
-10.591 -1.414 -0.602 115 94 75
-10.596 -1.399 -0.61000001 80 57 41
-10.519 -1.55 -0.64399999 111 53 15
-10.517 -1.553 -0.65100002 77 21 0
-10.562 -1.391 -0.69 152 103 45
-10.607 -1.505 -0.62300003 146 125 96
-10.606 -1.489 -0.62900001 78 50 36
-10.617 -1.499 -0.62599999 141 102 73
-10.581 -1.513 -0.62900001 184 142 94
-10.572 -1.515 -0.63800001 255 215 167
-10.554 -1.553 -0.62099999 128 80 31
-10.615 -1.444 -0.60399997 130 78 41
-10.615 -1.437 -0.588 175 116 56
-10.633 -1.408 -0.60900003 41 15 2
-10.624 -1.41 -0.63200003 115 89 76
-10.628 -1.404 -0.60299999 51 18 0
-10.628 -1.414 -0.63599998 86 53 38
-10.624 -1.4119999 -0.63800001 98 72 59
-10.625 -1.414 -0.64300001 77 54 40
-10.627 -1.416 -0.64600003 36 7 1
-10.611 -1.397 -0.61299998 131 110 93
-10.611 -1.387 -0.60299999 83 65 45
-10.598 -1.399 -0.60500002 75 51 51
-10.619 -1.423 -0.64600003 119 65 29
-10.618 -1.419 -0.64099997 71 36 16
-10.621 -1.4220001 -0.63999999 96 64 41
-10.593 -1.425 -0.61000001 95 28 0
-10.595 -1.439 -0.61299998 124 80 45
-10.64 -1.421 -0.58999997 148 81 39
-10.643 -1.436 -0.61299998 92 49 32
-10.638 -1.408 -0.60100001 73 31 15
-10.638 -1.409 -0.60399997 101 56 27
-10.569 -1.627 -0.99299997 115 76 37
-10.602 -1.647 -0.99900001 98 53 34
-10.582 -1.614 -1.011 57 21 0
-10.599 -1.557 -1.033 118 85 52
-10.593 -1.576 -1.031 43 21 0
-10.59 -1.556 -1.016 31 2 0
-10.607 -1.5650001 -1.041 46 7 2
-10.592 -1.584 -1.043 105 60 37
-10.596 -1.5779999 -1.015 107 61 35
-10.593 -1.59 -1.022 67 19 0
-10.595 -1.562 -1.013 113 74 41
-10.614 -1.591 -1.006 178 151 134
-10.6 -1.587 -1.008 47 0 0
-10.612 -1.614 -1.045 68 21 1
-10.588 -1.627 -1.024 95 26 0
-10.589 -1.619 -1.022 123 45 6
-10.585 -1.631 -1.018 143 62 19
-10.589 -1.63 -1.023 95 29 0
-10.607 -1.5930001 -1.067 40 17 9
-10.593 -1.602 -1.027 108 42 18
-10.645 -1.559 -1.062 71 31 6
-10.683 -1.5829999 -1.056 29 0 0
-10.675 -1.58 -1.049 34 1 0
-10.663 -1.59 -1.0369999 80 32 9
-10.695 -1.567 -1.058 24 0 0
-10.543 -1.597 -0.62 51 5 0
-10.531 -1.552 -0.61900002 156 73 21
-10.62 -1.584 -0.76499999 89 36 0
-10.611 -1.59 -0.773 135 97 60
-10.609 -1.582 -0.75599998 105 69 55
-10.608 -1.5829999 -0.75800002 45 11 1
-10.745 -1.573 -0.79500002 82 53 45
-10.736 -1.597 -0.83600003 117 81 47
-10.571 -1.564 -0.73500001 34 7 0
-10.571 -1.557 -0.736 143 88 57
-10.557 -1.568 -0.70300001 71 31 6
-10.577 -1.579 -0.68300003 125 92 73
-10.569 -1.575 -0.67900002 137 107 96
-10.559 -1.5650001 -0.72299999 30 10 0
-10.559 -1.5599999 -0.72299999 69 43 30
-10.56 -1.564 -0.73199999 38 11 4
-10.523 -1.572 -0.648 198 127 75
-10.541 -1.572 -0.66900003 87 64 46
-10.54 -1.5700001 -0.66900003 97 71 56
-10.544 -1.571 -0.67500001 87 65 52
-10.552 -1.554 -0.68000001 109 41 6
-10.676 -1.4680001 -0.81599998 87 76 70
-10.679 -1.477 -0.829 18 0 0
-10.681 -1.475 -0.824 91 76 69
-10.651 -1.502 -0.79799998 87 54 35
-10.646 -1.465 -0.77999997 63 30 11
-10.658 -1.4809999 -0.796 39 4 2
-10.696 -1.543 -0.82999998 29 6 0
-10.71 -1.553 -0.81400001 81 24 4
-10.692 -1.536 -0.82599998 96 36 10
-10.696 -1.539 -0.83399999 42 9 0
-10.679 -1.485 -0.82499999 51 21 13
-10.667 -1.461 -0.80599999 87 41 17
-10.613 -1.4 -0.801 36 18 18
-10.66 -1.472 -0.78899997 40 4 0
-10.64 -1.437 -0.792 33 11 0
-10.656 -1.438 -0.79500002 71 26 5
-10.66 -1.442 -0.787 132 115 105
-10.668 -1.443 -0.77399999 52 25 4
-10.715 -1.561 -1.0549999 26 0 0
-10.716 -1.5650001 -1.038 56 20 4
-10.716 -1.5650001 -1.033 89 51 32
-10.727 -1.553 -0.80500001 127 64 29
-10.729 -1.59 -0.81099999 127 91 55
-10.679 -1.525 -0.83899999 37 9 0
-10.701 -1.543 -0.84799999 97 80 73
-10.708 -1.538 -0.838 30 6 0
-10.713 -1.5470001 -0.83899999 126 109 102
-10.723 -1.548 -0.81900001 64 41 27
-10.59 -1.395 -0.76499999 43 17 4
-10.591 -1.395 -0.75999999 54 28 15
-10.588 -1.395 -0.76200002 47 21 8
-10.589 -1.395 -0.76800001 38 12 0
-10.594 -1.385 -0.787 81 53 31
-10.589 -1.381 -0.787 94 63 34
-10.595 -1.397 -0.75800002 33 14 7
-10.589 -1.395 -0.75700003 117 91 78
-10.597 -1.431 -0.79100001 102 66 44
-10.607 -1.408 -0.77200001 53 16 0
-10.63 -1.4220001 -0.79100001 48 16 5
-10.614 -1.4069999 -0.78799999 60 16 3
-10.625 -1.413 -0.80900002 47 23 11
-10.603 -1.398 -0.75099999 43 30 0
-10.597 -1.397 -0.77600002 47 21 8
-10.557 -1.387 -0.70300001 130 91 74
-10.573 -1.3789999 -0.71499997 115 93 80
-10.587 -1.376 -0.70200002 146 112 84
-10.591 -1.386 -0.70099998 153 124 108
-10.672 -1.442 -0.70999998 62 10 0
-10.671 -1.437 -0.70999998 73 27 11
-10.655 -1.443 -0.713 57 25 2
-10.657 -1.455 -0.70300001 124 71 40
-10.63 -1.413 -0.67199999 149 74 35
-10.605 -1.401 -0.68099999 127 83 46
-10.595 -1.39 -0.68099999 108 50 10
-10.594 -1.388 -0.68000001 53 24 8
-10.644 -1.419 -0.70200002 100 63 37
-10.615 -1.414 -0.685 131 97 70
-10.612 -1.411 -0.68800002 122 86 50
-10.643 -1.416 -0.68300003 83 50 33
-10.673 -1.488 -1.049 18 0 0
-10.644 -1.485 -1.052 25 14 10
-10.615 -1.471 -1.0470001 28 8 0
-10.618 -1.465 -1.046 44 25 18
-10.603 -1.507 -1.061 16 1 0
-10.621 -1.492 -1.058 35 18 10
-10.605 -1.508 -1.062 48 34 33
-10.622 -1.4579999 -1.0039999 19 0 0
-10.59 -1.461 -1.02 22 6 6
-10.603 -1.466 -1.034 53 20 3
-10.618 -1.467 -1.041 22 3 0
-10.677 -1.4809999 -1.0420001 145 126 120
-10.674 -1.5140001 -1.057 20 0 0
-10.667 -1.516 -1.061 158 141 134
-10.715 -1.539 -1.022 140 107 90
-10.724 -1.5369999 -1.012 125 106 100
-10.716 -1.5190001 -1.012 129 111 107
-10.677 -1.529 -1.028 90 68 47
-10.678 -1.541 -1.03 157 122 116
-10.655 -1.536 -1.0549999 62 25 19
-10.648 -1.5369999 -1.041 96 57 26
-10.66 -1.552 -1.057 8 0 0
-10.664 -1.558 -1.058 104 56 42
-10.664 -1.559 -1.0549999 51 33 29
-10.663 -1.591 -1.0319999 151 110 82
-10.657 -1.592 -1.031 140 98 76
-10.663 -1.584 -1.016 63 49 38
-10.659 -1.58 -1.021 149 105 80
-10.682 -1.587 -0.995 75 29 14
-10.611 -1.586 -1.0089999 48 14 4
-10.656 -1.473 -0.866 49 21 9
-10.656 -1.477 -0.87199998 84 47 28
-10.649 -1.4529999 -0.85500002 32 4 0
-10.639 -1.4579999 -0.86000001 71 43 32
-10.635 -1.448 -0.87 39 0 0
-10.637 -1.4529999 -0.88 93 70 56
-10.648 -1.4579999 -0.85600001 102 47 26
-10.606 -1.388 -0.88700002 97 70 61
-10.611 -1.392 -0.88300002 16 1 0
-10.61 -1.395 -0.87800002 19 0 0
-10.608 -1.411 -0.84399998 48 24 14
-10.613 -1.4119999 -0.83600003 75 28 12
-10.623 -1.4220001 -0.84399998 81 34 8
-10.618 -1.401 -0.87 74 42 29
-10.624 -1.4069999 -0.86500001 38 20 16
-10.612 -1.405 -0.86799997 118 103 100
-10.61 -1.398 -0.88700002 129 110 104
-10.615 -1.405 -0.884 128 109 103
-10.637 -1.466 -0.86699998 36 8 5
-10.645 -1.487 -0.89099997 33 15 11
-10.617 -1.479 -0.87099999 111 78 69
-10.625 -1.474 -0.86799997 30 12 12
-10.617 -1.465 -0.87199998 26 2 0
-10.606 -1.507 -0.89099997 79 47 34
-10.609 -1.51 -0.88700002 32 15 8
-10.604 -1.51 -0.88200003 15 2 0
-10.62 -1.495 -0.90600002 22 1 0
-10.655 -1.48 -0.889 25 8 1
-10.661 -1.4809999 -0.875 49 12 0
-10.656 -1.482 -0.88700002 59 21 2
-10.655 -1.4859999 -0.90899998 36 8 4
-10.666 -1.495 -0.917 86 62 50
-10.657 -1.495 -0.90799999 33 4 0
-10.657 -1.49 -0.91299999 24 0 0
-10.672 -1.483 -0.92199999 97 73 69
-10.678 -1.484 -0.91900003 56 33 17
-10.636 -1.459 -0.84299999 60 39 34
-10.628 -1.462 -0.83600003 93 29 1
-10.619 -1.569 -0.95599997 35 5 3
-10.642 -1.498 -0.917 11 0 0
-10.616 -1.492 -0.94400001 32 10 0
-10.604 -1.4859999 -0.93199998 17 2 0
-10.609 -1.479 -0.93800002 15 0 0
-10.597 -1.452 -0.86000001 25 12 6
-10.6 -1.442 -0.84299999 32 8 8
-10.601 -1.45 -0.87300003 58 36 23
-10.597 -1.449 -0.86400002 13 0 0
-10.597 -1.448 -0.87400001 121 103 91
-10.62 -1.457 -0.83700001 98 70 58
-10.621 -1.455 -0.83200002 50 31 16
-10.611 -1.443 -0.83099997 43 9 0
-10.617 -1.439 -0.82800001 35 8 1
-10.61 -1.4400001 -0.824 44 21 5
-10.602 -1.4400001 -0.80400002 189 148 118
-10.608 -1.437 -0.80400002 104 51 20
-10.654 -1.534 -0.85399997 89 54 34
-10.678 -1.544 -0.87199998 66 4 0
-10.621 -1.562 -0.86799997 62 19 3
-10.59 -1.444 -0.90899998 116 97 82
-10.594 -1.4450001 -0.90200001 66 40 27
-10.602 -1.45 -0.91500002 126 110 95
-10.606 -1.442 -0.90499997 99 71 50
-10.652 -1.495 -0.85399997 40 12 0
-10.644 -1.484 -0.852 43 18 11
-10.603 -1.549 -0.86000001 24 0 0
-10.603 -1.551 -0.86199999 32 7 3
-10.603 -1.543 -0.87900001 24 7 0
-10.63 -1.5319999 -0.85000002 17 0 0
-10.639 -1.4809999 -0.85799998 56 26 18
-10.637 -1.47 -0.88200003 23 2 0
-10.644 -1.472 -0.89999998 28 5 0
-10.646 -1.447 -0.81400001 72 26 13
-10.663 -1.5140001 -0.89700001 19 0 0
-10.668 -1.505 -0.89399999 25 0 0
-10.644 -1.518 -0.83600003 127 113 104
-10.648 -1.522 -0.84600002 34 13 8
-10.691 -1.482 -1.008 26 7 3
-10.684 -1.488 -0.94099998 32 2 0
-10.67 -1.4859999 -0.93300003 51 27 17
-10.683 -1.49 -0.93900001 98 70 58
-10.676 -1.484 -0.95700002 34 5 0
-10.677 -1.487 -0.94800001 31 11 4
-10.672 -1.475 -0.96100003 51 24 15
-10.652 -1.479 -0.87699997 44 22 9
-10.652 -1.477 -0.87099999 32 8 0
-10.656 -1.479 -0.875 61 14 0
-10.706 -1.506 -0.949 124 99 94
-10.698 -1.512 -0.958 25 2 0
-10.689 -1.5140001 -0.93900001 28 9 5
-10.691 -1.518 -0.93599999 33 11 0
-10.702 -1.497 -0.95599997 28 8 1
-10.706 -1.507 -0.96899998 41 12 6
-10.578 -1.464 -0.94499999 17 1 1
-10.57 -1.462 -0.94 33 3 0
-10.591 -1.452 -0.91799998 43 6 0
-10.6 -1.499 -0.91000003 105 71 61
-10.6 -1.51 -0.91399997 110 62 39
-10.603 -1.498 -0.917 48 7 1
-10.609 -1.506 -0.89600003 23 3 0
-10.607 -1.5829999 -0.91900003 61 28 21
-10.611 -1.574 -0.91500002 47 26 9
-10.616 -1.581 -0.93099999 62 31 10
-10.639 -1.449 -0.99800003 11 0 0
-10.665 -1.474 -0.98199999 28 10 0
-10.664 -1.471 -0.972 111 87 83
-10.667 -1.469 -0.96799999 63 11 0
-10.667 -1.476 -0.99000001 14 3 1
-10.658 -1.459 -1.007 28 7 2
-10.623 -1.525 -0.73400003 73 34 17
-10.674 -1.442 -0.75400001 69 27 13
-10.637 -1.438 -0.76700002 88 71 63
-10.625 -1.536 -0.74400002 64 38 23
-10.633 -1.527 -0.77499998 34 4 2
-10.635 -1.527 -0.773 34 5 0
-10.641 -1.53 -0.78100002 80 42 21
-10.636 -1.53 -0.75800002 22 1 0
-10.626 -1.521 -0.75199997 118 61 41
-10.614 -1.438 -0.79799998 140 120 113
-10.635 -1.438 -0.79299998 73 51 37
-10.637 -1.505 -0.78600001 72 47 40
-10.67 -1.527 -0.83899999 49 18 0
-10.665 -1.531 -0.83999997 87 60 43
-10.664 -1.527 -0.83399999 144 127 120
-10.637 -1.516 -0.78600001 131 102 88
-10.663 -1.418 -0.70999998 98 52 26
-10.667 -1.4630001 -0.73400003 161 113 99
-10.66 -1.472 -0.75199997 72 29 20
-10.654 -1.456 -0.75 115 93 80
-10.645 -1.4400001 -0.73799998 135 97 78
-10.569 -1.413 -0.69499999 153 91 50
-10.559 -1.403 -0.70300001 130 96 69
-10.573 -1.414 -0.699 155 100 61
-10.581 -1.416 -0.72000003 144 115 97
-10.58 -1.419 -0.70300001 171 104 62
-10.586 -1.42 -0.72399998 107 80 63
-10.586 -1.397 -0.75099999 45 21 11
-10.585 -1.388 -0.74000001 55 34 31
-10.59 -1.395 -0.75199997 33 6 0
-10.59 -1.395 -0.755 36 9 0
-10.617 -1.398 -0.71499997 133 72 28
-10.635 -1.5140001 -0.792 93 55 44
-10.639 -1.5039999 -0.79400003 117 89 77
-10.596 -1.557 -0.81800002 49 16 7
-10.602 -1.551 -0.833 28 9 5
-10.59 -1.5549999 -0.83099997 26 4 0
-10.573 -1.58 -0.77100003 60 29 8
-10.587 -1.5650001 -0.82800001 21 0 0
-10.562 -1.568 -0.78500003 49 26 18
-10.563 -1.569 -0.78100002 37 16 15
-10.577 -1.576 -0.787 23 0 0
-10.559 -1.567 -0.78100002 37 13 9
-10.586 -1.579 -0.79699999 99 46 30
-10.585 -1.5779999 -0.80299997 55 21 9
-10.606 -1.569 -0.76899999 79 57 46
-10.606 -1.567 -0.77899998 33 12 7
-10.582 -1.566 -0.78600001 44 9 5
-10.53 -1.594 -0.64499998 166 95 53
-10.535 -1.591 -0.64600003 143 75 10
-10.586 -1.569 -0.76099998 85 37 15
-10.738 -1.598 -0.80000001 56 9 3
-10.611 -1.493 -0.93400002 25 11 8
-10.624 -1.501 -0.93199998 26 3 0
-10.592 -1.488 -0.91600001 24 0 0
-10.599 -1.4910001 -0.92900002 24 9 6
-10.601 -1.507 -0.903 26 8 4
-10.583 -1.456 -0.93199998 20 4 4
-10.589 -1.456 -0.93199998 14 0 0
-10.583 -1.46 -0.93599999 43 13 3
-10.595 -1.4680001 -1.01 8 0 0
-10.615 -1.469 -1.0190001 66 29 10
-10.596 -1.469 -1.015 17 7 5
-10.615 -1.4680001 -1.026 128 90 71
-10.581 -1.471 -0.921 132 75 46
-10.598 -1.4910001 -0.93300003 98 52 26
-10.612 -1.446 -0.94499999 28 3 0
-10.627 -1.442 -0.95700002 53 30 24
-10.618 -1.4450001 -0.93900001 62 40 26
-10.617 -1.421 -0.89300001 18 0 0
-10.617 -1.42 -0.89700001 48 28 19
-10.641 -1.437 -0.86699998 47 15 0
