ply
format ascii 1.0
comment PCL generated
element vertex 1241
property float x
property float y
property float z
property uchar red
property uchar green
property uchar blue
element camera 0
property float view_px
property float view_py
property float view_pz
property float x_axisx
property float x_axisy
property float x_axisz
property float y_axisx
property float y_axisy
property float y_axisz
property float z_axisx
property float z_axisy
property float z_axisz
property float focal
property float scalex
property float scaley
property float centerx
property float centery
property int viewportx
property int viewporty
property float k1
property float k2
end_header
0.234 2.8659999 -0.48699999 158 94 32
0.214 2.8529999 -0.49900001 213 151 94
0.21799999 2.858 -0.50400001 199 143 106
0.30000001 2.8559999 -0.583 91 54 35
0.33899999 2.8559999 -0.43000001 246 207 112
0.33199999 2.8210001 -0.46000001 174 159 156
0.34999999 2.8829999 -0.44800001 190 151 120
0.20900001 2.9189999 -0.51499999 119 75 48
0.211 2.9349999 -0.50400001 108 61 33
0.213 2.901 -0.51800001 82 54 32
0.214 2.9100001 -0.51899999 73 38 18
0.211 2.8740001 -0.50999999 186 133 91
0.20900001 2.868 -0.509 131 59 0
0.214 2.8710001 -0.509 185 162 131
0.208 2.8670001 -0.50800002 210 139 73
0.21699999 2.865 -0.50599998 152 84 23
0.32300001 2.8629999 -0.55000001 143 131 133
0.30199999 2.8870001 -0.50300002 48 28 21
0.30500001 2.882 -0.50800002 40 13 6
0.21699999 2.8469999 -0.73699999 242 194 128
0.27700001 2.8269999 -0.78100002 79 47 34
0.28299999 2.826 -0.778 78 61 45
0.28999999 2.8329999 -0.78399998 57 34 18
0.26899999 2.8110001 -0.792 88 71 41
0.21699999 2.8210001 -0.67299998 155 102 68
0.204 2.826 -0.68000001 178 122 87
0.213 2.835 -0.68400002 143 99 72
0.214 2.8410001 -0.671 183 143 82
0.214 2.8510001 -0.67000002 111 82 78
0.20900001 2.835 -0.66500002 190 123 68
0.193 2.836 -0.66900003 166 89 35
0.191 2.819 -0.88099998 153 127 110
0.23199999 2.8940001 -0.81699997 82 51 30
0.241 2.8840001 -0.80900002 151 82 40
0.205 2.8180001 -0.84899998 255 209 122
0.237 2.852 -0.74000001 101 68 49
0.23899999 2.855 -0.745 136 133 144
0.197 2.846 -0.74199998 218 158 95
0.19499999 2.8629999 -0.74699998 97 69 29
0.199 2.868 -0.74000001 169 138 91
0.214 2.881 -0.77499998 45 32 26
0.211 2.869 -0.76099998 215 163 106
0.199 2.8369999 -0.85900003 55 31 19
0.211 2.8399999 -0.86199999 125 104 75
0.19499999 2.823 -0.85799998 126 87 58
0.31200001 2.8169999 -0.80299997 129 66 22
0.31 2.8080001 -0.79900002 138 123 116
0.382 2.6800001 -0.755 80 41 12
0.38299999 2.6659999 -0.755 94 72 59
0.259 2.809 -0.81699997 188 149 106
0.25999999 2.813 -0.81800002 162 111 48
0.29800001 2.8039999 -0.82599998 186 143 101
0.294 2.8110001 -0.78600001 131 78 46
0.301 2.8139999 -0.778 100 58 20
0.36399999 2.839 -0.736 86 55 35
0.37400001 2.839 -0.741 84 33 6
0.36700001 2.8380001 -0.73000002 199 172 155
0.389 2.832 -0.74299997 121 97 73
0.366 2.848 -0.75199997 133 80 46
0.361 2.8410001 -0.73699999 137 87 50
0.26899999 2.8050001 -0.79799998 123 113 88
0.273 2.8099999 -0.792 106 87 45
0.25999999 2.812 -0.79900002 142 81 34
0.223 2.8440001 -0.74900001 81 33 10
0.235 2.852 -0.76300001 83 57 34
0.22400001 2.8929999 -0.80299997 140 85 21
0.221 2.891 -0.80699998 91 60 39
0.35299999 2.8789999 -0.72399998 255 216 181
0.322 2.918 -0.84899998 153 109 72
0.31799999 2.9200001 -0.85000002 70 27 0
0.237 2.8889999 -0.80800003 174 152 141
0.23899999 2.8540001 -0.68900001 79 39 4
0.32600001 2.8989999 -0.95300001 76 40 8
0.32800001 2.8989999 -0.95300001 165 117 68
0.32100001 2.904 -0.94700003 65 47 35
0.31400001 2.902 -0.94800001 136 140 151
0.31299999 2.892 -0.95899999 55 32 18
0.30700001 2.9089999 -0.94300002 79 51 39
0.33700001 2.8970001 -0.95200002 54 27 8
0.34400001 2.8889999 -0.96100003 107 47 13
0.34400001 2.9030001 -0.949 153 74 17
0.35499999 2.8859999 -0.95899999 139 136 145
0.35600001 2.885 -0.95200002 255 233 196
0.36700001 2.875 -0.95200002 168 143 113
0.37200001 2.848 -1.012 184 143 87
0.37099999 2.8340001 -1.008 218 199 192
0.36700001 2.8570001 -1.0089999 199 132 54
0.37200001 2.858 -1.013 250 170 73
0.35699999 2.8829999 -0.94599998 129 88 66
0.35699999 2.8399999 -0.90600002 53 17 1
0.34900001 2.8429999 -0.90799999 100 48 24
0.35100001 2.849 -0.90200001 66 36 26
0.34900001 2.8889999 -0.93099999 139 111 97
0.34900001 2.885 -0.92799997 89 63 46
0.38699999 2.687 -0.588 158 101 14
0.38699999 2.6919999 -0.588 191 143 95
0.38999999 2.688 -0.58899999 232 170 85
0.39399999 2.694 -0.58899999 221 160 80
0.39500001 2.697 -0.58999997 255 199 125
0.29699999 2.823 -0.47299999 106 62 33
0.317 2.832 -0.47600001 173 124 84
0.32600001 2.832 -0.477 169 120 79
0.32600001 2.8280001 -0.47600001 132 93 54
0.32800001 2.8310001 -0.46900001 255 231 159
0.35299999 2.846 -0.43900001 106 68 45
0.45100001 2.8740001 -0.50400001 91 60 29
0.43700001 2.8889999 -0.528 96 55 33
0.428 2.8900001 -0.523 106 55 26
0.43799999 2.8789999 -0.49700001 137 103 57
0.43599999 2.892 -0.51099998 111 76 56
0.43200001 2.8900001 -0.52399999 118 69 37
0.42699999 2.901 -0.51099998 151 98 56
0.41999999 2.8369999 -0.5 99 60 31
0.391 2.8429999 -0.51099998 185 133 76
0.442 2.865 -0.49700001 202 152 101
0.43399999 2.862 -0.491 162 128 82
0.43700001 2.862 -0.49399999 180 140 70
0.447 2.875 -0.5 70 26 0
0.31400001 2.869 -0.60600001 237 187 118
0.31600001 2.8599999 -0.611 40 17 11
0.31200001 2.8699999 -0.60900003 73 54 50
0.31 2.865 -0.61400002 73 42 21
0.31799999 2.8770001 -0.60500002 91 74 67
0.31299999 2.8599999 -0.62400001 245 196 166
0.308 2.8659999 -0.62800002 68 42 29
0.41100001 2.8710001 -0.62400001 78 45 28
0.22400001 2.892 -0.671 58 41 34
0.227 2.891 -0.667 47 29 27
0.228 2.882 -0.68300003 41 22 18
0.29699999 2.8610001 -0.66799998 47 20 11
0.228 2.892 -0.65700001 103 83 76
0.23100001 2.888 -0.63999999 41 16 11
0.359 2.8610001 -0.71399999 205 151 104
0.36500001 2.8499999 -0.70700002 122 78 43
0.366 2.872 -0.71600002 211 176 144
0.315 2.902 -0.85000002 152 100 43
0.366 2.8380001 -0.79500002 138 124 89
0.36700001 2.8269999 -0.81699997 159 103 66
0.37599999 2.8299999 -0.80199999 140 87 33
0.38100001 2.846 -0.72100002 159 112 82
0.366 2.8440001 -0.72299999 78 31 1
0.39899999 2.862 -0.65499997 211 174 148
0.403 2.8559999 -0.653 64 39 19
0.38100001 2.8740001 -0.74699998 70 40 12
0.389 2.8670001 -0.745 84 60 48
0.38800001 2.868 -0.75300002 150 149 145
0.38600001 2.8729999 -0.80900002 78 28 3
0.329 2.8570001 -0.88099998 218 166 118
0.338 2.8529999 -0.87599999 112 62 37
0.33000001 2.845 -0.88499999 192 136 79
0.33000001 2.859 -0.86299998 159 124 102
0.39399999 2.8499999 -0.796 97 59 40
0.39399999 2.8510001 -0.80400002 159 129 105
0.39500001 2.855 -0.79799998 121 93 71
0.389 2.872 -0.72600001 124 66 44
0.38999999 2.8710001 -0.71700001 76 44 31
0.41 2.6659999 -0.71100003 255 202 144
0.40400001 2.6760001 -0.70599997 173 155 141
0.40400001 2.677 -0.71100003 128 105 99
0.40700001 2.6719999 -0.71399999 140 127 119
0.39300001 2.6789999 -0.73400003 53 29 17
0.389 2.6700001 -0.73900002 65 37 26
0.389 2.6819999 -0.741 42 17 12
0.40400001 2.678 -0.71899998 255 229 172
0.40000001 2.6889999 -0.72600001 142 84 36
0.40200001 2.6860001 -0.70999998 91 55 23
0.391 2.846 -0.75400001 185 144 90
0.398 2.8629999 -0.736 167 126 98
0.40200001 2.8499999 -0.71499997 160 148 148
0.36399999 2.7279999 -0.81699997 196 149 105
0.38 2.733 -0.815 122 87 65
0.37200001 2.727 -0.833 94 66 44
0.37799999 2.8429999 -0.78600001 67 48 41
0.384 2.6919999 -0.68699998 117 75 27
0.38699999 2.6889999 -0.68400002 57 30 19
0.38800001 2.681 -0.68199998 72 52 45
0.38800001 2.684 -0.68599999 71 43 31
0.40200001 2.6719999 -0.63300002 105 63 38
0.38800001 2.691 -0.66299999 49 18 0
0.39199999 2.688 -0.65499997 136 93 58
0.42899999 2.681 -0.62099999 152 90 39
0.38699999 2.687 -0.68699998 65 36 22
0.38699999 2.6860001 -0.69 89 58 38
0.36899999 2.704 -0.755 55 41 38
0.366 2.7060001 -0.76099998 83 80 87
0.29300001 2.852 -0.70599997 87 50 32
0.30199999 2.865 -0.70899999 112 62 29
0.29699999 2.8659999 -0.70099998 150 92 52
0.377 2.6860001 -0.67199999 165 132 113
0.222 2.8369999 -0.67500001 62 21 0
0.226 2.855 -0.68699998 46 13 0
0.17299999 2.8840001 -0.50599998 109 59 22
0.182 2.885 -0.48800001 175 114 59
0.19400001 2.872 -0.51200002 207 139 100
0.21600001 2.849 -0.653 154 93 36
0.213 2.8559999 -0.64999998 249 208 178
0.176 2.8970001 -0.52399999 157 107 58
0.191 2.845 -0.65600002 182 121 54
0.189 2.839 -0.66500002 118 72 23
0.191 2.846 -0.65399998 194 145 79
0.205 2.839 -0.65600002 163 84 25
0.241 2.8710001 -0.68000001 45 11 1
0.23100001 2.8659999 -0.67000002 72 44 23
0.28299999 2.892 -0.477 34 5 0
0.287 2.8870001 -0.48800001 70 38 25
0.285 2.888 -0.48100001 61 24 6
0.32699999 2.865 -0.498 74 28 0
0.32800001 2.865 -0.49000001 247 200 154
0.329 2.859 -0.498 168 105 62
0.28200001 2.8699999 -0.44 189 182 154
0.28 2.845 -0.44499999 255 238 209
0.40900001 2.858 -0.565 137 111 96
0.421 2.8599999 -0.57200003 56 40 40
0.40900001 2.8570001 -0.56800002 89 82 56
0.40000001 2.855 -0.57200003 119 68 23
0.405 2.855 -0.57499999 45 34 12
0.41499999 2.8729999 -0.59100002 42 8 0
0.43900001 2.8870001 -0.52499998 176 132 107
0.40400001 2.882 -0.565 36 17 11
0.40099999 2.8870001 -0.56900001 28 4 0
0.42300001 2.904 -0.51700002 95 62 43
0.315 2.8770001 -0.58399999 64 47 40
0.317 2.8759999 -0.58399999 78 42 20
0.31400001 2.875 -0.597 104 57 5
0.31200001 2.8770001 -0.60100001 73 56 48
0.30399999 2.875 -0.59200001 87 38 5
0.40099999 2.8889999 -0.574 80 57 43
0.32800001 2.8710001 -0.55000001 39 24 21
0.39899999 2.862 -0.61400002 87 56 38
0.405 2.858 -0.61299998 100 84 51
0.40799999 2.855 -0.59799999 143 124 92
0.414 2.661 -0.597 82 46 24
0.421 2.865 -0.48300001 175 130 73
0.41600001 2.8610001 -0.486 145 77 32
0.41100001 2.8900001 -0.48699999 141 90 45
0.396 2.901 -0.493 116 75 47
0.412 2.869 -0.48500001 143 80 36
0.40900001 2.8629999 -0.48699999 218 182 150
0.41499999 2.6570001 -0.61699998 169 132 105
0.32499999 2.8759999 -0.85500002 118 68 31
0.33000001 2.858 -0.86000001 93 64 48
0.34 2.8670001 -0.84899998 245 210 128
0.33700001 2.8640001 -0.85500002 105 60 18
0.33700001 2.8540001 -0.86000001 143 114 98
0.39899999 2.865 -0.66399997 167 151 126
0.40400001 2.869 -0.66900003 45 16 8
0.31099999 2.839 -0.64899999 110 96 96
0.398 2.8640001 -0.66799998 56 25 0
0.39899999 2.865 -0.66600001 73 41 16
0.2 2.869 -0.50400001 214 166 117
0.20200001 2.8989999 -0.514 73 25 5
0.18700001 2.9030001 -0.491 143 93 34
0.206 2.9230001 -0.51200002 86 41 18
0.22499999 2.901 -0.61500001 28 1 0
0.223 2.9030001 -0.61699998 134 117 110
0.22400001 2.904 -0.60799998 40 7 0
0.22499999 2.9059999 -0.60500002 42 10 0
0.22400001 2.902 -0.625 153 136 129
0.222 2.8970001 -0.60299999 37 7 0
0.21799999 2.901 -0.55800003 35 10 3
0.20999999 2.8640001 -0.64200002 35 8 0
0.212 2.865 -0.64399999 142 109 102
0.21699999 2.882 -0.79299998 150 101 58
0.19499999 2.8410001 -0.69199997 60 36 24
0.21600001 2.895 -0.625 174 161 155
0.215 2.8900001 -0.62300003 44 28 12
0.21600001 2.895 -0.62099999 161 150 146
0.222 2.8870001 -0.63999999 23 0 0
0.215 2.885 -0.65200001 165 109 60
0.405 2.868 -0.67299998 107 84 76
0.403 2.858 -0.67199999 79 31 0
0.43599999 2.848 -0.52200001 215 170 139
0.435 2.8369999 -0.52100003 168 125 93
0.41499999 2.8699999 -0.56699997 71 41 30
0.405 2.868 -0.57200003 125 90 52
0.403 2.8829999 -0.57700002 45 12 5
0.40000001 2.8840001 -0.58099997 42 12 2
0.38800001 2.869 -0.48800001 125 83 41
0.37799999 2.8640001 -0.48699999 163 125 88
0.38600001 2.8829999 -0.49200001 182 146 114
0.366 2.8670001 -0.48800001 159 118 86
0.36500001 2.8610001 -0.48800001 154 109 44
0.405 2.8929999 -0.49200001 113 98 91
0.40900001 2.9070001 -0.50700003 184 115 74
0.384 2.888 -0.51200002 136 103 72
0.38100001 2.892 -0.498 131 93 56
0.38499999 2.8840001 -0.495 171 132 93
0.38699999 2.8859999 -0.493 235 194 162
0.38999999 2.895 -0.49599999 73 34 5
0.41800001 2.9000001 -0.49900001 162 134 112
0.333 2.802 -1.045 201 175 160
0.34299999 2.7980001 -1.0369999 185 142 91
0.331 2.7750001 -1.041 131 95 59
0.34 2.773 -1.039 176 150 135
0.36199999 2.701 -0.991 188 180 169
0.359 2.7 -0.99400002 245 211 165
0.36000001 2.6889999 -0.97899997 248 239 208
0.36199999 2.6989999 -0.98400003 103 73 47
0.42300001 2.7 -0.85799998 163 115 69
0.428 2.694 -0.85600001 145 107 71
0.426 2.7119999 -0.86000001 71 45 22
0.426 2.7 -0.86299998 145 126 120
0.354 2.691 -0.96200001 145 114 96
0.34799999 2.852 -0.97000003 92 60 45
0.34900001 2.8540001 -0.97399998 143 94 61
0.34999999 2.862 -0.97000003 89 44 5
0.34299999 2.78 -1 177 152 130
0.34900001 2.7950001 -1.0039999 157 150 131
0.34299999 2.7869999 -1.001 176 101 46
0.25799999 2.7690001 -1.039 193 126 56
0.26100001 2.776 -1.0420001 108 39 0
0.26100001 2.7679999 -1.038 250 188 113
0.296 2.898 -0.456 100 49 18
0.303 2.881 -0.50199997 62 36 21
0.20200001 2.9330001 -0.50999999 95 63 50
0.24699999 2.8840001 -0.49599999 209 149 89
0.21600001 2.8789999 -0.51099998 215 153 96
0.234 2.8929999 -0.48500001 88 37 8
0.24600001 2.895 -0.486 74 36 13
0.23100001 2.8840001 -0.48300001 75 21 0
0.21799999 2.898 -0.47799999 217 177 92
0.21699999 2.888 -0.47600001 219 172 118
0.20999999 2.8900001 -0.479 150 95 65
0.223 2.8970001 -0.47499999 248 215 146
0.221 2.902 -0.479 173 138 57
0.198 2.898 -0.48300001 127 100 79
0.20900001 2.8970001 -0.48100001 198 144 100
0.205 2.8970001 -0.48100001 143 89 53
0.215 2.885 -0.47600001 176 130 106
0.21600001 2.881 -0.47600001 113 66 46
0.204 2.902 -0.48199999 177 140 121
0.20200001 2.8970001 -0.48199999 138 85 53
0.20900001 2.9000001 -0.48199999 237 225 185
0.215 2.8989999 -0.51800001 60 28 3
0.221 2.8929999 -0.51800001 107 78 64
0.236 2.8770001 -0.49900001 133 132 138
0.223 2.9059999 -0.58899999 33 6 0
0.21600001 2.905 -0.59399998 143 124 118
0.21799999 2.904 -0.597 137 118 111
0.221 2.902 -0.57999998 70 42 21
0.221 2.902 -0.58200002 109 81 60
0.17900001 2.885 -0.52499998 112 110 113
0.303 2.8759999 -0.43099999 32 8 0
0.30599999 2.803 -1.043 65 31 19
0.273 2.8380001 -1.053 244 212 129
0.36399999 2.9130001 -0.88800001 178 165 159
0.33700001 2.9059999 -0.94599998 140 71 12
0.333 2.9070001 -0.94199997 56 36 25
0.36300001 2.8959999 -0.87900001 161 113 64
0.37099999 2.902 -0.87 183 135 97
0.34999999 2.8789999 -0.88099998 76 55 38
0.382 2.8559999 -0.85100001 79 45 10
0.368 2.8440001 -1.006 193 169 159
0.34900001 2.8039999 -1.011 69 48 29
0.36500001 2.8610001 -1.031 115 87 66
0.36399999 2.859 -1.033 113 87 74
0.36500001 2.8629999 -1.027 97 66 38
0.36899999 2.8629999 -1.022 170 143 116
0.36700001 2.8659999 -1.018 172 132 96
0.32300001 2.8599999 -1.051 247 181 123
0.31900001 2.8570001 -1.051 68 39 21
0.31600001 2.8710001 -1.04 109 90 75
0.32800001 2.848 -1.053 255 195 128
0.33399999 2.848 -1.054 199 168 148
0.33399999 2.8599999 -1.0369999 65 39 24
0.33500001 2.8499999 -1.0420001 53 30 24
0.359 2.862 -1.031 71 50 45
0.27700001 2.7920001 -1.058 182 134 98
0.31400001 2.9030001 -0.44100001 132 79 47
0.30899999 2.9030001 -0.44 77 37 12
0.31799999 2.908 -0.449 115 69 43
0.34200001 2.8929999 -0.454 179 140 107
0.333 2.892 -0.44999999 117 83 58
0.31 2.878 -0.50599998 41 13 0
0.301 2.882 -0.491 77 57 48
0.296 2.885 -0.491 68 46 35
0.303 2.8800001 -0.47799999 36 16 15
0.31999999 2.8740001 -0.47400001 55 25 15
0.308 2.9070001 -0.46200001 98 64 52
0.31099999 2.9030001 -0.458 159 114 85
0.20299999 2.826 -0.88499999 105 61 22
0.184 2.8239999 -0.87599999 69 54 49
0.26800001 2.845 -1.0549999 40 8 0
0.26899999 2.8410001 -1.045 70 32 0
0.26199999 2.8139999 -1.054 73 36 7
0.31099999 2.878 -1.04 87 38 6
0.31900001 2.8770001 -1.033 106 84 70
0.33399999 2.8759999 -1.031 151 149 150
0.30000001 2.875 -1.0470001 141 97 32
0.31400001 2.9000001 -0.87400001 142 101 73
0.30700001 2.9070001 -0.866 156 114 92
0.31400001 2.8989999 -0.87699997 74 55 40
0.30199999 2.878 -0.86799997 174 149 108
0.296 2.8629999 -0.88200003 176 132 107
0.292 2.8659999 -0.87699997 102 64 27
0.29800001 2.8729999 -0.87400001 128 90 53
0.28099999 2.8699999 -0.89499998 72 54 54
0.30399999 2.875 -0.875 130 91 58
0.30599999 2.918 -0.87300003 59 23 1
0.255 2.8429999 -1.049 88 34 6
0.32300001 2.9130001 -0.89499998 157 131 114
0.32100001 2.895 -0.89300001 67 26 4
0.322 2.8959999 -0.89600003 103 62 34
0.32100001 2.8900001 -0.89300001 136 111 106
0.31799999 2.898 -0.91399997 64 44 33
0.23100001 2.881 -0.82200003 194 163 132
0.23100001 2.8859999 -0.81999999 145 109 73
0.23100001 2.868 -0.81900001 105 41 3
0.23100001 2.8729999 -0.80800003 87 40 0
0.22400001 2.875 -0.81800002 92 57 38
0.241 2.859 -0.89899999 123 122 117
0.234 2.8540001 -0.88800001 172 136 110
0.245 2.8699999 -0.89399999 167 104 33
0.234 2.8499999 -0.88999999 206 151 86
0.31900001 2.9300001 -0.875 48 24 14
0.31200001 2.9200001 -0.86000001 109 50 6
0.31600001 2.925 -0.85600001 183 180 189
0.30599999 2.9130001 -0.86699998 70 21 0
0.30599999 2.9130001 -0.86400002 132 85 55
0.329 2.9330001 -0.86299998 77 38 9
0.33700001 2.925 -0.85900003 205 186 172
0.421 2.7030001 -0.63499999 74 55 25
0.41800001 2.7190001 -0.62199998 177 126 79
0.43000001 2.701 -0.62699997 44 21 7
0.43000001 2.694 -0.63099998 44 32 32
0.38800001 2.6849999 -0.68800002 99 68 50
0.40000001 2.6530001 -0.72000003 62 32 21
0.384 2.6570001 -0.72799999 114 78 56
0.38699999 2.655 -0.72799999 82 49 30
0.382 2.825 -0.84500003 234 180 108
0.37599999 2.812 -0.838 191 132 76
0.40599999 2.7190001 -0.85100001 253 224 194
0.40599999 2.7149999 -0.85100001 145 111 83
0.38699999 2.7279999 -0.78899997 105 94 92
0.39199999 2.7190001 -0.78100002 216 199 189
0.38600001 2.734 -0.78899997 108 106 111
0.331 2.7030001 -0.80699998 87 52 20
0.345 2.7149999 -0.80800003 75 41 13
0.34099999 2.7119999 -0.80500001 188 143 110
0.33199999 2.7119999 -0.81099999 147 115 76
0.336 2.7030001 -0.80599999 220 190 154
0.366 2.7030001 -0.76300001 77 72 78
0.36500001 2.7079999 -0.78299999 123 121 126
0.366 2.6960001 -0.76899999 110 101 102
0.39199999 2.7160001 -0.80500001 193 158 120
0.38999999 2.7130001 -0.78200001 79 45 18
0.38999999 2.7160001 -0.78200001 125 93 70
0.38499999 2.836 -0.73400003 175 134 88
0.398 2.8529999 -0.81699997 153 96 17
0.36399999 2.823 -0.82499999 58 34 0
0.36300001 2.8069999 -0.83399999 185 161 135
0.38299999 2.835 -0.81 29 21 8
0.37 2.698 -0.72299999 78 47 19
0.37900001 2.701 -0.73699999 41 15 0
0.398 2.8380001 -0.74000001 244 218 193
0.38600001 2.855 -0.699 162 122 96
0.34299999 2.8759999 -1.022 50 31 24
0.33000001 2.8759999 -1.027 161 161 161
0.31200001 2.8840001 -1.025 37 20 12
0.31200001 2.8840001 -1.028 45 28 20
0.32600001 2.8310001 -0.88599998 117 90 71
0.31400001 2.826 -0.89099997 41 28 9
0.34 2.7349999 -0.84600002 139 82 27
0.34599999 2.7449999 -0.85000002 138 66 28
0.34799999 2.7479999 -0.84500003 43 26 18
0.389 2.671 -0.77700001 115 109 113
0.389 2.6719999 -0.76899999 125 110 103
0.37900001 2.668 -0.76899999 75 61 61
0.38 2.6719999 -0.76999998 84 68 69
0.37 2.6849999 -0.77100003 180 136 109
0.336 2.6960001 -0.82499999 196 114 41
0.33199999 2.6800001 -0.80699998 131 83 21
0.329 2.6989999 -0.81699997 186 167 163
0.368 2.7309999 -0.84399998 107 72 50
0.38299999 2.7360001 -0.84399998 138 112 95
0.37200001 2.7950001 -0.88300002 51 26 19
0.37099999 2.7950001 -0.87699997 53 27 12
0.37099999 2.8010001 -0.88499999 93 62 34
0.289 2.747 -0.92299998 175 160 157
0.33399999 2.7079999 -0.96100003 204 161 110
0.32699999 2.7190001 -0.94199997 57 35 24
0.33500001 2.71 -0.96200001 165 122 77
0.30899999 2.7349999 -0.92400002 168 140 129
0.30000001 2.7390001 -0.92699999 147 125 114
0.28299999 2.8570001 -0.88099998 192 160 139
0.30599999 2.8429999 -0.90100002 125 53 15
0.30599999 2.8429999 -0.90799999 128 55 14
0.315 2.8570001 -0.88 53 26 9
0.31400001 2.859 -0.87800002 62 33 19
0.26100001 2.7939999 -0.90700001 165 143 130
0.259 2.8010001 -0.90700001 255 222 152
0.26300001 2.7909999 -0.89999998 245 199 140
0.248 2.793 -0.91299999 178 123 66
0.25999999 2.779 -0.91399997 193 138 71
0.25999999 2.7709999 -0.90700001 157 103 59
0.255 2.7850001 -0.91799998 182 131 66
0.25600001 2.7969999 -0.82200003 92 54 35
0.27500001 2.8429999 -0.87699997 214 170 145
0.347 2.7520001 -0.87099999 78 27 0
0.30700001 2.796 -0.86000001 137 80 37
0.289 2.793 -0.85000002 145 80 16
0.37099999 2.698 -0.86199999 93 30 0
0.38299999 2.6949999 -0.86500001 186 161 130
0.368 2.6919999 -0.85100001 94 43 0
0.32699999 2.6900001 -0.80900002 180 132 58
0.329 2.6900001 -0.81099999 221 173 124
0.205 2.8110001 -0.86799997 177 136 108
0.26800001 2.8180001 -0.94300002 202 182 175
0.26199999 2.806 -0.94 130 95 67
0.25999999 2.8199999 -0.93400002 80 17 0
0.25299999 2.7739999 -1.021 130 111 97
0.28099999 2.8139999 -0.97899997 151 111 52
0.27399999 2.8280001 -0.98500001 52 25 14
0.26499999 2.842 -0.98900002 59 29 18
0.264 2.835 -0.991 84 75 60
0.27700001 2.8329999 -0.98500001 112 85 55
0.271 2.7720001 -1.0190001 176 126 73
0.26199999 2.777 -1.016 100 23 0
0.27500001 2.7679999 -1.0190001 154 109 78
0.264 2.802 -0.93699998 141 98 64
0.264 2.79 -0.92500001 166 169 160
0.25999999 2.7909999 -0.92500001 78 45 10
0.28400001 2.7780001 -0.94499999 218 196 175
0.27000001 2.7579999 -0.92299998 255 197 119
0.264 2.7679999 -0.921 49 29 28
0.30700001 2.743 -0.90899998 180 136 87
0.29100001 2.7579999 -0.90700001 149 131 119
0.30700001 2.753 -0.912 230 160 90
0.28600001 2.7650001 -0.96799999 72 48 20
0.28299999 2.7609999 -0.94800001 131 74 3
0.303 2.898 -0.94999999 145 100 61
0.30399999 2.8940001 -0.95300001 50 34 21
0.33500001 2.918 -0.912 66 49 33
0.33399999 2.9070001 -0.91299999 97 81 65
0.34 2.9089999 -0.90899998 173 134 91
0.30500001 2.882 -0.96600002 42 25 18
0.30000001 2.878 -0.97000003 45 30 23
0.27900001 2.8710001 -1.006 80 22 0
0.292 2.8640001 -1.005 174 139 119
0.29100001 2.8629999 -0.98699999 48 33 30
0.303 2.868 -0.99299997 127 108 91
0.266 2.812 -0.986 84 42 17
0.266 2.7939999 -0.98400003 255 220 148
0.27599999 2.799 -0.96100003 204 179 125
0.30899999 2.845 -0.89200002 59 36 5
0.30700001 2.8640001 -0.884 81 48 29
0.28999999 2.849 -0.90100002 161 116 74
0.28600001 2.8299999 -0.94400001 103 50 0
0.266 2.846 -0.91000003 74 33 0
0.26199999 2.8540001 -0.903 255 232 156
0.35499999 2.7149999 -1.006 255 228 165
0.36199999 2.714 -0.99900001 41 27 16
0.34400001 2.723 -0.99699998 162 102 40
0.34799999 2.714 -0.99800003 168 116 56
0.352 2.698 -0.98699999 167 151 138
0.34200001 2.7 -0.935 182 115 47
0.33199999 2.7019999 -0.92900002 71 38 19
0.26800001 2.7639999 -1.035 185 141 92
0.27399999 2.7349999 -1.033 107 70 28
0.21699999 2.8369999 -0.87900001 179 126 46
0.23 2.8499999 -0.87199998 160 88 16
0.23199999 2.8469999 -0.88200003 185 113 41
0.223 2.832 -0.88499999 149 86 33
0.19499999 2.8210001 -0.85900003 166 138 88
0.177 2.8150001 -0.88 201 182 123
0.234 2.8399999 -0.88700002 152 123 43
0.25099999 2.8169999 -0.88599998 168 120 74
0.243 2.8180001 -0.89300001 188 135 65
0.25 2.8150001 -0.89700001 195 136 56
0.21699999 2.8110001 -0.85699999 91 40 23
0.39500001 2.691 -0.708 102 91 97
0.384 2.6589999 -0.70200002 57 11 0
0.192 2.872 -0.5 245 180 112
0.207 2.892 -0.505 74 37 11
0.22 2.8699999 -0.48100001 151 102 44
0.212 2.8729999 -0.48199999 203 142 85
0.31600001 2.858 -0.602 108 58 25
0.31099999 2.858 -0.58899999 90 49 19
0.31099999 2.868 -0.58899999 39 4 0
0.294 2.8529999 -0.62800002 68 28 0
0.30399999 2.849 -0.634 184 139 97
0.36899999 2.6889999 -0.60799998 179 116 62
0.375 2.677 -0.61799997 159 106 64
0.38100001 2.6730001 -0.61900002 144 80 32
0.31999999 2.7520001 -1.04 160 96 32
0.33199999 2.7509999 -1.0369999 132 85 43
0.34299999 2.763 -1.041 165 131 119
0.34200001 2.766 -1.038 192 130 83
0.352 2.72 -0.98699999 129 95 68
0.34900001 2.7279999 -0.99599999 155 126 108
0.35600001 2.7260001 -0.995 41 20 3
0.375 2.6670001 -0.597 140 78 29
0.322 2.823 -0.43200001 188 127 82
0.29699999 2.826 -0.44 157 135 124
0.30199999 2.8199999 -0.43700001 47 27 20
0.30000001 2.8369999 -0.43599999 255 231 157
0.41299999 2.8499999 -0.48699999 133 91 53
0.41999999 2.8440001 -0.48800001 138 74 28
0.34 2.8239999 -0.45100001 141 103 67
0.33700001 2.8269999 -0.46200001 128 96 71
0.34799999 2.8440001 -0.458 98 57 29
0.329 2.8210001 -0.463 252 225 146
0.31099999 2.8570001 -0.428 233 210 166
0.31200001 2.8659999 -0.42899999 245 220 166
0.31900001 2.8670001 -0.43000001 209 174 118
0.34099999 2.8770001 -0.43700001 106 61 28
0.35100001 2.8900001 -0.454 167 135 110
0.34999999 2.891 -0.45199999 240 205 177
0.35299999 2.872 -0.45199999 220 188 163
0.32699999 2.836 -0.46700001 54 29 25
0.41299999 2.8570001 -0.60699999 116 76 68
0.39700001 2.72 -0.62 96 54 32
0.38100001 2.71 -0.61799997 49 17 0
0.396 2.72 -0.62699997 40 13 0
0.375 2.701 -0.60500002 168 125 72
0.377 2.6960001 -0.59299999 131 70 41
0.37799999 2.697 -0.59399998 164 104 41
0.421 2.839 -0.52700001 223 186 157
0.39899999 2.704 -0.59500003 101 47 0
0.414 2.707 -0.60299999 107 97 105
0.42500001 2.825 -0.51599997 126 72 26
0.398 2.8670001 -0.64700001 85 57 45
0.40000001 2.869 -0.64300001 198 148 95
0.40200001 2.875 -0.63800001 58 30 19
0.40700001 2.8510001 -0.65899998 112 47 17
0.403 2.8570001 -0.64899999 113 67 8
0.38 2.6960001 -0.68000001 131 128 135
0.375 2.694 -0.69700003 88 42 6
0.41600001 2.6849999 -0.60000002 252 211 121
0.29499999 2.8499999 -0.597 98 79 36
0.30199999 2.8529999 -0.59600002 77 41 9
0.31099999 2.8559999 -0.59500003 47 4 0
0.207 2.882 -0.52700001 11 8 1
0.32800001 2.859 -0.51200002 88 74 74
0.31600001 2.862 -0.54299998 42 9 0
0.32800001 2.8629999 -0.54699999 140 130 131
0.31799999 2.869 -0.53200001 53 14 0
0.32499999 2.8629999 -0.53899997 134 124 125
0.28999999 2.846 -0.48100001 168 131 102
0.27900001 2.849 -0.484 165 164 170
0.28600001 2.8529999 -0.486 92 61 43
0.308 2.869 -0.52600002 16 10 0
0.212 2.9070001 -0.55900002 36 12 0
0.27000001 2.862 -0.47999999 102 70 55
0.25 2.8870001 -0.48899999 167 149 137
0.26699999 2.875 -0.45500001 169 143 126
0.26800001 2.872 -0.47400001 105 59 35
0.227 2.8759999 -0.484 126 82 47
0.23 2.8740001 -0.48699999 188 165 147
0.22499999 2.8699999 -0.50700003 202 174 150
0.229 2.878 -0.50599998 131 96 64
0.26899999 2.836 -0.47400001 112 59 17
0.27700001 2.832 -0.46900001 102 43 3
0.223 2.891 -0.56900001 68 35 20
0.30399999 2.8640001 -0.56999999 39 23 0
0.30599999 2.862 -0.56599998 48 15 0
0.301 2.8729999 -0.57800001 41 26 23
0.30399999 2.865 -0.56699997 41 29 7
0.303 2.8610001 -0.57700002 49 34 5
0.30700001 2.875 -0.55800003 28 10 6
0.30700001 2.8640001 -0.54100001 33 24 9
0.30700001 2.8629999 -0.54400003 36 27 10
0.30700001 2.862 -0.54799998 47 38 21
0.30700001 2.865 -0.537 25 15 3
0.30899999 2.8640001 -0.53200001 48 9 0
0.308 2.8670001 -0.52999997 11 3 0
0.308 2.8659999 -0.53299999 18 11 0
0.296 2.8640001 -0.59500003 121 110 106
0.331 2.8640001 -0.43799999 255 231 119
0.324 2.875 -0.44 157 114 97
0.31900001 2.859 -0.426 97 44 12
0.32100001 2.8559999 -0.426 200 151 93
0.33700001 2.862 -0.43099999 112 50 13
0.32800001 2.865 -0.46200001 45 24 7
0.31299999 2.813 -0.44800001 135 58 12
0.34599999 2.8699999 -0.45100001 144 78 30
0.208 2.924 -0.51499999 127 80 54
0.206 2.8640001 -0.50400001 164 112 55
0.40700001 2.858 -0.64499998 190 145 88
0.28 2.812 -0.78899997 174 156 146
0.273 2.8139999 -0.78899997 107 90 60
0.20900001 2.846 -0.71499997 147 102 61
0.207 2.8710001 -0.74299997 98 55 21
0.212 2.8670001 -0.755 175 120 63
0.207 2.8239999 -0.67500001 143 137 141
0.223 2.892 -0.815 193 156 130
0.228 2.8940001 -0.81999999 57 30 13
0.207 2.8510001 -0.76099998 86 47 14
0.208 2.8440001 -0.745 171 121 68
0.226 2.845 -0.76899999 122 104 94
0.226 2.8499999 -0.73400003 43 17 0
0.199 2.846 -0.74400002 140 88 38
0.19499999 2.848 -0.741 218 160 86
0.18700001 2.858 -0.74800003 29 10 3
0.20999999 2.8770001 -0.71100003 127 115 115
0.206 2.8729999 -0.71499997 61 40 13
0.199 2.868 -0.69599998 164 129 109
0.40200001 2.6630001 -0.722 111 54 35
0.38699999 2.6849999 -0.74800003 34 12 0
0.38299999 2.6960001 -0.741 35 12 4
0.38999999 2.6900001 -0.75700003 145 116 84
0.384 2.7019999 -0.74299997 85 64 47
0.34799999 2.7160001 -0.80000001 150 107 75
0.34400001 2.7 -0.80199999 91 53 30
0.31099999 2.8080001 -0.80699998 196 180 181
0.30599999 2.813 -0.79400003 152 100 52
0.36000001 2.687 -0.773 128 75 33
0.36700001 2.6860001 -0.76999998 111 75 43
0.382 2.664 -0.759 101 79 66
0.38299999 2.6670001 -0.745 183 155 134
0.384 2.6570001 -0.75400001 49 23 8
0.389 2.674 -0.75599998 91 54 28
0.28600001 2.8150001 -0.78399998 179 121 71
0.28400001 2.819 -0.78299999 147 131 118
0.31299999 2.826 -0.81099999 161 104 61
0.31999999 2.8340001 -0.79799998 96 40 5
0.301 2.8110001 -0.78399998 161 107 47
0.36500001 2.8440001 -0.74000001 61 32 16
0.27399999 2.8080001 -0.79500002 166 147 140
0.22400001 2.8800001 -0.80400002 42 23 16
0.29800001 2.842 -0.79100001 48 14 2
0.292 2.835 -0.79299998 243 188 131
0.29800001 2.8410001 -0.78299999 45 22 8
0.226 2.892 -0.80199999 188 134 60
0.32300001 2.9230001 -0.852 39 19 8
0.32100001 2.927 -0.85500002 181 161 150
0.233 2.891 -0.78399998 176 154 131
0.22499999 2.892 -0.778 43 16 5
0.236 2.8770001 -0.79900002 42 20 6
0.241 2.8629999 -0.79900002 59 30 22
0.23999999 2.8789999 -0.69599998 111 52 12
0.243 2.8710001 -0.71100003 56 33 27
0.23800001 2.878 -0.71799999 82 59 41
0.28799999 2.8610001 -0.69099998 142 124 114
0.278 2.842 -0.699 112 66 43
0.23100001 2.855 -0.69099998 100 65 43
0.35800001 2.924 -0.898 69 58 28
0.354 2.925 -0.87900001 143 137 141
0.338 2.9030001 -0.949 68 42 25
0.35600001 2.8840001 -0.954 79 38 10
0.345 2.901 -0.935 56 38 28
0.34900001 2.8740001 -0.93199998 22 15 22
0.35499999 2.8789999 -0.94400001 189 144 121
0.36500001 2.8469999 -0.89300001 114 83 63
0.35600001 2.842 -0.89999998 108 41 0
0.36300001 2.835 -0.87300003 45 19 4
0.36300001 2.8299999 -0.89099997 164 136 114
0.352 2.8510001 -0.88200003 235 194 164
0.38100001 2.6960001 -0.59100002 81 45 21
0.412 2.691 -0.59799999 141 127 124
0.43399999 2.8440001 -0.495 156 108 72
0.44 2.858 -0.495 63 13 0
0.29499999 2.8239999 -0.472 145 109 75
0.31200001 2.8369999 -0.47600001 99 48 0
0.30599999 2.8310001 -0.47600001 76 27 0
0.303 2.822 -0.46900001 131 89 64
0.34099999 2.8410001 -0.43599999 132 100 79
0.35100001 2.845 -0.442 92 43 13
0.41600001 2.878 -0.51200002 85 23 0
0.412 2.881 -0.50599998 98 36 0
0.412 2.8759999 -0.514 29 9 2
0.41499999 2.8829999 -0.56400001 107 71 47
0.40700001 2.8710001 -0.56300002 58 44 18
0.40599999 2.878 -0.51599997 171 124 70
0.433 2.8399999 -0.5 250 200 79
0.39300001 2.8529999 -0.52399999 36 18 16
0.43700001 2.869 -0.49599999 246 208 107
0.30700001 2.8710001 -0.61199999 32 12 3
0.296 2.8789999 -0.61400002 23 5 3
0.412 2.8629999 -0.62 89 59 51
0.412 2.862 -0.616 47 20 13
0.301 2.8610001 -0.662 46 18 6
0.228 2.888 -0.66500002 115 87 63
0.227 2.891 -0.66100001 73 47 30
0.229 2.881 -0.68800002 34 15 9
0.35100001 2.869 -0.71700001 141 97 62
0.35699999 2.868 -0.71600002 156 93 49
0.34799999 2.8659999 -0.741 58 8 0
0.34900001 2.869 -0.741 47 3 0
0.34400001 2.8559999 -0.75 128 126 137
0.35499999 2.865 -0.74599999 81 36 5
0.37200001 2.8740001 -0.71700001 167 120 92
0.222 2.885 -0.77100003 33 16 8
0.22 2.878 -0.77200001 48 28 21
0.34400001 2.849 -0.81199998 187 168 153
0.35499999 2.835 -0.82999998 62 37 30
0.347 2.8429999 -0.80900002 195 158 131
0.35800001 2.8369999 -0.82200003 139 91 45
0.32800001 2.9070001 -0.84799999 99 60 43
0.375 2.8329999 -0.80299997 77 36 8
0.317 2.825 -0.79100001 37 19 15
0.31600001 2.826 -0.78299999 62 17 0
0.30599999 2.816 -0.787 85 37 14
0.303 2.813 -0.78899997 189 148 104
0.35499999 2.849 -0.755 233 193 123
0.30199999 2.8670001 -0.68900001 120 109 105
0.29100001 2.8610001 -0.685 125 105 94
0.34400001 2.8699999 -0.73699999 129 93 41
0.37900001 2.8710001 -0.75599998 48 28 21
0.38100001 2.8729999 -0.73100001 138 118 107
0.38800001 2.8529999 -0.78200001 129 94 75
0.36399999 2.9219999 -0.86000001 130 107 101
0.38800001 2.8710001 -0.81599998 60 23 14
0.38999999 2.8659999 -0.81 86 47 32
0.38800001 2.869 -0.81 72 39 20
0.38800001 2.8629999 -0.78899997 219 184 156
0.38999999 2.8670001 -0.80599999 207 163 116
0.359 2.859 -0.86400002 89 40 0
0.36199999 2.872 -0.74199998 58 30 18
0.36199999 2.8710001 -0.745 188 123 69
0.36700001 2.8710001 -0.74299997 104 47 2
0.389 2.8469999 -0.79400003 169 159 157
0.38800001 2.839 -0.81199998 216 171 130
0.382 2.849 -0.85399997 106 61 30
0.36500001 2.8859999 -0.86400002 176 124 77
0.352 2.869 -0.87199998 149 102 74
0.35600001 2.885 -0.875 121 74 48
0.35299999 2.8699999 -0.861 188 124 78
0.36500001 2.9070001 -0.85799998 106 103 110
0.34599999 2.8859999 -0.85100001 252 228 156
0.336 2.888 -0.84899998 174 129 87
0.34999999 2.8670001 -0.85600001 92 32 0
0.40700001 2.668 -0.70499998 134 87 57
0.38699999 2.6819999 -0.75199997 77 59 57
0.391 2.6830001 -0.73799998 99 68 40
0.398 2.677 -0.73100001 121 70 27
0.39399999 2.6860001 -0.76700002 116 87 69
0.40200001 2.8599999 -0.71100003 51 13 0
0.398 2.8559999 -0.72000003 128 98 70
0.368 2.7479999 -0.85699999 128 92 58
0.35299999 2.7550001 -0.866 98 48 15
0.35499999 2.7479999 -0.85500002 255 213 140
0.38 2.8280001 -0.84299999 154 123 105
0.382 2.8440001 -0.85600001 58 34 22
0.38299999 2.839 -0.85600001 211 147 73
0.38499999 2.846 -0.85299999 132 69 16
0.375 2.8340001 -0.82999998 112 84 73
0.373 2.832 -0.82999998 57 33 21
0.38499999 2.7119999 -0.77399999 122 81 61
0.384 2.7079999 -0.76700002 67 48 16
0.38699999 2.7060001 -0.764 99 57 35
0.38800001 2.711 -0.77700001 108 69 38
0.37599999 2.7160001 -0.778 103 63 27
0.347 2.7119999 -0.83600003 120 57 4
0.35100001 2.7049999 -0.83099997 124 62 5
0.354 2.704 -0.83399999 43 25 21
0.38800001 2.6849999 -0.67699999 87 70 62
0.403 2.677 -0.59399998 196 147 107
0.384 2.6849999 -0.63200003 159 105 69
0.38800001 2.681 -0.66900003 17 2 0
0.37200001 2.6960001 -0.741 40 8 0
0.373 2.8559999 -0.713 98 70 49
0.30500001 2.8670001 -0.62800002 58 29 13
0.303 2.8670001 -0.62300003 42 19 11
0.30199999 2.865 -0.70099998 100 38 1
0.292 2.849 -0.67199999 171 127 80
0.226 2.8329999 -0.67000002 129 94 72
0.184 2.892 -0.49000001 143 81 20
0.20999999 2.845 -0.648 221 150 70
0.20100001 2.855 -0.64899999 130 78 28
0.212 2.8800001 -0.65799999 152 91 44
0.27599999 2.882 -0.45100001 134 112 98
0.27000001 2.855 -0.47499999 72 48 20
0.317 2.8529999 -0.51300001 40 20 9
0.324 2.8559999 -0.491 130 102 80
0.32100001 2.849 -0.498 161 120 76
0.27599999 2.846 -0.454 225 191 154
0.27500001 2.855 -0.45199999 160 100 66
0.39899999 2.862 -0.56699997 110 100 99
0.40599999 2.869 -0.56699997 90 55 25
0.405 2.8570001 -0.579 43 32 10
0.39399999 2.7149999 -0.597 79 31 9
0.384 2.711 -0.59200001 38 13 8
0.417 2.8729999 -0.60299999 74 37 19
0.40900001 2.8789999 -0.59299999 105 90 85
0.428 2.8740001 -0.528 56 38 28
0.428 2.895 -0.52100003 111 69 47
0.43900001 2.8870001 -0.52899998 155 120 101
0.30899999 2.878 -0.574 80 40 14
0.40400001 2.8870001 -0.57499999 81 57 47
0.31200001 2.869 -0.56900001 87 50 23
0.31200001 2.868 -0.56599998 91 54 25
0.31400001 2.869 -0.56099999 34 3 0
0.31299999 2.8729999 -0.56599998 38 0 0
0.40700001 2.869 -0.597 52 36 3
0.40599999 2.8670001 -0.60000002 94 62 41
0.30899999 2.8469999 -0.61799997 126 74 27
0.30399999 2.848 -0.62900001 117 72 30
0.419 2.8640001 -0.60299999 146 101 62
0.41299999 2.8640001 -0.597 118 83 64
0.412 2.8640001 -0.59200001 42 26 27
0.40900001 2.858 -0.48699999 255 215 110
0.428 2.8570001 -0.493 211 182 138
0.426 2.855 -0.49399999 253 253 219
0.42500001 2.872 -0.491 254 215 122
0.40400001 2.8710001 -0.48300001 195 136 80
0.396 2.869 -0.48699999 80 50 0
0.41 2.8729999 -0.48500001 157 138 134
0.38 2.6489999 -0.60900003 150 99 70
0.41600001 2.6570001 -0.616 122 78 41
0.419 2.6689999 -0.602 172 127 88
0.315 2.845 -0.66799998 182 135 67
0.296 2.849 -0.66299999 101 66 47
0.294 2.8440001 -0.671 117 81 59
0.28999999 2.8429999 -0.68099999 90 49 27
0.39899999 2.865 -0.66799998 107 94 60
0.19 2.9189999 -0.49900001 96 63 44
0.20200001 2.9089999 -0.51599997 60 33 26
0.223 2.905 -0.60799998 62 24 13
0.22 2.902 -0.61000001 168 132 106
0.296 2.8789999 -0.60000002 37 14 8
0.30000001 2.8789999 -0.60500002 82 64 54
0.296 2.8789999 -0.60299999 47 24 16
0.296 2.882 -0.611 32 15 8
0.229 2.8929999 -0.62599999 119 77 37
0.22400001 2.8970001 -0.63300002 150 144 148
0.222 2.902 -0.60000002 30 11 4
0.222 2.901 -0.597 31 4 0
0.222 2.892 -0.60000002 111 67 40
0.222 2.898 -0.60399997 45 13 2
0.19400001 2.8610001 -0.68400002 143 132 138
0.20299999 2.8710001 -0.66900003 139 110 94
0.20100001 2.8699999 -0.671 34 6 0
0.21799999 2.8840001 -0.79100001 125 107 95
0.19400001 2.845 -0.708 67 39 17
0.191 2.8559999 -0.676 102 69 52
0.191 2.858 -0.66900003 44 12 1
0.219 2.898 -0.62699997 55 29 16
0.221 2.8970001 -0.63200003 88 61 50
0.221 2.8840001 -0.64200002 50 12 0
0.206 2.8699999 -0.67400002 134 107 88
0.21799999 2.8800001 -0.67799997 91 61 25
0.213 2.868 -0.69400001 39 17 6
0.21600001 2.8729999 -0.68099999 121 86 64
0.412 2.869 -0.565 149 104 71
0.40700001 2.8670001 -0.588 52 20 0
0.42699999 2.891 -0.52100003 138 79 47
0.34200001 2.8970001 -0.458 233 216 209
0.382 2.878 -0.505 172 120 72
0.40799999 2.885 -0.486 126 73 41
0.40000001 2.8759999 -0.48800001 148 96 57
0.40900001 2.908 -0.50300002 167 112 73
0.384 2.8900001 -0.50800002 73 38 6
0.33399999 2.756 -1.044 221 199 178
0.338 2.7950001 -1.041 45 23 12
0.42500001 2.7079999 -0.86299998 151 125 102
0.41999999 2.7079999 -0.86000001 142 114 92
0.42199999 2.6960001 -0.86199999 95 54 22
0.366 2.6919999 -0.96600002 129 71 31
0.36700001 2.6930001 -0.96100003 146 128 78
0.35699999 2.688 -0.97600001 250 242 205
0.35600001 2.835 -0.95899999 255 226 197
0.347 2.8529999 -0.96100003 80 53 34
0.345 2.8469999 -0.954 145 124 97
0.34599999 2.8399999 -0.96899998 98 87 91
0.36199999 2.806 -0.89999998 68 44 34
0.35800001 2.8180001 -0.90100002 78 48 22
0.35699999 2.8139999 -0.90100002 75 44 24
0.36000001 2.802 -0.90499997 61 42 35
0.37599999 2.7 -0.96200001 74 49 42
0.37799999 2.7030001 -0.94300002 253 240 206
0.34299999 2.704 -0.98000002 190 138 90
0.34200001 2.701 -0.96499997 121 68 26
0.359 2.6900001 -0.95899999 117 84 41
0.368 2.6989999 -0.93000001 134 128 132
0.359 2.6989999 -0.92400002 141 134 142
0.34799999 2.8710001 -0.98100001 95 69 56
0.33500001 2.8469999 -0.903 134 106 84
0.329 2.836 -0.90600002 104 84 75
0.33700001 2.8399999 -0.90700001 120 77 58
0.315 2.8440001 -0.917 122 76 26
0.33000001 2.852 -0.90100002 95 67 43
0.32499999 2.8469999 -0.89999998 131 116 111
0.34400001 2.789 -0.98900002 189 175 164
0.352 2.7709999 -0.98799998 150 119 90
0.35100001 2.7939999 -0.98799998 179 125 79
0.264 2.79 -1.05 128 72 23
0.29800001 2.8970001 -0.43799999 122 77 18
0.28799999 2.881 -0.449 70 35 16
0.29499999 2.9000001 -0.46599999 88 50 39
0.30700001 2.858 -0.495 18 12 0
0.30700001 2.8610001 -0.491 11 4 0
0.30700001 2.859 -0.498 13 6 0
0.31200001 2.8469999 -0.47799999 164 145 141
0.30700001 2.8570001 -0.484 120 102 92
0.23 2.924 -0.49000001 145 98 68
0.22499999 2.9200001 -0.48800001 117 66 35
0.25 2.902 -0.5 48 20 16
0.24600001 2.8970001 -0.5 154 102 55
0.214 2.9030001 -0.48199999 249 229 142
0.227 2.891 -0.47799999 52 12 0
0.21799999 2.882 -0.479 143 92 45
0.229 2.8970001 -0.48100001 232 190 116
0.227 2.911 -0.48300001 123 75 52
0.221 2.9089999 -0.484 236 177 97
0.233 2.9170001 -0.495 95 65 55
0.223 2.904 -0.59200001 29 0 0
0.222 2.902 -0.59500003 32 4 0
0.215 2.9059999 -0.579 156 140 127
0.21600001 2.905 -0.58399999 45 30 25
0.215 2.8889999 -0.61900002 56 38 24
0.31099999 2.8710001 -0.42699999 81 44 0
0.30399999 2.8640001 -0.42899999 122 105 61
0.30899999 2.875 -0.44400001 255 226 128
0.30599999 2.8640001 -0.43000001 241 227 190
0.296 2.8870001 -0.454 96 67 49
0.27900001 2.8110001 -1.059 90 45 12
0.36199999 2.8299999 -1.023 183 135 112
0.34599999 2.7939999 -1.034 38 19 4
0.36899999 2.8559999 -1.027 251 217 180
0.36500001 2.846 -1.026 101 63 52
0.37099999 2.8469999 -1.0190001 117 82 52
0.36399999 2.8499999 -1.03 179 104 21
0.32600001 2.842 -1.051 192 174 172
0.31099999 2.835 -1.0420001 98 45 11
0.30500001 2.823 -1.0420001 112 55 2
0.301 2.829 -1.0420001 162 138 138
0.354 2.8710001 -1.031 135 127 125
0.361 2.8699999 -1.026 145 109 75
0.273 2.7920001 -1.0599999 223 182 160
0.31200001 2.9070001 -0.44499999 131 81 58
0.30899999 2.9059999 -0.44400001 171 116 86
0.308 2.8740001 -0.50800002 83 58 53
0.294 2.8829999 -0.48300001 75 43 30
0.30500001 2.8840001 -0.46700001 69 28 8
0.317 2.8629999 -0.48500001 110 72 36
0.31900001 2.869 -0.47799999 52 24 12
0.31999999 2.8640001 -0.486 102 74 60
0.31099999 2.911 -0.463 119 75 46
0.308 2.891 -0.45899999 95 46 16
0.29300001 2.803 -1.052 189 136 70
0.28799999 2.8050001 -1.05 170 131 52
0.29499999 2.8069999 -1.045 171 110 47
0.28600001 2.7969999 -1.048 111 49 0
0.222 2.825 -0.88200003 153 129 119
0.227 2.825 -0.87900001 136 108 94
0.27000001 2.839 -1.048 139 101 38
0.30500001 2.872 -1.049 144 106 35
0.303 2.875 -1.051 166 140 125
0.33399999 2.829 -1.039 84 46 25
0.33399999 2.822 -1.0420001 69 37 16
0.301 2.8210001 -1.04 98 43 0
0.30000001 2.839 -1.04 147 135 123
0.32100001 2.8540001 -1.051 88 62 49
0.31900001 2.8529999 -1.048 71 45 30
0.31999999 2.869 -1.033 189 170 155
0.257 2.846 -0.815 144 82 25
0.25 2.8440001 -0.80299997 182 120 61
0.26300001 2.845 -0.81099999 109 49 0
0.278 2.8599999 -0.87800002 187 154 119
0.31200001 2.859 -0.87599999 68 41 24
0.29899999 2.908 -0.86000001 123 83 58
0.278 2.872 -0.88999999 169 134 112
0.28099999 2.8789999 -0.90799999 177 142 123
0.27900001 2.8789999 -0.903 193 155 134
0.35600001 2.8929999 -0.87699997 147 83 47
0.244 2.829 -1.035 103 63 27
0.23999999 2.8199999 -1.04 125 85 34
0.242 2.826 -1.0190001 251 218 125
0.242 2.835 -1.013 104 57 29
0.257 2.8429999 -1.016 70 23 0
0.255 2.8499999 -1.007 152 89 45
0.25600001 2.832 -1.027 74 51 37
0.25999999 2.8369999 -1.022 71 49 35
0.25600001 2.835 -1.04 55 33 22
0.27500001 2.8670001 -0.99599999 136 104 79
0.259 2.859 -0.99900001 190 158 137
0.257 2.8640001 -1.003 197 168 162
0.278 2.865 -0.98799998 123 88 68
0.25600001 2.8610001 -1.006 174 116 78
0.26199999 2.8570001 -1.008 255 236 168
0.33199999 2.921 -0.90799999 122 81 51
0.308 2.9230001 -0.875 55 21 0
0.31299999 2.9200001 -0.87900001 139 103 79
0.30899999 2.9200001 -0.87699997 133 99 74
0.301 2.8889999 -0.94400001 121 90 69
0.30000001 2.8829999 -0.94400001 104 58 6
0.29899999 2.891 -0.94700003 110 95 54
0.345 2.8940001 -0.91100001 71 51 40
0.32699999 2.9000001 -0.93599999 78 43 21
0.32499999 2.885 -0.87699997 145 68 22
0.32800001 2.868 -0.884 158 121 92
0.31 2.882 -0.87699997 150 109 81
0.317 2.8900001 -0.87900001 80 54 31
0.23199999 2.892 -0.82300001 126 89 71
0.23 2.8759999 -0.824 114 84 56
0.22400001 2.872 -0.81900001 93 64 50
0.233 2.8340001 -0.89600003 190 147 113
0.245 2.8340001 -0.903 127 85 47
0.241 2.8280001 -0.903 114 70 31
0.241 2.8429999 -0.89600003 140 94 45
0.329 2.9330001 -0.87699997 40 34 38
0.31099999 2.9260001 -0.87 177 109 60
0.333 2.9319999 -0.86299998 167 145 134
0.31999999 2.914 -0.88300002 31 11 4
0.317 2.915 -0.87699997 123 77 41
0.40900001 2.7190001 -0.62800002 97 59 23
0.40099999 2.7179999 -0.62099999 74 37 21
0.42199999 2.71 -0.61799997 113 81 34
0.419 2.6919999 -0.63599998 48 32 7
0.38699999 2.664 -0.74699998 29 2 0
0.389 2.829 -0.84600002 217 167 114
0.36899999 2.799 -0.89300001 76 47 33
0.37099999 2.79 -0.89600003 35 16 10
0.336 2.6989999 -0.80599999 163 119 80
0.37 2.7780001 -0.84299999 135 101 76
0.36899999 2.776 -0.847 85 56 38
0.368 2.7839999 -0.85100001 206 152 108
0.38100001 2.7290001 -0.78399998 156 113 79
0.375 2.724 -0.78500003 71 57 56
0.37 2.7349999 -0.79100001 204 170 142
0.37 2.7249999 -0.78799999 45 27 23
0.37799999 2.734 -0.79000002 206 158 118
0.36199999 2.7130001 -0.79699999 165 103 54
0.36399999 2.698 -0.78600001 81 51 25
0.36700001 2.6989999 -0.77700001 128 92 68
0.38800001 2.7130001 -0.778 113 76 47
0.38499999 2.7130001 -0.78899997 101 74 57
0.38699999 2.7060001 -0.78600001 120 86 51
0.40000001 2.8559999 -0.72799999 165 120 99
0.389 2.8340001 -0.73900002 124 110 83
0.35800001 2.8340001 -0.82099998 96 50 14
0.38100001 2.839 -0.79699999 61 24 0
0.373 2.697 -0.73100001 75 47 26
0.391 2.8429999 -0.75 194 152 94
0.38600001 2.8599999 -0.69800001 148 94 47
0.38800001 2.862 -0.69800001 148 98 63
0.35499999 2.8499999 -0.89399999 156 88 41
0.345 2.878 -0.88499999 95 43 21
0.31600001 2.8829999 -1.028 93 75 63
0.31900001 2.881 -1.027 61 40 23
0.31799999 2.8829999 -1.025 60 43 27
0.30399999 2.875 -1.015 224 208 193
0.30700001 2.8789999 -1.006 168 146 132
0.30500001 2.8789999 -1.023 82 54 32
0.31200001 2.8239999 -0.86500001 54 22 1
0.33199999 2.829 -0.85699999 56 37 5
0.30700001 2.8169999 -0.88099998 59 36 22
0.30700001 2.826 -0.847 50 22 8
0.28400001 2.846 -0.88499999 115 67 44
0.28400001 2.8429999 -0.89399999 117 73 34
0.33700001 2.839 -0.88 91 43 20
0.35800001 2.816 -0.89200002 136 90 54
0.33899999 2.73 -0.86000001 87 47 11
0.336 2.7179999 -0.85299999 142 97 66
0.34200001 2.737 -0.87300003 74 25 0
0.34400001 2.734 -0.90100002 67 18 4
0.36000001 2.75 -0.90200001 107 73 46
0.35499999 2.744 -0.88499999 84 27 0
0.354 2.7390001 -0.90100002 45 19 6
0.36000001 2.72 -0.90100002 95 64 43
0.352 2.7149999 -0.903 72 20 0
0.36899999 2.717 -0.90799999 142 124 124
0.36899999 2.7179999 -0.89399999 72 52 41
0.38299999 2.701 -0.87199998 68 43 36
0.352 2.707 -0.85299999 112 101 95
0.35699999 2.734 -0.84299999 255 226 149
0.333 2.71 -0.93099999 87 36 19
0.31999999 2.7309999 -0.92699999 98 72 59
0.33700001 2.7179999 -0.93000001 179 113 53
0.292 2.744 -0.92400002 41 18 10
0.33500001 2.7049999 -0.95099998 134 81 49
0.27599999 2.75 -0.94199997 94 38 5
0.278 2.7479999 -0.94 145 89 54
0.30599999 2.7390001 -0.92699999 195 171 161
0.34900001 2.7379999 -0.90899998 210 155 72
0.32100001 2.7909999 -0.83600003 187 135 77
0.322 2.7850001 -0.838 154 129 124
0.34400001 2.7379999 -0.838 145 130 133
0.34900001 2.7479999 -0.84200001 131 120 118
0.34999999 2.737 -0.84100002 154 149 156
0.249 2.846 -0.79699999 139 103 81
0.244 2.848 -0.801 147 96 75
0.31299999 2.885 -0.926 77 42 22
0.30700001 2.8789999 -0.94 50 14 0
0.30399999 2.882 -0.94 50 18 0
0.30599999 2.891 -0.93099999 161 139 98
0.315 2.869 -0.93000001 128 80 31
0.32800001 2.8499999 -0.93599999 126 63 30
0.33199999 2.8559999 -0.93599999 56 36 3
0.31999999 2.8800001 -0.86799997 79 50 32
0.30700001 2.8729999 -0.87400001 161 125 91
0.315 2.8610001 -0.87900001 62 34 20
0.255 2.7920001 -0.91399997 236 185 132
0.245 2.8199999 -0.90200001 131 54 8
0.243 2.8199999 -0.89700001 178 121 68
0.25299999 2.796 -0.91900003 175 119 68
0.25099999 2.799 -0.82200003 246 201 136
0.24600001 2.8099999 -0.83200002 101 54 8
0.245 2.8069999 -0.82099998 29 10 6
0.257 2.8080001 -0.81900001 147 112 70
0.266 2.802 -0.80699998 220 184 168
0.36000001 2.7820001 -0.87300003 85 29 2
0.359 2.79 -0.861 191 136 79
0.36500001 2.7909999 -0.86199999 30 3 0
0.366 2.79 -0.86799997 77 51 26
0.31799999 2.7920001 -0.86199999 179 101 52
0.33199999 2.7880001 -0.861 91 75 75
0.333 2.786 -0.86699998 151 101 52
0.35499999 2.7130001 -0.91500002 116 84 73
0.36700001 2.7119999 -0.92299998 148 118 54
0.36700001 2.717 -0.917 132 101 83
0.347 2.7079999 -0.89899999 90 49 17
0.35299999 2.7090001 -0.91900003 31 11 2
0.347 2.714 -0.91600001 50 26 14
0.34299999 2.7179999 -0.89899999 147 116 98
0.347 2.7130001 -0.89999998 106 61 22
0.345 2.711 -0.89300001 73 18 0
0.345 2.704 -0.89300001 105 62 28
0.34599999 2.7060001 -0.889 84 41 6
0.354 2.717 -0.89300001 86 41 20
0.354 2.71 -0.86500001 45 16 0
0.34599999 2.7179999 -0.87400001 102 75 45
0.34799999 2.7130001 -0.88 85 58 31
0.34599999 2.721 -0.87400001 74 46 25
0.34599999 2.7160001 -0.884 104 79 49
0.259 2.7780001 -0.921 191 146 105
0.264 2.776 -0.92199999 191 141 92
0.26899999 2.7579999 -0.91500002 248 200 124
0.26499999 2.7650001 -0.91600001 135 83 23
0.28200001 2.7520001 -0.90600002 168 103 35
0.273 2.825 -0.93900001 94 52 27
0.26899999 2.8329999 -0.92799997 102 51 8
0.26699999 2.8269999 -0.92799997 159 130 116
0.27500001 2.8310001 -0.91900003 150 79 37
0.222 2.8239999 -0.88999999 229 165 117
0.242 2.8210001 -0.89200002 199 148 85
0.285 2.8299999 -0.94199997 136 59 5
0.278 2.829 -0.93800002 115 64 11
0.28600001 2.829 -0.93300003 212 181 160
0.215 2.852 -0.85100001 138 118 111
0.213 2.848 -0.852 124 68 31
0.21699999 2.855 -0.84600002 145 121 109
0.242 2.849 -0.80699998 201 123 74
0.252 2.846 -0.81800002 121 59 0
0.271 2.7809999 -0.99699998 255 236 145
0.273 2.7750001 -0.99400002 85 59 22
0.249 2.7969999 -1.008 241 212 144
0.255 2.8139999 -0.991 133 111 97
0.252 2.8069999 -1.0039999 249 207 121
0.27399999 2.8169999 -0.98199999 83 56 39
