ply
format ascii 1.0
comment PCL generated
element vertex 351
property float x
property float y
property float z
property uchar red
property uchar green
property uchar blue
element camera 1
property float view_px
property float view_py
property float view_pz
property float x_axisx
property float x_axisy
property float x_axisz
property float y_axisx
property float y_axisy
property float y_axisz
property float z_axisx
property float z_axisy
property float z_axisz
property float focal
property float scalex
property float scaley
property float centerx
property float centery
property int viewportx
property int viewporty
property float k1
property float k2
end_header
8.4219999 -6.7779999 -0.77399999 64 35 19
8.4230003 -6.7880001 -0.79400003 30 6 4
8.4069996 -6.777 -0.78100002 49 13 0
8.4040003 -6.7680001 -0.76700002 86 55 37
8.4180002 -6.776 -0.77700001 50 23 6
8.3809996 -6.7839999 -0.921 109 66 32
8.3769999 -6.79 -0.91799998 76 31 2
8.3760004 -6.7719998 -0.92299998 28 10 0
8.3789997 -6.7839999 -0.91799998 56 14 2
8.401 -6.7719998 -0.91600001 44 0 0
8.3900003 -6.7919998 -0.91500002 50 6 3
8.3920002 -6.7649999 -0.921 93 51 27
8.4119997 -6.7579999 -0.917 41 3 0
8.382 -6.789 -0.91600001 33 14 7
8.4300003 -6.777 -0.79500002 24 0 0
8.4230003 -6.7729998 -0.78899997 58 19 2
8.4230003 -6.783 -0.79299998 41 13 2
8.4259996 -6.783 -0.80000001 36 9 0
8.4180002 -6.7750001 -0.80199999 81 32 2
8.3769999 -6.7820001 -0.90399998 93 45 22
8.3780003 -6.789 -0.90399998 96 50 26
8.3760004 -6.7870002 -0.88700002 132 102 78
8.3800001 -6.79 -0.90200001 99 68 47
8.382 -6.7909999 -0.89399999 80 45 25
8.4020004 -6.7589998 -0.91900003 55 17 8
8.4029999 -6.7519999 -0.91799998 90 39 10
8.4099998 -6.7550001 -0.917 36 17 11
8.3640003 -6.75 -0.71100003 74 27 17
8.3719997 -6.7410002 -0.70899999 117 71 38
8.3809996 -6.7480001 -0.71200001 89 55 30
8.3730001 -6.744 -0.71100003 96 62 34
8.3649998 -6.7480001 -0.71799999 119 88 70
8.3610001 -6.7410002 -0.72399998 137 118 104
8.3649998 -6.7389998 -0.72000003 204 115 59
8.3529997 -6.737 -0.72600001 80 59 54
8.3649998 -6.7329998 -0.71600002 135 89 53
8.3850002 -6.7930002 -0.903 54 9 3
8.3800001 -6.79 -0.91000003 98 54 29
8.4020004 -6.7649999 -0.76899999 36 18 16
8.4209995 -6.756 -0.80599999 32 13 17
8.4300003 -6.7550001 -0.80000001 43 24 7
8.4320002 -6.7480001 -0.77899998 57 27 3
8.4359999 -6.7519999 -0.787 51 26 6
8.4370003 -6.7600002 -0.78799999 75 44 24
8.4350004 -6.744 -0.78600001 67 40 21
8.4259996 -6.7600002 -0.76999998 73 25 2
8.4239998 -6.7579999 -0.76899999 42 23 6
8.4250002 -6.7420001 -0.778 48 22 7
8.4180002 -6.777 -0.78399998 39 17 3
8.4110003 -6.7750001 -0.79100001 45 17 6
8.4110003 -6.7750001 -0.79699999 38 14 4
8.4040003 -6.783 -0.81599998 230 197 216
8.4099998 -6.7729998 -0.82200003 52 30 19
8.4090004 -6.7750001 -0.838 75 27 5
8.401 -6.7789998 -0.824 91 81 79
8.4119997 -6.763 -0.91000003 79 51 48
8.4060001 -6.7690001 -0.90899998 36 8 5
8.4090004 -6.77 -0.89999998 27 6 3
8.4099998 -6.763 -0.903 35 7 4
8.3879995 -6.756 -0.79699999 79 27 3
8.3839998 -6.7649999 -0.78399998 85 62 46
8.3870001 -6.7719998 -0.79100001 58 43 36
8.3730001 -6.7529998 -0.778 44 16 4
8.3990002 -6.7729998 -0.796 85 64 47
8.3959999 -6.7470002 -0.91000003 72 21 0
8.4020004 -6.743 -0.91000003 170 110 60
8.4209995 -6.757 -0.88200003 36 7 0
8.4329996 -6.7610002 -0.86000001 20 1 0
8.4219999 -6.7490001 -0.86400002 66 44 30
8.4239998 -6.7620001 -0.86000001 54 21 6
8.4209995 -6.7490001 -0.85699999 59 37 24
8.4049997 -6.7410002 -0.86799997 55 32 18
8.4230003 -6.7529998 -0.852 31 12 0
8.4219999 -6.7420001 -0.80599999 122 71 42
8.375 -6.7680001 -0.91900003 136 96 61
8.3760004 -6.7820001 -0.88999999 152 93 53
8.3590002 -6.756 -0.73199999 53 36 28
8.3570004 -6.744 -0.736 44 29 26
8.3590002 -6.7540002 -0.74299997 248 241 249
8.3839998 -6.7880001 -0.87300003 121 84 58
8.3839998 -6.7940001 -0.88 91 72 65
8.3999996 -6.7779999 -0.81300002 50 31 25
8.3929996 -6.763 -0.917 53 34 20
8.4119997 -6.743 -0.75800002 87 55 34
8.401 -6.737 -0.755 75 37 16
8.4139996 -6.7480001 -0.75300002 83 48 26
8.382 -6.7340002 -0.72299999 128 85 50
8.3839998 -6.7399998 -0.71700001 63 27 0
8.3769999 -6.7389998 -0.71700001 121 81 46
8.3640003 -6.7329998 -0.71899998 144 126 112
8.4230003 -6.777 -0.88700002 33 8 3
8.4110003 -6.7810001 -0.89499998 29 6 0
8.4230003 -6.7360001 -0.78399998 45 22 8
8.4239998 -6.7379999 -0.79000002 46 24 10
8.4119997 -6.73 -0.79299998 84 52 31
8.4320002 -6.7459998 -0.78299999 39 21 7
8.3909998 -6.7649999 -0.78299999 26 2 0
8.3839998 -6.7620001 -0.76999998 46 18 6
8.3719997 -6.757 -0.722 84 52 31
8.3710003 -6.7610002 -0.736 187 175 161
8.3649998 -6.7600002 -0.71700001 37 20 12
8.3760004 -6.7600002 -0.773 47 21 8
8.3620005 -6.7540002 -0.72100002 55 40 37
8.3699999 -6.7379999 -0.71600002 111 71 36
8.3780003 -6.783 -0.91100001 60 16 3
8.3850002 -6.7789998 -0.91799998 42 3 0
8.3889999 -6.7789998 -0.91500002 35 18 10
8.4180002 -6.77 -0.77200001 67 44 30
8.4160004 -6.7509999 -0.76999998 82 47 25
8.4040003 -6.763 -0.76599997 96 51 22
8.4329996 -6.763 -0.79100001 91 72 76
8.434 -6.763 -0.78899997 45 14 0
8.4250002 -6.7550001 -0.773 93 42 15
8.4259996 -6.7589998 -0.773 83 59 49
8.4119997 -6.7750001 -0.81599998 81 32 2
8.4119997 -6.7750001 -0.78899997 27 11 11
8.4040003 -6.7740002 -0.83999997 50 33 26
8.4029999 -6.7779999 -0.85000002 99 67 82
8.408 -6.757 -0.90899998 46 15 10
8.4060001 -6.77 -0.90700001 48 15 10
8.401 -6.744 -0.88800001 43 13 5
8.3920002 -6.743 -0.86799997 75 39 25
8.4090004 -6.7470002 -0.89899999 70 38 13
8.4160004 -6.7529998 -0.88099998 82 53 35
8.415 -6.757 -0.88800001 42 14 3
8.408 -6.7470002 -0.88800001 40 12 0
8.4169998 -6.7360001 -0.796 55 38 20
8.4160004 -6.7350001 -0.79000002 45 28 10
8.3970003 -6.7740002 -0.81599998 48 26 12
8.382 -6.7719998 -0.83200002 227 196 212
8.4169998 -6.737 -0.80299997 57 39 17
8.408 -6.7309999 -0.79799998 80 25 0
8.4180002 -6.7389998 -0.81599998 34 15 0
8.4189997 -6.7420001 -0.81 48 30 10
8.4189997 -6.7540002 -0.81 36 28 7
8.3789997 -6.7750001 -0.87699997 69 42 23
8.3789997 -6.7859998 -0.88499999 77 45 30
8.3830004 -6.7909999 -0.88499999 64 45 38
8.3909998 -6.7680001 -0.91799998 52 22 14
8.3780003 -6.7709999 -0.91399997 54 12 0
8.3769999 -6.7820001 -0.89700001 95 42 11
8.3590002 -6.7550001 -0.72600001 252 246 255
8.3830004 -6.7750001 -0.86699998 246 214 225
8.3900003 -6.7820001 -0.86400002 61 39 26
8.3900003 -6.7550001 -0.81199998 34 5 0
8.3950005 -6.7399998 -0.829 26 6 0
8.3909998 -6.7509999 -0.82999998 69 32 14
8.3950005 -6.743 -0.82499999 96 47 30
8.3909998 -6.7919998 -0.889 44 25 11
8.3889999 -6.7919998 -0.88099998 69 24 5
8.4090004 -6.7859998 -0.87599999 79 46 29
8.4040003 -6.7930002 -0.89700001 24 10 1
8.3660002 -6.7329998 -0.727 196 104 41
8.3649998 -6.7329998 -0.72899997 147 101 67
8.3730001 -6.7319999 -0.73000002 156 125 107
8.3620005 -6.75 -0.74199998 53 26 9
8.401 -6.7750001 -0.91299999 30 1 0
8.3990002 -6.7779999 -0.90700001 27 10 2
8.3929996 -6.7880001 -0.90600002 39 22 15
8.4169998 -6.763 -0.88999999 106 83 65
8.4189997 -6.7639999 -0.88599998 20 0 1
8.415 -6.7340002 -0.78600001 67 40 13
8.3929996 -6.7709999 -0.79500002 58 35 19
8.375 -6.7540002 -0.71799999 150 105 66
8.3660002 -6.7470002 -0.75199997 55 45 33
8.3640003 -6.7550001 -0.74800003 115 67 45
8.3690004 -6.7550001 -0.75300002 73 46 29
8.3830004 -6.7399998 -0.72000003 174 131 99
8.3690004 -6.7600002 -0.73900002 61 25 9
8.375 -6.7579999 -0.74599999 48 15 0
8.3719997 -6.7529998 -0.73400003 119 76 42
8.3739996 -6.75 -0.73900002 96 76 78
8.3610001 -6.743 -0.72500002 69 46 28
8.4250002 -6.7670002 -0.78100002 115 73 49
8.3950005 -6.757 -0.75800002 43 14 8
8.4049997 -6.7410002 -0.76800001 63 27 11
8.4139996 -6.7459998 -0.76099998 72 48 36
8.4099998 -6.776 -0.81300002 45 26 20
8.4130001 -6.7750001 -0.80400002 28 4 0
8.4200001 -6.7709999 -0.796 197 140 110
8.4060001 -6.7740002 -0.78799999 80 42 19
8.4189997 -6.7639999 -0.79799998 35 8 1
8.4160004 -6.7690001 -0.80199999 34 15 1
8.4320002 -6.756 -0.79500002 66 14 0
8.4110003 -6.7490001 -0.87900001 112 53 21
8.3859997 -6.7610002 -0.91600001 40 18 5
8.3940001 -6.7529998 -0.89700001 49 10 3
8.3879995 -6.7670002 -0.91100001 33 15 3
8.4219999 -6.7399998 -0.79900002 123 86 68
8.3909998 -6.7709999 -0.83700001 88 52 26
8.3959999 -6.7740002 -0.84799999 46 37 42
8.3959999 -6.7459998 -0.88999999 70 24 1
8.3870001 -6.7480001 -0.86900002 77 39 18
8.4259996 -6.7529998 -0.84299999 58 15 6
8.4309998 -6.757 -0.83999997 35 21 12
8.4160004 -6.7600002 -0.81199998 93 78 71
8.4239998 -6.7620001 -0.83700001 72 40 25
8.4259996 -6.7620001 -0.84299999 45 21 17
8.4219999 -6.7719998 -0.83600003 121 108 102
8.3850002 -6.7719998 -0.917 42 9 4
8.3649998 -6.7550001 -0.72899997 139 87 63
8.3889999 -6.7579999 -0.80400002 57 11 0
8.3929996 -6.7519999 -0.824 45 8 2
8.3839998 -6.7930002 -0.89200002 45 1 0
8.4099998 -6.789 -0.88999999 66 26 14
8.4180002 -6.7709999 -0.85399997 45 24 19
8.4060001 -6.7729998 -0.86900002 92 59 42
8.415 -6.7610002 -0.86299998 30 10 3
8.4180002 -6.77 -0.84299999 41 20 15
8.3830004 -6.7779999 -0.89099997 70 18 0
8.3690004 -6.7340002 -0.72100002 194 100 36
8.3900003 -6.789 -0.90899998 27 9 0
8.4060001 -6.79 -0.89700001 80 43 34
8.4169998 -6.7379999 -0.78399998 41 24 6
8.4099998 -6.7350001 -0.78500003 87 57 31
8.382 -6.7600002 -0.76999998 252 235 225
8.3929996 -6.763 -0.76700002 47 16 0
8.3879995 -6.7550001 -0.79100001 53 15 4
8.3640003 -6.7490001 -0.72100002 189 166 152
8.3809996 -6.7360001 -0.72399998 116 88 64
8.3850002 -6.7420001 -0.74199998 114 41 8
8.3850002 -6.7579999 -0.75199997 98 59 28
8.3979998 -6.737 -0.76300001 60 10 1
8.4130001 -6.7459998 -0.76499999 62 31 13
8.4090004 -6.7480001 -0.75599998 110 97 81
8.4099998 -6.777 -0.80299997 63 43 36
8.4289999 -6.7670002 -0.78600001 31 7 0
8.3900003 -6.75 -0.86299998 63 23 11
8.4090004 -6.7459998 -0.81800002 50 22 10
8.4020004 -6.744 -0.83200002 50 2 0
8.3940001 -6.7529998 -0.83700001 80 40 15
8.3959999 -6.7490001 -0.85600001 85 47 34
8.3979998 -6.756 -0.84399998 37 4 0
8.3950005 -6.7490001 -0.85600001 44 22 8
8.3929996 -6.7490001 -0.80000001 57 24 15
8.3920002 -6.7550001 -0.80599999 30 1 0
8.3940001 -6.7529998 -0.903 50 11 4
8.3830004 -6.7740002 -0.884 244 217 222
8.3950005 -6.7459998 -0.88300002 75 28 2
8.3929996 -6.7540002 -0.88099998 25 0 0
8.4139996 -6.7470002 -0.86299998 75 52 36
8.4020004 -6.75 -0.85600001 56 33 17
8.4209995 -6.7779999 -0.88499999 72 51 46
8.4250002 -6.7670002 -0.84899998 57 24 9
8.3839998 -6.7789998 -0.898 56 7 0
8.3769999 -6.7389998 -0.736 111 67 28
8.375 -6.7329998 -0.72799999 197 149 109
8.3660002 -6.7329998 -0.73199999 118 85 68
8.3649998 -6.7340002 -0.745 59 37 23
8.3769999 -6.737 -0.74199998 97 58 27
8.375 -6.7340002 -0.722 174 129 88
8.3769999 -6.756 -0.77899998 229 204 223
8.3780003 -6.75 -0.78200001 82 26 0
8.3839998 -6.7589998 -0.759 64 36 25
8.3719997 -6.757 -0.72299999 73 46 29
8.382 -6.744 -0.72100002 105 86 72
8.3959999 -6.7309999 -0.78100002 79 31 8
8.3970003 -6.7389998 -0.79000002 74 23 0
8.401 -6.737 -0.78799999 61 18 0
8.3970003 -6.7389998 -0.78399998 94 39 8
8.4040003 -6.7410002 -0.75400001 67 43 17
8.4090004 -6.7449999 -0.77100003 49 14 10
8.4029999 -6.744 -0.90100002 65 27 16
8.3999996 -6.744 -0.88200003 42 9 2
8.401 -6.744 -0.87599999 64 30 18
8.401 -6.7449999 -0.81400001 30 7 0
8.3859997 -6.7670002 -0.85399997 34 9 2
8.382 -6.7719998 -0.87099999 104 81 63
8.3800001 -6.7589998 -0.85600001 59 11 1
8.3839998 -6.7610002 -0.86299998 86 67 52
8.3839998 -6.7620001 -0.86299998 45 2 0
8.3950005 -6.7490001 -0.884 29 4 0
8.4139996 -6.7480001 -0.85699999 55 32 18
8.4139996 -6.7490001 -0.87 56 33 17
8.382 -6.7800002 -0.87199998 20 7 1
8.4230003 -6.7729998 -0.88 76 58 46
8.3870001 -6.7639999 -0.87099999 21 10 8
8.3929996 -6.7859998 -0.86900002 86 72 63
8.3929996 -6.7800002 -0.86799997 57 39 19
8.3940001 -6.7810001 -0.87 78 42 28
8.3950005 -6.7849998 -0.88200003 70 38 27
8.3959999 -6.7620001 -0.89499998 36 15 12
8.4020004 -6.7859998 -0.88800001 120 94 79
8.3940001 -6.7690001 -0.89200002 37 3 0
8.3690004 -6.7389998 -0.755 48 26 3
8.3690004 -6.7379999 -0.75400001 112 75 49
8.3660002 -6.743 -0.75 145 97 74
8.3669996 -6.7329998 -0.73299998 202 112 50
8.3760004 -6.737 -0.73900002 148 98 65
8.3690004 -6.7340002 -0.722 162 117 78
8.3900003 -6.7480001 -0.79299998 43 10 1
8.3760004 -6.7350001 -0.74699998 113 39 10
8.408 -6.7309999 -0.79100001 80 24 0
8.4029999 -6.744 -0.90799999 87 46 28
8.3970003 -6.7470002 -0.903 78 30 10
8.4239998 -6.7550001 -0.833 37 19 7
8.3940001 -6.7719998 -0.82499999 64 42 28
8.3879995 -6.7589998 -0.81800002 58 28 17
8.4049997 -6.7389998 -0.79900002 34 15 17
8.4110003 -6.7379999 -0.80900002 103 60 9
8.4069996 -6.757 -0.903 28 0 0
8.3809996 -6.7600002 -0.84899998 69 13 0
8.3850002 -6.763 -0.84299999 96 38 16
8.415 -6.7509999 -0.85100001 44 22 9
8.4169998 -6.7540002 -0.84500003 29 2 0
8.4250002 -6.763 -0.85799998 48 19 13
8.4069996 -6.7820001 -0.875 70 35 7
8.3809996 -6.7470002 -0.77899998 27 0 0
8.3669996 -6.744 -0.755 44 18 1
8.3660002 -6.737 -0.74000001 57 32 10
8.3719997 -6.7340002 -0.72500002 113 89 61
8.3879995 -6.776 -0.898 50 14 2
8.3950005 -6.7659998 -0.801 88 71 64
8.3889999 -6.7550001 -0.79699999 101 84 74
8.3970003 -6.7470002 -0.79799998 117 65 43
8.3900003 -6.7589998 -0.76300001 38 18 9
8.4090004 -6.7319999 -0.79000002 81 29 5
8.3970003 -6.7399998 -0.75599998 59 35 11
8.401 -6.7449999 -0.75199997 79 42 0
8.3900003 -6.7490001 -0.75400001 33 15 0
8.4099998 -6.7509999 -0.85500002 41 12 0
8.4119997 -6.7459998 -0.833 55 25 14
8.3909998 -6.77 -0.82599998 57 20 0
8.3900003 -6.7579999 -0.824 43 21 10
8.3889999 -6.7670002 -0.829 28 10 6
8.3979998 -6.756 -0.84500003 68 22 6
8.3870001 -6.7600002 -0.84899998 25 0 0
8.3850002 -6.7659998 -0.86400002 38 13 6
8.3809996 -6.7589998 -0.84899998 94 79 60
8.3889999 -6.7600002 -0.84299999 34 9 4
8.4090004 -6.7519999 -0.84399998 43 25 15
8.3929996 -6.7579999 -0.88499999 96 78 68
8.3879995 -6.7709999 -0.87900001 82 53 45
8.3739996 -6.7340002 -0.75300002 74 13 0
8.3789997 -6.7410002 -0.75999999 44 0 0
8.3760004 -6.7350001 -0.74800003 61 25 1
8.3669996 -6.7350001 -0.741 160 116 87
8.3929996 -6.7620001 -0.80599999 109 92 82
8.3909998 -6.77 -0.84500003 46 21 14
8.3879995 -6.7579999 -0.87 56 19 10
8.4090004 -6.7480001 -0.829 35 15 6
8.4209995 -6.7620001 -0.82700002 38 16 3
8.3909998 -6.7589998 -0.83099997 48 5 0
8.4060001 -6.7459998 -0.87400001 71 39 14
8.3929996 -6.7600002 -0.884 49 15 3
8.3950005 -6.7540002 -0.88999999 43 5 0
8.3920002 -6.743 -0.76800001 49 13 13
8.3900003 -6.7420001 -0.755 87 46 24
8.3730001 -6.7449999 -0.76099998 237 219 233
8.3970003 -6.7690001 -0.815 110 90 83
8.4040003 -6.744 -0.801 56 20 6
0 0 0 1 0 0 0 1 0 0 0 1 0 0 0 0 0 351 1 0 0
