ply
format ascii 1.0
comment PCL generated
element vertex 234
property float x
property float y
property float z
property uchar red
property uchar green
property uchar blue
element camera 1
property float view_px
property float view_py
property float view_pz
property float x_axisx
property float x_axisy
property float x_axisz
property float y_axisx
property float y_axisy
property float y_axisz
property float z_axisx
property float z_axisy
property float z_axisz
property float focal
property float scalex
property float scaley
property float centerx
property float centery
property int viewportx
property int viewporty
property float k1
property float k2
end_header
12.266 5.5960002 -0.72399998 86 54 31
12.263 5.6059999 -0.722 52 11 0
12.268 5.5970001 -0.73500001 86 57 39
12.263 5.6020002 -0.727 155 112 67
12.255 5.6020002 -0.73900002 151 113 92
12.246 5.6160002 -0.73000002 116 79 52
12.227 5.605 -0.85399997 57 28 14
12.233 5.6079998 -0.85000002 68 50 48
12.228 5.5999999 -0.85100001 54 37 27
12.233 5.6500001 -0.74900001 94 40 2
12.24 5.6440001 -0.74699998 86 51 31
12.234 5.6500001 -0.75400001 171 107 69
12.235 5.6459999 -0.745 213 142 78
12.228 5.6430001 -0.75099999 211 142 73
12.248 5.6100001 -0.73400003 105 74 54
12.232 5.6409998 -0.74299997 202 143 113
12.216 5.6350002 -0.745 161 122 107
12.242 5.5929999 -0.78500003 64 38 21
12.245 5.5879998 -0.78600001 103 36 7
12.251 5.5949998 -0.801 46 19 8
12.244 5.5929999 -0.77399999 80 57 49
12.25 5.5929999 -0.74599999 158 103 72
12.259 5.6020002 -0.73100001 184 125 93
12.225 5.5830002 -0.84299999 43 15 3
12.237 5.5819998 -0.85799998 73 46 29
12.241 5.5819998 -0.85399997 76 45 24
12.24 5.585 -0.84600002 110 83 66
12.244 5.5840001 -0.84600002 71 40 20
12.24 5.5770001 -0.86000001 64 40 36
12.236 5.5999999 -0.84100002 61 34 23
12.24 5.586 -0.84100002 73 43 19
12.216 5.5799999 -0.801 71 47 37
12.235 5.5879998 -0.80599999 77 52 21
12.223 5.5749998 -0.78899997 142 120 107
12.246 5.599 -0.79799998 158 136 115
12.231 5.5819998 -0.83999997 55 27 16
12.216 5.5830002 -0.82300001 92 55 28
12.234 5.5960002 -0.83499998 29 5 0
12.241 5.5879998 -0.80000001 72 42 32
12.243 5.5890002 -0.80900002 184 131 87
12.244 5.5890002 -0.80599999 67 39 18
12.219 5.6110001 -0.85100001 27 10 2
12.227 5.6279998 -0.85000002 52 35 25
12.221 5.6149998 -0.84899998 27 10 3
12.208 5.6160002 -0.83999997 79 51 37
12.217 5.612 -0.847 45 15 4
12.259 5.5939999 -0.73100001 118 82 58
12.257 5.5939999 -0.72500002 107 71 37
12.265 5.5970001 -0.73000002 82 47 27
12.22 5.6329999 -0.74599999 104 59 30
12.218 5.6199999 -0.736 165 118 90
12.227 5.619 -0.736 168 109 69
12.221 5.6170001 -0.73199999 73 49 37
12.211 5.6220002 -0.75300002 170 116 92
12.21 5.631 -0.76300001 167 109 63
12.212 5.6230001 -0.74299997 75 42 25
12.217 5.6360002 -0.74599999 99 57 17
12.234 5.5929999 -0.755 155 76 19
12.229 5.5840001 -0.74299997 94 65 51
12.236 5.5900002 -0.741 133 100 81
12.259 5.598 -0.73699999 130 77 43
12.235 5.6040001 -0.72600001 154 108 59
12.224 5.6079998 -0.73100001 167 94 43
12.232 5.5970001 -0.72299999 152 114 93
12.243 5.6149998 -0.73699999 129 71 34
12.244 5.6059999 -0.73799998 142 101 81
12.237 5.6290002 -0.755 188 106 48
12.233 5.6110001 -0.75300002 55 28 11
12.256 5.6020002 -0.72299999 105 73 48
12.227 5.5999999 -0.83899999 28 14 5
12.212 5.6100001 -0.838 20 5 0
12.224 5.579 -0.792 61 38 20
12.219 5.585 -0.778 100 51 18
12.213 5.5840001 -0.79100001 20 5 0
12.208 5.5840001 -0.80900002 66 25 0
12.197 5.5869999 -0.83099997 35 6 0
12.201 5.586 -0.83499998 34 13 8
12.239 5.6079998 -0.773 136 62 17
12.241 5.5999999 -0.76999998 100 59 27
12.242 5.6199999 -0.79299998 86 66 55
12.237 5.6170001 -0.787 49 16 7
12.242 5.6230001 -0.78600001 113 41 3
12.234 5.619 -0.77899998 102 83 69
12.232 5.6220002 -0.76999998 107 60 30
12.232 5.6079998 -0.78299999 117 63 29
12.234 5.625 -0.75800002 101 71 73
12.251 5.5949998 -0.81300002 53 29 19
12.227 5.6360002 -0.75700003 201 181 182
12.234 5.6430001 -0.77600002 85 50 20
12.238 5.6360002 -0.75800002 152 97 56
12.22 5.6420002 -0.78299999 85 39 15
12.225 5.6420002 -0.78399998 78 42 8
12.215 5.6240001 -0.82700002 36 18 8
12.217 5.6269999 -0.81800002 52 20 0
12.207 5.6209998 -0.82800001 88 56 33
12.208 5.619 -0.82300001 49 20 12
12.233 5.6230001 -0.84799999 46 30 15
12.232 5.6290002 -0.84799999 78 42 18
12.229 5.6170001 -0.764 51 18 9
12.225 5.619 -0.73699999 114 90 66
12.209 5.6129999 -0.74800003 161 98 47
12.209 5.6100001 -0.75199997 64 32 19
12.237 5.598 -0.759 74 34 9
12.24 5.5890002 -0.73400003 96 61 41
12.232 5.5929999 -0.73699999 90 56 29
12.246 5.5929999 -0.73799998 135 87 41
12.233 5.5890002 -0.76599997 98 72 57
12.227 5.5890002 -0.76300001 128 75 35
12.225 5.5879998 -0.75300002 98 66 53
12.256 5.592 -0.736 223 140 88
12.237 5.5939999 -0.824 149 111 75
12.232 5.6079998 -0.82999998 57 34 18
12.233 5.6110001 -0.82700002 54 40 31
12.245 5.5939999 -0.81599998 31 16 9
12.197 5.5879998 -0.83700001 40 14 1
12.213 5.605 -0.829 56 27 32
12.218 5.5890002 -0.83399999 51 23 12
12.238 5.586 -0.78600001 62 26 14
12.22 5.5809999 -0.78600001 86 59 48
12.21 5.585 -0.80500001 44 17 8
12.209 5.585 -0.81300002 42 27 20
12.238 5.599 -0.79299998 100 61 32
12.245 5.5900002 -0.81400001 64 36 25
12.215 5.5879998 -0.78899997 40 3 0
12.212 5.6100001 -0.764 60 33 22
12.212 5.612 -0.78500003 42 25 18
12.22 5.599 -0.78299999 82 47 17
12.239 5.6339998 -0.77399999 87 46 28
12.24 5.6370001 -0.78200001 63 21 0
12.209 5.5890002 -0.80900002 38 17 12
12.229 5.6420002 -0.77999997 79 25 0
12.223 5.638 -0.755 43 14 0
12.215 5.632 -0.75599998 114 78 44
12.217 5.6370001 -0.74699998 172 106 56
12.211 5.6350002 -0.76499999 76 33 0
12.22 5.6370001 -0.74900001 187 121 69
12.231 5.625 -0.83099997 154 133 140
12.235 5.625 -0.81099999 145 124 131
12.217 5.599 -0.79299998 40 10 0
12.233 5.6100001 -0.81599998 48 33 26
12.21 5.6069999 -0.74699998 238 137 69
12.226 5.5890002 -0.74800003 166 108 60
12.216 5.6059999 -0.75 53 24 6
12.228 5.592 -0.74299997 219 153 95
12.224 5.6009998 -0.73699999 103 65 18
12.237 5.6139998 -0.73299998 111 76 54
12.216 5.6139998 -0.73799998 194 130 92
12.217 5.6209998 -0.73799998 219 169 120
12.215 5.6100001 -0.75599998 54 21 4
12.215 5.625 -0.77200001 36 7 0
12.212 5.6220002 -0.764 49 24 17
12.212 5.6230001 -0.76300001 171 113 65
12.236 5.5970001 -0.75099999 97 71 56
12.232 5.6090002 -0.759 86 44 22
12.24 5.592 -0.76899999 67 33 31
12.235 5.5890002 -0.78100002 107 87 78
12.225 5.586 -0.77700001 87 54 23
12.25 5.5939999 -0.74199998 159 107 83
12.232 5.6079998 -0.82800001 53 26 15
12.216 5.5830002 -0.80800003 92 55 29
12.218 5.5869999 -0.81300002 45 30 23
12.214 5.599 -0.82200003 68 33 14
12.227 5.5840001 -0.83499998 73 45 31
12.224 5.5869999 -0.80800003 132 94 57
12.237 5.5879998 -0.78399998 68 48 41
12.238 5.5910001 -0.80900002 37 11 0
12.22 5.5929999 -0.78500003 33 14 8
12.218 5.5809999 -0.79299998 124 73 44
12.215 5.6259999 -0.77700001 23 0 6
12.218 5.6360002 -0.77600002 35 11 0
12.208 5.6170001 -0.79299998 40 23 16
12.238 5.6350002 -0.78399998 154 98 61
12.215 5.6350002 -0.76200002 61 27 0
12.223 5.6389999 -0.77899998 68 35 2
12.23 5.6290002 -0.815 57 29 17
12.226 5.625 -0.82300001 133 97 85
12.226 5.632 -0.80699998 63 28 8
12.232 5.6300001 -0.801 47 17 6
12.235 5.6300001 -0.79799998 146 100 74
12.224 5.6240001 -0.82700002 21 6 3
12.231 5.6139998 -0.80000001 66 39 44
12.239 5.598 -0.81400001 80 31 0
12.22 5.6059999 -0.736 89 57 34
12.234 5.6199999 -0.73500001 80 43 25
12.217 5.6170001 -0.73699999 103 72 26
12.221 5.5910001 -0.77399999 52 8 0
12.213 5.612 -0.74299997 56 23 14
12.214 5.625 -0.74699998 136 84 47
12.215 5.6279998 -0.75199997 166 104 67
12.228 5.5960002 -0.736 184 139 116
12.237 5.5960002 -0.76200002 107 47 11
12.248 5.5960002 -0.72600001 195 126 84
12.242 5.5999999 -0.72799999 191 113 49
12.233 5.5970001 -0.72500002 171 121 98
12.227 5.592 -0.81699997 42 16 0
12.231 5.6079998 -0.83899999 48 29 25
12.208 5.5879998 -0.815 50 30 23
12.212 5.6100001 -0.81300002 22 8 5
12.208 5.6129999 -0.82300001 58 22 0
12.235 5.5890002 -0.79900002 34 10 0
12.214 5.6129999 -0.80699998 53 27 14
12.215 5.6170001 -0.80900002 59 18 0
12.218 5.6230001 -0.80199999 29 13 13
12.238 5.6290002 -0.79100001 98 35 2
12.219 5.6209998 -0.83600003 57 22 2
12.211 5.5900002 -0.80500001 52 32 25
12.218 5.599 -0.801 39 24 19
12.238 5.599 -0.81199998 33 14 7
12.224 5.5970001 -0.76599997 128 90 77
12.23 5.6230001 -0.74199998 210 153 124
12.215 5.6129999 -0.76499999 63 25 12
12.226 5.5949998 -0.74400002 89 51 32
12.25 5.6040001 -0.72600001 151 107 62
12.214 5.6079998 -0.81699997 57 28 12
12.214 5.618 -0.81699997 55 22 3
12.238 5.5890002 -0.79400003 52 33 26
12.213 5.586 -0.79699999 28 5 0
12.22 5.6300001 -0.801 43 13 5
12.223 5.631 -0.79500002 67 31 9
12.222 5.6259999 -0.79400003 116 82 70
12.229 5.6329999 -0.79500002 65 30 11
12.222 5.6259999 -0.787 34 7 0
12.215 5.598 -0.80699998 38 11 2
12.221 5.5970001 -0.77999997 64 26 15
12.217 5.6090002 -0.76700002 111 33 0
12.223 5.6009998 -0.77499998 49 14 8
12.216 5.6230001 -0.81400001 108 58 31
12.217 5.6279998 -0.77899998 59 21 8
12.217 5.6100001 -0.79900002 45 22 8
12.215 5.599 -0.80800003 93 52 30
12.221 5.605 -0.74599999 78 38 36
12.225 5.5949998 -0.75400001 34 9 4
12.215 5.599 -0.80900002 64 38 11
12.224 5.5999999 -0.76499999 38 11 0
0 0 0 1 0 0 0 1 0 0 0 1 0 0 0 0 0 234 1 0 0
