ply
format ascii 1.0
comment PCL generated
element vertex 147
property float x
property float y
property float z
property uchar red
property uchar green
property uchar blue
element camera 1
property float view_px
property float view_py
property float view_pz
property float x_axisx
property float x_axisy
property float x_axisz
property float y_axisx
property float y_axisy
property float y_axisz
property float z_axisx
property float z_axisy
property float z_axisz
property float focal
property float scalex
property float scaley
property float centerx
property float centery
property int viewportx
property int viewporty
property float k1
property float k2
end_header
1.774 12.505 -0.49700001 191 154 128
1.79 12.514 -0.5 126 58 19
1.77 12.509 -0.50199997 144 118 101
1.813 12.429 -0.56800002 101 60 40
1.796 12.434 -0.574 70 45 23
1.808 12.431 -0.56099999 84 37 7
1.831 12.451 -0.57800001 126 109 101
1.825 12.442 -0.565 121 83 60
1.831 12.435 -0.574 100 36 1
1.772 12.515 -0.51099998 132 105 88
1.7920001 12.524 -0.50800002 165 101 55
1.799 12.434 -0.56300002 99 63 51
1.825 12.437 -0.56900001 112 41 0
1.825 12.434 -0.57800001 109 43 9
1.793 12.453 -0.58200002 166 139 118
1.801 12.444 -0.588 141 99 59
1.799 12.467 -0.583 99 42 12
1.808 12.463 -0.58600003 118 59 25
1.819 12.506 -0.52700001 137 96 68
1.816 12.499 -0.52899998 147 85 34
1.8200001 12.501 -0.51700002 186 142 105
1.7970001 12.435 -0.579 128 66 29
1.789 12.434 -0.579 145 93 46
1.766 12.502 -0.50599998 50 18 0
1.767 12.501 -0.505 125 76 33
1.7640001 12.496 -0.514 134 87 61
1.765 12.508 -0.51700002 173 135 112
1.794 12.47 -0.57800001 83 23 0
1.7920001 12.458 -0.57599998 91 24 0
1.771 12.482 -0.50999999 142 88 50
1.7640001 12.489 -0.51800001 64 16 2
1.814 12.432 -0.57599998 107 59 36
1.8099999 12.435 -0.583 133 67 33
1.8150001 12.436 -0.58399999 182 115 72
1.802 12.459 -0.565 105 45 9
1.811 12.454 -0.55900002 125 74 43
1.8049999 12.453 -0.55500001 126 104 93
1.817 12.467 -0.58099997 102 61 39
1.816 12.465 -0.58399999 98 45 13
1.821 12.455 -0.58399999 149 104 65
1.8049999 12.442 -0.55400002 125 61 15
1.776 12.493 -0.50199997 147 87 33
1.783 12.494 -0.49599999 171 112 72
1.771 12.505 -0.52600002 77 39 3
1.784 12.507 -0.53200001 114 77 48
1.772 12.513 -0.52600002 92 51 29
1.788 12.496 -0.54000002 112 58 30
1.781 12.492 -0.53399998 215 150 110
1.7920001 12.448 -0.57499999 84 57 38
1.7920001 12.493 -0.53399998 181 102 43
1.789 12.505 -0.53500003 90 61 53
1.774 12.49 -0.509 155 99 52
1.819 12.449 -0.56999999 125 78 36
1.785 12.482 -0.53299999 226 168 122
1.802 12.49 -0.528 188 95 38
1.7970001 12.484 -0.52700001 69 25 0
1.819 12.437 -0.56400001 146 66 17
1.814 12.434 -0.565 139 77 40
1.778 12.508 -0.50400001 91 18 0
1.786 12.486 -0.50099999 170 110 58
1.781 12.484 -0.505 132 51 0
1.7640001 12.491 -0.51999998 189 119 83
1.775 12.517 -0.51899999 123 60 27
1.776 12.516 -0.52200001 70 42 31
1.781 12.516 -0.514 105 81 79
1.7869999 12.517 -0.51099998 95 57 38
1.781 12.512 -0.50700003 101 38 3
1.8049999 12.436 -0.58200002 91 41 18
1.813 12.445 -0.58600003 146 83 50
1.806 12.466 -0.58200002 107 63 26
1.773 12.483 -0.51999998 174 113 66
1.779 12.486 -0.528 227 162 124
1.77 12.488 -0.51999998 116 80 58
1.794 12.481 -0.514 164 102 55
1.802 12.479 -0.51700002 157 99 49
1.801 12.482 -0.50700003 139 73 23
1.795 12.489 -0.52899998 192 132 72
1.7970001 12.491 -0.52899998 192 141 110
1.804 12.464 -0.57200003 90 36 8
1.806 12.456 -0.565 125 53 13
1.802 12.467 -0.56800002 108 66 41
1.7920001 12.476 -0.56800002 101 59 34
1.793 12.485 -0.50099999 150 90 30
1.806 12.489 -0.505 109 44 2
1.821 12.44 -0.56400001 91 30 2
1.816 12.441 -0.55800003 165 80 23
1.813 12.447 -0.55400002 190 102 39
1.774 12.495 -0.505 116 58 8
1.774 12.501 -0.52600002 123 63 35
1.79 12.504 -0.5 177 104 53
1.793 12.495 -0.495 97 71 54
1.813 12.455 -0.58399999 166 94 54
1.79 12.455 -0.56900001 105 78 67
1.793 12.457 -0.56999999 129 81 41
1.8099999 12.452 -0.56900001 107 66 22
1.778 12.484 -0.51200002 206 145 100
1.785 12.48 -0.51700002 198 138 86
1.795 12.477 -0.574 77 21 0
1.7970001 12.478 -0.56800002 99 64 36
1.802 12.51 -0.52999997 159 106 74
1.8049999 12.507 -0.50400001 157 75 15
1.804 12.526 -0.51499999 201 177 173
1.819 12.507 -0.51599997 132 91 61
1.8049999 12.522 -0.52700001 71 47 45
1.806 12.52 -0.52899998 147 85 46
1.78 12.511 -0.52899998 160 96 52
1.788 12.513 -0.52600002 93 55 34
1.817 12.451 -0.55599999 151 116 97
1.8150001 12.434 -0.57800001 143 74 35
1.821 12.438 -0.579 115 48 6
1.821 12.445 -0.58200002 255 231 211
1.826 12.446 -0.57200003 155 95 59
1.803 12.468 -0.57599998 104 44 16
1.802 12.469 -0.57499999 110 40 6
1.79 12.484 -0.50099999 111 60 31
1.785 12.507 -0.5 165 95 44
1.776 12.511 -0.50800002 49 24 17
1.776 12.473 -0.528 196 164 153
1.796 12.45 -0.55900002 186 126 89
1.791 12.445 -0.57099998 144 63 16
1.799 12.455 -0.56099999 79 22 5
1.765 12.499 -0.51599997 109 81 60
1.803 12.474 -0.579 84 40 13
1.811 12.466 -0.583 66 28 7
1.795 12.512 -0.50300002 106 54 7
1.806 12.519 -0.514 101 40 9
1.8 12.52 -0.528 197 142 103
1.809 12.511 -0.52899998 109 79 69
1.798 12.497 -0.52600002 81 23 3
1.807 12.488 -0.523 190 85 17
1.806 12.485 -0.51899999 142 74 25
1.807 12.448 -0.55299997 178 96 38
1.773 12.495 -0.52700001 198 150 102
1.803 12.456 -0.58200002 96 41 11
1.794 12.454 -0.565 81 55 40
1.791 12.482 -0.52200001 220 122 47
1.804 12.47 -0.579 120 54 4
1.802 12.504 -0.50099999 187 119 72
1.8150001 12.492 -0.51899999 150 88 31
1.813 12.494 -0.51300001 193 108 43
1.783 12.476 -0.52600002 187 159 145
1.811 12.5 -0.50599998 147 93 57
1.802 12.518 -0.51099998 81 44 25
1.799 12.52 -0.52399999 120 75 54
1.813 12.495 -0.52899998 179 101 53
1.807 12.489 -0.51200002 196 99 18
1.807 12.497 -0.50400001 111 68 36
0 0 0 1 0 0 0 1 0 0 0 1 0 0 0 0 0 147 1 0 0
