ply
format ascii 1.0
comment PCL generated
element vertex 1081
property float x
property float y
property float z
property uchar red
property uchar green
property uchar blue
element camera 1
property float view_px
property float view_py
property float view_pz
property float x_axisx
property float x_axisy
property float x_axisz
property float y_axisx
property float y_axisy
property float y_axisz
property float z_axisx
property float z_axisy
property float z_axisz
property float focal
property float scalex
property float scaley
property float centerx
property float centery
property int viewportx
property int viewporty
property float k1
property float k2
end_header
4.842 7.9000001 -0.89399999 44 16 4
4.8379998 7.8969998 -0.884 86 61 54
4.8499999 7.8920002 -0.88 125 97 86
4.8309999 7.8959999 -0.89700001 42 26 29
4.8379998 7.9590001 -0.87599999 28 10 6
4.848 7.9679999 -0.87400001 36 17 11
4.8379998 7.9590001 -0.87 40 20 13
4.8410001 7.96 -0.87099999 27 6 1
4.8309999 7.9159999 -0.60399997 134 81 63
4.8330002 7.921 -0.60799998 82 34 0
4.8210001 7.9130001 -0.60100001 51 27 15
4.8210001 7.9159999 -0.60500002 60 27 20
4.8169999 7.9099998 -0.611 59 35 11
4.8189998 7.9180002 -0.61400002 58 41 21
4.9489999 7.9499998 -0.86299998 93 87 89
4.961 7.9390001 -0.85900003 95 66 58
4.9650002 7.9549999 -0.87599999 105 54 25
4.9310002 7.9460001 -0.84299999 47 19 7
4.9200001 7.954 -0.83399999 92 55 26
4.9349999 7.9510002 -0.85000002 119 79 44
4.862 7.9390001 -0.68000001 120 75 56
4.862 7.9390001 -0.68199998 150 92 68
4.8670001 7.9349999 -0.67699999 112 64 44
4.8649998 7.934 -0.68000001 47 32 39
4.862 7.8270001 -0.87900001 62 32 22
4.8600001 7.8280001 -0.88200003 41 14 5
4.8600001 7.8260002 -0.87400001 52 27 20
4.8600001 7.8270001 -0.87800002 72 39 30
4.8629999 7.8270001 -0.87599999 65 28 12
4.835 7.9349999 -0.67199999 99 86 80
4.8379998 7.9380002 -0.68599999 98 66 51
4.8390002 7.9400001 -0.68400002 75 42 25
4.8530002 7.9629998 -0.88200003 87 84 93
4.8499999 7.9660001 -0.88499999 21 9 9
4.8400002 7.9619999 -0.86000001 80 55 35
4.8150001 7.9000001 -0.898 58 29 15
4.8140001 7.9000001 -0.88599998 54 30 18
4.8119998 7.9120002 -0.90499997 90 63 52
4.816 7.908 -0.90499997 35 7 0
4.8140001 7.8990002 -0.60699999 78 31 1
4.8119998 7.8969998 -0.62300003 134 94 59
4.816 7.8920002 -0.61500001 85 42 8
4.8319998 7.9219999 -0.68699998 38 8 0
4.8309999 7.9099998 -0.69 45 23 12
4.8249998 7.9130001 -0.68199998 97 78 71
4.9569998 7.974 -0.87900001 12 8 5
4.954 7.974 -0.87599999 75 42 37
4.9569998 7.9770002 -0.87300003 14 8 8
4.948 7.9559999 -0.88200003 17 13 10
4.9549999 7.961 -0.88300002 11 7 4
4.961 7.9520001 -0.88800001 14 9 6
4.9619999 7.9650002 -0.88 153 109 70
4.9359999 7.9559999 -0.85799998 56 46 47
4.961 7.954 -0.875 15 11 8
4.954 7.96 -0.87699997 39 27 31
4.9320002 7.948 -0.85500002 73 24 0
4.9460001 7.9439998 -0.85600001 54 42 44
4.8559999 7.9380002 -0.67299998 133 74 30
4.8400002 7.869 -0.75800002 29 6 0
4.836 7.8569999 -0.75199997 50 25 21
4.8369999 7.855 -0.75400001 60 37 29
4.902 7.8639998 -0.77499998 21 3 0
4.9000001 7.8670001 -0.78100002 48 28 21
4.8909998 7.8540001 -0.77499998 61 39 26
4.9060001 7.8600001 -0.76499999 88 63 59
4.9109998 7.8779998 -0.77899998 83 58 54
4.9460001 7.941 -0.86900002 97 68 50
4.9400001 7.9349999 -0.86400002 67 50 40
4.9299998 7.9419999 -0.87 48 21 2
4.9510002 7.9390001 -0.875 49 21 9
4.8400002 7.9580002 -0.85500002 109 87 66
4.849 7.9590001 -0.84899998 64 50 49
4.8390002 7.9460001 -0.84100002 26 12 9
4.8559999 7.8299999 -0.87900001 147 127 120
4.8379998 7.9580002 -0.87300003 27 8 2
4.8439999 7.947 -0.83600003 5 0 4
4.8400002 7.9429998 -0.83099997 12 0 2
4.8400002 7.8470001 -0.755 94 79 72
4.8249998 7.901 -0.60399997 108 71 52
4.823 7.895 -0.60299999 61 43 41
4.8319998 7.9000001 -0.60299999 83 66 59
4.829 7.8870001 -0.60399997 86 66 59
4.8280001 7.8969998 -0.60399997 119 81 62
4.836 7.915 -0.69 97 56 38
4.8379998 7.9229999 -0.69099998 63 22 0
4.836 7.9239998 -0.67299998 55 35 24
4.9239998 7.9349999 -0.861 110 101 104
4.9219999 7.9250002 -0.86699998 71 45 28
4.9330001 7.9429998 -0.86199999 80 36 11
4.9310002 7.941 -0.85799998 135 94 74
4.8779998 7.98 -0.86199999 31 18 12
4.8850002 7.9790001 -0.86799997 20 4 4
4.8790002 7.9850001 -0.86699998 74 47 28
4.9109998 7.954 -0.83200002 56 18 5
4.9169998 7.9489999 -0.83200002 62 39 31
4.961 7.9629998 -0.87900001 41 24 16
4.9590001 7.941 -0.86500001 107 65 43
4.9619999 7.9400001 -0.86900002 121 84 55
4.967 7.9439998 -0.87400001 131 100 71
4.9299998 7.9400001 -0.83999997 23 12 6
4.9559999 7.9349999 -0.85600001 69 39 29
4.954 7.9359999 -0.86199999 116 68 46
4.9180002 7.8699999 -0.75999999 40 26 25
4.9159999 7.8639998 -0.755 166 137 123
4.9330001 7.9489999 -0.85699999 44 17 0
4.8400002 7.9060001 -0.611 85 62 48
4.8390002 7.8569999 -0.65100002 61 46 39
4.8280001 7.8639998 -0.65700001 78 32 9
4.8400002 7.8540001 -0.67500001 100 57 25
4.829 7.9169998 -0.61299998 215 162 120
4.8239999 7.9089999 -0.60399997 146 93 75
4.8499999 7.8720002 -0.792 57 34 26
4.8449998 7.8889999 -0.78799999 31 8 0
4.8540001 7.875 -0.787 63 38 31
4.8530002 7.8790002 -0.77700001 56 16 4
4.8530002 7.868 -0.792 57 35 24
4.8530002 7.8979998 -0.77399999 21 1 0
4.842 7.9109998 -0.77700001 26 8 4
4.8429999 7.9089999 -0.78200001 31 12 6
4.9349999 7.928 -0.86400002 107 63 24
4.9419999 7.927 -0.86400002 126 84 46
4.8270001 7.9029999 -0.89999998 84 55 41
4.96 7.9369998 -0.87599999 193 166 137
4.816 7.908 -0.89899999 50 22 8
4.8169999 7.9089999 -0.89399999 73 47 32
4.8390002 7.9489999 -0.866 113 112 120
4.829 7.921 -0.88200003 152 119 100
4.8340001 7.9289999 -0.88499999 10 3 10
4.8330002 7.927 -0.87900001 103 98 105
4.8109999 7.882 -0.70999998 38 16 5
4.803 7.882 -0.708 54 34 25
4.8119998 7.8850002 -0.70899999 61 37 27
4.802 7.8850002 -0.70700002 43 29 20
4.8010001 7.8870001 -0.70700002 174 160 149
4.7979999 7.8870001 -0.70700002 157 141 128
4.8400002 7.9380002 -0.67199999 111 67 42
4.8600001 7.954 -0.861 16 2 2
4.8590002 7.9679999 -0.85799998 32 22 21
4.8559999 7.9569998 -0.87099999 20 14 18
4.8499999 7.9510002 -0.87199998 119 109 110
4.888 7.8610001 -0.84500003 41 22 15
4.881 7.8660002 -0.83700001 92 85 93
4.8860002 7.8769999 -0.83200002 59 30 14
4.862 7.9349999 -0.685 66 43 37
4.8460002 7.9429998 -0.67799997 184 151 132
4.8369999 7.927 -0.68900001 66 25 7
4.8429999 7.9219999 -0.70899999 57 30 19
4.8390002 7.9130001 -0.71600002 70 46 36
4.8369999 7.9060001 -0.70599997 42 12 4
4.8449998 7.9200001 -0.69999999 78 34 7
4.8439999 7.915 -0.71499997 63 19 0
4.8449998 7.9169998 -0.71799999 91 58 41
4.914 7.9330001 -0.85299999 90 48 23
4.9200001 7.9250002 -0.84799999 134 91 72
4.9419999 7.9200001 -0.85500002 173 117 90
4.9400001 7.9180002 -0.847 169 122 104
4.947 7.9289999 -0.85699999 148 96 72
4.9510002 7.9320002 -0.85600001 158 115 98
4.948 7.9229999 -0.86299998 68 25 16
4.941 7.9299998 -0.85600001 149 92 63
4.9169998 7.8660002 -0.75300002 123 94 80
4.948 7.9099998 -0.86400002 105 83 70
4.8790002 7.8790002 -0.81599998 106 69 50
4.9050002 7.8769999 -0.84200001 73 44 30
4.9099998 7.8790002 -0.82499999 62 43 36
4.862 7.8740001 -0.78399998 113 80 63
4.8590002 7.8610001 -0.79299998 94 45 30
4.8629999 7.9200001 -0.83899999 69 38 20
4.8769999 7.9109998 -0.83600003 36 22 19
4.8769999 7.9229999 -0.82499999 74 51 33
4.8769999 7.9190001 -0.85600001 28 15 9
4.8559999 7.9460001 -0.85799998 22 12 11
4.8499999 7.927 -0.67000002 94 55 38
4.8509998 7.9250002 -0.671 72 51 34
4.823 7.8920002 -0.60699999 40 23 13
4.8410001 7.9060001 -0.616 46 21 16
4.8429999 7.8990002 -0.616 70 48 34
4.842 7.9039998 -0.61900002 66 46 37
4.8400002 7.9130001 -0.61199999 145 89 66
4.836 7.8969998 -0.611 59 28 7
4.816 7.9060001 -0.616 56 38 38
4.8179998 7.8759999 -0.66799998 77 45 30
4.8140001 7.8800001 -0.68199998 79 35 8
4.8150001 7.8720002 -0.68099999 34 18 18
4.8070002 7.8850002 -0.71100003 73 51 40
4.8169999 7.875 -0.71399999 29 14 11
4.848 7.8709998 -0.79500002 136 91 72
4.8439999 7.8670001 -0.80000001 78 41 32
4.8449998 7.869 -0.79900002 62 29 20
4.8559999 7.8839998 -0.77100003 81 56 51
4.8520002 7.8930001 -0.759 64 29 9
4.8449998 7.8800001 -0.75800002 36 15 10
4.842 7.849 -0.75700003 82 55 44
4.8670001 7.8299999 -0.86900002 55 32 24
4.9070001 7.882 -0.81099999 124 115 118
4.9169998 7.8790002 -0.82499999 85 45 35
4.915 7.8860002 -0.82099998 78 42 26
4.908 7.888 -0.81099999 77 34 25
4.8899999 7.8829999 -0.82099998 20 14 18
4.8930001 7.8649998 -0.778 151 122 114
4.9120002 7.8610001 -0.741 71 39 28
4.9130001 7.8629999 -0.74800003 69 33 21
4.9089999 7.8629999 -0.76099998 42 18 6
4.9109998 7.8649998 -0.75999999 99 65 53
4.9089999 7.9289999 -0.82499999 101 83 73
4.9039998 7.9320002 -0.81800002 19 8 4
4.9109998 7.9260001 -0.79699999 88 51 24
4.9130001 7.921 -0.78899997 32 22 21
4.908 7.9320002 -0.79100001 100 77 63
4.8940001 7.9369998 -0.80000001 47 12 0
4.9000001 7.928 -0.78500003 64 32 11
4.875 7.9330001 -0.82200003 67 38 30
4.8899999 7.927 -0.81800002 28 13 8
4.8979998 7.9200001 -0.83200002 24 11 5
4.941 7.9510002 -0.86799997 22 19 14
4.954 7.9439998 -0.866 202 157 115
4.9619999 7.9369998 -0.87300003 231 204 175
4.8779998 7.9710002 -0.83099997 102 93 86
4.8839998 7.9720001 -0.82999998 54 23 5
4.8769999 7.967 -0.83600003 42 22 15
4.8579998 7.9590001 -0.84600002 10 5 11
4.8530002 7.9629998 -0.87599999 96 94 105
4.8470001 7.961 -0.85500002 20 3 0
4.869 7.8660002 -0.82700002 134 105 87
4.8449998 7.9619999 -0.88200003 18 4 3
4.8270001 7.9159999 -0.88800001 18 8 16
4.8249998 7.9130001 -0.884 76 50 25
4.848 7.9190001 -0.699 79 42 13
4.8309999 7.8940001 -0.60500002 38 21 14
4.8340001 7.8940001 -0.61000001 98 63 44
4.836 7.9039998 -0.70200002 36 9 2
4.8559999 7.9569998 -0.86699998 15 9 11
4.848 7.9169998 -0.78299999 20 0 0
4.8540001 7.9190001 -0.778 141 118 112
4.8540001 7.9000001 -0.77200001 56 36 27
4.8559999 7.9099998 -0.77399999 15 10 7
4.8390002 7.9229999 -0.72299999 70 37 20
4.8509998 7.9390001 -0.72799999 73 45 34
4.8470001 7.9439998 -0.70700002 50 28 7
4.849 7.9390001 -0.727 72 37 17
4.8460002 7.9390001 -0.72399998 119 86 67
4.902 7.927 -0.77700001 36 23 15
4.8829999 7.9320002 -0.77499998 93 69 57
4.842 7.9419999 -0.69099998 100 60 35
4.8400002 7.9380002 -0.68900001 84 48 26
4.8410001 7.9250002 -0.69199997 102 52 27
4.8410001 7.9289999 -0.69099998 102 55 29
4.8449998 7.9390001 -0.69999999 42 28 28
4.8390002 7.9289999 -0.69 168 151 144
4.8920002 7.9330001 -0.81099999 134 110 98
4.902 7.9000001 -0.764 23 5 1
4.8990002 7.9099998 -0.773 21 13 11
4.8959999 7.908 -0.76700002 94 42 31
4.9429998 7.927 -0.85500002 116 65 38
4.9359999 7.9390001 -0.85500002 162 115 95
4.9180002 7.869 -0.75400001 48 34 33
4.9180002 7.869 -0.74800003 51 40 36
4.9190001 7.8740001 -0.759 108 72 58
4.9310002 7.8839998 -0.86500001 68 37 19
4.928 7.8790002 -0.86500001 93 62 44
4.927 7.8779998 -0.86799997 82 51 33
4.9250002 7.8800001 -0.86799997 60 27 8
4.9169998 7.8759999 -0.75599998 82 47 17
4.9159999 7.8790002 -0.773 31 16 11
4.9169998 7.882 -0.76300001 61 42 35
4.9109998 7.8829999 -0.78100002 45 20 15
4.9250002 7.8920002 -0.829 136 100 88
4.9400001 7.908 -0.85100001 70 48 35
4.908 7.9029999 -0.81099999 100 77 69
4.915 7.8769999 -0.74800003 15 3 3
4.8499999 7.9489999 -0.82999998 39 15 3
4.9120002 7.875 -0.84200001 63 35 21
4.9109998 7.8740001 -0.84799999 78 41 32
4.8860002 7.8709998 -0.85299999 100 60 35
4.8870001 7.8730001 -0.84299999 134 96 73
4.8649998 7.9439998 -0.85000002 24 2 0
4.8579998 7.9520001 -0.85699999 11 0 0
4.8590002 7.9530001 -0.84299999 14 0 0
4.8390002 7.9320002 -0.671 78 45 30
4.8249998 7.8860002 -0.625 121 77 48
4.8429999 7.862 -0.64399999 131 83 73
4.835 7.9109998 -0.62699997 143 121 107
4.8260002 7.908 -0.63 54 19 17
4.8270001 7.9089999 -0.62900001 75 16 0
4.8530002 7.8540001 -0.66600001 94 41 33
4.849 7.8600001 -0.65399998 40 16 6
4.8540001 7.8660002 -0.65399998 25 12 21
4.8889999 7.8590002 -0.727 33 10 2
4.8899999 7.8600001 -0.72500002 31 6 0
4.8839998 7.8559999 -0.713 58 6 0
4.8959999 7.8660002 -0.73100001 32 15 5
4.8530002 7.8610001 -0.745 30 15 12
4.8429999 7.8610001 -0.74699998 56 20 0
4.8449998 7.8639998 -0.73900002 36 19 12
4.8590002 7.8600001 -0.73699999 85 30 25
4.8439999 7.8610001 -0.648 103 72 52
4.8410001 7.855 -0.66399997 148 114 89
4.8460002 7.8569999 -0.66399997 83 57 42
4.8189998 7.9120002 -0.62300003 42 21 2
4.8270001 7.8940001 -0.65899998 78 30 10
4.822 7.881 -0.671 112 83 69
4.816 7.8800001 -0.67799997 59 36 30
4.822 7.875 -0.67699999 84 50 38
4.8270001 7.8839998 -0.72299999 60 12 0
4.8210001 7.8769999 -0.71600002 47 29 27
4.8309999 7.8790002 -0.73299998 37 18 14
4.8449998 7.8649998 -0.80000001 132 89 72
4.8429999 7.8649998 -0.80199999 45 7 0
4.8530002 7.8779998 -0.76499999 43 15 11
4.842 7.9330001 -0.829 38 5 0
4.8470001 7.921 -0.83099997 12 0 0
4.8460002 7.9169998 -0.82099998 63 45 31
4.8449998 7.9260001 -0.81699997 52 18 8
4.8499999 7.9320002 -0.81099999 105 67 48
4.8410001 7.9439998 -0.83399999 145 131 130
4.848 7.9330001 -0.73000002 88 57 36
4.8610001 7.8340001 -0.86799997 59 20 3
4.8610001 7.8330002 -0.86299998 87 59 48
4.8530002 7.9169998 -0.83399999 68 44 32
4.8499999 7.9250002 -0.84100002 16 6 14
4.8530002 7.9180002 -0.852 33 7 0
4.915 7.888 -0.76599997 29 20 25
4.902 7.8979998 -0.75400001 22 3 0
4.908 7.8870001 -0.76300001 54 34 25
4.902 7.8720002 -0.78299999 60 38 25
4.9060001 7.8790002 -0.78399998 28 6 0
4.895 7.882 -0.79400003 105 81 71
4.8920002 7.868 -0.78399998 72 45 34
4.888 7.8579998 -0.77600002 76 48 37
4.8829999 7.868 -0.78399998 39 20 5
4.8839998 7.869 -0.80000001 38 20 0
4.915 7.8660002 -0.74699998 50 17 2
4.9120002 7.869 -0.74299997 43 34 19
4.9050002 7.8629999 -0.75700003 82 54 43
4.8169999 7.8790002 -0.713 115 97 95
4.9260001 7.9250002 -0.84200001 21 12 13
4.9029999 7.9239998 -0.83200002 42 22 15
4.9070001 7.9120002 -0.82800001 96 91 97
4.8720002 7.9400001 -0.829 22 12 10
4.8730001 7.9390001 -0.82599998 38 16 2
4.9239998 7.8769999 -0.86400002 76 43 24
4.9250002 7.8790002 -0.86199999 109 76 57
4.947 7.9450002 -0.87300003 21 17 14
4.9629998 7.9429998 -0.87599999 243 209 174
4.8800001 7.961 -0.82999998 29 5 1
4.8779998 7.9640002 -0.83700001 14 0 0
4.8769999 7.9590001 -0.83700001 37 7 0
4.8569999 7.9590001 -0.85799998 16 10 20
4.8390002 7.9549999 -0.87199998 21 2 0
4.849 7.9650002 -0.86000001 53 35 25
4.8429999 7.9310002 -0.87199998 42 15 0
4.8410001 7.9520001 -0.87300003 132 129 138
4.8390002 7.9559999 -0.875 25 7 3
4.8470001 7.96 -0.87900001 50 36 35
4.8340001 7.9050002 -0.89300001 103 88 93
4.8400002 7.948 -0.85600001 15 4 0
4.8400002 7.947 -0.85900003 13 0 0
4.8410001 7.9439998 -0.861 20 9 7
4.8569999 7.9229999 -0.68400002 134 74 12
4.8540001 7.9180002 -0.68699998 220 168 118
4.8590002 7.9060001 -0.66799998 34 19 26
4.8629999 7.928 -0.685 43 34 37
4.8579998 7.927 -0.69400001 167 120 76
4.8530002 7.928 -0.67299998 81 48 31
4.8629999 7.9330001 -0.67799997 121 93 71
4.855 7.9299998 -0.67500001 97 49 27
4.8499999 7.9180002 -0.67500001 93 64 60
4.915 7.9219999 -0.86400002 71 39 28
4.9099998 7.915 -0.87 60 42 40
4.9180002 7.921 -0.866 36 21 16
4.8860002 7.9310002 -0.86299998 115 98 90
4.8889999 7.928 -0.86400002 72 46 33
4.8870001 7.927 -0.86799997 116 93 79
4.882 7.9260001 -0.866 30 12 12
4.8920002 7.9200001 -0.85000002 91 72 65
4.8649998 7.9390001 -0.84100002 11 1 2
4.8600001 7.9400001 -0.852 66 50 50
4.8829999 7.855 -0.84100002 51 23 9
4.862 7.9349999 -0.69800001 79 58 53
4.8429999 7.9289999 -0.71799999 114 104 103
4.8509998 7.9310002 -0.72100002 47 31 32
4.901 7.9000001 -0.75 86 52 24
4.8920002 7.9050002 -0.72899997 98 52 16
4.8990002 7.908 -0.72899997 238 198 163
4.9039998 7.8899999 -0.73699999 27 15 15
4.902 7.9260001 -0.77700001 24 10 7
4.9060001 7.921 -0.78600001 31 4 0
4.8509998 7.9330001 -0.73100001 126 95 75
4.8759999 7.9640002 -0.83999997 64 53 51
4.9219999 7.8839998 -0.861 14 8 8
4.9299998 7.9450002 -0.84299999 105 56 23
4.9229999 7.881 -0.833 33 14 7
4.9169998 7.8839998 -0.90499997 118 87 58
4.915 7.8930001 -0.88999999 71 30 24
4.9159999 7.8779998 -0.90200001 84 47 28
4.9169998 7.8769999 -0.90799999 36 32 23
4.915 7.9029999 -0.90700001 96 84 84
4.8990002 7.8920002 -0.89899999 91 56 52
4.9180002 7.8720002 -0.76099998 73 40 25
4.9120002 7.8990002 -0.78200001 107 72 53
4.9099998 7.8930001 -0.78399998 79 51 30
4.9120002 7.8850002 -0.773 75 49 34
4.9000001 7.8889999 -0.796 90 41 36
4.908 7.8800001 -0.78399998 26 16 27
4.9159999 7.8730001 -0.74699998 137 107 96
4.8990002 7.8720002 -0.73100001 35 18 10
4.8520002 7.9489999 -0.83700001 13 8 14
4.8610001 7.9460001 -0.82499999 8 0 0
4.8649998 7.9169998 -0.73500001 43 25 21
4.868 7.9099998 -0.72799999 57 39 37
4.8670001 7.9089999 -0.73500001 42 9 0
4.862 7.9159999 -0.745 95 38 27
4.8530002 7.9169998 -0.72600001 52 33 26
4.8639998 7.908 -0.72799999 108 54 42
4.855 7.915 -0.72799999 31 19 21
4.914 7.8769999 -0.83600003 65 34 31
4.8850002 7.849 -0.84600002 55 29 16
4.8860002 7.8709998 -0.84500003 88 60 39
4.901 7.888 -0.85399997 71 40 37
4.822 7.908 -0.87800002 174 146 125
4.8260002 7.9109998 -0.87699997 136 109 90
4.829 7.8959999 -0.88499999 174 164 172
4.8270001 7.8969998 -0.88599998 97 65 52
4.8270001 7.8979998 -0.889 159 127 114
4.8429999 7.9089999 -0.86500001 129 128 142
4.829 7.9039998 -0.87199998 40 21 17
4.8410001 7.901 -0.86500001 31 6 1
4.8449998 7.9089999 -0.85799998 28 10 8
4.8499999 7.927 -0.87300003 54 34 27
4.8470001 7.9460001 -0.86400002 20 11 14
4.8600001 7.921 -0.875 95 76 69
4.8559999 7.9250002 -0.88099998 13 4 9
4.8559999 7.928 -0.85500002 18 8 16
4.869 7.9159999 -0.866 122 95 84
4.8530002 7.9239998 -0.86400002 27 12 7
4.8470001 7.9219999 -0.67000002 121 73 51
4.836 7.9060001 -0.662 125 77 57
4.835 7.9130001 -0.66399997 71 29 5
4.8319998 7.9070001 -0.65899998 67 26 6
4.8390002 7.888 -0.61400002 75 56 49
4.8759999 7.9029999 -0.73799998 24 6 2
4.8649998 7.9050002 -0.75199997 93 39 29
4.8520002 7.8979998 -0.685 39 19 12
4.8559999 7.875 -0.67299998 37 14 8
4.8520002 7.8779998 -0.66399997 48 36 36
4.8579998 7.8779998 -0.67500001 143 90 58
4.895 7.868 -0.74000001 13 3 2
4.882 7.8559999 -0.73199999 209 165 140
4.882 7.862 -0.71700001 37 24 31
4.8369999 7.8600001 -0.75099999 26 2 0
4.8319998 7.882 -0.74800003 240 219 202
4.8390002 7.8730001 -0.75099999 29 9 0
4.8429999 7.875 -0.759 42 19 13
4.8150001 7.9050002 -0.62599999 52 21 3
4.829 7.902 -0.65399998 67 27 15
4.8179998 7.9099998 -0.62199998 103 65 62
4.8260002 7.8969998 -0.64899999 76 42 32
4.829 7.8670001 -0.71399999 89 61 49
4.8369999 7.8870001 -0.73400003 34 12 1
4.836 7.8850002 -0.73000002 43 19 7
4.8390002 7.9050002 -0.74800003 28 8 0
4.8449998 7.9120002 -0.74299997 95 63 50
4.8429999 7.9190001 -0.75199997 51 34 26
4.8429999 7.9099998 -0.72399998 39 19 8
4.8499999 7.8649998 -0.79900002 57 41 41
4.829 7.8930001 -0.74599999 51 29 18
4.836 7.8860002 -0.75 212 191 172
4.8299999 7.8839998 -0.74599999 138 115 99
4.8210001 7.8909998 -0.71600002 99 64 44
4.836 7.8889999 -0.74000001 40 21 14
4.8400002 7.8889999 -0.75300002 129 106 90
4.835 7.8990002 -0.74699998 46 24 13
4.8390002 7.8779998 -0.75400001 23 3 0
4.862 7.869 -0.759 49 25 13
4.8660002 7.869 -0.76099998 66 28 17
4.8639998 7.8660002 -0.75700003 127 85 71
4.8530002 7.8660002 -0.75199997 31 14 7
4.849 7.9260001 -0.838 6 0 2
4.8439999 7.9400001 -0.82700002 40 28 28
4.8579998 7.9460001 -0.824 12 2 1
4.8530002 7.947 -0.82700002 9 0 0
4.8660002 7.9380002 -0.80699998 96 65 47
4.8429999 7.8629999 -0.75199997 32 10 0
4.8299999 7.8979998 -0.87900001 148 141 149
4.8629999 7.829 -0.88300002 76 49 42
4.8670001 7.8309999 -0.88 43 5 0
4.8740001 7.842 -0.889 46 13 4
4.869 7.8379998 -0.88200003 64 32 19
4.868 7.8410001 -0.884 14 5 8
4.8790002 7.842 -0.87900001 144 106 97
4.882 7.8499999 -0.87900001 64 50 39
4.8709998 7.8470001 -0.88800001 105 71 43
4.849 7.8629999 -0.83700001 124 83 61
4.8410001 7.8660002 -0.82499999 98 72 59
4.8390002 7.8600001 -0.82099998 63 36 17
4.862 7.8400002 -0.87099999 63 34 20
4.855 7.869 -0.84399998 88 47 29
4.8610001 7.8520002 -0.84500003 32 16 1
4.849 7.8670001 -0.83899999 82 47 28
4.8520002 7.8979998 -0.84100002 41 14 3
4.9159999 7.8779998 -0.75599998 84 75 78
4.901 7.8860002 -0.81900001 66 46 37
4.895 7.8829999 -0.80599999 104 67 58
4.8969998 7.8839998 -0.80800003 39 18 13
4.8899999 7.8740001 -0.79799998 91 61 53
4.9099998 7.8730001 -0.77100003 30 5 1
4.8959999 7.8639998 -0.76800001 99 64 45
4.8210001 7.8829999 -0.71499997 17 0 0
4.928 7.9369998 -0.85000002 16 6 0
4.9029999 7.9229999 -0.838 142 119 111
4.9219999 7.9109998 -0.84399998 51 24 13
4.9089999 7.921 -0.80599999 24 8 8
4.9109998 7.928 -0.81999999 133 104 86
4.9070001 7.9229999 -0.80000001 41 15 2
4.8920002 7.928 -0.78200001 150 124 111
4.8889999 7.914 -0.84299999 57 37 36
4.869 7.9460001 -0.81800002 85 49 25
4.8720002 7.9310002 -0.82599998 24 0 0
4.8629999 7.9349999 -0.83700001 24 13 9
4.848 7.9060001 -0.85699999 22 15 22
4.8449998 7.902 -0.86299998 23 2 0
4.8979998 7.9130001 -0.875 32 25 9
4.9070001 7.9120002 -0.86699998 24 14 4
4.8850002 7.8569999 -0.87400001 124 78 54
4.8889999 7.8629999 -0.88 99 49 22
4.888 7.8660002 -0.875 121 75 51
4.9029999 7.8850002 -0.89300001 9 0 3
4.954 7.9320002 -0.87199998 73 32 26
4.9590001 7.9439998 -0.88200003 90 49 43
4.8590002 7.928 -0.77499998 37 24 16
4.848 7.9289999 -0.75700003 100 68 57
4.8600001 7.9289999 -0.78600001 34 21 13
4.842 7.9559999 -0.87599999 34 19 16
4.8330002 7.9070001 -0.89099997 39 12 3
4.8379998 7.9120002 -0.88300002 145 114 93
4.8379998 7.9200001 -0.87900001 36 21 14
4.849 7.9109998 -0.884 8 0 3
4.835 7.9000001 -0.89499998 21 9 13
4.842 7.934 -0.671 67 41 24
4.8530002 7.9320002 -0.67299998 133 75 29
4.8369999 7.9029999 -0.70700002 41 31 4
4.823 7.875 -0.69400001 65 30 10
4.8239999 7.8590002 -0.70099998 44 20 10
4.829 7.8959999 -0.69199997 38 15 7
4.8280001 7.8889999 -0.70499998 86 51 23
4.8520002 7.9029999 -0.67000002 130 108 110
4.8470001 7.9120002 -0.67199999 75 34 4
4.8540001 7.9050002 -0.67400002 54 40 39
4.8499999 7.9070001 -0.68400002 89 42 12
4.8800001 7.9089999 -0.84299999 117 94 88
4.8569999 7.9200001 -0.88099998 36 13 7
4.8699999 7.9190001 -0.87300003 30 12 12
4.8959999 7.8959999 -0.86500001 41 15 0
4.8839998 7.862 -0.85299999 63 41 30
4.8660002 7.8470001 -0.85500002 50 12 0
4.8649998 7.8499999 -0.85500002 150 130 121
4.8730001 7.8590002 -0.83899999 95 75 66
4.8759999 7.8499999 -0.84500003 44 17 6
4.8779998 7.8379998 -0.85500002 61 33 22
4.8699999 7.8559999 -0.84299999 135 115 104
4.849 7.9380002 -0.70700002 121 106 101
4.8499999 7.934 -0.70499998 77 53 41
4.855 7.9359999 -0.699 41 28 35
4.8590002 7.9310002 -0.72600001 91 37 0
4.8449998 7.9419999 -0.68300003 87 49 30
4.8590002 7.914 -0.76099998 98 80 68
4.8969998 7.8990002 -0.75700003 31 3 0
4.8769999 7.8969998 -0.75 79 44 22
4.8969998 7.8959999 -0.74000001 33 20 29
4.848 7.9239998 -0.74400002 82 54 33
4.8460002 7.915 -0.73900002 44 29 10
4.8439999 7.921 -0.73000002 36 14 3
4.8449998 7.9400001 -0.69499999 47 21 4
4.8390002 7.9349999 -0.69 85 48 30
4.9380002 7.9109998 -0.86799997 117 107 108
4.9239998 7.9180002 -0.861 121 88 69
4.9250002 7.9109998 -0.85799998 233 200 181
4.927 7.888 -0.86299998 183 145 126
4.9120002 7.8930001 -0.81999999 71 38 23
4.9219999 7.8959999 -0.829 96 72 62
4.9070001 7.8909998 -0.898 86 47 42
4.9130001 7.901 -0.89999998 69 28 24
4.9120002 7.8699999 -0.76499999 30 15 10
4.9169998 7.8740001 -0.76200002 67 31 17
4.9089999 7.8909998 -0.77200001 126 95 66
4.928 7.8930001 -0.84500003 139 89 56
4.9330001 7.901 -0.847 139 86 54
4.9039998 7.8870001 -0.80900002 14 8 10
4.908 7.8829999 -0.78299999 48 21 12
4.9130001 7.8720002 -0.74599999 69 45 35
4.9000001 7.9000001 -0.72299999 129 99 73
4.8990002 7.9029999 -0.727 254 218 186
4.8540001 7.948 -0.83399999 44 25 18
4.8439999 7.9299998 -0.72600001 80 47 28
4.849 7.9299998 -0.73199999 64 36 22
4.835 7.8730001 -0.74199998 19 8 6
4.869 7.875 -0.80699998 73 46 39
4.8769999 7.8790002 -0.80800003 108 67 47
4.9169998 7.8790002 -0.84899998 75 37 26
4.8670001 7.875 -0.78200001 22 10 10
4.8720002 7.875 -0.78200001 36 17 10
4.8649998 7.8759999 -0.78899997 54 29 22
4.8260002 7.9060001 -0.875 57 31 16
4.835 7.8930001 -0.87400001 62 34 30
4.8249998 7.8990002 -0.88599998 46 10 0
4.8449998 7.9169998 -0.87 60 40 33
4.848 7.927 -0.87800002 71 51 40
4.8369999 7.9159999 -0.66900003 71 29 5
4.8470001 7.8709998 -0.64899999 175 152 138
4.8499999 7.869 -0.65600002 104 50 16
4.8470001 7.8590002 -0.65899998 79 56 40
4.8280001 7.888 -0.61500001 126 81 40
4.8410001 7.8940001 -0.62599999 116 92 88
4.8410001 7.908 -0.61900002 156 102 78
4.8400002 7.902 -0.62900001 184 161 120
4.8899999 7.8940001 -0.72000003 60 36 24
4.8740001 7.8940001 -0.72000003 105 64 34
4.882 7.875 -0.71700001 77 51 36
4.8769999 7.8909998 -0.722 29 8 3
4.848 7.9120002 -0.70099998 45 33 37
4.8569999 7.9039998 -0.71499997 56 20 4
4.8520002 7.927 -0.69700003 70 55 32
4.848 7.8730001 -0.71899998 53 32 27
4.8610001 7.869 -0.713 57 17 5
4.8460002 7.869 -0.72899997 102 78 68
4.849 7.8660002 -0.70700002 86 49 30
4.8579998 7.902 -0.66799998 146 98 58
4.855 7.9000001 -0.66900003 43 18 11
4.8499999 7.902 -0.68599999 41 29 33
4.8439999 7.8670001 -0.67900002 158 129 95
4.8899999 7.8649998 -0.73199999 58 29 11
4.8870001 7.8639998 -0.73900002 139 92 66
4.882 7.868 -0.71600002 84 56 45
4.8839998 7.8730001 -0.71700001 137 98 67
4.8860002 7.8610001 -0.72000003 120 94 97
4.8509998 7.875 -0.75800002 30 6 4
4.8319998 7.8639998 -0.667 89 37 15
4.8390002 7.8639998 -0.653 80 47 28
4.829 7.8979998 -0.65499997 102 60 38
4.8280001 7.895 -0.66399997 83 27 4
4.8299999 7.902 -0.66900003 84 62 48
4.8299999 7.8979998 -0.66900003 124 64 38
4.8249998 7.8850002 -0.69 38 14 4
4.8260002 7.8909998 -0.68699998 35 12 6
4.8249998 7.8800001 -0.69099998 29 4 0
4.823 7.8860002 -0.68199998 32 3 0
4.823 7.8959999 -0.63999999 35 6 0
4.8319998 7.8779998 -0.65700001 44 18 19
4.822 7.8920002 -0.71399999 73 52 33
4.8449998 7.914 -0.72799999 32 15 0
4.8460002 7.9089999 -0.75099999 28 7 2
4.8509998 7.9180002 -0.75300002 21 2 0
4.8309999 7.8959999 -0.745 253 233 222
4.8400002 7.8930001 -0.736 52 19 0
4.842 7.8779998 -0.75700003 35 15 8
4.8400002 7.8839998 -0.75300002 198 179 162
4.868 7.8730001 -0.76700002 85 53 42
4.8779998 7.8670001 -0.76599997 50 11 0
4.8499999 7.8740001 -0.79400003 194 147 127
4.8470001 7.8720002 -0.79799998 46 11 7
4.8520002 7.9159999 -0.79000002 15 4 2
4.8509998 7.9060001 -0.78899997 41 23 19
4.849 7.9000001 -0.796 75 55 48
4.855 7.9120002 -0.80900002 22 3 0
4.849 7.915 -0.78600001 16 2 0
4.8569999 7.9380002 -0.81800002 33 10 4
4.8559999 7.9310002 -0.81099999 98 78 67
4.8600001 7.9260001 -0.796 14 0 0
4.8449998 7.869 -0.81 57 24 17
4.8449998 7.8699999 -0.81300002 35 6 0
4.8439999 7.868 -0.81800002 53 26 15
4.869 7.8340001 -0.87800002 124 86 65
4.8629999 7.8369999 -0.86699998 69 32 16
4.8649998 7.8629999 -0.85000002 124 91 74
4.8590002 7.8309999 -0.88300002 46 24 11
4.8629999 7.836 -0.87699997 91 59 34
4.8460002 7.862 -0.824 119 77 61
4.849 7.862 -0.83099997 61 18 2
4.8429999 7.8610001 -0.824 102 65 49
4.848 7.862 -0.83399999 97 54 35
4.895 7.9120002 -0.76899999 40 29 35
4.8800001 7.9180002 -0.76499999 57 23 0
4.881 7.9289999 -0.77399999 29 4 0
4.902 7.8860002 -0.815 141 104 88
4.8839998 7.8779998 -0.80400002 57 19 6
4.8930001 7.8709998 -0.787 25 7 3
4.9060001 7.8740001 -0.77899998 23 0 0
4.9050002 7.8629999 -0.75400001 73 45 34
4.8889999 7.8660002 -0.75099999 74 54 47
4.9159999 7.934 -0.85699999 120 78 56
4.9050002 7.9320002 -0.85500002 66 49 41
4.9089999 7.9159999 -0.847 16 7 0
4.9089999 7.9159999 -0.80699998 12 0 0
4.9050002 7.9190001 -0.80000001 115 87 73
4.9289999 7.9159999 -0.83899999 101 99 104
4.921 7.901 -0.83499998 72 57 50
4.9239998 7.901 -0.83600003 26 11 6
4.8920002 7.928 -0.787 150 124 109
4.8790002 7.9349999 -0.81300002 145 121 111
4.8779998 7.9699998 -0.83099997 60 38 27
4.8610001 7.9289999 -0.838 36 17 11
4.8509998 7.9159999 -0.81400001 114 69 48
4.8579998 7.9070001 -0.87699997 29 0 0
4.8639998 7.908 -0.87699997 126 94 79
4.908 7.8860002 -0.88499999 55 52 47
4.8959999 7.8800001 -0.88700002 132 81 52
4.8969998 7.8870001 -0.89399999 40 31 34
4.8540001 7.9239998 -0.76300001 106 97 100
4.8579998 7.9229999 -0.77399999 140 120 113
4.8639998 7.927 -0.77600002 83 67 54
4.8410001 7.9450002 -0.85799998 9 0 0
4.848 7.9320002 -0.838 10 1 4
4.8449998 7.9619999 -0.85799998 189 168 151
4.8410001 7.9039998 -0.88700002 150 121 105
4.8340001 7.901 -0.89499998 146 118 104
4.849 7.9320002 -0.67199999 84 48 32
4.8509998 7.921 -0.67799997 89 48 16
4.8369999 7.875 -0.72399998 46 27 20
4.8280001 7.8990002 -0.685 92 60 49
4.8270001 7.8920002 -0.68199998 57 23 13
4.8520002 7.9089999 -0.67699999 186 126 74
4.8499999 7.9190001 -0.69300002 107 68 37
4.8759999 7.8969998 -0.88700002 108 67 49
4.8740001 7.8759999 -0.88800001 74 46 34
4.8759999 7.8959999 -0.88300002 152 113 96
4.8759999 7.9060001 -0.88800001 55 13 0
4.8790002 7.9000001 -0.89600003 15 9 11
4.862 7.9190001 -0.88 20 9 17
4.8779998 7.9060001 -0.90399998 41 21 10
4.881 7.901 -0.898 46 26 15
4.8930001 7.9099998 -0.89899999 34 9 5
4.881 7.9239998 -0.87400001 34 16 16
4.881 7.8509998 -0.85399997 144 111 92
4.8709998 7.8460002 -0.84899998 45 20 13
4.849 7.9299998 -0.70200002 44 16 0
4.8559999 7.934 -0.72600001 40 29 35
4.8730001 7.9229999 -0.759 43 15 0
4.875 7.915 -0.76300001 51 14 0
4.869 7.9060001 -0.75800002 104 84 75
4.8870001 7.9120002 -0.76800001 34 16 6
4.8790002 7.9000001 -0.75800002 100 43 23
4.9419999 7.9109998 -0.86900002 66 47 33
4.9400001 7.9099998 -0.86699998 65 35 25
4.908 7.9130001 -0.81800002 112 110 115
4.9109998 7.8979998 -0.824 22 11 15
4.9109998 7.8920002 -0.77899998 135 109 96
4.8990002 7.9050002 -0.787 70 48 35
4.8990002 7.9039998 -0.787 45 31 30
4.8930001 7.8829999 -0.72000003 80 63 43
4.8959999 7.8730001 -0.722 62 43 45
4.8920002 7.875 -0.72100002 34 13 8
4.8540001 7.9029999 -0.713 27 18 23
4.8429999 7.901 -0.69499999 50 31 27
4.8600001 7.8779998 -0.71100003 91 49 24
4.8499999 7.868 -0.70499998 114 72 50
4.8460002 7.8759999 -0.70200002 30 7 1
4.8410001 7.8670001 -0.745 114 80 55
4.8390002 7.8639998 -0.75 20 0 0
4.881 7.8730001 -0.79799998 80 44 28
4.868 7.8779998 -0.79400003 141 112 96
4.8839998 7.882 -0.81999999 111 93 83
4.8460002 7.9130001 -0.82200003 80 63 55
4.823 7.9050002 -0.87699997 89 61 40
4.8410001 7.8930001 -0.86699998 43 22 19
4.8439999 7.8730001 -0.82599998 57 30 19
4.836 7.8959999 -0.87300003 58 29 23
4.842 7.8899999 -0.87400001 116 96 98
4.8540001 7.895 -0.87 49 28 23
4.835 7.895 -0.88099998 27 16 22
4.822 7.8990002 -0.88800001 39 7 0
4.862 7.9460001 -0.83700001 84 74 73
4.8509998 7.9590001 -0.85100001 94 87 94
4.8559999 7.9429998 -0.85500002 106 94 94
4.8499999 7.9250002 -0.866 95 61 34
4.835 7.9159999 -0.67199999 57 43 42
4.849 7.8709998 -0.65799999 22 5 0
4.8379998 7.8590002 -0.65700001 79 40 11
4.8179998 7.9099998 -0.61699998 78 32 16
4.8270001 7.9089999 -0.62400001 99 39 13
4.835 7.914 -0.616 102 74 70
4.868 7.9029999 -0.72100002 39 19 18
4.8779998 7.901 -0.72299999 121 67 29
4.836 7.8639998 -0.70899999 24 13 19
4.8330002 7.8610001 -0.69300002 65 29 3
4.8319998 7.8639998 -0.70200002 27 0 0
4.8439999 7.862 -0.704 51 18 3
4.8309999 7.8590002 -0.69099998 72 48 36
4.8509998 7.8959999 -0.667 32 20 24
4.8439999 7.8860002 -0.66399997 132 78 40
4.842 7.8909998 -0.69599998 44 25 18
4.8499999 7.8639998 -0.66299999 155 87 50
4.849 7.8670001 -0.67199999 208 156 116
4.8870001 7.8649998 -0.75700003 52 33 26
4.8839998 7.8590002 -0.73100001 128 88 63
4.8800001 7.8670001 -0.71700001 100 56 27
4.836 7.8590002 -0.66900003 83 56 45
4.835 7.8600001 -0.67000002 51 24 5
4.8330002 7.8660002 -0.671 72 22 0
4.8330002 7.8660002 -0.68199998 69 33 11
4.8319998 7.8610001 -0.66799998 90 44 21
4.8270001 7.8699999 -0.699 47 29 17
4.836 7.8720002 -0.653 83 53 51
4.8270001 7.8940001 -0.65600002 110 64 41
4.8249998 7.8850002 -0.67000002 120 79 49
4.8260002 7.9060001 -0.68199998 62 29 14
4.8260002 7.8889999 -0.67900002 98 66 55
4.8270001 7.8990002 -0.64200002 81 54 47
4.8390002 7.888 -0.72500002 51 19 0
4.8429999 7.8979998 -0.73299998 62 42 33
4.8379998 7.9029999 -0.74400002 108 91 81
4.8439999 7.9050002 -0.74900001 49 14 0
4.8379998 7.9039998 -0.71600002 98 64 37
4.842 7.895 -0.75099999 94 77 67
4.8709998 7.8730001 -0.76700002 76 40 24
4.8530002 7.9419999 -0.824 11 2 3
4.862 7.9289999 -0.80000001 14 0 0
4.8670001 7.928 -0.79500002 37 20 13
4.8449998 7.8699999 -0.81599998 28 1 0
4.8470001 7.8779998 -0.815 69 41 37
4.8439999 7.8670001 -0.80599999 65 28 20
4.8629999 7.8790002 -0.85799998 89 55 46
4.868 7.8629999 -0.85399997 88 62 47
4.8520002 7.8639998 -0.83600003 99 56 37
4.8720002 7.8330002 -0.866 78 46 35
4.8439999 7.8629999 -0.82700002 51 15 3
4.848 7.8649998 -0.83499998 74 37 19
4.8839998 7.869 -0.78500003 18 3 0
4.9029999 7.8870001 -0.75599998 15 7 4
4.8870001 7.8829999 -0.722 84 39 6
4.8790002 7.8860002 -0.72299999 67 47 38
4.8870001 7.8779998 -0.80199999 111 77 67
4.908 7.8639998 -0.75199997 43 28 23
4.9050002 7.8639998 -0.75199997 100 73 64
4.9039998 7.9260001 -0.85299999 86 51 32
4.908 7.9190001 -0.86199999 82 41 13
4.9310002 7.9180002 -0.84299999 77 67 66
4.875 7.9380002 -0.80900002 78 51 40
4.8920002 7.9289999 -0.80299997 16 4 4
4.8660002 7.8930001 -0.86799997 19 9 17
4.8779998 7.8870001 -0.86400002 73 45 23
4.8779998 7.895 -0.86900002 37 27 36
4.8769999 7.868 -0.86299998 18 7 15
4.8699999 7.8579998 -0.86900002 57 21 7
4.8759999 7.868 -0.88300002 8 0 2
4.8800001 7.8709998 -0.86199999 18 8 0
4.842 7.9159999 -0.875 50 31 24
4.8449998 7.9130001 -0.86799997 29 6 0
4.9260001 7.8850002 -0.86400002 185 150 130
4.8909998 7.881 -0.89200002 93 64 50
4.8909998 7.8930001 -0.86799997 73 41 30
4.8959999 7.8899999 -0.86000001 32 15 8
4.8889999 7.9120002 -0.87699997 48 21 4
4.8340001 7.9159999 -0.87900001 29 10 3
4.8579998 7.9380002 -0.69300002 146 94 80
4.875 7.9039998 -0.884 90 52 33
4.8790002 7.9060001 -0.898 31 11 0
4.8800001 7.9159999 -0.90600002 41 15 2
4.881 7.908 -0.90899998 24 16 0
4.8850002 7.9169998 -0.90100002 130 108 97
4.8779998 7.9190001 -0.87300003 119 92 75
4.8790002 7.8590002 -0.84100002 57 29 15
4.8850002 7.8509998 -0.87 96 59 32
4.8449998 7.9260001 -0.73000002 55 27 13
4.8509998 7.934 -0.72399998 47 27 18
4.8559999 7.9330001 -0.72899997 70 38 15
4.8649998 7.927 -0.76599997 109 84 77
4.8709998 7.921 -0.759 66 14 0
4.8779998 7.914 -0.76499999 39 29 30
4.9390001 7.9109998 -0.85799998 46 26 19
4.9310002 7.9029999 -0.85600001 100 58 36
4.9200001 7.9060001 -0.89999998 74 34 26
4.9070001 7.9039998 -0.86000001 86 59 38
4.9289999 7.9050002 -0.85699999 49 18 13
4.9130001 7.895 -0.824 150 107 88
4.9099998 7.8930001 -0.89499998 8 2 4
4.9000001 7.8870001 -0.88800001 62 32 21
4.9239998 7.8850002 -0.84100002 71 31 21
4.902 7.8990002 -0.81 36 16 7
4.8969998 7.8829999 -0.73000002 53 39 39
4.8969998 7.8990002 -0.73400003 111 58 42
4.848 7.8990002 -0.71200001 30 10 3
4.8410001 7.8940001 -0.70499998 168 135 120
4.8520002 7.881 -0.70999998 71 51 44
4.875 7.9050002 -0.72600001 49 26 20
4.8839998 7.902 -0.72899997 76 35 7
4.8870001 7.902 -0.727 128 82 46
4.849 7.8670001 -0.80699998 139 93 77
4.8520002 7.868 -0.80599999 50 36 36
4.848 7.8660002 -0.80400002 150 103 83
4.8460002 7.8800001 -0.801 70 39 21
4.849 7.8860002 -0.81300002 128 97 77
4.8530002 7.8829999 -0.833 11 1 9
4.8559999 7.8899999 -0.82800001 116 82 57
4.8249998 7.9039998 -0.87699997 84 55 41
4.8400002 7.8979998 -0.86799997 30 9 6
4.8470001 7.8930001 -0.861 8 2 6
4.8369999 7.8590002 -0.66100001 155 135 128
4.8189998 7.8969998 -0.62900001 76 43 26
4.816 7.9070001 -0.61799997 54 12 0
4.823 7.9050002 -0.62800002 65 7 0
4.8899999 7.8959999 -0.73400003 134 75 57
4.8429999 7.862 -0.70700002 94 41 37
4.836 7.8629999 -0.68400002 76 31 10
4.8369999 7.868 -0.68800002 62 29 14
4.8449998 7.8639998 -0.70200002 52 12 0
4.8410001 7.8759999 -0.69 113 77 63
4.881 7.8639998 -0.72100002 112 68 43
4.8769999 7.8660002 -0.72100002 72 27 6
4.8959999 7.8660002 -0.755 106 93 87
4.8610001 7.8590002 -0.75199997 83 66 58
4.829 7.8639998 -0.69 118 77 47
4.8379998 7.8740001 -0.65499997 94 72 59
4.8410001 7.8769999 -0.66000003 162 108 72
4.8270001 7.8899999 -0.671 91 57 48
4.8249998 7.8850002 -0.676 44 0 0
4.8260002 7.8959999 -0.64600003 46 16 8
4.8260002 7.8649998 -0.71200001 48 19 1
4.8330002 7.8769999 -0.72399998 47 28 21
4.8280001 7.8899999 -0.71700001 22 3 0
4.8769999 7.8709998 -0.76800001 123 82 64
4.855 7.8660002 -0.79900002 17 10 0
4.8470001 7.9400001 -0.82499999 16 6 5
4.8460002 7.8649998 -0.80599999 44 1 0
4.869 7.848 -0.87 92 54 35
4.8590002 7.8709998 -0.84600002 101 60 40
4.8730001 7.8379998 -0.86000001 48 26 15
4.8769999 7.8369999 -0.861 44 17 6
4.875 7.836 -0.866 52 28 18
4.8759999 7.8369999 -0.86699998 104 57 37
4.8649998 7.8369999 -0.85600001 151 119 106
4.8720002 7.8559999 -0.87900001 104 84 75
4.8740001 7.8379998 -0.87599999 99 56 40
4.842 7.8639998 -0.82499999 85 53 38
4.8460002 7.862 -0.82700002 90 52 33
4.9109998 7.868 -0.76599997 96 67 61
4.8839998 7.8649998 -0.77499998 52 19 2
4.9299998 7.914 -0.83999997 140 91 51
4.8730001 7.9260001 -0.77399999 101 78 64
4.8779998 7.9260001 -0.77700001 28 9 2
4.8699999 7.9219999 -0.787 27 8 4
4.8839998 7.9239998 -0.79000002 152 132 123
4.868 7.9299998 -0.80199999 25 5 4
4.8909998 7.928 -0.79100001 32 8 0
4.8670001 7.9320002 -0.80299997 22 4 2
4.8839998 7.8600001 -0.85100001 52 23 7
4.8839998 7.8670001 -0.85500002 39 19 12
4.869 7.875 -0.85699999 72 39 24
4.8520002 7.868 -0.82300001 43 29 29
4.848 7.8649998 -0.82099998 102 67 48
4.8649998 7.8759999 -0.79900002 33 22 26
4.8720002 7.9000001 -0.87800002 84 47 29
4.8870001 7.8649998 -0.884 149 102 76
4.8889999 7.901 -0.87699997 124 94 84
4.842 7.9460001 -0.838 26 12 11
4.849 7.9390001 -0.69199997 69 19 0
4.881 7.908 -0.88700002 50 30 23
4.8759999 7.901 -0.88599998 127 86 66
4.8759999 7.868 -0.889 82 47 27
4.888 7.9109998 -0.90600002 55 27 6
4.881 7.908 -0.89700001 24 16 0
4.8790002 7.9060001 -0.89300001 51 31 20
4.8439999 7.9419999 -0.85100001 14 0 0
4.842 7.9429998 -0.85299999 136 130 140
4.8410001 7.9439998 -0.85500002 8 0 0
4.849 7.921 -0.85600001 108 87 70
4.848 7.9330001 -0.84799999 17 5 5
4.8509998 7.9260001 -0.84500003 50 31 14
4.8520002 7.9250002 -0.75 40 20 13
4.8559999 7.9289999 -0.73699999 32 20 20
4.875 7.908 -0.76300001 90 57 38
4.8709998 7.915 -0.75999999 31 12 5
4.8979998 7.8920002 -0.85900003 59 47 51
4.928 7.8969998 -0.84399998 149 92 62
4.8969998 7.8990002 -0.79500002 19 9 17
4.875 7.8769999 -0.72000003 35 13 0
4.8649998 7.881 -0.71600002 79 41 22
4.8610001 7.8920002 -0.71399999 54 29 24
4.8870001 7.8790002 -0.85500002 50 23 12
4.8909998 7.8860002 -0.85600001 38 11 0
4.8600001 7.8990002 -0.82999998 29 23 27
4.8460002 7.8660002 -0.81199998 36 6 0
4.8439999 7.8720002 -0.80800003 76 47 41
4.8470001 7.8779998 -0.80900002 38 7 2
4.8559999 7.8930001 -0.81199998 27 0 0
4.8600001 7.9060001 -0.824 26 1 0
4.8530002 7.8730001 -0.83999997 76 57 59
4.8629999 7.8779998 -0.84500003 86 43 24
4.8540001 7.8930001 -0.84200001 19 9 17
4.8369999 7.902 -0.62900001 128 87 57
4.8280001 7.8990002 -0.639 87 57 47
4.8410001 7.8990002 -0.62300003 93 53 18
4.8309999 7.902 -0.63099998 50 31 33
4.848 7.8600001 -0.704 49 12 0
4.836 7.862 -0.676 57 31 16
4.8439999 7.8709998 -0.70200002 105 72 55
4.888 7.8610001 -0.722 151 122 108
4.8829999 7.8629999 -0.76899999 181 148 131
4.8309999 7.8649998 -0.65700001 66 48 34
4.835 7.8720002 -0.65499997 27 16 20
4.8369999 7.9109998 -0.66600001 56 24 9
4.8260002 7.8969998 -0.64300001 67 40 33
4.829 7.8769999 -0.72000003 54 32 21
4.8559999 7.9369998 -0.81800002 52 12 0
4.8439999 7.8629999 -0.82099998 84 47 31
4.8649998 7.8369999 -0.86199999 150 122 111
4.8649998 7.8499999 -0.86199999 40 2 0
4.875 7.835 -0.87199998 135 95 85
4.8759999 7.8369999 -0.87 56 13 0
4.881 7.9250002 -0.77499998 151 131 124
4.8790002 7.9239998 -0.78600001 66 39 28
4.8590002 7.8670001 -0.82999998 148 121 100
4.8569999 7.868 -0.81 144 122 109
4.8470001 7.9060001 -0.884 117 97 86
4.8860002 7.8839998 -0.88499999 57 29 18
4.8920002 7.902 -0.889 80 56 44
4.8889999 7.9109998 -0.88599998 51 24 7
4.888 7.9070001 -0.90200001 34 3 0
4.848 7.9330001 -0.84500003 28 14 13
4.8439999 7.9349999 -0.85600001 18 6 8
4.8540001 7.9299998 -0.73400003 38 19 12
4.8530002 7.927 -0.75400001 101 82 75
4.8559999 7.928 -0.73500001 33 22 28
4.8979998 7.8959999 -0.86000001 102 64 53
4.927 7.8850002 -0.85100001 82 59 45
4.8969998 7.901 -0.79400003 104 68 46
4.8899999 7.9000001 -0.72100002 60 52 41
4.8670001 7.8759999 -0.71700001 155 117 96
4.8639998 7.8790002 -0.71200001 105 64 36
4.8660002 7.8990002 -0.71899998 97 45 34
4.8600001 7.9050002 -0.82700002 22 1 0
4.8530002 7.8899999 -0.80900002 64 41 25
4.8610001 7.8870001 -0.85699999 103 71 48
4.8239999 7.8969998 -0.63700002 88 60 49
4.829 7.9060001 -0.62900001 31 12 14
4.8330002 7.8920002 -0.62199998 223 192 171
4.8330002 7.895 -0.625 253 233 180
4.8800001 7.8670001 -0.76099998 155 110 87
4.8670001 7.8639998 -0.74800003 33 16 9
4.8829999 7.8670001 -0.755 126 93 74
4.882 7.8639998 -0.73799998 51 32 18
4.8439999 7.8769999 -0.685 79 38 16
4.8540001 7.8790002 -0.67500001 78 47 29
4.8379998 7.908 -0.66600001 117 65 44
4.8309999 7.8759999 -0.72000003 43 16 5
4.8520002 7.8930001 -0.78200001 43 17 2
4.8499999 7.8969998 -0.79500002 62 40 29
4.848 7.8649998 -0.81800002 70 39 21
4.8790002 7.842 -0.86699998 88 41 21
4.8839998 7.8639998 -0.77200001 73 41 26
4.908 7.8800001 -0.75599998 42 33 36
4.8930001 7.8800001 -0.88599998 203 152 123
4.8990002 7.8940001 -0.89099997 65 30 26
4.848 7.895 -0.68199998 46 20 5
4.8509998 7.9390001 -0.85699999 33 15 13
4.8839998 7.855 -0.866 52 21 16
4.8670001 7.8520002 -0.85699999 55 19 7
4.8579998 7.9239998 -0.755 47 30 23
4.9310002 7.8930001 -0.85900003 100 77 63
4.9239998 7.8990002 -0.85699999 110 104 106
4.9250002 7.8829999 -0.85699999 127 90 72
4.8759999 7.868 -0.72500002 86 54 33
4.8629999 7.869 -0.71600002 55 16 1
4.8699999 7.8670001 -0.72000003 84 46 27
4.8969998 7.888 -0.85399997 26 17 8
4.8499999 7.8979998 -0.79900002 61 38 30
4.8610001 7.8940001 -0.71499997 49 31 17
4.862 7.862 -0.74299997 31 16 11
4.8790002 7.8660002 -0.76300001 79 62 55
4.8790002 7.8470001 -0.86400002 97 56 36
4.8559999 7.8699999 -0.82099998 78 51 40
4.8670001 7.8660002 -0.83700001 143 120 102
4.888 7.8920002 -0.89399999 93 61 38
4.9260001 7.8899999 -0.84600002 109 64 35
4.921 7.881 -0.852 115 78 59
4.8829999 7.8660002 -0.76200002 75 51 39
4.8850002 7.8889999 -0.88700002 12 3 6
4.9229999 7.8889999 -0.85699999 161 124 106
4.9180002 7.902 -0.85799998 25 16 21
4.9239998 7.882 -0.85399997 72 40 25
4.8829999 7.8959999 -0.89200002 97 75 62
4.8889999 7.8990002 -0.89700001 40 31 14
0 0 0 1 0 0 0 1 0 0 0 1 0 0 0 0 0 1081 1 0 0
