ply
format ascii 1.0
comment PCL generated
element vertex 639
property float x
property float y
property float z
property uchar red
property uchar green
property uchar blue
element camera 1
property float view_px
property float view_py
property float view_pz
property float x_axisx
property float x_axisy
property float x_axisz
property float y_axisx
property float y_axisy
property float y_axisz
property float z_axisx
property float z_axisy
property float z_axisz
property float focal
property float scalex
property float scaley
property float centerx
property float centery
property int viewportx
property int viewporty
property float k1
property float k2
end_header
5.5289998 12.236 -0.88599998 163 78 23
5.5219998 12.239 -0.88800001 178 159 153
5.52 12.234 -0.89499998 137 119 115
5.3850002 12.27 -0.63700002 102 74 52
5.3909998 12.279 -0.64300001 130 83 41
5.381 12.277 -0.64700001 104 60 25
5.5120001 12.265 -0.86199999 23 12 16
5.513 12.266 -0.85000002 36 16 9
5.527 12.262 -0.861 114 108 112
5.5100002 12.265 -0.85500002 50 14 14
5.526 12.257 -0.86400002 48 28 21
5.5250001 12.243 -0.87699997 69 50 43
5.526 12.245 -0.87 86 52 50
5.3979998 12.24 -0.73799998 94 42 3
5.3969998 12.241 -0.73400003 168 142 129
5.3979998 12.234 -0.73900002 94 30 0
5.5250001 12.234 -0.88499999 80 46 45
5.52 12.228 -0.89200002 137 52 0
5.5149999 12.233 -0.884 158 69 13
5.388 12.271 -0.63700002 88 53 15
5.5100002 12.245 -0.88599998 57 26 24
5.3850002 12.254 -0.62699997 217 161 114
5.3889999 12.256 -0.63999999 106 71 51
5.395 12.243 -0.64499998 79 51 30
5.3909998 12.25 -0.65600002 49 30 32
5.3930001 12.252 -0.64600003 49 13 0
5.3829999 12.265 -0.63999999 191 150 106
5.3839998 12.265 -0.66100001 107 55 18
5.3860002 12.267 -0.65100002 76 34 12
5.3850002 12.258 -0.62400001 104 71 66
5.3930001 12.247 -0.63300002 46 29 1
5.3990002 12.25 -0.62900001 116 78 59
5.4320002 12.265 -0.75999999 130 61 19
5.4250002 12.265 -0.74900001 81 58 50
5.4400001 12.269 -0.75800002 132 68 30
5.4840002 12.196 -0.78200001 51 18 1
5.487 12.198 -0.78200001 72 44 33
5.4829998 12.195 -0.79500002 96 46 21
5.4850001 12.197 -0.77399999 80 42 21
5.5029998 12.208 -0.76800001 89 47 23
5.4720001 12.199 -0.78899997 145 114 94
5.4749999 12.196 -0.796 55 25 1
5.4580002 12.231 -0.759 85 34 15
5.4520001 12.235 -0.759 84 32 8
5.4559999 12.229 -0.75199997 66 19 3
5.3889999 12.28 -0.65100002 49 38 20
5.3860002 12.267 -0.67500001 57 25 12
5.3860002 12.27 -0.67699999 80 30 0
5.3860002 12.266 -0.68300003 50 22 10
5.3870001 12.27 -0.63599998 92 67 45
5.52 12.248 -0.87199998 207 131 82
5.3870001 12.24 -0.70300001 84 50 38
5.3899999 12.247 -0.71399999 110 88 77
5.3860002 12.232 -0.708 128 66 27
5.4549999 12.243 -0.764 70 41 23
5.4439998 12.24 -0.77200001 67 37 35
5.4569998 12.298 -0.86199999 146 77 36
5.447 12.294 -0.87300003 138 126 128
5.4569998 12.301 -0.86900002 49 20 6
5.4099998 12.257 -0.72799999 132 63 21
5.395 12.257 -0.62599999 162 125 106
5.3990002 12.261 -0.62400001 132 107 85
5.4840002 12.197 -0.78100002 82 56 43
5.46 12.231 -0.74800003 182 147 127
5.4660001 12.237 -0.75099999 61 25 11
5.4850001 12.198 -0.76999998 74 50 38
5.487 12.199 -0.77399999 72 27 0
5.4289999 12.263 -0.75700003 61 31 29
5.4330001 12.264 -0.76300001 97 51 18
5.4060001 12.238 -0.71600002 61 39 26
5.4099998 12.244 -0.704 117 55 16
5.414 12.24 -0.71499997 47 28 32
5.421 12.248 -0.72899997 64 42 31
5.4990001 12.254 -0.71899998 171 145 132
5.4920001 12.253 -0.70899999 88 59 43
5.4899998 12.247 -0.71899998 97 66 48
5.5310001 12.299 -0.741 83 57 56
5.533 12.302 -0.73000002 122 90 79
5.5500002 12.296 -0.72899997 84 56 42
5.526 12.302 -0.74400002 80 26 2
5.5300002 12.255 -0.76300001 85 39 15
5.526 12.25 -0.76499999 51 28 20
5.5240002 12.251 -0.77100003 68 46 25
5.5229998 12.247 -0.764 105 60 27
5.5180001 12.246 -0.76899999 71 30 2
5.5120001 12.231 -0.89099997 217 131 72
5.4369998 12.265 -0.76899999 70 34 18
5.4650002 12.214 -0.82300001 79 38 18
5.4559999 12.209 -0.82300001 91 27 2
5.4549999 12.207 -0.81599998 89 52 34
5.4650002 12.214 -0.815 74 33 13
5.46 12.213 -0.81599998 109 44 12
5.4390001 12.251 -0.77600002 47 31 32
5.4590001 12.232 -0.80699998 86 45 15
5.473 12.207 -0.796 99 68 48
5.4759998 12.206 -0.79299998 45 17 3
5.388 12.278 -0.65399998 118 93 73
5.3909998 12.285 -0.66799998 50 42 29
5.3920002 12.28 -0.65899998 157 118 77
5.3899999 12.26 -0.65100002 71 38 19
5.3870001 12.258 -0.68800002 105 58 14
5.3940001 12.27 -0.63300002 71 30 10
5.3990002 12.266 -0.63800001 104 71 54
5.401 12.265 -0.63599998 115 88 69
5.3959999 12.268 -0.64399999 88 55 46
5.5120001 12.256 -0.86299998 26 6 0
5.5100002 12.244 -0.87699997 33 12 7
5.3990002 12.254 -0.63200003 192 112 59
5.4650002 12.241 -0.76300001 55 32 18
5.4679999 12.243 -0.764 85 44 24
5.5250001 12.297 -0.74800003 102 72 61
5.4879999 12.278 -0.75099999 106 59 29
5.5079999 12.278 -0.75400001 64 27 9
5.494 12.285 -0.74699998 107 67 42
5.4959998 12.282 -0.74599999 166 135 115
5.4679999 12.264 -0.76899999 125 99 84
5.4619999 12.261 -0.764 73 32 10
5.4549999 12.276 -0.76300001 128 109 103
5.4879999 12.28 -0.75 115 66 33
5.4520001 12.254 -0.89399999 84 24 0
5.4460001 12.253 -0.89499998 128 83 60
5.4460001 12.249 -0.89499998 52 41 39
5.4450002 12.25 -0.88700002 101 60 42
5.4520001 12.245 -0.87800002 92 39 23
5.4349999 12.276 -0.86699998 50 16 7
5.4390001 12.26 -0.86500001 47 14 7
5.434 12.27 -0.85799998 104 74 66
5.4349999 12.277 -0.86199999 66 32 30
5.494 12.227 -0.88499999 58 30 29
5.5139999 12.239 -0.88 154 130 120
5.5229998 12.25 -0.86299998 29 11 9
5.5229998 12.255 -0.861 28 19 24
5.5100002 12.259 -0.82200003 89 51 50
5.526 12.256 -0.82200003 115 77 76
5.527 12.259 -0.81999999 52 32 23
5.5219998 12.259 -0.81400001 150 92 55
5.4829998 12.205 -0.80299997 82 31 4
5.526 12.286 -0.75400001 62 34 31
5.4310002 12.262 -0.74400002 129 85 56
5.4190001 12.265 -0.73500001 53 36 20
5.4250002 12.261 -0.73299998 54 27 18
5.4320002 12.26 -0.74299997 136 68 29
5.4120002 12.262 -0.72500002 68 37 35
5.415 12.27 -0.72000003 70 40 30
5.402 12.264 -0.70599997 89 55 27
5.4959998 12.297 -0.70200002 113 84 68
5.5019999 12.316 -0.69700003 68 42 29
5.5029998 12.316 -0.704 71 47 37
5.5029998 12.301 -0.69599998 48 29 25
5.4949999 12.293 -0.69700003 90 37 0
5.4759998 12.223 -0.79699999 71 29 7
5.473 12.232 -0.79500002 77 49 35
5.4809999 12.202 -0.78100002 96 64 49
5.4860001 12.209 -0.76999998 70 45 38
5.493 12.202 -0.792 47 18 2
5.4369998 12.255 -0.759 60 36 24
5.4310002 12.256 -0.75099999 81 50 32
5.428 12.259 -0.72500002 129 85 56
5.4330001 12.261 -0.72000003 84 55 41
5.4330001 12.275 -0.71499997 113 76 50
5.3920002 12.231 -0.704 88 62 47
5.3930001 12.238 -0.71700001 177 155 141
5.414 12.253 -0.73699999 71 43 32
5.4260001 12.239 -0.75099999 66 45 16
5.427 12.259 -0.74599999 51 19 8
5.4099998 12.245 -0.71899998 98 34 0
5.4250002 12.252 -0.72899997 136 65 23
5.52 12.269 -0.76599997 71 39 40
5.5029998 12.269 -0.77499998 71 49 38
5.5250001 12.272 -0.80000001 51 27 17
5.513 12.266 -0.792 52 30 19
5.513 12.271 -0.79100001 50 35 40
5.5139999 12.24 -0.88800001 180 160 153
5.447 12.273 -0.76099998 130 66 18
5.4499998 12.283 -0.76700002 176 150 137
5.4559999 12.23 -0.81300002 146 126 115
5.4359999 12.257 -0.76499999 82 31 4
5.467 12.242 -0.745 80 24 0
5.461 12.243 -0.75300002 77 30 10
5.4590001 12.24 -0.74900001 75 37 18
5.3899999 12.284 -0.671 89 68 49
5.3889999 12.278 -0.67400002 97 57 31
5.3909998 12.276 -0.64700001 101 41 5
5.3940001 12.272 -0.64899999 85 47 26
5.3920002 12.257 -0.66900003 46 27 29
5.3940001 12.251 -0.64999998 31 16 0
5.4039998 12.286 -0.66900003 94 35 5
5.4039998 12.293 -0.67400002 127 60 18
5.4289999 12.253 -0.722 144 79 41
5.434 12.252 -0.70700002 81 58 50
5.4390001 12.252 -0.708 138 71 29
5.4380002 12.257 -0.71399999 158 139 125
5.4000001 12.266 -0.64499998 159 87 37
5.4770002 12.242 -0.77200001 123 91 94
5.4660001 12.247 -0.76899999 84 29 9
5.4629998 12.251 -0.78799999 45 29 29
5.4569998 12.251 -0.78500003 45 21 9
5.447 12.247 -0.77499998 78 37 9
5.4679999 12.281 -0.79000002 169 126 109
5.467 12.269 -0.80900002 127 107 100
5.467 12.268 -0.79900002 49 13 0
5.4660001 12.273 -0.78500003 161 135 120
5.4549999 12.268 -0.77700001 42 17 10
5.4559999 12.262 -0.78500003 35 11 1
5.5100002 12.293 -0.73699999 127 98 82
5.5089998 12.277 -0.74699998 81 32 15
5.507 12.265 -0.78299999 84 37 11
5.4899998 12.281 -0.745 70 44 29
5.48 12.278 -0.75 40 13 4
5.473 12.271 -0.81099999 62 26 12
5.5149999 12.25 -0.76099998 112 47 9
5.4499998 12.254 -0.884 208 166 144
5.4850001 12.226 -0.88700002 110 30 0
5.4749999 12.226 -0.89300001 92 18 0
5.4770002 12.219 -0.89099997 186 151 132
5.513 12.238 -0.88099998 43 10 1
5.494 12.227 -0.86799997 48 18 20
5.4970002 12.234 -0.86400002 44 11 0
5.4959998 12.231 -0.85799998 26 14 18
5.5040002 12.243 -0.85399997 107 48 18
5.4959998 12.244 -0.86199999 32 9 1
5.4889998 12.249 -0.861 66 16 9
5.493 12.245 -0.85000002 91 53 32
5.5110002 12.259 -0.85000002 28 16 20
5.4559999 12.233 -0.838 56 22 10
5.4510002 12.241 -0.83899999 57 39 37
5.454 12.233 -0.824 124 83 55
5.494 12.253 -0.81 95 32 1
5.4829998 12.255 -0.81999999 51 27 15
5.493 12.251 -0.82099998 92 51 21
5.5029998 12.252 -0.81099999 141 78 45
5.5019999 12.256 -0.80500001 70 29 7
5.5110002 12.25 -0.81900001 65 45 36
5.4780002 12.252 -0.85799998 170 160 161
5.4759998 12.258 -0.84899998 41 25 26
5.4819999 12.252 -0.84799999 48 21 10
5.4660001 12.276 -0.86299998 63 45 45
5.4699998 12.27 -0.86400002 60 32 18
5.461 12.272 -0.875 51 4 0
5.4660001 12.267 -0.81599998 136 74 35
5.4419999 12.262 -0.77600002 90 45 24
5.4460001 12.265 -0.78299999 90 67 53
5.52 12.266 -0.80400002 105 82 68
5.5100002 12.252 -0.80500001 76 41 37
5.4330001 12.254 -0.70099998 65 44 17
5.3909998 12.255 -0.62599999 104 69 50
5.5050001 12.313 -0.69999999 121 103 101
5.5320001 12.299 -0.71499997 125 87 74
5.5440001 12.296 -0.72299999 128 83 42
5.4990001 12.296 -0.69800001 94 47 27
5.4980001 12.289 -0.70499998 73 44 30
5.4759998 12.226 -0.80000001 98 65 46
5.4990001 12.219 -0.82200003 67 11 0
5.5019999 12.207 -0.83499998 110 80 56
5.5050001 12.212 -0.833 57 24 15
5.4920001 12.213 -0.81300002 61 10 0
5.4970002 12.225 -0.80699998 71 28 0
5.4959998 12.218 -0.79699999 70 28 6
5.5100002 12.226 -0.80800003 82 41 13
5.494 12.22 -0.81599998 63 32 14
5.5079999 12.232 -0.79900002 31 16 21
5.434 12.257 -0.759 126 61 19
5.428 12.269 -0.71600002 90 70 63
5.4349999 12.275 -0.70700002 172 136 100
5.4349999 12.282 -0.71200001 72 42 31
5.4050002 12.251 -0.71399999 247 183 135
5.4099998 12.249 -0.70599997 85 63 50
5.415 12.251 -0.72799999 40 20 22
5.5349998 12.3 -0.73000002 115 54 7
5.5430002 12.294 -0.72299999 64 47 21
5.5289998 12.284 -0.75 53 31 20
5.5289998 12.276 -0.75700003 70 21 4
5.5170002 12.255 -0.755 156 125 104
5.5089998 12.27 -0.75199997 89 49 24
5.5019999 12.256 -0.73699999 146 115 95
5.5079999 12.268 -0.73900002 109 75 48
5.4949999 12.266 -0.74800003 116 98 94
5.448 12.279 -0.76700002 143 90 59
5.4530001 12.254 -0.76200002 81 48 33
5.4439998 12.259 -0.76200002 85 53 38
5.4450002 12.254 -0.76200002 117 72 41
5.4520001 12.274 -0.76999998 119 54 12
5.4549999 12.246 -0.755 69 14 0
5.4580002 12.248 -0.75800002 96 33 0
5.448 12.249 -0.86900002 146 135 139
5.4590001 12.223 -0.81699997 114 83 80
5.4520001 12.246 -0.83099997 57 42 39
5.4460001 12.253 -0.83999997 146 128 126
5.4699998 12.24 -0.74400002 95 32 0
5.4829998 12.25 -0.74599999 73 44 26
5.4899998 12.248 -0.73100001 92 63 47
5.4899998 12.248 -0.74199998 58 30 16
5.4650002 12.253 -0.75800002 66 25 7
5.4809999 12.261 -0.74299997 62 26 14
5.4860001 12.245 -0.764 42 27 30
5.487 12.247 -0.75999999 177 144 125
5.493 12.252 -0.75 51 4 0
5.5120001 12.26 -0.76099998 90 61 47
5.5009999 12.234 -0.76300001 89 44 11
5.527 12.259 -0.74599999 78 46 31
5.4899998 12.216 -0.77100003 70 37 22
5.4879999 12.21 -0.76999998 43 25 13
5.3860002 12.268 -0.65899998 63 24 7
5.3979998 12.286 -0.671 90 58 43
5.3870001 12.27 -0.667 116 80 66
5.408 12.286 -0.67500001 118 80 57
5.4060001 12.281 -0.671 65 44 27
5.3990002 12.276 -0.66000003 192 137 96
5.4219999 12.251 -0.71799999 67 47 38
5.395 12.26 -0.64600003 82 15 0
5.4829998 12.225 -0.78399998 42 16 3
5.4780002 12.243 -0.778 78 36 12
5.487 12.237 -0.77100003 83 47 23
5.4439998 12.249 -0.75999999 122 103 97
5.4510002 12.242 -0.79100001 115 83 68
5.4710002 12.239 -0.79900002 60 31 23
5.48 12.272 -0.80199999 110 78 55
5.4780002 12.259 -0.82300001 124 68 41
5.4720001 12.265 -0.82300001 114 80 55
5.5149999 12.262 -0.76899999 116 66 39
5.5310001 12.265 -0.745 59 35 25
5.5310001 12.266 -0.755 47 28 14
5.5279999 12.256 -0.755 70 48 37
5.4450002 12.25 -0.847 159 138 135
5.447 12.244 -0.86299998 54 26 15
5.4439998 12.266 -0.77200001 84 62 51
5.447 12.266 -0.87099999 152 107 88
5.4780002 12.222 -0.87599999 208 185 171
5.4899998 12.23 -0.88099998 119 41 3
5.454 12.256 -0.88700002 68 12 0
5.4530001 12.247 -0.87599999 72 39 22
5.4759998 12.23 -0.889 155 114 92
5.4790001 12.249 -0.88200003 72 16 3
5.4720001 12.265 -0.85600001 63 35 23
5.4949999 12.231 -0.84899998 56 22 12
5.5029998 12.242 -0.847 89 29 3
5.4889998 12.248 -0.82800001 66 24 0
5.4910002 12.248 -0.82300001 111 69 29
5.4910002 12.252 -0.824 110 79 61
5.4580002 12.237 -0.82200003 157 140 132
5.4569998 12.241 -0.82499999 124 100 90
5.5100002 12.258 -0.773 62 31 29
5.513 12.25 -0.81999999 90 60 58
5.5120001 12.237 -0.81900001 73 41 30
5.5089998 12.238 -0.82300001 27 11 14
5.4489999 12.242 -0.87 57 10 2
5.4770002 12.221 -0.884 175 148 131
5.454 12.291 -0.87300003 122 108 105
5.4520001 12.294 -0.87599999 62 9 0
5.4580002 12.27 -0.82200003 192 126 76
5.4640002 12.263 -0.801 40 24 24
5.4629998 12.255 -0.80900002 129 107 94
5.4629998 12.261 -0.80000001 88 55 38
5.46 12.257 -0.81599998 77 41 19
5.3899999 12.252 -0.69700003 160 134 121
5.3920002 12.25 -0.69599998 87 67 58
5.4390001 12.257 -0.70499998 159 140 126
5.4369998 12.26 -0.70099998 113 51 14
5.4959998 12.295 -0.72500002 173 106 61
5.5009999 12.284 -0.70599997 67 41 28
5.4980001 12.271 -0.704 99 70 56
5.4840002 12.196 -0.78799999 83 33 10
5.4889998 12.205 -0.80000001 52 30 17
5.4990001 12.208 -0.83499998 57 25 10
5.4910002 12.216 -0.80500001 49 23 8
5.5040002 12.218 -0.82800001 91 59 38
5.5019999 12.229 -0.82999998 106 90 91
5.5029998 12.213 -0.83600003 99 47 23
5.428 12.255 -0.75300002 45 27 27
5.4130001 12.26 -0.69499999 144 122 108
5.4920001 12.249 -0.722 45 39 43
5.4990001 12.254 -0.72799999 64 37 20
5.526 12.303 -0.73699999 103 43 6
5.5279999 12.3 -0.722 48 31 37
5.5370002 12.282 -0.72399998 79 59 48
5.5370002 12.282 -0.73500001 67 45 34
5.5339999 12.293 -0.73400003 82 40 16
5.526 12.28 -0.75599998 24 13 19
5.527 12.261 -0.76300001 53 29 17
5.5339999 12.273 -0.736 121 73 33
5.5089998 12.259 -0.722 79 60 56
5.4499998 12.281 -0.77100003 147 80 37
5.4549999 12.236 -0.74900001 81 36 7
5.4829998 12.255 -0.74299997 185 153 132
5.4889998 12.255 -0.73400003 102 71 51
5.4949999 12.21 -0.76700002 75 33 9
5.4990001 12.245 -0.76099998 69 38 20
5.4980001 12.254 -0.73500001 63 27 13
5.493 12.243 -0.78600001 50 1 0
5.494 12.241 -0.778 164 133 115
5.4970002 12.235 -0.77499998 40 24 27
5.4850001 12.212 -0.77499998 96 61 57
5.493 12.229 -0.76800001 94 48 22
5.402 12.26 -0.67400002 55 27 15
5.402 12.26 -0.66299999 87 58 44
5.3979998 12.253 -0.67699999 129 77 40
5.4050002 12.269 -0.66500002 56 38 38
5.4060001 12.267 -0.67400002 116 71 38
5.3969998 12.256 -0.65700001 101 59 19
5.402 12.268 -0.65899998 126 58 11
5.3969998 12.259 -0.65700001 62 30 17
5.4569998 12.25 -0.81900001 74 48 31
5.4549999 12.246 -0.796 60 34 19
5.4530001 12.248 -0.79000002 47 20 13
5.448 12.237 -0.75599998 55 17 4
5.4380002 12.245 -0.764 36 20 21
5.4330001 12.242 -0.75599998 66 26 14
5.52 12.269 -0.80800003 88 57 55
5.4959998 12.272 -0.77999997 52 15 6
5.4699998 12.281 -0.78899997 71 34 18
5.5120001 12.291 -0.73400003 90 43 13
5.4689999 12.266 -0.81999999 128 87 65
5.4549999 12.28 -0.83200002 56 34 21
5.4879999 12.219 -0.81699997 66 33 28
5.4770002 12.226 -0.81999999 75 45 45
5.4889998 12.22 -0.81999999 89 27 4
5.4400001 12.264 -0.85699999 55 27 23
5.441 12.265 -0.85000002 26 1 0
5.4450002 12.248 -0.84500003 54 39 36
5.4770002 12.242 -0.78500003 40 14 1
5.493 12.233 -0.86699998 183 114 72
5.4770002 12.234 -0.88499999 82 56 57
5.473 12.264 -0.85100001 158 139 133
5.507 12.242 -0.84399998 69 47 33
5.4990001 12.238 -0.83999997 112 94 82
5.4949999 12.221 -0.84500003 29 14 17
5.4590001 12.241 -0.83899999 52 34 30
5.4790001 12.231 -0.833 71 35 21
5.487 12.218 -0.83499998 107 71 47
5.4770002 12.232 -0.83999997 75 35 9
5.4759998 12.259 -0.83700001 44 30 29
5.4899998 12.25 -0.83899999 71 16 11
5.4949999 12.237 -0.833 116 103 97
5.4850001 12.23 -0.83700001 139 109 98
5.4949999 12.244 -0.77200001 105 55 28
5.4970002 12.218 -0.83600003 132 75 45
5.473 12.234 -0.87 65 45 34
5.4790001 12.227 -0.861 146 128 116
5.4770002 12.234 -0.85900003 48 9 0
5.4840002 12.227 -0.85799998 34 19 22
5.4710002 12.229 -0.88499999 81 54 37
5.4530001 12.294 -0.86900002 98 38 10
5.4419999 12.28 -0.85900003 29 14 9
5.4439998 12.266 -0.84600002 152 142 143
5.4549999 12.277 -0.86000001 167 110 67
5.46 12.279 -0.86000001 160 139 136
5.454 12.285 -0.86799997 134 75 43
5.4590001 12.262 -0.81900001 56 19 1
5.4619999 12.254 -0.79900002 87 31 14
5.4299998 12.267 -0.71100003 95 68 61
5.4390001 12.268 -0.708 104 63 33
5.4419999 12.271 -0.69599998 102 57 38
5.4349999 12.264 -0.69700003 161 139 125
5.4380002 12.269 -0.70099998 72 42 31
5.52 12.275 -0.72000003 110 58 21
5.5079999 12.279 -0.713 166 147 133
5.5229998 12.279 -0.71499997 144 122 109
5.507 12.286 -0.70999998 51 40 44
5.5279999 12.262 -0.73100001 71 42 24
5.493 12.29 -0.72299999 92 63 49
5.4949999 12.289 -0.71899998 132 72 38
5.4959998 12.287 -0.71499997 100 68 53
5.4949999 12.282 -0.72100002 133 114 100
5.5029998 12.294 -0.72100002 43 22 27
5.4949999 12.289 -0.73299998 116 52 16
5.4819999 12.213 -0.80699998 114 92 81
5.493 12.221 -0.787 69 35 34
5.4879999 12.208 -0.787 37 20 10
5.487 12.209 -0.80599999 70 37 22
5.4920001 12.209 -0.83200002 98 83 78
5.4959998 12.216 -0.83700001 69 31 12
5.5019999 12.212 -0.84299999 76 24 0
5.5089998 12.235 -0.81900001 61 38 22
5.5089998 12.235 -0.81099999 21 5 8
5.4310002 12.243 -0.76200002 86 62 50
5.4380002 12.251 -0.76700002 143 80 45
5.4390001 12.245 -0.76800001 62 22 0
5.4369998 12.254 -0.76599997 98 79 65
5.4070001 12.267 -0.67799997 101 72 56
5.3990002 12.242 -0.70099998 92 70 56
5.4029999 12.251 -0.69800001 248 219 211
5.4050002 12.251 -0.71399999 247 183 135
5.4250002 12.263 -0.71200001 90 36 8
5.487 12.257 -0.71700001 52 33 37
5.5310001 12.3 -0.722 72 45 34
5.533 12.284 -0.72500002 60 36 24
5.5110002 12.288 -0.727 71 42 46
5.526 12.291 -0.722 113 68 29
5.5370002 12.275 -0.74400002 34 23 27
5.5300002 12.278 -0.72500002 111 76 57
5.5100002 12.268 -0.72299999 59 39 30
5.461 12.23 -0.81699997 75 46 28
5.487 12.26 -0.73699999 81 47 46
5.4959998 12.25 -0.79000002 140 107 92
5.4959998 12.252 -0.79500002 49 11 0
5.5009999 12.25 -0.80299997 80 24 1
5.5100002 12.239 -0.80400002 59 37 26
5.4959998 12.225 -0.78600001 37 21 22
5.3990002 12.279 -0.68400002 94 77 70
5.4050002 12.267 -0.68000001 50 34 34
5.3930001 12.262 -0.69 54 31 17
5.3920002 12.257 -0.68199998 51 3 0
5.395 12.28 -0.67699999 92 38 4
5.3909998 12.277 -0.676 104 70 35
5.4050002 12.255 -0.685 186 163 147
5.4070001 12.273 -0.67000002 84 55 41
5.4580002 12.26 -0.792 69 18 1
5.4580002 12.259 -0.792 92 71 70
5.461 12.236 -0.81099999 85 69 69
5.4349999 12.241 -0.75099999 41 26 31
5.4520001 12.233 -0.75 75 39 27
5.4990001 12.259 -0.80299997 112 80 59
5.4910002 12.271 -0.79699999 70 18 4
5.4819999 12.282 -0.78600001 45 13 2
5.4809999 12.263 -0.764 96 51 18
5.5229998 12.258 -0.76599997 25 14 20
5.5289998 12.262 -0.75 109 64 25
5.454 12.258 -0.88200003 61 19 0
5.4400001 12.271 -0.86500001 48 26 13
5.4920001 12.245 -0.86699998 69 28 6
5.4629998 12.276 -0.85600001 41 26 29
5.4650002 12.246 -0.85000002 40 6 0
5.4699998 12.241 -0.85000002 42 1 0
5.4640002 12.237 -0.838 41 29 31
5.4819999 12.254 -0.83399999 158 132 109
5.48 12.235 -0.88 72 40 29
5.4770002 12.257 -0.86699998 93 46 28
5.4749999 12.251 -0.87400001 54 25 7
5.48 12.251 -0.87300003 186 144 119
5.4660001 12.267 -0.86699998 37 16 11
5.4499998 12.242 -0.87099999 36 16 15
5.5079999 12.246 -0.81800002 133 71 32
5.4840002 12.223 -0.86900002 29 17 19
5.4790001 12.226 -0.86900002 192 173 159
5.4899998 12.23 -0.85900003 137 74 41
5.4419999 12.281 -0.86299998 71 50 47
5.4580002 12.26 -0.81900001 63 35 34
5.4310002 12.265 -0.708 127 107 108
5.494 12.257 -0.708 79 50 54
5.5040002 12.3 -0.69700003 74 54 56
5.4959998 12.288 -0.713 78 36 20
5.4949999 12.285 -0.736 61 23 10
5.4860001 12.2 -0.78100002 42 18 6
5.4790001 12.199 -0.78600001 59 24 5
5.3899999 12.236 -0.70200002 138 80 43
5.4850001 12.255 -0.72299999 81 47 48
5.494 12.253 -0.71399999 133 76 33
5.4949999 12.261 -0.70899999 111 83 61
5.4860001 12.263 -0.72799999 121 71 36
5.4920001 12.271 -0.73900002 104 67 38
5.5110002 12.286 -0.71399999 141 91 58
5.5320001 12.266 -0.736 89 60 46
5.527 12.264 -0.74000001 141 86 55
5.526 12.276 -0.72600001 99 67 54
5.5040002 12.272 -0.71700001 143 81 32
5.4959998 12.269 -0.70899999 42 23 19
5.4920001 12.252 -0.74299997 52 6 0
5.513 12.238 -0.80400002 63 31 18
5.4980001 12.216 -0.76999998 68 44 34
5.494 12.224 -0.77399999 50 26 16
5.3870001 12.27 -0.65799999 120 76 39
5.3909998 12.275 -0.667 75 49 52
5.3899999 12.264 -0.671 140 92 44
5.3969998 12.269 -0.69 51 22 8
5.3940001 12.269 -0.685 92 36 13
5.3959999 12.264 -0.69199997 52 21 18
5.3909998 12.274 -0.68099999 118 98 100
5.4050002 12.256 -0.68900001 103 58 17
5.3979998 12.249 -0.69499999 177 151 138
5.4499998 12.253 -0.78299999 58 4 0
5.4429998 12.258 -0.77700001 120 105 108
5.4520001 12.259 -0.78899997 36 20 21
5.4559999 12.258 -0.824 29 1 0
5.448 12.266 -0.83499998 53 20 3
5.4510002 12.235 -0.75 67 45 34
5.5029998 12.263 -0.78100002 91 56 34
5.4809999 12.28 -0.787 49 19 9
5.4889998 12.264 -0.75800002 83 47 35
5.494 12.273 -0.79000002 68 19 5
5.487 12.28 -0.78200001 122 77 56
5.4840002 12.225 -0.82800001 90 26 1
5.507 12.227 -0.80699998 52 26 11
5.4569998 12.247 -0.85900003 68 32 16
5.4580002 12.272 -0.875 45 18 9
5.474 12.226 -0.88599998 86 13 0
5.4660001 12.267 -0.84500003 40 3 0
5.4650002 12.268 -0.85000002 50 32 32
5.4689999 12.266 -0.84899998 56 28 14
5.4549999 12.272 -0.82999998 72 33 18
5.4510002 12.27 -0.85000002 143 111 86
5.4720001 12.264 -0.84100002 104 90 81
5.487 12.252 -0.83399999 153 140 134
5.4819999 12.244 -0.87599999 82 54 43
5.4889998 12.249 -0.86799997 71 16 0
5.4549999 12.257 -0.88 56 3 0
5.4759998 12.229 -0.87300003 96 56 30
5.473 12.234 -0.87 65 45 34
5.474 12.24 -0.86299998 178 160 150
5.4850001 12.227 -0.86299998 63 31 18
5.493 12.275 -0.70999998 81 47 48
5.4949999 12.257 -0.708 43 25 21
5.4959998 12.285 -0.73900002 81 24 4
5.4070001 12.254 -0.69999999 173 111 64
5.487 12.264 -0.73900002 65 27 6
5.527 12.268 -0.75800002 45 26 12
5.5100002 12.265 -0.73299998 126 67 33
5.4660001 12.237 -0.82300001 127 108 101
5.4920001 12.251 -0.736 81 31 6
5.5029998 12.23 -0.76700002 108 75 60
5.5 12.211 -0.76899999 104 61 29
5.3990002 12.252 -0.68400002 55 29 16
5.4439998 12.253 -0.77700001 82 37 4
5.4460001 12.256 -0.833 148 133 130
5.454 12.258 -0.829 74 36 17
5.4840002 12.264 -0.80199999 78 22 7
5.4819999 12.259 -0.76099998 51 27 17
5.4840002 12.276 -0.78100002 119 87 62
5.4860001 12.269 -0.77999997 184 146 127
5.5100002 12.267 -0.79100001 107 61 38
5.5159998 12.28 -0.71600002 54 18 6
5.4549999 12.247 -0.86400002 51 8 1
5.46 12.278 -0.86799997 176 153 147
5.4679999 12.245 -0.86299998 26 7 1
5.4860001 12.239 -0.87400001 83 57 40
5.473 12.235 -0.87800002 54 30 18
5.4970002 12.283 -0.70700002 107 89 79
5.4959998 12.288 -0.72899997 74 38 26
5.4910002 12.266 -0.72299999 106 88 78
5.447 12.269 -0.83600003 160 93 48
5.4520001 12.272 -0.83399999 145 126 119
5.4559999 12.275 -0.83399999 132 104 82
5.5050001 12.293 -0.72899997 103 61 36
5.402 12.255 -0.71100003 81 35 9
5.4000001 12.258 -0.70700002 102 91 95
5.48 12.226 -0.78799999 51 27 17
5.4050002 12.262 -0.69400001 49 35 34
5.4840002 12.278 -0.787 123 100 84
5.48 12.27 -0.77999997 72 19 1
5.3959999 12.256 -0.70300001 71 42 28
0 0 0 1 0 0 0 1 0 0 0 1 0 0 0 0 0 639 1 0 0
