ply
format ascii 1.0
comment PCL generated
element vertex 208
property float x
property float y
property float z
property uchar red
property uchar green
property uchar blue
element camera 1
property float view_px
property float view_py
property float view_pz
property float x_axisx
property float x_axisy
property float x_axisz
property float y_axisx
property float y_axisy
property float y_axisz
property float z_axisx
property float z_axisy
property float z_axisz
property float focal
property float scalex
property float scaley
property float centerx
property float centery
property int viewportx
property int viewporty
property float k1
property float k2
end_header
-11.59 10.047 -1.102 169 109 47
-11.591 10.047 -1.1160001 152 74 28
-11.592 10.041 -1.1109999 214 168 116
-11.589 10.058 -1.112 231 184 128
-11.601 10.018 -0.93199998 244 193 110
-11.598 10.03 -0.93099999 132 98 73
-11.593 10.015 -0.93099999 176 139 112
-11.607 10.005 -0.94800001 193 101 34
-11.625 10.02 -0.93900001 84 29 0
-11.622 10.018 -0.95099998 228 134 73
-11.644 10.05 -1.094 233 148 81
-11.646 10.049 -1.117 219 168 115
-11.652 10.05 -1.113 202 142 92
-11.644 10.056 -1.115 249 175 76
-11.653 10.054 -1.115 246 177 76
-11.591 10.097 -1.087 182 130 91
-11.588 10.092 -1.0880001 192 134 71
-11.594 10.099 -1.097 206 161 102
-11.585 10.091 -1.079 169 115 77
-11.638 10.05 -1.0880001 203 141 92
-11.629 10.039 -1.089 170 106 58
-11.597 10.029 -0.949 171 74 6
-11.582 10.017 -0.94300002 190 110 47
-11.604 10.043 -0.93199998 193 94 29
-11.59 10.054 -1.1059999 244 194 123
-11.62 10.024 -0.93400002 142 80 41
-11.609 10.042 -0.93000001 219 161 88
-11.599 10.026 -0.93199998 170 112 66
-11.599 10.019 -0.93199998 197 133 87
-11.595 10.025 -0.93199998 255 200 125
-11.594 10.018 -0.95099998 118 61 18
-11.592 10.015 -0.94400001 217 164 132
-11.585 10.014 -0.94400001 164 129 107
-11.601 10.005 -0.93900001 143 85 37
-11.594 10.06 -1.12 162 102 52
-11.612 10.054 -1.125 124 53 0
-11.595 10.051 -1.118 146 82 38
-11.595 10.042 -1.115 65 32 17
-11.61 10.057 -1.117 147 57 5
-11.593 10.063 -1.117 134 42 0
-11.602 10.061 -1.112 161 101 47
-11.593 10.094 -1.089 233 134 49
-11.602 10.038 -1.001 124 101 87
-11.605 10.043 -0.99400002 197 106 36
-11.591 10.033 -0.98699999 153 109 82
-11.604 10.045 -1.0039999 145 112 93
-11.602 10.034 -0.93699998 129 86 52
-11.62 10.024 -0.94599998 139 76 33
-11.617 10.019 -0.93800002 149 89 52
-11.606 10.012 -0.93599999 148 108 73
-11.605 10.046 -0.963 198 107 54
-11.6 10.038 -0.97000003 214 121 51
-11.603 10.031 -0.95899999 167 116 85
-11.603 10.05 -0.97100002 169 74 6
-11.63 10.05 -0.99299997 226 151 86
-11.633 10.061 -0.98900002 165 89 37
-11.63 10.059 -0.98000002 168 82 25
-11.608 10.061 -0.96100003 142 86 53
-11.617 10.069 -0.977 135 86 53
-11.617 10.056 -0.95999998 209 122 55
-11.629 10.066 -0.986 116 93 77
-11.595 10.042 -1.095 201 152 93
-11.607 10.034 -1.107 158 94 48
-11.592 10.06 -1.1160001 236 137 69
-11.619 10.063 -1.102 128 51 0
-11.613 10.056 -1.113 153 85 10
-11.589 10.089 -1.087 139 72 27
-11.606 10.067 -1.028 197 143 83
-11.607 10.061 -1.029 231 180 115
-11.604 10.06 -1.01 190 139 74
-11.614 10.048 -1.053 148 63 9
-11.624 10.048 -1.044 127 63 15
-11.61 10.047 -1.052 183 115 42
-11.626 10.047 -1.035 111 70 40
-11.629 10.048 -1.038 127 100 83
-11.619 10.04 -1.01 174 105 48
-11.604 10.037 -1.002 160 118 93
-11.613 10.039 -1 156 84 26
-11.61 10.043 -1.0089999 151 102 59
-11.608 10.048 -1.01 121 51 0
-11.593 10.021 -0.94999999 228 161 82
-11.601 10.042 -0.972 161 84 38
-11.587 10.019 -0.94 210 155 99
-11.614 10.059 -0.97399998 167 95 36
-11.613 10.063 -0.97000003 211 119 54
-11.609 10.07 -0.97299999 229 136 67
-11.595 10.031 -0.98500001 185 127 87
-11.604 10.03 -0.97500002 119 86 67
-11.606 10.012 -0.954 100 61 30
-11.617 10.026 -0.95700002 154 84 24
-11.627 10.056 -0.986 162 96 46
-11.626 10.046 -1.02 139 113 100
-11.627 10.057 -1.012 146 85 38
-11.628 10.055 -1.027 148 85 34
-11.623 10.049 -1.024 137 93 48
-11.623 10.042 -1.018 149 108 78
-11.619 10.049 -1.01 150 80 20
-11.596 10.063 -1.1109999 227 131 55
-11.634 10.065 -0.99400002 241 174 95
-11.621 10.071 -0.986 114 59 28
-11.619 10.07 -0.99299997 130 83 53
-11.6 10.058 -0.98000002 140 82 45
-11.607 10.05 -0.93199998 200 111 51
-11.616 10.068 -0.99000001 194 140 102
-11.607 10.063 -0.97799999 150 90 36
-11.608 10.052 -1.12 191 143 97
-11.604 10.037 -1.1109999 248 171 101
-11.614 10.053 -1.071 207 136 72
-11.617 10.043 -1.089 142 111 91
-11.625 10.046 -1.091 109 65 40
-11.631 10.049 -1.0930001 193 126 48
-11.622 10.059 -1.089 209 139 88
-11.612 10.054 -1.122 183 110 33
-11.612 10.055 -1.112 149 83 23
-11.598 10.092 -1.094 175 115 78
-11.606 10.071 -1.05 114 82 67
-11.613 10.075 -1.041 151 82 25
-11.617 10.079 -1.058 156 110 74
-11.614 10.078 -1.023 207 139 90
-11.629 10.061 -1.05 157 101 54
-11.622 10.059 -1.069 204 137 85
-11.629 10.069 -1.071 200 117 51
-11.627 10.043 -1.086 211 146 88
-11.621 10.049 -1.0829999 206 137 62
-11.618 10.076 -1.073 101 68 51
-11.613 10.063 -1.074 223 153 83
-11.614 10.065 -1.081 166 73 14
-11.611 10.049 -1.031 151 77 30
-11.607 10.045 -1 146 76 24
-11.614 10.046 -1.013 137 52 0
-11.623 10.049 -0.99800003 159 95 47
-11.592 10.023 -0.94599998 164 93 41
-11.592 10.022 -0.94199997 204 128 68
-11.61 10.064 -0.96899998 146 96 59
-11.603 10.023 -0.95700002 231 151 88
-11.599 10.03 -0.98900002 143 111 96
-11.616 10.044 -0.991 134 58 0
-11.61 10.033 -0.97100002 178 99 30
-11.609 10.037 -0.97100002 200 114 57
-11.608 10.048 -0.963 170 100 30
-11.61 10.06 -1.092 207 136 92
-11.614 10.063 -1.09 133 77 30
-11.609 10.059 -1.079 120 75 34
-11.61 10.056 -0.98799998 154 68 9
-11.623 10.065 -0.99699998 159 108 61
-11.606 10.051 -1.084 185 109 47
-11.598 10.056 -1.0549999 124 75 45
-11.603 10.038 -1.107 227 174 108
-11.604 10.047 -1.027 175 121 61
-11.62 10.055 -1.08 183 133 72
-11.624 10.069 -1.075 207 134 57
-11.642 10.053 -1.096 188 111 21
-11.589 10.089 -1.084 197 136 92
-11.612 10.074 -1.059 148 77 15
-11.599 10.061 -1.058 127 63 28
-11.607 10.064 -1.048 131 61 1
-11.605 10.06 -1.049 216 165 100
-11.62 10.076 -1.016 193 145 122
-11.63 10.077 -1.033 103 35 0
-11.621 10.078 -1.0319999 191 98 31
-11.625 10.075 -1.035 159 94 28
-11.616 10.066 -0.99599999 182 106 56
-11.622 10.058 -1.034 178 104 67
-11.618 10.062 -1.059 141 68 13
-11.616 10.068 -1.045 187 116 60
-11.626 10.072 -1.075 213 137 79
-11.597 10.027 -0.93599999 180 109 57
-11.596 10.025 -0.94 140 78 27
-11.605 10.015 -0.935 184 130 84
-11.616 10.032 -0.97100002 145 78 25
-11.608 10.048 -0.954 109 72 45
-11.597 10.053 -1.096 98 66 43
-11.613 10.061 -1.099 149 55 3
-11.611 10.052 -0.99199998 158 98 35
-11.608 10.058 -0.98100001 211 161 112
-11.628 10.056 -0.99599999 155 78 24
-11.601 10.045 -1.0930001 82 50 35
-11.602 10.056 -1.043 209 146 77
-11.607 10.048 -1.027 84 57 46
-11.606 10.061 -1.068 245 196 129
-11.62 10.076 -1.023 147 100 72
-11.614 10.062 -1.011 170 99 45
-11.614 10.068 -1.017 124 62 21
-11.622 10.075 -1.064 227 173 109
-11.616 10.077 -1.066 192 142 93
-11.616 10.063 -1.0880001 134 69 11
-11.611 10.051 -1.0420001 173 106 36
-11.614 10.06 -0.99900001 180 118 71
-11.622 10.065 -1.011 112 61 16
-11.61 10.013 -0.94099998 254 189 99
-11.606 10.027 -0.96100003 195 118 38
-11.617 10.027 -0.95200002 226 149 59
-11.609 10.052 -0.95899999 154 77 31
-11.595 10.048 -1.097 177 94 26
-11.61 10.056 -1.104 182 131 88
-11.613 10.062 -0.98299998 188 127 62
-11.609 10.049 -0.991 179 110 55
-11.602 10.055 -1.053 190 123 52
-11.591 10.09 -1.084 223 137 76
-11.62 10.066 -1.023 83 54 36
-11.616 10.078 -1.069 107 56 13
-11.608 10.05 -1.043 115 43 0
-11.624 10.065 -1.0140001 172 113 45
-11.614 10.017 -0.94499999 159 93 58
-11.606 10.025 -0.95099998 235 165 105
-11.613 10.056 -1.1 122 57 0
-11.606 10.051 -1.03 152 97 58
-11.611 10.024 -0.94599998 146 74 34
0 0 0 1 0 0 0 1 0 0 0 1 0 0 0 0 0 208 1 0 0
