ply
format ascii 1.0
comment PCL generated
element vertex 103
property float x
property float y
property float z
property uchar red
property uchar green
property uchar blue
element camera 1
property float view_px
property float view_py
property float view_pz
property float x_axisx
property float x_axisy
property float x_axisz
property float y_axisx
property float y_axisy
property float y_axisz
property float z_axisx
property float z_axisy
property float z_axisz
property float focal
property float scalex
property float scaley
property float centerx
property float centery
property int viewportx
property int viewporty
property float k1
property float k2
end_header
-14.594 -5.2210002 -1.029 94 17 0
-14.6 -5.2199998 -1.0319999 144 63 18
-14.594 -5.2220001 -1.031 179 162 154
-14.597 -5.2259998 -1.03 110 30 0
-14.594 -5.2270002 -1.017 111 32 0
-14.614 -5.1939998 -0.93699998 181 128 94
-14.616 -5.1900001 -0.93599999 130 80 45
-14.617 -5.1880002 -0.94099998 113 47 12
-14.61 -5.2140002 -0.92900002 133 97 81
-14.612 -5.2080002 -0.94099998 144 73 27
-14.615 -5.2140002 -0.949 141 64 10
-14.612 -5.217 -0.95599997 148 66 29
-14.618 -5.23 -0.958 178 150 139
-14.615 -5.2059999 -0.95700002 128 67 22
-14.613 -5.198 -0.97600001 78 46 35
-14.61 -5.2210002 -0.96700001 175 102 67
-14.614 -5.2020001 -0.92799997 108 74 39
-14.615 -5.2080002 -0.92799997 192 120 70
-14.635 -5.2449999 -0.97600001 162 62 0
-14.64 -5.2490001 -0.97399998 160 121 90
-14.644 -5.2459998 -0.977 160 111 71
-14.636 -5.25 -0.97000003 158 75 21
-14.61 -5.2259998 -0.96399999 132 99 68
-14.613 -5.2329998 -0.98000002 237 152 95
-14.622 -5.211 -0.93400002 123 97 70
-14.619 -5.2030001 -0.93400002 121 48 7
-14.618 -5.2140002 -0.92799997 174 112 53
-14.623 -5.1820002 -0.94099998 107 38 7
-14.621 -5.1869998 -0.93699998 186 131 92
-14.628 -5.184 -0.93199998 143 94 64
-14.629 -5.1799998 -0.93900001 133 84 44
-14.643 -5.2470002 -0.96899998 217 117 55
-14.595 -5.2210002 -1.007 129 48 1
-14.594 -5.2210002 -1.0140001 119 35 0
-14.589 -5.2280002 -1.005 125 50 11
-14.601 -5.2249999 -0.99400002 93 20 0
-14.596 -5.2329998 -1.005 210 123 56
-14.611 -5.2199998 -0.98299998 82 43 2
-14.624 -5.2010002 -0.98400003 71 30 0
-14.63 -5.2010002 -0.986 115 67 29
-14.623 -5.197 -0.98000002 84 29 0
-14.63 -5.2010002 -0.97399998 128 80 44
-14.626 -5.1820002 -0.94700003 113 64 34
-14.641 -5.2360001 -0.97399998 109 46 15
-14.594 -5.2210002 -1.022 96 15 0
-14.621 -5.2150002 -0.94400001 175 94 41
-14.62 -5.2259998 -0.95700002 187 100 46
-14.604 -5.2309999 -1.001 202 114 50
-14.603 -5.2309999 -1.024 165 76 20
-14.62 -5.2309999 -0.986 136 107 89
-14.607 -5.2249999 -0.99599999 117 86 68
-14.626 -5.2249999 -0.98900002 114 80 53
-14.621 -5.2309999 -0.98299998 118 82 48
-14.632 -5.2399998 -0.97899997 168 136 121
-14.63 -5.237 -0.96899998 109 31 0
-14.593 -5.2290001 -1.0140001 229 135 73
-14.598 -5.2270002 -1.007 159 113 89
-14.614 -5.2030001 -0.97299999 139 89 56
-14.614 -5.2150002 -0.97600001 147 117 107
-14.609 -5.217 -0.99400002 87 22 0
-14.625 -5.2129998 -0.98299998 99 61 25
-14.627 -5.217 -0.97299999 150 76 29
-14.634 -5.2290001 -0.97299999 115 78 49
-14.635 -5.2220001 -0.93900001 154 106 70
-14.633 -5.237 -0.98299998 119 40 0
-14.613 -5.204 -0.94499999 132 88 51
-14.618 -5.2290001 -0.96700001 148 96 48
-14.622 -5.2280002 -0.96200001 213 145 96
-14.598 -5.2270002 -1.022 78 28 1
-14.6 -5.223 -0.99699998 170 106 60
-14.624 -5.2069998 -0.98900002 129 95 70
-14.621 -5.2189999 -0.98799998 88 24 0
-14.6 -5.2199998 -1.006 141 68 15
-14.628 -5.1939998 -0.93400002 68 37 8
-14.626 -5.1919999 -0.93599999 142 87 57
-14.623 -5.198 -0.963 94 47 17
-14.615 -5.2140002 -0.96100003 139 71 24
-14.621 -5.1929998 -0.95200002 138 107 78
-14.618 -5.1919999 -0.94400001 140 64 14
-14.629 -5.2160001 -0.94999999 126 78 42
-14.622 -5.2259998 -0.96200001 136 81 42
-14.638 -5.2220001 -0.94099998 108 61 33
-14.62 -5.23 -0.972 76 53 12
-14.606 -5.2210002 -0.99299997 110 38 0
-14.624 -5.217 -0.986 96 52 27
-14.598 -5.2199998 -1.0190001 130 51 0
-14.599 -5.2220001 -1.0089999 155 92 48
-14.603 -5.223 -1 168 91 45
-14.599 -5.223 -1.008 144 124 113
-14.624 -5.197 -0.93400002 195 120 78
-14.635 -5.2020001 -0.95499998 125 91 56
-14.628 -5.2119999 -0.95200002 152 125 98
-14.626 -5.224 -0.96799999 166 131 112
-14.624 -5.197 -0.972 110 57 26
-14.626 -5.198 -0.96799999 144 94 57
-14.633 -5.204 -0.94999999 156 108 72
-14.635 -5.1989999 -0.95899999 70 12 0
-14.639 -5.2199998 -0.93900001 185 101 41
-14.625 -5.197 -0.96499997 104 49 28
-14.625 -5.197 -0.954 123 74 33
-14.627 -5.2049999 -0.96499997 79 21 0
-14.627 -5.2069998 -0.93900001 195 139 92
-14.63 -5.198 -0.95099998 72 9 0
0 0 0 1 0 0 0 1 0 0 0 1 0 0 0 0 0 103 1 0 0
