ply
format ascii 1.0
comment PCL generated
element vertex 1006
property float x
property float y
property float z
property uchar red
property uchar green
property uchar blue
element camera 1
property float view_px
property float view_py
property float view_pz
property float x_axisx
property float x_axisy
property float x_axisz
property float y_axisx
property float y_axisy
property float y_axisz
property float z_axisx
property float z_axisy
property float z_axisz
property float focal
property float scalex
property float scaley
property float centerx
property float centery
property int viewportx
property int viewporty
property float k1
property float k2
end_header
-1.281 -1.839 -1.027 172 155 137
-1.2640001 -1.845 -1.029 42 29 0
-1.273 -1.829 -1.03 129 112 58
-1.3430001 -1.757 -0.99000001 214 200 93
-1.341 -1.753 -0.99199998 81 69 29
-1.349 -1.745 -0.97799999 147 129 127
-1.253 -1.993 -1.028 184 164 155
-1.261 -1.9960001 -1.0140001 168 148 141
-1.258 -1.995 -1.015 65 51 14
-1.143 -1.959 -1.02 176 156 93
-1.138 -1.956 -1.023 144 139 99
-1.149 -1.957 -1.0089999 154 102 29
-1.145 -1.952 -1.0190001 176 139 84
-1.147 -1.9400001 -1.013 150 116 68
-1.137 -1.9450001 -1.025 120 83 38
-1.142 -1.9450001 -1.03 126 94 37
-1.142 -1.927 -1.0369999 164 144 137
-1.373 -1.818 -0.977 138 121 114
-1.378 -1.8049999 -0.97799999 195 128 47
-1.363 -1.8 -0.97899997 185 148 121
-1.396 -1.961 -1.0190001 125 104 59
-1.387 -1.966 -1.0190001 171 171 173
-1.398 -1.979 -1.008 174 152 32
-1.369 -1.9680001 -1.022 141 137 90
-1.357 -1.966 -1.016 170 146 110
-1.358 -1.985 -1.022 253 234 105
-1.376 -1.971 -1.026 136 119 63
-1.347 -1.977 -1.02 154 154 154
-1.3430001 -1.8710001 -1.006 173 114 14
-1.346 -1.867 -1.0089999 129 121 100
-1.344 -1.865 -1.011 61 54 10
-1.276 -1.8329999 -1.018 238 174 77
-1.415 -1.8710001 -0.995 134 113 92
-1.4119999 -1.865 -0.99199998 205 156 77
-1.423 -1.854 -0.99400002 181 153 129
-1.414 -1.855 -0.99599999 143 97 20
-1.391 -1.975 -1.01 236 203 106
-1.369 -1.982 -1.0089999 210 174 78
-1.365 -1.9809999 -1.013 145 139 141
-1.249 -1.987 -1.03 150 127 77
-1.2539999 -1.99 -1.03 106 87 31
-1.249 -1.989 -1.027 188 154 108
-1.2589999 -1.99 -1.03 63 47 0
-1.365 -1.8049999 -0.98299998 237 163 68
-1.4 -1.965 -1.0039999 239 223 125
-1.399 -1.972 -1.005 239 197 99
-1.405 -1.959 -1.013 133 101 60
-1.337 -1.916 -0.99699998 125 111 66
-1.344 -1.919 -0.99199998 245 218 103
-1.3380001 -1.928 -1.0039999 44 42 30
-1.34 -1.926 -0.99900001 97 77 4
-1.334 -1.903 -0.99599999 255 225 135
-1.339 -1.897 -0.99400002 180 120 10
-1.267 -1.987 -1.007 121 104 97
-1.252 -1.9809999 -1.006 209 198 74
-1.249 -1.985 -1.011 191 193 146
-1.303 -1.905 -0.995 250 232 132
-1.3 -1.91 -0.99800003 175 111 40
-1.303 -1.908 -0.99599999 165 165 165
-1.301 -1.906 -0.99699998 254 234 135
-1.245 -1.887 -1.001 122 77 48
-1.229 -1.9 -0.99900001 140 132 111
-1.224 -1.897 -1 108 104 33
-1.25 -1.903 -0.99400002 157 115 77
-1.365 -1.737 -0.98500001 90 74 22
-1.367 -1.738 -0.98500001 116 98 32
-1.365 -1.737 -0.98799998 173 156 102
-1.37 -1.739 -0.99199998 197 116 27
-1.377 -1.747 -0.99599999 231 162 67
-1.1339999 -1.915 -1.03 147 138 35
-1.133 -1.9170001 -1.028 165 135 63
-1.225 -1.847 -1.0190001 126 102 68
-1.2460001 -1.846 -1.018 228 162 42
-1.227 -1.859 -1.0089999 118 87 58
-1.239 -1.835 -1.024 68 40 3
-1.352 -1.742 -0.98699999 96 84 12
-1.352 -1.7410001 -0.98699999 150 134 56
-1.351 -1.7410001 -0.99699998 173 131 91
-1.266 -1.835 -1.02 234 173 67
-1.272 -1.8430001 -1.01 131 97 60
-1.401 -1.857 -1.0039999 94 77 34
-1.408 -1.862 -0.995 97 90 22
-1.313 -1.901 -1 159 124 30
-1.3150001 -1.908 -1.01 96 58 0
-1.324 -1.906 -0.99800003 205 186 66
-1.295 -1.903 -0.99900001 152 135 65
-1.307 -1.9 -0.99199998 185 165 106
-1.3049999 -1.9 -0.99800003 182 153 77
-1.276 -1.863 -1.017 54 59 18
-1.27 -1.859 -1.0140001 197 207 138
-1.34 -1.854 -1.01 91 85 27
-1.378 -1.975 -0.99699998 231 223 124
-1.38 -1.975 -0.99599999 203 141 68
-1.383 -1.967 -0.99199998 137 103 68
-1.378 -1.969 -0.99699998 254 249 147
-1.358 -1.962 -0.99699998 164 147 59
-1.3150001 -1.931 -1.011 72 57 14
-1.311 -1.949 -1.013 253 230 118
-1.323 -1.954 -1.015 98 95 52
-1.311 -1.943 -1.011 159 145 84
-1.295 -1.942 -1.011 141 107 18
-1.311 -1.937 -1.01 138 96 24
-1.331 -1.899 -0.99299997 194 163 142
-1.335 -1.829 -0.995 165 154 65
-1.34 -1.845 -0.98799998 143 143 117
-1.327 -1.837 -1.007 184 196 86
-1.3430001 -1.832 -0.98100001 140 123 31
-1.359 -1.846 -0.97500002 232 220 148
-1.3609999 -1.8430001 -0.97399998 204 189 106
-1.337 -1.813 -0.99299997 182 129 37
-1.341 -1.8049999 -0.99299997 135 101 27
-1.349 -1.822 -0.98500001 220 141 40
-1.41 -1.867 -0.99400002 142 118 44
-1.387 -1.971 -1.013 254 203 98
-1.375 -1.975 -1.012 163 163 163
-1.393 -1.974 -1.01 249 213 139
-1.378 -1.978 -1.0039999 254 200 100
-1.386 -1.975 -0.99900001 184 144 48
-1.387 -1.97 -0.99400002 163 149 78
-1.3890001 -1.962 -0.991 170 152 66
-1.3890001 -1.965 -0.99299997 155 118 89
-1.365 -1.749 -0.98000002 239 223 174
-1.3660001 -1.744 -0.98000002 100 81 38
-1.381 -1.799 -0.97899997 206 167 138
-1.261 -1.8329999 -1.03 96 64 15
-1.274 -1.987 -1.03 109 93 16
-1.2690001 -1.988 -1.03 106 94 20
-1.351 -1.971 -1.002 255 250 150
-1.339 -1.977 -1.008 140 141 136
-1.35 -1.983 -1.013 184 147 56
-1.359 -1.966 -1 177 164 62
-1.39 -1.795 -0.98699999 228 192 160
-1.388 -1.779 -0.99599999 127 80 0
-1.39 -1.779 -0.99400002 130 116 105
-1.151 -1.9579999 -1.0140001 103 81 40
-1.138 -1.929 -1.026 167 132 76
-1.1569999 -1.924 -1.03 89 87 26
-1.1569999 -1.929 -1.029 50 51 17
-1.346 -1.753 -0.98699999 116 109 39
-1.383 -1.957 -0.991 178 136 114
-1.421 -1.851 -0.98699999 148 139 80
-1.174 -1.9299999 -0.99299997 191 171 46
-1.1799999 -1.928 -0.991 210 163 85
-1.173 -1.926 -0.99199998 53 34 0
-1.175 -1.931 -0.99299997 204 156 82
-1.169 -1.937 -0.99699998 193 185 112
-1.177 -1.9349999 -0.995 248 230 156
-1.174 -1.946 -1.0039999 227 204 108
-1.25 -1.982 -1.008 185 125 29
-1.2589999 -1.984 -1.011 174 154 147
-1.326 -1.9069999 -0.991 255 227 125
-1.322 -1.905 -0.99299997 179 160 92
-1.301 -1.946 -1.01 254 233 126
-1.299 -1.903 -0.99699998 255 238 150
-1.298 -1.904 -0.99800003 254 240 152
-1.251 -1.887 -1.0039999 161 124 56
-1.235 -1.891 -1.002 137 95 19
-1.418 -1.844 -0.991 196 139 70
-1.42 -1.846 -0.98799998 172 113 47
-1.385 -1.771 -0.995 130 113 103
-1.3940001 -1.77 -0.98699999 178 161 81
-1.411 -1.832 -0.98799998 197 150 78
-1.4069999 -1.846 -0.97899997 143 124 58
-1.146 -1.9 -1.03 166 154 46
-1.142 -1.903 -1.027 250 239 133
-1.142 -1.903 -1.025 227 218 97
-1.249 -1.841 -1.028 123 102 55
-1.353 -1.74 -0.98799998 142 127 34
-1.3559999 -1.743 -0.98400003 183 173 88
-1.249 -1.839 -1.022 132 108 64
-1.166 -1.923 -0.99900001 183 163 154
-1.165 -1.9069999 -1.008 101 85 36
-1.1569999 -1.928 -1.003 165 143 132
-1.175 -1.916 -0.99699998 139 123 126
-1.1720001 -1.908 -1.003 249 169 72
-1.23 -1.89 -1.027 126 102 76
-1.23 -1.88 -1.028 62 41 0
-1.242 -1.896 -1.025 130 92 55
-1.238 -1.904 -1.029 150 129 102
-1.335 -1.814 -1.005 190 205 102
-1.335 -1.819 -1.006 154 162 63
-1.3789999 -1.768 -1.001 73 64 0
-1.357 -1.767 -1.01 130 97 28
-1.367 -1.756 -1.005 143 116 89
-1.363 -1.772 -1.006 99 90 51
-1.3609999 -1.812 -1.02 90 73 27
-1.376 -1.8099999 -1.018 226 162 62
-1.36 -1.8279999 -1.025 132 115 63
-1.362 -1.801 -1.017 85 76 17
-1.374 -1.819 -1.016 84 67 15
-1.377 -1.817 -1.017 140 126 63
-1.411 -1.848 -0.99900001 146 98 26
-1.401 -1.9400001 -1 218 190 107
-1.403 -1.939 -1.008 118 95 51
-1.402 -1.9349999 -1.003 213 189 101
-1.402 -1.943 -1.007 144 127 109
-1.402 -1.928 -1.003 255 231 138
-1.4 -1.927 -1 251 226 146
-1.41 -1.87 -0.991 173 134 69
-1.402 -1.887 -0.99599999 162 139 72
-1.34 -1.855 -0.99699998 91 88 47
-1.332 -1.844 -1.008 171 174 97
-1.397 -1.8789999 -1.0039999 91 81 32
-1.414 -1.845 -0.98500001 134 97 78
-1.4069999 -1.832 -0.98699999 188 138 67
-1.4170001 -1.844 -0.99199998 167 149 111
-1.4119999 -1.845 -0.99699998 147 93 21
-1.3940001 -1.8559999 -1.003 142 122 61
-1.399 -1.869 -1 179 166 114
-1.377 -1.8660001 -1.01 250 247 196
-1.397 -1.887 -0.99299997 248 226 141
-1.399 -1.876 -0.98799998 154 132 75
-1.4 -1.885 -0.995 142 120 45
-1.369 -1.86 -1.006 247 245 184
-1.373 -1.867 -1.007 158 133 76
-1.318 -1.904 -0.99699998 163 134 34
-1.274 -1.846 -1.013 123 101 88
-1.274 -1.852 -1.017 127 97 71
-1.273 -1.858 -1.017 120 102 40
-1.268 -1.853 -1.021 111 94 38
-1.268 -1.858 -1.017 99 82 26
-1.268 -1.849 -1.025 78 62 13
-1.278 -1.84 -1.027 148 129 52
-1.3710001 -1.975 -1.015 174 173 171
-1.372 -1.976 -1.012 126 112 24
-1.387 -1.961 -1.021 162 160 161
-1.392 -1.9579999 -1.021 146 145 143
-1.283 -1.978 -1.024 105 79 18
-1.2869999 -1.9809999 -1.022 255 225 114
-1.279 -1.985 -1.029 138 115 45
-1.319 -1.954 -1.008 211 195 135
-1.3430001 -1.974 -1.011 181 174 130
-1.3430001 -1.971 -1.01 195 190 148
-1.35 -1.969 -1.012 151 84 5
-1.35 -1.988 -1.0190001 253 221 110
-1.3380001 -1.906 -0.99000001 163 132 39
-1.339 -1.913 -0.98699999 254 230 120
-1.342 -1.858 -0.99400002 150 148 100
-1.335 -1.799 -1.007 155 122 45
-1.3380001 -1.796 -1.016 136 113 61
-1.337 -1.79 -1.01 122 89 12
-1.336 -1.795 -1.001 86 74 32
-1.354 -1.8 -0.99199998 245 227 141
-1.352 -1.78 -0.991 163 155 57
-1.329 -1.83 -1.0089999 100 117 23
-1.331 -1.837 -1.008 158 175 60
-1.3380001 -1.8279999 -1.01 94 104 7
-1.377 -1.971 -1.015 148 129 34
-1.401 -1.966 -1.013 179 156 115
-1.39 -1.974 -1.0039999 246 214 115
-1.395 -1.97 -1.001 160 125 93
-1.369 -1.742 -0.98699999 129 114 81
-1.409 -1.8559999 -0.98100001 81 62 56
-1.405 -1.853 -0.977 146 105 87
-1.399 -1.848 -0.97799999 146 106 55
-1.388 -1.823 -0.97899997 147 128 88
-1.413 -1.858 -0.98500001 159 140 97
-1.4069999 -1.863 -0.986 177 124 44
-1.258 -1.9910001 -1.028 193 173 162
-1.347 -1.974 -1.0089999 187 179 133
-1.392 -1.813 -0.99400002 255 205 125
-1.392 -1.814 -0.99400002 255 209 111
-1.396 -1.806 -0.99900001 138 119 104
-1.39 -1.766 -0.986 145 129 54
-1.3789999 -1.7539999 -0.99699998 202 156 62
-1.368 -1.749 -1 186 154 69
-1.152 -1.9579999 -1.018 145 146 141
-1.146 -1.944 -1.03 120 123 36
-1.148 -1.943 -1.03 124 125 47
-1.138 -1.9119999 -1.026 176 146 76
-1.148 -1.925 -1.021 72 55 3
-1.14 -1.938 -1.027 157 140 132
-1.248 -1.979 -1.013 236 235 187
-1.355 -1.744 -0.98199999 122 111 45
-1.364 -1.798 -0.98799998 255 238 176
-1.373 -1.807 -1.011 128 107 88
-1.365 -1.802 -1.01 147 144 65
-1.374 -1.854 -0.977 249 234 165
-1.3609999 -1.858 -0.98000002 185 175 90
-1.3660001 -1.863 -0.98400003 194 177 89
-1.369 -1.869 -0.98500001 88 69 1
-1.3940001 -1.926 -0.99599999 220 193 114
-1.388 -1.928 -0.99199998 103 68 0
-1.3890001 -1.924 -0.99800003 255 239 144
-1.3890001 -1.92 -1.003 93 66 0
-1.393 -1.932 -0.99699998 205 164 142
-1.362 -1.846 -0.97399998 255 250 162
-1.325 -1.913 -0.99900001 254 248 222
-1.386 -1.941 -0.99699998 221 193 145
-1.377 -1.956 -0.995 215 179 65
-1.175 -1.937 -0.99800003 100 78 2
-1.177 -1.939 -1.002 229 197 124
-1.323 -1.927 -0.98299998 35 32 27
-1.325 -1.915 -0.98799998 254 247 141
-1.329 -1.914 -0.98400003 255 247 138
-1.2539999 -1.99 -1.02 118 104 55
-1.2690001 -1.9859999 -1.017 171 102 35
-1.248 -1.914 -0.99400002 151 113 66
-1.238 -1.92 -0.99599999 92 54 18
-1.257 -1.911 -1.001 97 77 14
-1.309 -1.905 -0.99199998 214 179 111
-1.354 -1.832 -0.98000002 198 168 114
-1.313 -1.942 -1.01 112 80 3
-1.308 -1.934 -1.0089999 130 117 62
-1.3 -1.947 -1.0039999 144 108 20
-1.242 -1.8940001 -1 153 89 15
-1.242 -1.9 -1 177 140 85
-1.145 -1.901 -1.03 246 235 127
-1.221 -1.8430001 -1.025 175 159 100
-1.221 -1.845 -1.029 55 40 0
-1.221 -1.844 -1.024 250 178 58
-1.2079999 -1.86 -1.029 138 116 79
-1.206 -1.869 -1.03 144 127 73
-1.192 -1.868 -1.03 169 145 81
-1.3609999 -1.739 -0.99199998 205 168 87
-1.245 -1.841 -1.024 133 100 55
-1.248 -1.837 -1.026 194 170 122
-1.2690001 -1.837 -1.029 76 57 25
-1.27 -1.831 -1.029 176 158 138
-1.188 -1.915 -0.99599999 213 166 88
-1.179 -1.864 -1.028 95 82 27
-1.182 -1.863 -1.029 247 228 152
-1.178 -1.862 -1.028 243 225 149
-1.302 -1.905 -1.0039999 255 235 145
-1.2920001 -1.913 -1.005 118 118 118
-1.301 -1.915 -0.99699998 218 181 110
-1.304 -1.9119999 -0.99599999 247 233 145
-1.25 -1.902 -1.017 252 237 134
-1.347 -1.755 -0.99400002 206 162 99
-1.3660001 -1.765 -1.002 167 161 101
-1.35 -1.7640001 -0.99299997 202 168 68
-1.3559999 -1.757 -1.005 159 104 4
-1.342 -1.7819999 -1.0140001 232 177 76
-1.388 -1.882 -1.003 150 131 89
-1.388 -1.886 -0.99199998 144 140 69
-1.387 -1.924 -1.002 164 139 47
-1.382 -1.819 -1.017 153 135 73
-1.4 -1.938 -1.013 100 107 40
-1.397 -1.925 -1.01 96 65 10
-1.398 -1.936 -1 255 240 176
-1.397 -1.925 -1.002 246 220 135
-1.397 -1.832 -0.99000001 109 91 87
-1.4 -1.835 -0.98400003 131 121 86
-1.39 -1.8279999 -0.98900002 249 197 98
-1.399 -1.855 -1.0039999 168 124 53
-1.401 -1.839 -0.98199999 211 159 84
-1.3710001 -1.872 -0.99599999 207 203 112
-1.372 -1.875 -0.99599999 220 216 129
-1.3660001 -1.874 -0.98799998 196 193 116
-1.368 -1.87 -0.99199998 167 164 93
-1.325 -1.944 -1.011 130 89 25
-1.33 -1.9529999 -1.01 148 134 73
-1.324 -1.933 -1.0089999 99 62 0
-1.3430001 -1.972 -1.007 169 169 167
-1.317 -1.905 -0.995 225 192 97
-1.274 -1.852 -1.0190001 83 79 41
-1.274 -1.847 -1.018 157 135 124
-1.376 -1.977 -1.0089999 165 165 163
-1.3710001 -1.962 -0.99599999 213 190 96
-1.373 -1.973 -1.018 204 203 201
-1.354 -1.959 -1.0089999 156 147 82
-1.2640001 -1.989 -1.03 87 76 12
-1.337 -1.9119999 -0.98699999 255 231 125
-1.3430001 -1.849 -0.98799998 251 247 139
-1.373 -1.8789999 -0.991 167 157 130
-1.369 -1.872 -0.98500001 188 169 100
-1.375 -1.874 -0.98799998 141 141 79
-1.38 -1.881 -0.99699998 201 200 108
-1.3380001 -1.8099999 -1.001 199 147 48
-1.344 -1.811 -0.99199998 161 145 132
-1.34 -1.823 -0.99299997 234 221 117
-1.341 -1.826 -0.99199998 216 203 109
-1.401 -1.97 -1.01 155 122 55
-1.347 -1.77 -0.99199998 177 170 66
-1.344 -1.786 -1 169 144 77
-1.351 -1.779 -1.0039999 175 142 61
-1.368 -1.765 -0.98400003 186 177 102
-1.376 -1.758 -0.986 132 121 99
-1.372 -1.751 -0.98400003 188 173 106
-1.392 -1.952 -0.991 170 129 109
-1.275 -1.987 -1.025 135 106 50
-1.274 -1.98 -1.017 111 87 25
-1.272 -1.978 -1.0140001 130 99 44
-1.27 -1.979 -1.013 172 142 92
-1.276 -1.978 -1.0190001 255 233 114
-1.365 -1.969 -1.002 255 250 151
-1.386 -1.811 -0.98400003 105 73 22
-1.3789999 -1.76 -0.99400002 151 109 71
-1.382 -1.7640001 -0.991 253 244 175
-1.352 -1.767 -0.99400002 188 157 66
-1.1670001 -1.947 -1.005 162 91 37
-1.155 -1.926 -1.03 73 75 25
-1.153 -1.924 -1.03 72 71 23
-1.1390001 -1.926 -1.024 168 143 59
-1.141 -1.916 -1.026 156 132 120
-1.176 -1.934 -1.0089999 245 166 74
-1.166 -1.941 -1.015 104 62 22
-1.171 -1.951 -1.016 134 117 89
-1.248 -1.982 -1.011 179 179 129
-1.192 -1.933 -1.002 255 224 152
-1.183 -1.933 -0.99699998 255 236 124
-1.1950001 -1.9299999 -0.99900001 126 107 48
-1.201 -1.876 -1.029 168 148 97
-1.233 -1.9069999 -1.028 214 175 134
-1.385 -1.7869999 -0.98400003 167 149 111
-1.395 -1.965 -1.001 200 174 139
-1.387 -1.814 -1.012 238 218 145
-1.387 -1.8099999 -1.011 229 207 131
-1.348 -1.812 -1.015 251 243 180
-1.362 -1.824 -1.018 116 102 53
-1.277 -1.97 -1.022 174 148 89
-1.3609999 -1.867 -0.98400003 210 202 137
-1.36 -1.863 -0.98400003 255 247 178
-1.36 -1.851 -0.977 231 223 161
-1.362 -1.85 -0.97500002 248 243 179
-1.36 -1.852 -0.97799999 254 246 197
-1.3660001 -1.851 -0.97500002 190 177 107
-1.39 -1.864 -0.977 94 79 20
-1.3839999 -1.865 -0.97899997 164 126 87
-1.387 -1.952 -0.99400002 252 195 106
-1.385 -1.938 -0.99800003 187 185 172
-1.17 -1.933 -0.99400002 175 154 37
-1.164 -1.936 -0.99800003 82 63 0
-1.1619999 -1.933 -0.99900001 151 129 88
-1.332 -1.914 -0.98000002 95 62 8
-1.334 -1.927 -0.97600001 216 178 113
-1.336 -1.918 -0.98100001 125 89 31
-1.358 -1.824 -0.986 126 90 14
-1.359 -1.818 -0.986 137 94 52
-1.303 -1.946 -1.003 194 157 68
-1.303 -1.934 -0.995 141 117 43
-1.234 -1.882 -1.015 75 55 30
-1.234 -1.873 -1.013 154 132 95
-1.234 -1.859 -1.015 125 95 69
-1.253 -1.851 -1.023 81 54 11
-1.234 -1.8609999 -1.012 165 126 83
-1.219 -1.847 -1.026 49 31 0
-1.2130001 -1.86 -1.029 91 70 23
-1.3660001 -1.743 -0.99299997 231 152 60
-1.364 -1.747 -0.99599999 241 206 106
-1.3609999 -1.7460001 -0.995 254 211 142
-1.265 -1.84 -1.02 224 167 54
-1.256 -1.837 -1.025 123 121 73
-1.227 -1.849 -1.023 95 93 45
-1.2460001 -1.8430001 -1.022 214 183 136
-1.266 -1.8329999 -1.024 168 146 135
-1.234 -1.921 -1.0190001 195 177 157
-1.239 -1.916 -1.018 141 142 128
-1.1670001 -1.9299999 -0.99699998 116 114 39
-1.215 -1.859 -1.018 231 152 49
-1.215 -1.869 -1.015 166 134 83
-1.22 -1.876 -1.013 147 135 121
-1.179 -1.925 -0.99299997 87 67 30
-1.304 -1.902 -1 239 207 124
-1.307 -1.905 -1.002 228 195 79
-1.303 -1.9170001 -0.99699998 168 132 98
-1.353 -1.747 -0.99900001 254 218 122
-1.355 -1.778 -1.0039999 185 162 121
-1.339 -1.788 -1.0089999 160 116 45
-1.4069999 -1.947 -1.0140001 210 214 129
-1.342 -1.8380001 -1.008 239 252 144
-1.3329999 -1.84 -1.006 115 124 35
-1.34 -1.832 -0.99299997 129 98 44
-1.3380001 -1.847 -1.007 80 80 10
-1.4 -1.927 -1.002 255 229 140
-1.3890001 -1.943 -1.012 94 94 84
-1.374 -1.961 -1.018 160 139 82
-1.388 -1.952 -1.0140001 175 174 172
-1.3710001 -1.948 -1.01 157 142 49
-1.397 -1.849 -1.001 143 109 38
-1.3940001 -1.852 -1.0039999 82 74 9
-1.402 -1.855 -1.002 123 101 52
-1.392 -1.8150001 -1.0089999 183 134 58
-1.377 -1.872 -1.003 130 115 58
-1.386 -1.867 -0.98000002 174 141 70
-1.386 -1.841 -0.98000002 126 111 106
-1.39 -1.846 -0.98000002 229 156 51
-1.34 -1.933 -0.99400002 118 75 22
-1.336 -1.934 -1.002 136 96 24
-1.273 -1.85 -1.02 125 105 44
-1.26 -1.86 -1.022 158 162 127
-1.263 -1.853 -1.018 116 84 45
-1.234 -1.863 -1.016 109 86 32
-1.2539999 -1.851 -1.025 145 122 70
-1.267 -1.852 -1.017 126 99 72
-1.223 -1.893 -1.0089999 197 162 142
-1.219 -1.895 -1.007 114 65 0
-1.221 -1.88 -1.025 101 97 59
-1.363 -1.965 -0.99900001 100 92 17
-1.348 -1.929 -0.98400003 196 159 81
-1.341 -1.938 -0.98500001 119 97 73
-1.3710001 -1.951 -1.006 183 116 37
-1.331 -1.927 -1.002 118 80 7
-1.3099999 -1.923 -1.008 140 106 34
-1.331 -1.91 -0.98900002 121 92 24
-1.353 -1.857 -1.0039999 244 234 165
-1.3559999 -1.857 -1.003 239 231 156
-1.35 -1.849 -1.003 223 217 157
-1.3430001 -1.849 -1.006 97 93 0
-1.38 -1.883 -0.99000001 231 182 115
-1.344 -1.7970001 -0.99800003 217 213 166
-1.3559999 -1.789 -1.007 184 174 115
-1.362 -1.799 -1.012 116 109 39
-1.353 -1.8200001 -0.98500001 158 133 102
-1.358 -1.8150001 -0.98500001 102 66 0
-1.352 -1.816 -0.986 208 183 126
-1.352 -1.814 -0.98699999 110 76 2
-1.349 -1.804 -0.99400002 228 211 129
-1.3710001 -1.826 -0.98500001 184 139 71
-1.385 -1.839 -0.98199999 240 172 63
-1.374 -1.841 -0.98199999 233 220 150
-1.3710001 -1.842 -0.977 106 94 34
-1.355 -1.827 -0.98400003 177 133 86
-1.365 -1.8329999 -0.98100001 244 162 62
-1.362 -1.847 -1 150 114 20
-1.369 -1.8380001 -1.007 128 122 38
-1.4 -1.868 -1 168 154 105
-1.399 -1.878 -1 81 73 26
-1.392 -1.97 -1 237 192 101
-1.369 -1.762 -1.001 127 124 45
-1.374 -1.751 -0.98799998 237 223 135
-1.392 -1.936 -0.99699998 126 97 17
-1.414 -1.855 -0.98500001 165 140 133
-1.396 -1.855 -0.97899997 134 119 54
-1.39 -1.86 -0.977 69 54 0
-1.306 -1.923 -0.99800003 144 81 28
-1.313 -1.928 -0.991 107 78 10
-1.2690001 -1.987 -1.027 107 85 25
-1.355 -1.9809999 -1.012 85 78 36
-1.387 -1.818 -0.98799998 152 136 102
-1.165 -1.947 -1.015 92 45 0
-1.16 -1.942 -1.018 81 78 25
-1.156 -1.9349999 -1.027 72 75 20
-1.154 -1.942 -1.025 80 81 23
-1.159 -1.952 -1.0190001 234 153 61
-1.16 -1.941 -1.005 71 66 2
-1.152 -1.946 -1.0089999 129 129 43
-1.16 -1.9299999 -1.022 64 67 20
-1.1619999 -1.932 -1.018 139 138 120
-1.1619999 -1.928 -1.021 75 74 26
-1.163 -1.921 -1.003 187 168 154
-1.155 -1.92 -1.03 60 59 11
-1.146 -1.902 -1.03 171 161 40
-1.148 -1.9 -1.03 173 159 52
-1.15 -1.902 -1.03 114 100 3
-1.1569999 -1.928 -1.029 60 63 18
-1.187 -1.931 -0.99699998 255 244 191
-1.182 -1.9299999 -0.99400002 254 237 119
-1.23 -1.923 -1.0190001 184 166 146
-1.228 -1.932 -1.02 151 106 49
-1.2309999 -1.918 -1.018 170 108 25
-1.2410001 -1.926 -1.0039999 133 82 29
-1.235 -1.928 -1.005 143 97 47
-1.252 -1.977 -1.005 73 60 28
-1.204 -1.9220001 -1.003 138 110 71
-1.211 -1.9119999 -1.006 160 90 4
-1.191 -1.9170001 -1.003 66 37 0
-1.23 -1.899 -1.026 220 178 136
-1.359 -1.745 -0.98100001 186 177 98
-1.354 -1.761 -0.986 235 220 117
-1.387 -1.793 -0.98500001 133 124 95
-1.378 -1.772 -0.98699999 169 158 68
-1.386 -1.773 -0.98900002 255 245 169
-1.3710001 -1.7690001 -0.98500001 165 154 72
-1.385 -1.779 -0.98900002 119 103 25
-1.39 -1.9579999 -0.995 130 119 74
-1.392 -1.959 -0.99900001 255 245 148
-1.4 -1.948 -0.99900001 201 175 80
-1.4 -1.948 -1.0039999 198 175 82
-1.385 -1.806 -1.001 253 236 86
-1.3839999 -1.821 -1.006 226 203 63
-1.387 -1.819 -1.0039999 141 129 47
-1.404 -1.846 -0.99900001 145 97 15
-1.387 -1.8430001 -1.003 82 65 9
-1.3789999 -1.807 -1.012 159 160 154
-1.3380001 -1.807 -1.003 189 155 68
-1.365 -1.83 -1.0089999 138 123 54
-1.37 -1.827 -1.007 206 186 87
-1.268 -1.978 -1.011 168 148 141
-1.358 -1.8660001 -0.986 246 236 174
-1.351 -1.86 -0.99599999 250 238 154
-1.363 -1.869 -0.98500001 202 195 123
-1.363 -1.864 -0.99699998 247 236 156
-1.386 -1.857 -1.0039999 190 170 97
-1.376 -1.841 -1.006 234 223 118
-1.368 -1.855 -0.98000002 134 121 51
-1.345 -1.837 -0.98400003 186 119 38
-1.357 -1.847 -0.97799999 237 227 156
-1.325 -1.911 -0.98900002 255 249 135
-1.326 -1.9170001 -0.98699999 70 60 11
-1.325 -1.916 -0.98799998 255 245 143
-1.3279999 -1.932 -0.98500001 123 96 25
-1.335 -1.939 -0.98699999 142 138 137
-1.3789999 -1.955 -0.99599999 220 184 72
-1.1619999 -1.938 -1 102 94 21
-1.3609999 -1.849 -0.97500002 255 251 185
-1.2920001 -1.941 -1.008 130 95 41
-1.276 -1.97 -1.017 194 139 48
-1.243 -1.906 -0.99800003 162 143 103
-1.2410001 -1.914 -0.99699998 131 87 52
-1.25 -1.916 -0.99900001 111 92 50
-1.244 -1.9119999 -1.015 96 71 30
-1.257 -1.906 -1.015 120 121 126
-1.249 -1.916 -1.013 208 191 184
-1.373 -1.842 -1.006 236 228 127
-1.298 -1.939 -1.005 90 60 0
-1.295 -1.927 -1 185 139 19
-1.308 -1.946 -1.002 253 244 175
-1.308 -1.937 -0.99800003 251 233 109
-1.2359999 -1.881 -1.0089999 152 104 38
-1.25 -1.901 -1.011 97 69 30
-1.216 -1.85 -1.028 83 62 35
-1.182 -1.862 -1.023 250 226 156
-1.221 -1.8559999 -1.027 45 29 0
-1.251 -1.846 -1.024 132 102 52
-1.222 -1.849 -1.026 97 75 28
-1.228 -1.852 -1.021 241 170 56
-1.2309999 -1.867 -1.021 167 164 159
-1.237 -1.9069999 -1.024 255 235 213
-1.23 -1.908 -0.99900001 111 71 20
-1.235 -1.92 -0.99699998 65 29 0
-1.183 -1.926 -0.99400002 142 104 68
-1.166 -1.925 -0.99800003 52 6 0
-1.221 -1.852 -1.021 115 88 41
-1.192 -1.8660001 -1.024 161 131 67
-1.206 -1.863 -1.026 244 178 84
-1.1799999 -1.869 -1.026 114 94 43
-1.1799999 -1.934 -0.99599999 248 237 158
-1.304 -1.915 -1.006 138 138 138
-1.299 -1.914 -1.005 142 83 15
-1.3 -1.928 -1.006 134 103 49
-1.299 -1.9170001 -0.99800003 114 78 26
-1.357 -1.7460001 -0.99599999 201 189 107
-1.3380001 -1.793 -1.0039999 80 56 32
-1.335 -1.8329999 -1.008 132 155 25
-1.341 -1.852 -0.99599999 98 94 3
-1.3940001 -1.9450001 -1.0140001 135 136 120
-1.388 -1.947 -1.013 150 148 149
-1.399 -1.863 -0.98100001 143 118 87
-1.397 -1.862 -0.98000002 160 122 75
-1.397 -1.868 -0.98299998 188 169 110
-1.404 -1.865 -0.98299998 142 137 118
-1.392 -1.811 -1.001 165 119 34
-1.393 -1.841 -0.99400002 152 144 61
-1.401 -1.8380001 -0.99199998 169 127 69
-1.376 -1.877 -0.99599999 63 51 11
-1.392 -1.852 -0.98000002 123 85 10
-1.388 -1.835 -0.98400003 247 207 181
-1.405 -1.8789999 -0.995 246 229 175
-1.391 -1.8660001 -0.99900001 173 155 81
-1.3890001 -1.878 -1.002 209 191 119
-1.387 -1.876 -0.98500001 161 104 17
-1.235 -1.869 -1.02 108 85 35
-1.2589999 -1.852 -1.026 120 101 45
-1.262 -1.848 -1.017 156 130 105
-1.206 -1.873 -1.026 107 79 29
-1.216 -1.8609999 -1.028 70 57 13
-1.38 -1.961 -0.99199998 254 244 131
-1.38 -1.96 -0.99199998 255 242 127
-1.375 -1.9579999 -0.995 162 131 25
-1.374 -1.9630001 -0.99599999 246 233 128
-1.386 -1.939 -1.006 152 152 140
-1.388 -1.936 -1.005 149 148 127
-1.353 -1.966 -1.003 177 167 69
-1.345 -1.933 -0.98900002 187 142 51
-1.342 -1.9220001 -0.98299998 86 46 0
-1.3200001 -1.9170001 -1.007 131 131 131
-1.263 -1.989 -1.028 202 182 171
-1.3839999 -1.8839999 -0.99199998 132 115 35
-1.358 -1.777 -0.98900002 114 103 47
-1.357 -1.77 -0.98699999 159 141 93
-1.3559999 -1.767 -0.986 109 92 40
-1.348 -1.798 -0.99599999 254 253 207
-1.348 -1.789 -1.011 246 213 144
-1.3710001 -1.816 -0.98100001 204 164 138
-1.381 -1.846 -0.97899997 150 144 120
-1.341 -1.8200001 -0.99299997 253 242 136
-1.408 -1.8710001 -0.995 185 162 82
-1.369 -1.745 -0.986 243 228 137
-1.372 -1.749 -0.98799998 251 238 142
-1.396 -1.944 -0.99800003 234 207 118
-1.402 -1.858 -0.97799999 216 155 66
-1.385 -1.865 -0.97899997 234 201 130
-1.372 -1.847 -0.97600001 203 182 103
-1.383 -1.852 -0.97600001 77 54 10
-1.322 -1.926 -0.98500001 118 103 84
-1.319 -1.9220001 -0.99199998 227 216 98
-1.306 -1.913 -0.99599999 127 91 43
-1.309 -1.918 -0.99599999 182 148 113
-1.265 -1.979 -1.024 166 135 81
-1.349 -1.98 -1.018 140 140 142
-1.376 -1.977 -1.002 127 129 118
-1.3789999 -1.76 -0.98900002 252 238 167
-1.158 -1.937 -1.0039999 126 121 102
-1.1569999 -1.933 -1.026 59 61 21
-1.152 -1.942 -1.028 82 82 20
-1.152 -1.942 -1.008 214 176 79
-1.141 -1.9119999 -1.03 164 146 34
-1.165 -1.932 -1.015 255 245 150
-1.141 -1.909 -1.025 191 174 60
-1.174 -1.908 -1.007 216 146 58
-1.166 -1.9069999 -1.012 78 73 5
-1.163 -1.902 -1.018 102 56 0
-1.151 -1.918 -1.02 76 68 45
-1.143 -1.905 -1.029 255 240 136
-1.222 -1.914 -1.001 130 95 75
-1.221 -1.9069999 -1.005 143 136 143
-1.25 -1.977 -1.008 153 98 7
-1.209 -1.927 -1 183 159 89
-1.222 -1.916 -0.99900001 156 154 80
-1.256 -1.973 -1.007 120 72 0
-1.179 -1.928 -1.015 108 65 30
-1.182 -1.927 -1.007 243 164 72
-1.223 -1.904 -1.021 255 223 130
-1.206 -1.92 -1.01 145 89 0
-1.205 -1.916 -1.0089999 118 75 0
-1.225 -1.91 -1.012 118 90 51
-1.189 -1.91 -1.003 118 68 0
-1.191 -1.918 -1.0039999 169 120 64
-1.358 -1.751 -0.98299998 127 120 48
-1.3609999 -1.774 -0.98699999 213 201 115
-1.362 -1.766 -0.986 226 214 132
-1.395 -1.9579999 -1.002 253 238 143
-1.399 -1.952 -1.0039999 173 150 108
-1.359 -1.818 -1.016 188 129 25
-1.367 -1.8329999 -1.007 110 104 28
-1.358 -1.827 -1.0190001 136 127 58
-1.367 -1.834 -1.007 117 111 33
-1.381 -1.862 -0.97899997 108 75 4
-1.383 -1.869 -0.98500001 68 65 14
-1.365 -1.844 -0.97600001 255 252 161
-1.367 -1.8380001 -0.97799999 196 182 73
-1.365 -1.837 -0.97899997 196 183 71
-1.35 -1.845 -0.98500001 171 104 23
-1.345 -1.849 -0.98799998 255 251 157
-1.355 -1.853 -0.98400003 223 210 158
-1.3789999 -1.9579999 -0.99299997 223 199 77
-1.381 -1.951 -1 255 243 151
-1.3890001 -1.933 -1.0039999 161 161 135
-1.311 -1.943 -1.001 255 247 188
-1.316 -1.9349999 -0.99299997 243 214 136
-1.312 -1.939 -0.99900001 224 176 66
-1.258 -1.906 -1.0089999 73 58 15
-1.26 -1.9220001 -1.008 148 133 76
-1.25 -1.926 -1.003 126 127 95
-1.248 -1.929 -1.007 141 135 137
-1.23 -1.934 -1.01 113 83 45
-1.373 -1.84 -1.007 254 245 144
-1.377 -1.8609999 -1.005 99 91 28
-1.321 -1.9579999 -1.005 226 202 112
-1.221 -1.87 -1.0140001 188 127 64
-1.245 -1.895 -1.008 160 127 86
-1.242 -1.897 -1.012 142 106 54
-1.23 -1.8559999 -1.016 138 105 60
-1.2589999 -1.844 -1.028 96 82 33
-1.229 -1.8559999 -1.0190001 114 93 38
-1.247 -1.9220001 -1.015 195 193 180
-1.239 -1.929 -1.013 81 63 25
-1.244 -1.923 -1.0140001 187 187 185
-1.239 -1.9170001 -0.99699998 211 190 133
-1.191 -1.925 -0.99800003 73 46 0
-1.221 -1.864 -1.013 136 101 45
-1.222 -1.869 -1.0140001 161 96 42
-1.198 -1.872 -1.028 134 118 69
-1.2079999 -1.86 -1.022 31 7 0
-1.204 -1.868 -1.02 253 175 75
-1.186 -1.87 -1.026 177 159 113
-1.189 -1.868 -1.028 117 105 55
-1.301 -1.92 -1.01 132 132 132
-1.334 -1.837 -1.005 131 146 43
-1.3430001 -1.854 -0.99000001 250 247 154
-1.3940001 -1.9400001 -1.012 83 81 33
-1.397 -1.939 -1.012 55 62 10
-1.373 -1.9630001 -1.022 190 189 185
-1.37 -1.952 -1.01 123 121 38
-1.382 -1.961 -1.018 112 94 8
-1.387 -1.835 -0.99800003 202 148 48
-1.387 -1.823 -0.99900001 255 248 166
-1.388 -1.822 -0.99800003 154 139 110
-1.395 -1.8789999 -0.98900002 255 239 151
-1.385 -1.882 -0.99699998 53 52 0
-1.235 -1.873 -1.016 105 80 26
-1.23 -1.869 -1.0140001 177 111 53
-1.211 -1.865 -1.029 58 44 0
-1.219 -1.872 -1.026 79 50 6
-1.217 -1.8559999 -1.02 58 29 0
-1.372 -1.961 -0.99599999 213 188 95
-1.375 -1.959 -0.99400002 204 176 69
-1.385 -1.938 -1.002 157 155 143
-1.3380001 -1.951 -0.99900001 140 132 60
-1.335 -1.942 -0.99199998 157 139 55
-1.385 -1.932 -1 146 143 124
-1.332 -1.9400001 -1.0039999 144 144 144
-1.326 -1.9400001 -0.99299997 255 231 102
-1.327 -1.937 -0.991 174 173 168
-1.341 -1.8559999 -1.007 79 71 9
-1.351 -1.765 -0.98900002 120 95 28
-1.341 -1.801 -1.0089999 151 137 128
-1.3660001 -1.847 -0.97500002 159 145 84
-1.307 -1.909 -0.99400002 230 215 132
-1.271 -1.9809999 -1.024 171 140 86
-1.158 -1.931 -1.025 60 61 19
-1.148 -1.942 -1.03 129 127 52
-1.152 -1.944 -1.027 129 129 55
-1.152 -1.946 -1.025 163 134 74
-1.151 -1.941 -1.029 91 87 24
-1.152 -1.937 -1.029 66 68 19
-1.155 -1.931 -1.029 52 56 21
-1.147 -1.949 -1.026 96 65 10
-1.147 -1.955 -1.022 76 61 2
-1.151 -1.951 -1.022 81 64 8
-1.16 -1.9349999 -1.0190001 68 72 21
-1.152 -1.9349999 -1.029 76 78 31
-1.16 -1.9579999 -1.015 255 251 186
-1.149 -1.941 -1.011 167 127 78
-1.153 -1.926 -1.03 69 71 24
-1.169 -1.908 -1.012 198 123 30
-1.153 -1.91 -1.016 150 124 101
-1.148 -1.903 -1.024 168 146 61
-1.159 -1.904 -1.018 116 88 14
-1.161 -1.9069999 -1.015 131 117 28
-1.224 -1.92 -1.0089999 185 134 43
-1.245 -1.918 -0.99800003 188 161 74
-1.245 -1.919 -0.99900001 200 183 175
-1.2309999 -1.916 -0.99900001 79 41 0
-1.267 -1.975 -1.0089999 139 85 0
-1.202 -1.926 -1.008 125 83 33
-1.16 -1.929 -1.023 176 149 94
-1.159 -1.924 -1.026 74 71 18
-1.16 -1.924 -1.024 63 62 8
-1.211 -1.906 -1.008 139 134 66
-1.355 -1.755 -0.98500001 178 174 101
-1.369 -1.761 -0.98500001 150 140 71
-1.3660001 -1.755 -0.98400003 130 111 81
-1.358 -1.768 -0.986 128 113 58
-1.37 -1.794 -0.98400003 188 145 103
-1.38 -1.806 -1.006 171 170 166
-1.383 -1.791 -0.98299998 144 104 69
-1.38 -1.78 -0.99599999 140 89 0
-1.373 -1.776 -0.99400002 203 174 134
-1.349 -1.8380001 -1.012 158 151 63
-1.321 -1.908 -0.99299997 249 227 116
-1.319 -1.911 -0.99299997 255 251 126
-1.255 -1.984 -1.021 193 167 72
-1.256 -1.927 -1.005 86 68 2
-1.322 -1.951 -1.001 130 106 46
-1.228 -1.876 -1.012 143 111 88
-1.148 -1.904 -1.03 143 136 19
-1.268 -1.84 -1.028 53 39 0
-1.232 -1.8609999 -1.018 114 79 15
-1.225 -1.859 -1.022 64 43 0
-1.2410001 -1.919 -1.016 170 170 168
-1.253 -1.9220001 -1.013 217 196 179
-1.233 -1.928 -1.016 185 166 151
-1.258 -1.972 -1.013 164 133 68
-1.24 -1.921 -0.99900001 213 193 184
-1.21 -1.864 -1.0190001 246 170 72
-1.21 -1.858 -1.025 223 157 60
-1.187 -1.865 -1.029 176 153 85
-1.294 -1.921 -1.002 105 72 0
-1.342 -1.853 -0.99299997 135 134 28
-1.358 -1.957 -1.01 159 141 105
-1.3890001 -1.9579999 -1.02 163 161 164
-1.3839999 -1.836 -1.0039999 113 94 18
-1.408 -1.852 -0.99800003 144 108 48
-1.234 -1.8710001 -1.02 1 0 0
-1.378 -1.962 -0.99400002 249 241 132
-1.331 -1.949 -1 164 164 164
-1.3279999 -1.948 -0.99400002 218 185 82
-1.385 -1.932 -0.99699998 68 59 2
-1.332 -1.944 -1.002 250 227 175
-1.3279999 -1.9349999 -0.98799998 85 80 42
-1.341 -1.8559999 -1 170 166 129
-1.363 -1.776 -0.98799998 252 239 145
-1.36 -1.7589999 -0.986 191 176 107
-1.349 -1.801 -0.995 238 228 167
-1.36 -1.811 -0.98500001 175 116 56
-1.342 -1.803 -1.008 115 86 28
-1.35 -1.822 -1.013 190 147 42
-1.362 -1.7539999 -0.98299998 197 182 127
-1.3839999 -1.862 -0.97899997 208 176 101
-1.367 -1.849 -0.97500002 255 252 170
-1.324 -1.918 -0.98900002 52 51 7
-1.3200001 -1.916 -0.99199998 251 241 128
-1.312 -1.908 -0.99400002 111 87 25
-1.277 -1.979 -1.025 137 113 51
-1.15 -1.939 -1.029 73 73 21
-1.142 -1.951 -1.026 160 127 76
-1.148 -1.901 -1.026 106 87 0
-1.151 -1.9 -1.026 238 219 101
-1.159 -1.898 -1.028 207 181 71
-1.17 -1.902 -1.027 255 230 111
-1.1670001 -1.902 -1.028 251 222 118
-1.168 -1.904 -1.02 185 162 46
-1.1619999 -1.904 -1.017 223 197 87
-1.161 -1.9119999 -1.013 89 86 19
-1.164 -1.914 -1.01 209 131 31
-1.163 -1.923 -1.021 200 131 36
-1.161 -1.92 -1.024 95 94 29
-1.158 -1.924 -1.029 94 88 28
-1.158 -1.919 -1.027 79 78 21
-1.211 -1.924 -1.007 139 73 0
-1.215 -1.916 -1.003 209 134 32
-1.2539999 -1.98 -1.006 235 220 101
-1.26 -1.978 -1.008 131 80 0
-1.249 -1.979 -1.01 132 130 81
-1.257 -1.9859999 -1.013 167 134 99
-1.217 -1.899 -1.0089999 154 84 0
-1.214 -1.878 -1.017 113 88 47
-1.191 -1.873 -1.026 240 221 181
-1.191 -1.869 -1.024 120 100 63
-1.187 -1.868 -1.025 177 148 82
-1.354 -1.756 -0.986 201 193 121
-1.377 -1.824 -1.007 251 241 118
-1.376 -1.794 -1 99 87 13
-1.372 -1.854 -1.0039999 255 237 169
-1.27 -1.969 -1.007 138 100 53
-1.147 -1.904 -1.03 208 201 71
-1.153 -1.911 -1.03 131 126 34
-1.149 -1.91 -1.03 158 152 32
-1.151 -1.9069999 -1.03 157 151 39
-1.143 -1.91 -1.03 171 153 41
-1.147 -1.908 -1.03 189 177 55
-1.2539999 -1.844 -1.028 128 108 58
-1.224 -1.855 -1.023 55 35 0
-1.243 -1.916 -1.015 162 162 150
-1.235 -1.9299999 -1.013 84 45 4
-1.2640001 -1.971 -1.018 136 121 88
-1.169 -1.9119999 -1.006 73 57 0
-1.186 -1.918 -1.006 87 46 2
-1.212 -1.867 -1.018 142 118 80
-1.184 -1.865 -1.028 104 90 41
-1.255 -1.919 -1.012 68 51 25
-1.342 -1.847 -0.99699998 147 126 21
-1.378 -1.851 -1.002 123 105 41
-1.215 -1.857 -1.022 165 143 106
-1.33 -1.942 -0.99199998 254 226 103
-1.319 -1.9450001 -0.99800003 255 238 153
-1.34 -1.855 -1.003 89 79 30
-1.363 -1.7819999 -0.98900002 138 126 28
-1.353 -1.767 -0.98900002 157 149 48
-1.344 -1.795 -0.99900001 224 220 175
-1.3430001 -1.8 -1.012 255 246 185
-1.35 -1.799 -1.013 134 121 112
-1.36 -1.811 -0.98500001 175 116 56
-1.312 -1.9119999 -0.995 202 171 153
-1.357 -1.774 -0.98900002 118 102 50
-1.153 -1.937 -1.028 76 76 22
-1.1670001 -1.909 -1.024 164 138 115
-1.166 -1.915 -1.018 111 110 30
-1.1720001 -1.923 -1.0140001 213 193 130
-1.155 -1.901 -1.021 129 105 7
-1.17 -1.903 -1.025 231 206 88
-1.169 -1.906 -1.017 215 198 108
-1.152 -1.913 -1.03 148 142 46
-1.1569999 -1.919 -1.028 68 68 16
-1.16 -1.921 -1.013 82 82 18
-1.228 -1.926 -1.017 255 236 131
-1.224 -1.92 -1.005 255 203 107
-1.214 -1.921 -1.003 228 178 83
-1.219 -1.897 -1.0089999 108 100 35
-1.223 -1.896 -1.02 208 165 73
-1.179 -1.9069999 -1.001 140 102 65
-1.174 -1.909 -1.012 86 64 27
-1.197 -1.873 -1.026 154 124 64
-1.204 -1.873 -1.0190001 157 102 9
-1.355 -1.841 -0.97899997 79 63 1
-1.248 -1.924 -1.012 211 206 184
-1.148 -1.9069999 -1.03 138 116 40
-1.2640001 -1.971 -1.01 132 102 38
-1.242 -1.904 -0.99900001 99 62 18
-1.2539999 -1.923 -1.01 74 47 17
-1.387 -1.8559999 -0.97799999 210 181 101
-1.221 -1.86 -1.024 45 26 0
-1.296 -1.925 -1.005 137 108 52
-1.262 -1.979 -1.021 180 158 147
-1.3609999 -1.778 -0.98900002 120 103 95
-1.373 -1.789 -0.986 100 87 79
-1.369 -1.786 -0.99299997 183 171 87
-1.348 -1.795 -0.99699998 255 251 213
-1.354 -1.775 -0.991 99 83 31
-1.156 -1.954 -1.018 76 61 6
-1.153 -1.9 -1.023 217 198 70
-1.152 -1.9 -1.025 250 233 103
-1.17 -1.905 -1.021 149 127 26
-1.173 -1.908 -1.016 195 173 74
-1.153 -1.9119999 -1.03 118 114 27
-1.153 -1.913 -1.03 109 105 18
-1.154 -1.9170001 -1.03 86 85 21
-1.316 -1.9069999 -0.99400002 177 143 46
-1.245 -1.925 -1.012 205 205 197
-1.252 -1.925 -1.01 216 197 165
-1.253 -1.926 -1.0039999 125 109 57
-1.221 -1.859 -1.015 150 124 89
-1.347 -1.793 -0.99800003 233 225 178
-1.353 -1.811 -1.0140001 90 77 58
-1.1569999 -1.898 -1.028 178 155 43
-1.154 -1.9 -1.023 169 146 32
-1.156 -1.902 -1.02 102 80 0
-1.175 -1.911 -1.012 215 137 37
-1.155 -1.908 -1.029 175 152 85
-1.156 -1.913 -1.029 93 93 23
-1.359 -1.842 -0.97600001 162 145 65
-1.158 -1.899 -1.025 186 162 54
-1.258 -1.923 -1.007 67 44 0
-1.1569999 -1.9170001 -1.028 63 66 11
0 0 0 1 0 0 0 1 0 0 0 1 0 0 0 0 0 1006 1 0 0
