ply
format ascii 1.0
comment PCL generated
element vertex 349
property float x
property float y
property float z
property uchar red
property uchar green
property uchar blue
element camera 1
property float view_px
property float view_py
property float view_pz
property float x_axisx
property float x_axisy
property float x_axisz
property float y_axisx
property float y_axisy
property float y_axisz
property float z_axisx
property float z_axisy
property float z_axisz
property float focal
property float scalex
property float scaley
property float centerx
property float centery
property int viewportx
property int viewporty
property float k1
property float k2
end_header
3.2079999 -1.14 -0.86900002 23 8 1
3.2049999 -1.132 -0.86699998 86 66 59
3.2 -1.14 -0.87400001 105 81 77
3.184 -1.11 -0.95599997 33 13 4
3.197 -1.107 -0.97000003 145 111 99
3.1830001 -1.103 -0.95599997 28 8 0
3.1860001 -1.096 -0.97799999 154 121 106
3.1930001 -1.1 -0.986 77 53 43
3.2049999 -1.1390001 -0.87099999 100 69 51
3.191 -1.098 -0.98100001 65 43 29
3.2550001 -1.132 -0.86799997 10 0 0
3.257 -1.13 -0.87400001 71 48 32
3.257 -1.128 -0.87300003 116 90 75
3.3080001 -1.128 -0.94300002 57 33 23
3.306 -1.131 -0.94099998 33 8 3
3.3099999 -1.131 -0.94300002 27 0 0
3.2219999 -1.13 -0.95700002 11 0 0
3.23 -1.118 -0.96600002 53 24 10
3.2409999 -1.125 -0.94800001 29 10 3
3.2219999 -1.124 -0.97399998 49 30 23
3.201 -1.082 -0.935 14 4 2
3.2 -1.081 -0.92699999 37 4 0
3.211 -1.077 -0.91900003 111 101 100
3.2119999 -1.079 -0.92699999 26 1 0
3.1860001 -1.0880001 -0.93599999 139 113 100
3.2260001 -1.126 -0.94700003 14 0 0
3.22 -1.133 -0.949 104 95 86
3.207 -1.1390001 -0.88300002 60 25 5
3.2160001 -1.147 -0.87599999 130 101 83
3.194 -1.1339999 -0.89399999 17 2 0
3.2119999 -1.12 -0.96799999 50 24 9
3.2160001 -1.135 -0.94999999 125 116 109
3.2090001 -1.109 -0.986 40 17 1
3.3099999 -1.1339999 -0.94400001 80 48 35
3.316 -1.142 -0.95300001 24 9 6
3.323 -1.138 -0.954 97 78 74
3.191 -1.09 -0.91600001 47 14 5
3.1949999 -1.085 -0.92400002 8 0 0
3.1960001 -1.089 -0.912 65 38 19
3.2390001 -1.1059999 -0.86799997 26 12 11
3.2390001 -1.1109999 -0.85900003 30 18 0
3.2260001 -1.099 -0.85500002 111 99 99
3.3180001 -1.13 -0.949 27 3 0
3.313 -1.131 -0.94599998 59 40 33
3.2249999 -1.1210001 -0.96399999 58 25 10
3.283 -1.133 -0.96200001 84 51 34
3.293 -1.136 -0.96399999 27 18 21
3.2880001 -1.135 -0.96499997 33 22 26
3.2539999 -1.103 -0.912 10 0 0
3.2479999 -1.109 -0.90100002 28 14 13
3.2509999 -1.092 -0.90399998 90 66 56
3.3080001 -1.12 -0.949 39 24 19
3.211 -1.141 -0.86900002 66 45 42
3.2130001 -1.143 -0.87400001 31 25 11
3.1989999 -1.0829999 -0.935 31 16 9
3.214 -1.14 -0.88200003 87 58 40
3.2190001 -1.13 -0.95200002 121 109 97
3.22 -1.085 -0.93400002 95 64 35
3.201 -1.096 -0.98900002 65 32 15
3.1949999 -1.1 -0.98500001 139 112 95
3.2360001 -1.143 -0.884 88 71 63
3.2360001 -1.143 -0.88599998 38 11 4
3.234 -1.1440001 -0.88599998 95 80 75
3.22 -1.1390001 -0.86299998 103 75 64
3.211 -1.136 -0.86799997 63 42 37
3.2219999 -1.142 -0.87199998 26 11 6
3.303 -1.1339999 -0.94099998 75 41 29
3.306 -1.135 -0.94300002 102 66 50
3.3039999 -1.1390001 -0.95099998 118 104 103
3.253 -1.135 -0.86799997 42 21 4
3.3180001 -1.127 -0.95300001 62 42 31
3.3210001 -1.135 -0.95899999 35 16 12
3.3099999 -1.119 -0.96200001 16 1 0
3.312 -1.114 -0.95499998 43 26 18
3.309 -1.122 -0.963 21 6 3
3.2179999 -1.081 -0.92500001 43 14 0
3.2 -1.089 -0.91100001 11 0 0
3.1919999 -1.095 -0.90700001 69 44 24
3.2030001 -1.0930001 -0.90799999 15 0 0
3.3050001 -1.136 -0.96499997 121 119 122
3.299 -1.131 -0.96600002 35 26 29
3.233 -1.143 -0.88800001 104 87 77
3.23 -1.1390001 -0.88599998 115 87 66
3.2639999 -1.1059999 -0.94499999 21 6 3
3.266 -1.1059999 -0.92400002 22 3 0
3.2709999 -1.109 -0.92400002 54 31 23
3.2679999 -1.112 -0.93099999 73 56 36
3.3080001 -1.114 -0.94800001 14 0 0
3.257 -1.11 -0.92199999 68 41 12
3.211 -1.109 -0.98500001 77 44 27
3.29 -1.112 -0.97100002 24 7 0
3.2019999 -1.13 -0.87900001 188 177 159
3.197 -1.0880001 -0.949 51 17 7
3.1949999 -1.094 -0.94499999 137 110 99
3.191 -1.094 -0.93400002 66 36 10
3.2090001 -1.128 -0.94400001 54 26 15
3.197 -1.112 -0.96399999 150 123 104
3.2030001 -1.109 -0.97299999 54 25 11
3.217 -1.087 -0.95499998 19 0 0
3.2119999 -1.095 -0.94700003 135 110 103
3.224 -1.086 -0.95200002 129 97 74
3.2379999 -1.141 -0.866 36 17 13
3.2609999 -1.1160001 -0.92400002 22 4 2
3.2539999 -1.1160001 -0.92299998 60 39 20
3.2509999 -1.1109999 -0.91799998 51 16 0
3.2539999 -1.114 -0.92199999 89 72 65
3.2539999 -1.115 -0.92900002 105 102 109
3.316 -1.1390001 -0.95499998 149 140 141
3.247 -1.13 -0.89200002 130 112 102
3.2479999 -1.1289999 -0.88999999 48 24 12
3.3199999 -1.132 -0.95300001 24 0 0
3.22 -1.082 -0.93000001 51 21 0
3.233 -1.077 -0.93300003 116 56 22
3.2260001 -1.084 -0.93000001 70 41 9
3.2360001 -1.086 -0.92400002 42 26 27
3.2 -1.115 -0.88300002 13 3 1
3.2130001 -1.102 -0.88 14 2 2
3.2130001 -1.1 -0.88800001 24 6 4
3.1900001 -1.1059999 -0.89899999 125 103 92
3.187 -1.107 -0.89999998 141 96 67
3.201 -1.119 -0.87900001 29 16 10
3.2160001 -1.109 -0.866 19 1 0
3.3110001 -1.14 -0.954 135 126 127
3.3010001 -1.137 -0.958 91 78 72
3.2460001 -1.1390001 -0.88999999 28 10 0
3.237 -1.138 -0.889 124 107 97
3.2490001 -1.09 -0.90700001 79 56 40
3.2379999 -1.085 -0.90200001 115 87 76
3.256 -1.087 -0.94700003 148 123 101
3.2479999 -1.084 -0.94800001 49 30 16
3.2539999 -1.089 -0.95099998 138 109 75
3.2379999 -1.1210001 -0.94400001 43 11 0
3.2509999 -1.112 -0.93800002 71 40 19
3.27 -1.105 -0.94999999 38 23 18
3.293 -1.122 -0.96499997 19 0 0
3.2019999 -1.089 -0.95300001 30 16 16
3.2019999 -1.091 -0.94599998 183 157 142
3.2179999 -1.133 -0.88999999 38 16 3
3.227 -1.133 -0.93699998 104 99 103
3.1900001 -1.104 -0.91500002 52 24 10
3.197 -1.0880001 -0.98500001 88 53 34
3.194 -1.095 -0.98400003 151 105 90
3.197 -1.102 -0.97799999 38 18 9
3.2090001 -1.094 -0.96200001 48 17 0
3.2 -1.0930001 -0.96899998 69 39 13
3.2079999 -1.095 -0.97000003 64 32 17
3.1989999 -1.095 -0.96499997 59 24 2
3.22 -1.1 -0.97600001 117 88 72
3.23 -1.099 -0.96899998 7 1 5
3.227 -1.095 -0.96899998 23 8 5
3.2279999 -1.136 -0.86299998 56 35 18
3.234 -1.142 -0.88099998 98 80 70
3.2420001 -1.1440001 -0.87800002 43 20 6
3.2479999 -1.128 -0.86299998 27 7 0
3.312 -1.137 -0.94999999 165 153 153
3.2449999 -1.1210001 -0.86799997 69 49 38
3.2409999 -1.122 -0.90200001 107 81 68
3.2179999 -1.1 -0.884 12 1 0
3.223 -1.103 -0.85600001 18 0 0
3.223 -1.103 -0.85299999 19 0 0
3.217 -1.11 -0.861 39 21 11
3.2290001 -1.107 -0.86299998 14 0 0
3.2249999 -1.0880001 -0.92400002 109 72 46
3.233 -1.0880001 -0.90100002 120 117 124
3.2460001 -1.0829999 -0.92299998 127 94 77
3.221 -1.102 -0.87199998 21 2 0
3.201 -1.127 -0.88 13 1 1
3.247 -1.1390001 -0.87199998 49 27 16
3.244 -1.138 -0.88 54 35 28
3.2920001 -1.131 -0.95599997 45 22 6
3.3080001 -1.114 -0.954 37 20 12
3.3050001 -1.117 -0.95700002 37 17 10
3.3 -1.135 -0.96200001 135 129 131
3.2479999 -1.087 -0.949 41 24 16
3.2539999 -1.094 -0.95599997 48 27 10
3.2360001 -1.091 -0.958 16 1 0
3.26 -1.114 -0.93699998 65 33 10
3.2679999 -1.117 -0.949 23 9 8
3.2939999 -1.117 -0.96499997 28 9 3
3.289 -1.119 -0.96499997 19 3 3
3.2149999 -1.112 -0.98100001 49 18 0
3.2149999 -1.1 -0.97899997 80 52 40
3.1949999 -1.113 -0.95200002 84 59 39
3.1949999 -1.1210001 -0.93900001 84 33 12
3.197 -1.117 -0.94499999 50 8 0
3.1849999 -1.1059999 -0.95099998 87 68 61
3.23 -1.127 -0.90100002 41 19 8
3.2079999 -1.113 -0.95499998 19 4 1
3.214 -1.126 -0.93099999 30 0 0
3.2130001 -1.1289999 -0.92199999 8 0 0
3.1949999 -1.098 -0.95999998 200 166 131
3.2249999 -1.082 -0.95999998 31 8 2
3.2249999 -1.085 -0.95599997 134 107 88
3.23 -1.092 -0.96399999 6 1 5
3.2019999 -1.095 -0.98299998 46 24 11
3.2030001 -1.096 -0.97799999 51 27 23
3.201 -1.094 -0.977 28 10 0
3.2219999 -1.096 -0.972 15 0 0
3.233 -1.131 -0.85900003 117 114 121
3.2460001 -1.126 -0.86299998 17 0 0
3.2409999 -1.12 -0.86000001 122 121 126
3.243 -1.119 -0.86299998 113 112 118
3.244 -1.118 -0.91799998 20 2 0
3.2149999 -1.122 -0.852 103 83 72
3.2190001 -1.1160001 -0.861 43 26 18
3.2119999 -1.123 -0.85699999 47 29 25
3.2219999 -1.127 -0.85900003 55 36 29
3.2079999 -1.12 -0.85699999 21 8 2
3.306 -1.13 -0.963 142 137 141
3.2980001 -1.126 -0.963 66 40 23
3.211 -1.087 -0.91500002 36 8 0
3.2179999 -1.092 -0.91900003 135 125 124
3.2190001 -1.084 -0.92500001 44 8 0
3.247 -1.089 -0.92000002 48 26 15
3.2420001 -1.0829999 -0.93400002 82 45 27
3.2249999 -1.0930001 -0.92000002 54 38 38
3.247 -1.109 -0.90899998 12 0 0
3.22 -1.107 -0.86699998 14 0 0
3.197 -1.1 -0.90499997 51 18 9
3.201 -1.1059999 -0.90200001 131 120 118
3.198 -1.127 -0.89499998 9 0 0
3.201 -1.132 -0.898 115 77 56
3.2460001 -1.1109999 -0.89399999 36 17 3
3.2490001 -1.115 -0.889 89 67 46
3.2409999 -1.141 -0.86699998 95 76 72
3.3 -1.1339999 -0.94400001 47 15 0
3.2880001 -1.1289999 -0.958 57 34 20
3.3010001 -1.137 -0.95499998 79 65 56
3.2620001 -1.095 -0.921 84 61 45
3.2690001 -1.1059999 -0.95200002 11 0 0
3.2609999 -1.11 -0.94700003 24 9 6
3.27 -1.112 -0.94700003 32 5 0
3.2809999 -1.112 -0.954 17 2 0
3.286 -1.115 -0.954 35 17 13
3.293 -1.118 -0.94999999 65 37 23
3.2909999 -1.126 -0.95499998 72 45 34
3.2909999 -1.126 -0.963 43 20 12
3.2850001 -1.113 -0.95700002 61 43 33
3.2639999 -1.1109999 -0.95700002 58 41 34
3.256 -1.112 -0.95700002 46 22 10
3.2909999 -1.12 -0.96499997 23 5 5
3.2119999 -1.11 -0.98000002 55 33 19
3.1849999 -1.11 -0.921 20 0 0
3.2 -1.115 -0.93599999 62 30 17
3.197 -1.115 -0.92400002 114 87 76
3.197 -1.125 -0.91799998 72 39 22
3.1860001 -1.128 -0.91000003 119 66 34
3.1889999 -1.1109999 -0.903 53 31 20
3.1900001 -1.13 -0.90499997 57 24 7
3.1919999 -1.128 -0.90600002 64 18 0
3.24 -1.123 -0.898 37 10 0
3.204 -1.122 -0.94400001 34 5 0
3.2 -1.107 -0.93800002 20 1 0
3.2160001 -1.128 -0.92299998 110 98 98
3.2079999 -1.124 -0.92400002 58 37 32
3.1960001 -1.122 -0.91600001 42 19 11
3.1919999 -1.102 -0.91000003 43 26 19
3.2179999 -1.127 -0.93699998 108 93 88
3.2160001 -1.1289999 -0.94800001 127 116 110
3.2030001 -1.098 -0.98400003 163 134 118
3.2190001 -1.095 -0.96399999 34 16 12
3.2 -1.0930001 -0.97399998 53 7 0
3.2260001 -1.105 -0.972 33 6 0
3.2179999 -1.125 -0.95300001 250 232 218
3.243 -1.13 -0.86500001 99 52 26
3.2279999 -1.128 -0.85900003 44 24 13
3.23 -1.114 -0.86400002 81 62 58
3.2320001 -1.1 -0.87800002 22 4 2
3.2390001 -1.122 -0.91799998 145 118 107
3.2260001 -1.122 -0.92500001 39 20 3
3.23 -1.109 -0.86199999 19 9 8
3.2320001 -1.0930001 -0.90499997 18 4 1
3.2550001 -1.091 -0.92699999 39 17 6
3.2550001 -1.092 -0.92199999 125 99 76
3.2520001 -1.0880001 -0.94199997 68 41 20
3.21 -1.1059999 -0.89099997 26 16 15
3.1960001 -1.101 -0.93000001 29 9 2
3.2290001 -1.085 -0.93699998 65 34 3
3.2260001 -1.097 -0.89300001 31 14 6
3.2320001 -1.1 -0.88700002 41 13 2
3.233 -1.096 -0.89899999 27 12 7
3.2420001 -1.102 -0.89099997 37 12 5
3.244 -1.119 -0.875 61 41 32
3.3 -1.133 -0.94099998 68 40 29
3.2579999 -1.097 -0.93099999 34 11 3
3.2709999 -1.117 -0.94999999 147 133 133
3.289 -1.109 -0.95700002 61 41 32
3.289 -1.125 -0.95999998 26 6 0
3.2579999 -1.113 -0.95599997 62 44 6
3.224 -1.12 -0.97100002 39 17 4
3.2119999 -1.1289999 -0.866 30 16 7
3.2049999 -1.123 -0.86900002 49 27 13
3.1989999 -1.123 -0.89399999 10 0 0
3.227 -1.123 -0.90499997 25 8 1
3.2 -1.108 -0.93099999 21 0 0
3.1989999 -1.125 -0.917 83 35 13
3.2090001 -1.125 -0.91100001 35 8 0
3.2049999 -1.095 -0.97100002 13 0 0
3.2279999 -1.114 -0.95999998 23 5 3
3.2279999 -1.114 -0.95599997 24 6 0
3.211 -1.1160001 -0.954 74 48 35
3.2290001 -1.1210001 -0.95099998 48 25 19
3.2260001 -1.1339999 -0.86299998 59 35 25
3.2260001 -1.097 -0.88 13 1 1
3.233 -1.126 -0.94 22 11 7
3.2290001 -1.095 -0.90499997 123 103 94
3.2190001 -1.124 -0.90700001 17 3 3
3.2360001 -1.0930001 -0.90700001 24 9 2
3.2509999 -1.0880001 -0.94199997 160 133 114
3.253 -1.0930001 -0.93900001 150 126 92
3.2509999 -1.113 -0.93000001 106 104 109
3.207 -1.118 -0.87900001 93 82 80
3.2049999 -1.115 -0.88300002 48 14 2
3.2260001 -1.131 -0.89200002 26 12 3
3.2090001 -1.132 -0.89999998 59 25 16
3.227 -1.087 -0.95300001 33 18 15
3.2290001 -1.089 -0.95999998 7 2 6
3.227 -1.11 -0.97600001 61 18 1
3.2260001 -1.12 -0.91900003 11 1 0
3.2260001 -1.123 -0.92799997 132 98 86
3.244 -1.108 -0.88700002 35 12 6
3.221 -1.098 -0.903 122 112 111
3.24 -1.087 -0.94199997 9 0 0
3.244 -1.086 -0.94300002 182 155 126
3.2409999 -1.0880001 -0.94599998 14 0 0
3.243 -1.101 -0.95999998 77 52 32
3.2980001 -1.1289999 -0.94499999 25 4 1
3.1889999 -1.114 -0.90499997 37 20 10
3.197 -1.096 -0.97000003 103 77 54
3.2260001 -1.127 -0.89999998 14 0 0
3.2390001 -1.114 -0.875 49 20 12
3.2219999 -1.097 -0.89300001 43 4 0
3.21 -1.125 -0.91500002 48 22 7
3.227 -1.087 -0.95099998 15 0 0
3.2479999 -1.1 -0.95499998 18 3 0
3.2320001 -1.0930001 -0.96499997 5 0 4
3.3 -1.123 -0.94099998 55 30 23
3.2620001 -1.092 -0.92500001 115 90 68
3.1919999 -1.1160001 -0.90499997 88 68 59
3.224 -1.125 -0.90200001 16 4 4
3.2060001 -1.109 -0.89499998 95 85 84
3.2019999 -1.103 -0.90399998 21 10 4
3.2420001 -1.086 -0.94300002 14 0 0
3.2479999 -1.09 -0.94999999 15 1 0
3.2420001 -1.103 -0.95599997 59 43 7
3.2320001 -1.092 -0.96200001 4 0 3
3.2379999 -1.1059999 -0.88499999 29 5 1
3.2219999 -1.1210001 -0.91799998 39 28 26
3.233 -1.118 -0.93199998 37 15 2
0 0 0 1 0 0 0 1 0 0 0 1 0 0 0 0 0 349 1 0 0
