ply
format ascii 1.0
comment PCL generated
element vertex 1141
property float x
property float y
property float z
property uchar red
property uchar green
property uchar blue
element camera 1
property float view_px
property float view_py
property float view_pz
property float x_axisx
property float x_axisy
property float x_axisz
property float y_axisx
property float y_axisy
property float y_axisz
property float z_axisx
property float z_axisy
property float z_axisz
property float focal
property float scalex
property float scaley
property float centerx
property float centery
property int viewportx
property int viewporty
property float k1
property float k2
end_header
-7.198 13.677 -0.99800003 174 81 22
-7.1999998 13.676 -0.991 93 33 0
-7.197 13.672 -0.99400002 114 73 43
-7.1989999 13.678 -0.98699999 190 95 37
-7.3099999 13.826 -0.55199999 134 91 57
-7.3099999 13.83 -0.53399998 199 120 64
-7.3010001 13.83 -0.53299999 249 165 101
-7.2719998 13.74 -0.53899997 170 95 30
-7.2779999 13.73 -0.52200001 192 124 59
-7.2800002 13.737 -0.52100003 221 119 35
-7.368 13.677 -0.59500003 123 84 51
-7.3720002 13.676 -0.602 231 170 126
-7.3699999 13.683 -0.59799999 199 118 62
-7.3769999 13.664 -0.61299998 163 98 40
-7.3769999 13.667 -0.62599999 139 73 21
-7.3779998 13.657 -0.61000001 176 97 28
-7.3140001 13.533 -1.012 128 92 66
-7.3140001 13.537 -1.006 69 25 0
-7.2979999 13.54 -0.99900001 100 83 76
-7.302 13.541 -1 110 86 74
-7.3340001 13.898 -0.76599997 74 65 50
-7.3299999 13.9 -0.77100003 76 60 47
-7.335 13.903 -0.76499999 104 65 34
-7.2620001 13.654 -0.662 80 53 44
-7.2540002 13.638 -0.671 218 116 50
-7.2550001 13.642 -0.65200001 88 76 64
-7.2540002 13.638 -0.662 117 81 45
-7.329 13.551 -1.0140001 63 32 12
-7.3189998 13.544 -1 54 27 32
-7.3559999 13.685 -0.62400001 209 151 111
-7.348 13.68 -0.625 80 52 41
-7.3569999 13.687 -0.61799997 195 127 82
-7.3579998 13.661 -0.625 76 50 37
-7.3629999 13.674 -0.63 136 78 38
-7.355 13.672 -0.62400001 141 84 31
-7.277 13.734 -0.54100001 124 72 35
-7.2820001 13.725 -0.55400002 229 182 138
-7.2849998 13.731 -0.55599999 82 38 1
-7.2610002 13.647 -0.71700001 109 65 38
-7.2649999 13.663 -0.70200002 74 46 43
-7.2610002 13.658 -0.72399998 164 128 104
-7.3649998 13.672 -0.61799997 187 124 81
-7.3579998 13.685 -0.60900003 235 144 99
-7.289 13.637 -0.65600002 240 181 141
-7.3010001 13.648 -0.66399997 98 62 26
-7.2950001 13.646 -0.66799998 155 94 49
-7.2919998 13.642 -0.65499997 192 135 90
-7.369 13.648 -0.62099999 114 42 2
-7.3629999 13.644 -0.61000001 138 83 42
-7.3699999 13.649 -0.60500002 141 83 45
-7.3660002 13.645 -0.625 185 117 68
-7.3540001 13.644 -0.61900002 165 113 74
-7.263 13.655 -0.66900003 134 71 20
-7.2750001 13.666 -0.66100001 164 70 9
-7.3109999 13.54 -1.012 234 153 87
-7.3140001 13.536 -1.018 78 33 10
-7.3189998 13.549 -1.012 158 132 115
-7.303 13.551 -0.99699998 137 115 102
-7.2940001 13.555 -1.0039999 112 67 26
-7.3270001 13.554 -1.017 77 35 10
-7.3280001 13.552 -1.01 159 140 133
-7.3189998 13.548 -1.01 83 54 40
-7.3189998 13.55 -1.003 49 28 9
-7.2820001 13.736 -0.53899997 147 95 47
-7.2940001 13.748 -0.53899997 151 99 42
-7.302 13.663 -0.54699999 197 144 104
-7.3010001 13.663 -0.55599999 166 116 63
-7.302 13.661 -0.54900002 142 85 42
-7.3099999 13.726 -0.54299998 107 77 41
-7.3109999 13.726 -0.53399998 142 82 30
-7.3150001 13.725 -0.54100001 183 113 51
-7.3559999 13.683 -0.60699999 157 72 15
-7.2839999 13.823 -0.53899997 194 142 92
-7.2839999 13.818 -0.54299998 161 79 19
-7.2810001 13.823 -0.54500002 148 93 54
-7.2880001 13.807 -0.52399999 252 181 119
-7.323 13.811 -0.75999999 163 89 42
-7.3189998 13.811 -0.74400002 188 139 106
-7.3150001 13.803 -0.74800003 187 111 61
-7.329 13.815 -0.75999999 76 33 0
-7.3260002 13.824 -0.76800001 88 79 72
-7.3200002 13.792 -0.52999997 205 143 92
-7.3140001 13.795 -0.52899998 255 177 95
-7.3140001 13.789 -0.53200001 190 132 84
-7.3070002 13.8 -0.52999997 178 115 62
-7.3080001 13.795 -0.53600001 154 110 65
-7.2930002 13.749 -0.537 198 132 80
-7.2880001 13.806 -0.54000002 255 227 213
-7.283 13.819 -0.55000001 147 78 19
-7.3579998 13.684 -0.62800002 104 71 36
-7.3540001 13.645 -0.59399998 167 118 77
-7.3509998 13.623 -0.60100001 168 100 53
-7.3470001 13.627 -0.59399998 173 92 36
-7.3720002 13.661 -0.602 136 90 57
-7.3629999 13.659 -0.60100001 107 53 17
-7.2649999 13.654 -0.65100002 145 92 58
-7.256 13.629 -0.68099999 136 62 23
-7.2550001 13.638 -0.68099999 96 61 29
-7.2519999 13.621 -0.67500001 139 92 64
-7.3540001 13.655 -0.61500001 193 100 23
-7.3509998 13.644 -0.62199998 148 98 61
-7.362 13.653 -0.625 157 73 27
-7.3309999 13.601 -0.63300002 146 91 34
-7.3470001 13.611 -0.61699998 170 117 77
-7.3319998 13.596 -0.625 201 115 58
-7.3270001 13.817 -0.76599997 113 68 35
-7.3280001 13.85 -0.82200003 105 40 12
-7.3200002 13.857 -0.81900001 179 93 42
-7.3369999 13.857 -0.80400002 120 59 28
-7.3720002 13.669 -0.61299998 144 81 28
-7.2600002 13.649 -0.671 76 70 72
-7.256 13.632 -0.65899998 129 84 55
-7.2529998 13.63 -0.67299998 166 104 47
-7.3099999 13.54 -0.99900001 153 106 76
-7.3699999 13.651 -0.60799998 190 104 45
-7.289 13.635 -1.049 78 37 17
-7.3070002 13.633 -1.049 163 144 138
-7.3070002 13.632 -1.039 174 111 58
-7.2979999 13.562 -1.002 83 42 10
-7.3080001 13.629 -1.039 148 125 117
-7.3060002 13.625 -1.052 82 40 16
-7.3239999 13.553 -1.007 76 35 13
-7.3239999 13.555 -0.995 81 39 17
-7.2779999 13.734 -0.53899997 141 87 41
-7.2800002 13.736 -0.53600001 154 92 51
-7.277 13.737 -0.53200001 171 113 75
-7.302 13.666 -0.551 116 58 12
-7.3379998 13.605 -0.61299998 212 131 68
-7.329 13.61 -0.61299998 93 55 19
-7.3280001 13.613 -0.60299999 147 97 64
-7.3460002 13.681 -0.61500001 217 116 46
-7.3590002 13.677 -0.60500002 195 101 40
-7.2950001 13.813 -0.528 251 168 90
-7.3340001 13.888 -0.80000001 159 79 18
-7.3280001 13.89 -0.79799998 81 40 12
-7.335 13.895 -0.80000001 141 68 25
-7.3319998 13.889 -0.79400003 148 98 65
-7.3369999 13.798 -0.54299998 222 168 124
-7.342 13.793 -0.54400003 120 58 9
-7.349 13.796 -0.54900002 181 104 50
-7.3319998 13.791 -0.53500003 162 116 82
-7.322 13.774 -0.54299998 175 122 68
-7.3260002 13.79 -0.537 140 85 31
-7.316 13.806 -0.53200001 122 72 45
-7.322 13.802 -0.53600001 178 134 97
-7.3130002 13.815 -0.546 112 87 47
-7.2940001 13.762 -0.537 223 121 37
-7.2880001 13.809 -0.54000002 225 140 59
-7.3660002 13.678 -0.63099998 202 122 71
-7.362 13.65 -0.602 138 53 16
-7.309 13.659 -0.55599999 230 156 107
-7.2969999 13.661 -0.574 104 66 45
-7.342 13.619 -0.58700001 188 93 25
-7.342 13.613 -0.57999998 157 97 45
-7.3390002 13.605 -0.579 125 78 48
-7.3369999 13.602 -0.58700001 123 45 6
-7.336 13.612 -0.58399999 92 45 3
-7.309 13.68 -0.52899998 122 46 0
-7.3140001 13.683 -0.52999997 186 117 58
-7.303 13.682 -0.53100002 170 111 45
-7.309 13.678 -0.528 153 101 62
-7.277 13.644 -0.69800001 192 102 39
-7.2680001 13.647 -0.70999998 187 85 23
-7.2789998 13.644 -0.699 146 102 73
-7.2789998 13.645 -0.69300002 171 113 73
-7.2729998 13.633 -0.68199998 93 59 24
-7.3299999 13.603 -0.62699997 125 79 46
-7.3010001 13.643 -0.704 201 127 66
-7.3169999 13.627 -0.704 168 83 19
-7.3210001 13.632 -0.71100003 211 118 51
-7.3070002 13.652 -0.70499998 157 106 63
-7.316 13.636 -0.71700001 95 58 29
-7.2719998 13.624 -0.66600001 208 136 78
-7.27 13.625 -0.65899998 111 60 29
-7.3649998 13.651 -0.62699997 76 42 5
-7.3639998 13.659 -0.625 204 119 62
-7.3270001 13.614 -0.66299999 88 53 21
-7.3260002 13.609 -0.66600001 205 134 78
-7.3260002 13.614 -0.66299999 143 89 55
-7.2930002 13.667 -0.69400001 223 123 63
-7.3010001 13.679 -0.713 151 100 55
-7.2810001 13.669 -0.70499998 142 79 36
-7.2989998 13.669 -0.68300003 170 107 64
-7.296 13.667 -0.69999999 152 91 47
-7.303 13.664 -0.68900001 145 79 29
-7.2639999 13.653 -0.71899998 134 73 29
-7.2870002 13.661 -0.68900001 178 89 29
-7.3629999 13.656 -0.69499999 129 88 66
-7.3540001 13.661 -0.699 133 67 17
-7.3579998 13.649 -0.69700003 78 51 32
-7.3600001 13.656 -0.69700003 222 138 65
-7.3660002 13.663 -0.69700003 160 107 67
-7.349 13.67 -0.70300001 114 63 18
-7.3179998 13.803 -0.74800003 67 32 12
-7.3340001 13.855 -0.79699999 186 110 61
-7.3410001 13.858 -0.80199999 176 117 73
-7.3169999 13.863 -0.81999999 148 105 70
-7.316 13.85 -0.81900001 184 126 106
-7.3270001 13.817 -0.773 123 66 21
-7.3239999 13.812 -0.79400003 108 38 2
-7.3210001 13.809 -0.79400003 82 70 74
-7.2950001 13.817 -0.86299998 94 53 35
-7.2950001 13.817 -0.861 124 78 44
-7.29 13.811 -0.86400002 156 81 39
-7.3189998 13.855 -0.82499999 86 46 21
-7.3369999 13.815 -0.81 105 33 0
-7.3390002 13.812 -0.80599999 127 65 28
-7.3410001 13.807 -0.81300002 91 34 4
-7.3239999 13.845 -0.81900001 168 88 37
-7.2649999 13.633 -0.653 170 87 33
-7.257 13.64 -0.66399997 166 80 23
-7.322 13.811 -0.77100003 130 57 12
-7.3239999 13.805 -0.79299998 87 41 7
-7.3270001 13.626 -0.69999999 206 133 92
-7.322 13.632 -0.71200001 121 58 14
-7.3189998 13.625 -0.70300001 60 36 26
-7.303 13.801 -0.87599999 64 29 9
-7.3070002 13.799 -0.88 90 42 20
-7.3109999 13.805 -0.88 148 107 79
-7.277 13.644 -1.068 131 93 70
-7.2789998 13.644 -1.075 152 103 73
-7.2800002 13.646 -1.067 98 49 16
-7.2719998 13.637 -1.068 195 116 59
-7.3039999 13.632 -1.049 142 73 6
-7.2740002 13.636 -1.061 36 17 3
-7.3119998 13.784 -0.79699999 117 75 61
-7.3099999 13.781 -0.78799999 140 91 61
-7.3140001 13.785 -0.792 181 109 71
-7.3239999 13.556 -0.995 130 96 71
-7.303 13.549 -0.98400003 146 95 68
-7.2779999 13.733 -0.52700001 170 108 59
-7.2930002 13.747 -0.53100002 172 76 18
-7.2969999 13.665 -0.64200002 159 89 37
-7.289 13.662 -0.65100002 83 47 25
-7.2909999 13.662 -0.65100002 190 120 71
-7.3499999 13.642 -0.62099999 132 72 18
-7.355 13.651 -0.61299998 163 101 54
-7.336 13.619 -0.59600002 91 45 21
-7.2969999 13.648 -0.648 166 99 57
-7.2989998 13.655 -0.66100001 100 60 25
-7.2940001 13.661 -0.63700002 137 89 51
-7.2979999 13.659 -0.63 115 75 50
-7.2989998 13.665 -0.634 134 95 64
-7.2880001 13.653 -0.63700002 97 46 25
-7.3119998 13.687 -0.55199999 158 108 75
-7.3070002 13.689 -0.56 248 177 115
-7.316 13.695 -0.55599999 92 53 14
-7.3179998 13.691 -0.55800003 255 203 150
-7.302 13.671 -0.54400003 255 205 140
-7.2839999 13.723 -0.55699998 186 142 95
-7.2870002 13.823 -0.54500002 192 108 48
-7.2880001 13.823 -0.54100001 194 110 38
-7.3039999 13.824 -0.55800003 176 96 33
-7.3000002 13.744 -0.53600001 226 131 37
-7.322 13.77 -0.551 237 190 138
-7.3150001 13.77 -0.54500002 188 95 34
-7.3270001 13.767 -0.55400002 190 128 87
-7.3010001 13.802 -0.528 229 142 62
-7.322 13.799 -0.53500003 185 116 51
-7.3260002 13.794 -0.53600001 192 115 45
-7.3309999 13.802 -0.55000001 217 184 153
-7.322 13.803 -0.55800003 255 189 132
-7.316 13.811 -0.55500001 191 105 28
-7.335 13.802 -0.55800003 160 99 54
-7.3119998 13.818 -0.551 236 200 168
-7.3140001 13.813 -0.54799998 102 72 61
-7.3039999 13.765 -0.55199999 84 43 11
-7.3010001 13.768 -0.54699999 236 186 137
-7.3039999 13.773 -0.55699998 78 40 4
-7.3060002 13.787 -0.54900002 233 166 98
-7.3070002 13.77 -0.551 196 151 112
-7.3210001 13.772 -0.551 202 124 58
-7.309 13.791 -0.54100001 250 165 82
-7.2820001 13.743 -0.52999997 230 179 132
-7.296 13.798 -0.54000002 225 133 46
-7.2919998 13.768 -0.53600001 120 39 0
-7.2849998 13.817 -0.54799998 146 90 43
-7.3270001 13.773 -0.55800003 103 61 23
-7.3410001 13.784 -0.55400002 94 58 24
-7.3639998 13.648 -0.60699999 133 101 63
-7.3060002 13.665 -0.55199999 147 92 38
-7.336 13.606 -0.588 93 49 24
-7.3400002 13.619 -0.58999997 165 121 86
-7.342 13.628 -0.60100001 127 60 15
-7.3540001 13.648 -0.60299999 123 66 13
-7.2649999 13.644 -0.67799997 133 112 95
-7.27 13.649 -0.676 184 95 35
-7.2680001 13.661 -0.69800001 149 56 0
-7.276 13.64 -0.68199998 54 30 20
-7.2719998 13.637 -0.68400002 211 119 56
-7.2740002 13.649 -0.69499999 106 66 41
-7.2729998 13.631 -0.65600002 151 88 37
-7.2750001 13.637 -0.64399999 125 89 53
-7.2820001 13.649 -0.68900001 182 123 81
-7.2849998 13.655 -0.68099999 134 104 94
-7.2880001 13.662 -0.667 152 85 42
-7.296 13.661 -0.67299998 152 82 23
-7.2979999 13.662 -0.66900003 141 73 34
-7.296 13.663 -0.67900002 162 82 19
-7.2870002 13.66 -0.68199998 205 107 42
-7.3249998 13.622 -0.66500002 137 88 45
-7.283 13.632 -0.66799998 128 62 14
-7.3119998 13.625 -0.70599997 129 119 127
-7.2969999 13.641 -0.71700001 103 66 37
-7.2589998 13.623 -0.671 196 120 60
-7.3720002 13.656 -0.62300003 179 123 86
-7.3709998 13.671 -0.63099998 155 97 51
-7.3260002 13.648 -0.72000003 142 91 46
-7.3390002 13.649 -0.71100003 129 58 2
-7.3340001 13.629 -0.68300003 186 105 39
-7.3200002 13.636 -0.68599999 109 47 8
-7.3340001 13.629 -0.68199998 87 46 14
-7.3470001 13.651 -0.70999998 117 43 8
-7.3460002 13.654 -0.71499997 184 121 77
-7.3439999 13.641 -0.72100002 137 94 62
-7.302 13.677 -0.70999998 205 141 79
-7.3740001 13.672 -0.63300002 184 115 58
-7.3559999 13.666 -0.70300001 183 110 65
-7.3249998 13.85 -0.82700002 46 24 10
-7.296 13.812 -0.86199999 48 17 0
-7.3299999 13.81 -0.79799998 179 108 64
-7.2620001 13.63 -0.65700001 149 91 53
-7.1999998 13.658 -0.97799999 144 103 73
-7.2930002 13.56 -0.99900001 228 147 81
-7.3660002 13.773 -0.89600003 123 97 84
-7.3649998 13.774 -0.89700001 174 129 96
-7.3720002 13.78 -0.89600003 165 102 59
-7.3049998 13.628 -0.97600001 109 82 65
-7.302 13.626 -0.98000002 110 45 15
-7.303 13.632 -0.98299998 134 56 10
-7.3189998 13.55 -0.99699998 147 121 106
-7.3130002 13.543 -0.99400002 82 35 9
-7.2259998 13.589 -0.92799997 169 141 119
-7.2069998 13.6 -0.92299998 147 117 107
-7.2090001 13.594 -0.93699998 231 154 86
-7.2579999 13.613 -1.096 128 100 78
-7.2579999 13.614 -1.119 255 190 128
-7.2540002 13.609 -1.119 254 170 110
-7.2659998 13.638 -1.1109999 220 132 69
-7.2670002 13.639 -1.117 205 145 95
-7.2670002 13.647 -1.112 172 79 12
-7.257 13.608 -1.114 240 182 136
-7.2740002 13.638 -1.046 176 104 54
-7.3189998 13.551 -1.001 120 84 62
-7.3109999 13.551 -0.995 90 43 15
-7.3109999 13.554 -0.991 74 52 41
-7.2979999 13.632 -1.039 179 147 132
-7.2729998 13.629 -1.056 220 137 87
-7.2670002 13.633 -1.0650001 167 153 150
-7.2709999 13.66 -0.65899998 161 106 75
-7.3010001 13.663 -0.64300001 71 44 37
-7.3039999 13.66 -0.63099998 146 98 62
-7.335 13.62 -0.60799998 180 100 37
-7.3449998 13.618 -0.61400002 173 129 94
-7.3429999 13.618 -0.60900003 143 59 0
-7.3470001 13.628 -0.61699998 180 87 28
-7.3410001 13.618 -0.59200001 152 101 70
-7.302 13.67 -0.58899999 108 58 21
-7.3010001 13.667 -0.58499998 146 109 83
-7.2969999 13.66 -0.583 129 92 74
-7.2989998 13.653 -0.64300001 147 95 55
-7.2979999 13.659 -0.65799999 183 123 87
-7.349 13.669 -0.62 104 68 56
-7.3010001 13.667 -0.57800001 122 39 0
-7.303 13.678 -0.53500003 100 63 45
-7.2979999 13.828 -0.53799999 136 89 47
-7.2969999 13.814 -0.53200001 247 158 78
-7.2969999 13.762 -0.53600001 136 93 58
-7.3179998 13.782 -0.54500002 98 63 23
-7.3060002 13.811 -0.53299999 170 74 24
-7.3140001 13.802 -0.53100002 158 97 50
-7.3429999 13.789 -0.54699999 175 98 44
-7.342 13.791 -0.55299997 125 77 29
-7.3330002 13.775 -0.55299997 134 80 42
-7.3239999 13.794 -0.53500003 180 138 98
-7.3099999 13.814 -0.55800003 139 60 3
-7.3109999 13.791 -0.53799999 149 94 37
-7.29 13.803 -0.55199999 172 125 95
-7.296 13.824 -0.54699999 95 65 54
-7.3130002 13.687 -0.55800003 146 90 41
-7.309 13.668 -0.56800002 162 117 76
-7.302 13.665 -0.57599998 121 69 32
-7.303 13.664 -0.56300002 101 46 7
-7.355 13.673 -0.60299999 132 74 28
-7.3449998 13.63 -0.60600001 140 92 56
-7.2550001 13.632 -0.67900002 147 86 42
-7.27 13.652 -0.69700003 99 68 48
-7.2690001 13.639 -0.64999998 169 120 80
-7.2680001 13.656 -0.67000002 183 93 31
-7.29 13.662 -0.68199998 98 43 13
-7.3169999 13.639 -0.68800002 123 59 15
-7.3099999 13.656 -0.69999999 191 118 73
-7.303 13.652 -0.68300003 109 74 42
-7.2989998 13.653 -0.67699999 150 99 68
-7.2909999 13.649 -0.68099999 234 140 78
-7.303 13.663 -0.66399997 158 84 35
-7.322 13.633 -0.68199998 93 61 48
-7.277 13.634 -0.67699999 171 89 31
-7.2810001 13.638 -0.67400002 150 84 24
-7.276 13.63 -0.66299999 197 108 42
-7.3239999 13.618 -0.67000002 160 88 29
-7.2649999 13.631 -0.68000001 168 114 70
-7.2719998 13.664 -0.72000003 195 111 51
-7.283 13.672 -0.71600002 139 43 0
-7.3379998 13.635 -0.741 165 105 53
-7.3299999 13.625 -0.73299998 189 110 53
-7.2859998 13.647 -0.70599997 137 134 141
-7.29 13.647 -0.71499997 63 43 19
-7.2969999 13.643 -0.708 125 52 17
-7.3000002 13.676 -0.71200001 101 26 0
-7.303 13.654 -0.71399999 155 91 43
-7.2680001 13.637 -0.72500002 120 72 34
-7.3569999 13.766 -0.81 97 43 15
-7.368 13.777 -0.824 58 14 0
-7.3649998 13.781 -0.82499999 101 15 0
-7.3410001 13.764 -0.80800003 99 29 4
-7.3579998 13.761 -0.80800003 105 57 17
-7.3429999 13.758 -0.80800003 119 66 35
-7.368 13.671 -0.63200003 85 44 24
-7.3720002 13.68 -0.63 223 146 92
-7.3530002 13.667 -0.704 204 109 43
-7.3540001 13.667 -0.72399998 137 75 36
-7.3520002 13.674 -0.71499997 178 119 75
-7.3530002 13.661 -0.704 126 89 63
-7.335 13.752 -0.87599999 102 49 18
-7.3439999 13.753 -0.87699997 87 56 35
-7.3429999 13.75 -0.87900001 147 112 90
-7.2579999 13.642 -0.66100001 93 48 15
-7.2779999 13.667 -0.71200001 144 49 0
-7.2820001 13.671 -0.71100003 218 137 82
-7.3330002 13.761 -0.792 89 52 33
-7.2820001 13.745 -0.85500002 101 57 30
-7.2849998 13.747 -0.85000002 146 105 83
-7.2839999 13.747 -0.85900003 73 36 20
-7.2839999 13.593 -0.86500001 202 107 39
-7.2859998 13.594 -0.87 209 117 50
-7.2789998 13.588 -0.875 213 120 59
-7.2940001 13.593 -0.85100001 144 83 28
-7.283 13.594 -0.85100001 124 100 90
-7.2610002 13.647 -0.72299999 119 113 123
-7.3000002 13.552 -0.98799998 240 146 72
-7.2989998 13.71 -0.86699998 147 126 109
-7.2940001 13.705 -0.866 138 67 25
-7.2919998 13.706 -0.87400001 132 102 91
-7.3610001 13.76 -0.81099999 167 112 58
-7.2859998 13.579 -0.97500002 151 86 56
-7.2849998 13.581 -0.96700001 214 140 77
-7.2810001 13.574 -0.963 92 31 3
-7.2930002 13.616 -0.94400001 123 87 63
-7.2870002 13.605 -0.94700003 156 78 32
-7.2950001 13.613 -0.94999999 84 34 11
-7.2940001 13.624 -0.926 124 67 38
-7.289 13.63 -0.93599999 109 69 43
-7.2940001 13.626 -0.93900001 113 59 33
-7.303 13.772 -0.824 81 58 50
-7.3010001 13.767 -0.81400001 165 134 113
-7.2950001 13.758 -0.815 81 24 4
-7.3000002 13.766 -0.82999998 98 64 39
-7.3039999 13.772 -0.829 73 27 3
-7.3010001 13.776 -0.84799999 91 68 62
-7.3109999 13.779 -0.86299998 103 67 41
-7.3049998 13.781 -0.86199999 104 44 8
-7.3070002 13.759 -0.84799999 90 25 0
-7.2179999 13.651 -0.99800003 204 119 54
-7.2220001 13.655 -0.99800003 156 94 53
-7.2329998 13.65 -0.99900001 84 27 0
-7.198 13.65 -0.986 123 108 101
-7.204 13.654 -0.98900002 134 75 33
-7.2030001 13.653 -0.97500002 110 55 25
-7.2839999 13.629 -0.94499999 129 81 45
-7.2639999 13.62 -1.099 214 125 57
-7.289 13.631 -1.039 111 70 48
-7.2859998 13.619 -0.96899998 189 118 76
-7.2940001 13.624 -1.039 62 17 0
-7.2719998 13.637 -1.057 169 94 39
-7.2680001 13.63 -1.0369999 157 136 119
-7.2290001 13.658 -0.99599999 115 95 86
-7.2750001 13.664 -0.65899998 178 92 31
-7.3319998 13.617 -0.60699999 133 87 63
-7.3400002 13.614 -0.61400002 153 98 57
-7.3400002 13.613 -0.58499998 136 69 24
-7.2950001 13.669 -0.588 84 39 18
-7.3080001 13.821 -0.53799999 126 84 46
-7.3119998 13.808 -0.53600001 161 113 75
-7.3080001 13.803 -0.53200001 172 106 45
-7.3150001 13.806 -0.53500003 136 96 61
-7.3340001 13.796 -0.55199999 106 60 34
-7.3070002 13.801 -0.55400002 164 86 37
-7.3000002 13.803 -0.55299997 217 125 52
-7.3039999 13.806 -0.55400002 169 88 25
-7.3270001 13.779 -0.55699998 198 145 95
-7.3210001 13.793 -0.55699998 167 80 26
-7.3299999 13.801 -0.54799998 172 113 57
-7.3099999 13.793 -0.53600001 175 94 29
-7.2930002 13.804 -0.53600001 162 114 68
-7.2979999 13.826 -0.54000002 153 97 62
-7.303 13.67 -0.56800002 228 149 92
-7.348 13.676 -0.60799998 154 109 76
-7.3590002 13.673 -0.60299999 230 129 47
-7.2859998 13.648 -0.69300002 96 34 0
-7.2870002 13.649 -0.68900001 145 139 143
-7.2649999 13.647 -0.64700001 161 96 54
-7.2839999 13.654 -0.64300001 148 60 10
-7.3049998 13.625 -0.699 207 113 43
-7.2979999 13.645 -0.70300001 166 107 67
-7.303 13.66 -0.676 153 81 31
-7.2550001 13.635 -0.66900003 175 85 22
-7.2649999 13.626 -0.66100001 193 127 75
-7.2620001 13.628 -0.66299999 171 85 24
-7.2659998 13.631 -0.68400002 208 105 39
-7.3260002 13.654 -0.74199998 151 86 30
-7.335 13.664 -0.73299998 212 160 123
-7.3169999 13.657 -0.736 95 80 61
-7.323 13.651 -0.727 203 96 18
-7.2779999 13.637 -0.722 144 74 15
-7.2719998 13.628 -0.73400003 206 98 26
-7.3319998 13.781 -0.86500001 90 52 33
-7.3150001 13.785 -0.85900003 99 38 9
-7.329 13.784 -0.87099999 78 16 1
-7.3080001 13.779 -0.84399998 53 31 17
-7.3130002 13.784 -0.84899998 81 38 19
-7.3200002 13.792 -0.83700001 77 22 2
-7.2919998 13.651 -0.64300001 154 94 42
-7.2849998 13.643 -0.65399998 134 78 43
-7.3049998 13.753 -0.78200001 162 87 47
-7.3010001 13.742 -0.77999997 175 98 44
-7.2979999 13.754 -0.78899997 87 66 49
-7.329 13.757 -0.80299997 70 25 4
-7.3249998 13.766 -0.824 98 39 5
-7.3010001 13.763 -0.80400002 108 49 19
-7.3109999 13.785 -0.80299997 87 68 54
-7.2160001 13.688 -0.97399998 129 115 106
-7.2189999 13.692 -0.97899997 184 92 29
-7.224 13.689 -0.97899997 68 21 3
-7.2859998 13.746 -0.85699999 115 71 36
-7.2690001 13.662 -0.73100001 211 125 64
-7.2680001 13.66 -0.722 81 54 45
-7.3130002 13.748 -0.773 112 66 30
-7.2950001 13.604 -0.84500003 254 166 94
-7.2919998 13.616 -0.85600001 228 140 69
-7.2909999 13.603 -0.852 82 45 27
-7.3049998 13.617 -0.84299999 96 30 0
-7.2979999 13.596 -0.84899998 255 160 84
-7.2859998 13.595 -0.85900003 233 142 72
-7.2620001 13.654 -0.74199998 73 46 39
-7.2820001 13.67 -0.75700003 128 88 52
-7.2709999 13.663 -0.73699999 220 122 61
-7.2709999 13.66 -0.741 93 83 92
-7.2639999 13.644 -0.72299999 205 100 32
-7.2659998 13.644 -0.73400003 125 59 25
-7.296 13.627 -0.85900003 181 148 133
-7.2950001 13.626 -0.85100001 186 126 92
-7.3099999 13.781 -0.86400002 86 43 24
-7.2989998 13.763 -0.87699997 82 46 22
-7.296 13.766 -0.87900001 69 5 0
-7.3000002 13.761 -0.88099998 45 15 4
-7.3039999 13.758 -0.87900001 70 6 0
-7.289 13.623 -0.93599999 194 152 130
-7.2870002 13.613 -0.949 187 144 125
-7.3099999 13.783 -0.852 85 40 11
-7.3080001 13.763 -0.815 75 58 64
-7.3150001 13.76 -0.81599998 64 6 0
-7.3140001 13.786 -0.81900001 89 47 23
-7.303 13.757 -0.82300001 51 0 0
-7.3070002 13.757 -0.81699997 72 31 9
-7.3099999 13.79 -0.81999999 87 16 0
-7.316 13.787 -0.81400001 81 20 2
-7.3210001 13.792 -0.82999998 30 9 8
-7.323 13.794 -0.83499998 82 41 19
-7.3000002 13.762 -0.83700001 96 40 15
-7.2989998 13.764 -0.82300001 58 39 25
-7.309 13.75 -0.84600002 106 53 11
-7.204 13.651 -0.98500001 116 58 20
-7.2150002 13.658 -0.99199998 143 124 109
-7.2220001 13.659 -0.99000001 105 45 8
-7.2129998 13.599 -0.92699999 213 138 70
-7.2820001 13.581 -0.96700001 96 49 21
-7.29 13.71 -0.87400001 115 46 7
-7.2740002 13.71 -0.884 111 44 17
-7.3010001 13.548 -0.99400002 89 42 14
-7.309 13.55 -0.991 122 72 37
-7.2649999 13.619 -1.098 220 142 68
-7.2820001 13.635 -1.022 88 38 5
-7.2810001 13.631 -1.028 72 27 4
-7.2800002 13.638 -1.021 172 123 93
-7.2750001 13.613 -0.84399998 137 126 124
-7.2709999 13.62 -0.84100002 122 70 33
-7.2729998 13.63 -0.85100001 90 53 35
-7.2789998 13.623 -0.852 89 52 36
-7.244 13.645 -0.99299997 137 119 109
-7.2490001 13.649 -0.98699999 100 31 0
-7.2779999 13.628 -1.024 112 34 0
-7.2839999 13.628 -1.035 132 122 120
-7.2839999 13.625 -1.001 138 75 42
-7.2709999 13.616 -1.018 137 126 122
-7.2729998 13.629 -1.033 114 38 0
-7.3039999 13.662 -0.62699997 223 145 96
-7.3509998 13.668 -0.61500001 191 89 14
-7.336 13.611 -0.60100001 108 60 14
-7.3319998 13.614 -0.61299998 188 108 45
-7.3410001 13.621 -0.616 168 102 50
-7.3169999 13.789 -0.53299999 254 254 255
-7.3319998 13.791 -0.54500002 243 203 167
-7.2909999 13.807 -0.55500001 155 102 70
-7.3189998 13.783 -0.55400002 79 43 7
-7.2979999 13.812 -0.55199999 164 98 37
-7.3559999 13.652 -0.59899998 128 76 28
-7.3610001 13.662 -0.60600001 126 70 33
-7.3140001 13.626 -0.69499999 94 58 32
-7.2979999 13.645 -0.69400001 183 125 79
-7.2709999 13.633 -0.67900002 192 131 87
-7.2800002 13.663 -0.73699999 85 60 40
-7.2800002 13.661 -0.76099998 136 82 38
-7.2909999 13.638 -0.73100001 180 74 0
-7.2859998 13.626 -0.74599999 81 45 13
-7.2820001 13.632 -0.74000001 155 112 77
-7.3249998 13.622 -0.69 102 44 4
-7.3239999 13.624 -0.69300002 149 97 57
-7.2670002 13.634 -0.68199998 114 75 42
-7.3410001 13.645 -0.72799999 121 57 13
-7.3520002 13.664 -0.727 141 83 45
-7.3200002 13.634 -0.72600001 205 104 34
-7.3280001 13.633 -0.72299999 65 38 29
-7.302 13.621 -0.83999997 168 126 104
-7.2930002 13.625 -0.84799999 152 106 80
-7.2849998 13.598 -0.80900002 87 81 81
-7.2919998 13.594 -0.80699998 86 48 29
-7.283 13.6 -0.80699998 253 217 185
-7.2709999 13.65 -0.75199997 220 136 72
-7.263 13.658 -0.72299999 170 74 13
-7.2859998 13.659 -0.71799999 80 36 7
-7.3309999 13.656 -0.76200002 142 79 25
-7.3330002 13.653 -0.75700003 232 129 50
-7.3340001 13.672 -0.76200002 169 106 52
-7.3379998 13.636 -0.72399998 154 83 31
-7.3379998 13.646 -0.73500001 108 56 17
-7.2940001 13.653 -0.72100002 240 139 71
-7.2979999 13.658 -0.73199999 172 107 65
-7.3319998 13.791 -0.84899998 159 108 81
-7.336 13.793 -0.84299999 131 63 26
-7.3639998 13.775 -0.83099997 59 35 33
-7.3010001 13.741 -0.79299998 138 57 14
-7.3060002 13.735 -0.78899997 114 65 32
-7.3179998 13.789 -0.80299997 90 23 0
-7.2849998 13.658 -0.648 185 100 43
-7.3460002 13.665 -0.704 204 103 33
-7.3439999 13.657 -0.71399999 118 64 28
-7.309 13.752 -0.81400001 180 154 139
-7.3109999 13.779 -0.80000001 122 94 80
-7.2750001 13.733 -0.88999999 120 85 63
-7.283 13.733 -0.88999999 134 98 82
-7.3150001 13.749 -0.77200001 118 68 33
-7.3150001 13.754 -0.778 134 56 17
-7.3179998 13.747 -0.78600001 105 56 26
-7.3119998 13.67 -0.80299997 81 46 27
-7.3200002 13.665 -0.80000001 156 105 62
-7.3150001 13.67 -0.801 101 69 54
-7.2880001 13.597 -0.85500002 241 147 75
-7.2670002 13.626 -0.73900002 186 96 33
-7.2659998 13.646 -0.74800003 224 118 44
-7.2740002 13.631 -0.74599999 211 103 31
-7.2639999 13.649 -0.73199999 133 89 62
-7.2639999 13.653 -0.73400003 180 121 77
-7.2620001 13.655 -0.73799998 144 107 81
-7.309 13.781 -0.87 23 3 2
-7.2849998 13.625 -0.99000001 96 33 0
-7.2789998 13.629 -0.98000002 158 77 24
-7.2880001 13.583 -0.97799999 125 56 0
-7.2670002 13.624 -1.016 99 89 97
-7.27 13.617 -1.013 204 120 50
-7.2969999 13.62 -0.93000001 116 79 52
-7.2969999 13.621 -0.912 104 34 0
-7.3099999 13.781 -0.80900002 42 18 16
-7.3080001 13.775 -0.84100002 58 22 0
-7.3000002 13.755 -0.83600003 121 97 85
-7.2189999 13.644 -0.995 67 35 14
-7.2010002 13.674 -0.98699999 142 129 121
-7.2199998 13.653 -0.98699999 97 38 6
-7.2290001 13.652 -0.986 87 15 0
-7.2069998 13.658 -0.972 65 50 43
-7.2329998 13.656 -0.99299997 136 119 109
-7.2649999 13.709 -0.884 97 41 6
-7.2709999 13.704 -0.88800001 118 86 71
-7.2839999 13.707 -0.85900003 82 70 74
-7.2810001 13.701 -0.85100001 82 17 0
-7.2680001 13.634 -0.84899998 233 139 67
-7.2839999 13.598 -0.84399998 118 114 115
-7.2810001 13.609 -0.95200002 162 121 99
-7.276 13.607 -0.949 223 140 64
-7.2859998 13.626 -0.96799999 102 31 0
-7.2800002 13.618 -0.949 129 92 73
-7.283 13.623 -0.94499999 153 70 26
-7.2800002 13.625 -0.94400001 129 97 76
-7.217 13.597 -0.93199998 164 123 103
-7.2919998 13.62 -0.86000001 151 104 76
-7.2779999 13.609 -0.84799999 74 38 24
-7.2750001 13.613 -0.84100002 49 24 20
-7.283 13.671 -0.852 209 121 58
-7.2909999 13.653 -0.85900003 154 103 60
-7.283 13.656 -0.85900003 235 164 108
-7.2750001 13.679 -0.86000001 175 106 67
-7.283 13.656 -0.85100001 176 92 28
-7.2810001 13.735 -0.889 72 12 0
-7.2989998 13.629 -1.0369999 164 90 29
-7.2719998 13.634 -1.04 49 30 15
-7.276 13.632 -1.045 163 84 28
-7.2839999 13.632 -1.0470001 133 62 8
-7.2800002 13.637 -1.049 94 47 21
-7.3429999 13.62 -0.61500001 213 106 38
-7.3140001 13.799 -0.56 95 57 38
-7.3319998 13.791 -0.537 179 127 87
-7.3060002 13.826 -0.53600001 183 90 21
-7.309 13.62 -0.69499999 145 94 49
-7.316 13.639 -0.68400002 128 72 35
-7.29 13.647 -0.69599998 67 48 31
-7.2740002 13.626 -0.74000001 149 80 21
-7.335 13.64 -0.75800002 184 131 87
-7.3449998 13.654 -0.72100002 140 93 49
-7.3130002 13.632 -0.73799998 108 40 3
-7.3309999 13.627 -0.741 109 35 0
-7.329 13.631 -0.745 161 110 67
-7.322 13.635 -0.75199997 243 141 75
-7.3119998 13.622 -0.83700001 57 29 5
-7.2719998 13.649 -0.76099998 195 93 18
-7.2789998 13.653 -0.76300001 85 44 22
-7.2800002 13.656 -0.77499998 169 90 31
-7.2620001 13.656 -0.72100002 69 42 15
-7.2979999 13.654 -0.71399999 182 103 47
-7.2880001 13.659 -0.73199999 135 88 44
-7.3410001 13.673 -0.71700001 74 40 12
-7.348 13.676 -0.72399998 143 81 34
-7.3410001 13.674 -0.71600002 142 80 29
-7.3070002 13.658 -0.704 179 121 84
-7.3000002 13.636 -0.73699999 226 115 34
-7.3319998 13.643 -0.71700001 202 114 51
-7.3070002 13.651 -0.73199999 143 82 38
-7.2740002 13.634 -0.73299998 93 52 20
-7.2989998 13.588 -0.80699998 104 67 38
-7.2969999 13.595 -0.801 135 80 26
-7.2930002 13.594 -0.81099999 105 41 3
-7.2880001 13.602 -0.81099999 55 31 7
-7.2979999 13.616 -0.81800002 188 98 35
-7.3080001 13.623 -0.80800003 195 106 46
-7.3039999 13.615 -0.82999998 95 57 38
-7.3239999 13.635 -0.75999999 224 127 59
-7.322 13.633 -0.76700002 142 89 39
-7.3060002 13.64 -0.75700003 191 135 86
-7.302 13.632 -0.77899998 129 65 27
-7.3189998 13.635 -0.76899999 225 131 59
-7.3169999 13.635 -0.78299999 146 85 38
-7.342 13.797 -0.86400002 165 114 83
-7.3400002 13.796 -0.866 149 86 45
-7.3319998 13.786 -0.86799997 78 36 22
-7.3179998 13.768 -0.833 70 34 10
-7.3169999 13.751 -0.85299999 99 68 48
-7.323 13.757 -0.85500002 66 15 0
-7.3169999 13.746 -0.847 63 27 5
-7.3200002 13.753 -0.84799999 129 70 36
-7.3169999 13.756 -0.84600002 72 21 4
-7.3280001 13.77 -0.829 26 2 2
-7.2719998 13.658 -0.65499997 194 136 86
-7.2740002 13.637 -0.64999998 162 104 67
-7.335 13.759 -0.80199999 107 32 9
-7.3330002 13.758 -0.79900002 101 87 78
-7.277 13.697 -0.861 86 19 0
-7.2680001 13.674 -0.86199999 159 135 125
-7.3080001 13.741 -0.78200001 131 57 12
-7.3340001 13.757 -0.79100001 136 60 24
-7.3169999 13.665 -0.79900002 137 75 38
-7.2880001 13.686 -0.85399997 99 80 50
-7.3470001 13.677 -0.70999998 200 129 73
-7.3499999 13.682 -0.72600001 63 36 27
-7.3400002 13.661 -0.73799998 198 128 77
-7.3330002 13.676 -0.75300002 139 93 59
-7.336 13.659 -0.74299997 100 76 64
-7.2680001 13.621 -0.73799998 67 38 8
-7.243 13.615 -0.91799998 106 92 89
-7.2249999 13.624 -0.91500002 121 88 69
-7.2379999 13.632 -0.90499997 153 88 58
-7.2709999 13.654 -0.81300002 71 55 30
-7.27 13.652 -0.80699998 126 80 47
-7.276 13.654 -0.81099999 40 11 0
-7.2670002 13.656 -0.81 122 38 2
-7.2600002 13.655 -0.80599999 232 152 99
-7.289 13.626 -0.83999997 153 115 94
-7.29 13.633 -0.82999998 144 101 66
-7.2839999 13.637 -0.838 115 77 58
-7.3460002 13.633 -0.82200003 149 102 56
-7.3460002 13.635 -0.82999998 231 128 51
-7.3439999 13.649 -0.815 93 37 0
-7.3439999 13.637 -0.82099998 121 94 83
-7.3439999 13.646 -0.80599999 85 35 2
-7.342 13.635 -0.81900001 107 68 39
-7.3410001 13.632 -0.81099999 128 46 0
-7.2800002 13.63 -0.991 126 58 9
-7.2779999 13.623 -1.0039999 179 162 154
-7.283 13.586 -0.972 123 94 78
-7.3039999 13.767 -0.80699998 73 29 0
-7.283 13.737 -0.85600001 81 21 0
-7.217 13.611 -0.93000001 110 58 19
-7.2259998 13.598 -0.92799997 105 58 32
-7.2129998 13.601 -0.94599998 107 61 27
-7.2420001 13.591 -0.93099999 184 120 76
-7.2249999 13.592 -0.92900002 244 156 69
-7.2379999 13.647 -0.98799998 153 134 128
-7.2529998 13.641 -0.98900002 51 30 25
-7.2259998 13.649 -0.99800003 113 39 0
-7.2290001 13.626 -0.91100001 82 39 7
-7.289 13.714 -0.866 102 38 3
-7.2800002 13.71 -0.85799998 74 37 18
-7.2810001 13.653 -0.85600001 78 31 3
-7.289 13.649 -0.85299999 211 160 115
-7.2909999 13.638 -0.829 212 124 52
-7.2800002 13.631 -0.833 119 71 35
-7.2859998 13.621 -0.94800001 208 118 42
-7.2610002 13.599 -0.93000001 160 75 20
-7.257 13.595 -0.91900003 202 121 68
-7.2659998 13.604 -0.94 26 6 5
-7.263 13.608 -0.94099998 90 57 38
-7.283 13.608 -0.912 160 95 53
-7.2839999 13.608 -0.90899998 114 46 11
-7.29 13.615 -0.89899999 152 107 74
-7.289 13.615 -0.89399999 140 88 41
-7.2870002 13.616 -0.92199999 169 125 100
-7.2379999 13.593 -0.92799997 232 138 76
-7.283 13.607 -0.85500002 213 159 112
-7.2779999 13.593 -0.87300003 206 115 44
-7.2810001 13.63 -1.035 117 40 0
-7.2930002 13.805 -0.55400002 173 133 97
-7.3200002 13.633 -0.68900001 106 96 97
-7.3099999 13.619 -0.69800001 127 90 61
-7.3169999 13.627 -0.69199997 153 99 63
-7.3080001 13.731 -0.78299999 90 45 14
-7.3390002 13.694 -0.73100001 128 49 8
-7.3449998 13.698 -0.727 80 46 37
-7.3390002 13.698 -0.73100001 139 65 16
-7.3299999 13.683 -0.75800002 205 112 35
-7.3340001 13.645 -0.75 230 133 65
-7.3299999 13.634 -0.75099999 125 78 32
-7.3210001 13.623 -0.80400002 58 36 25
-7.322 13.634 -0.79500002 94 86 84
-7.3150001 13.632 -0.80800003 172 114 66
-7.316 13.626 -0.80299997 208 114 52
-7.2649999 13.648 -0.73400003 82 32 0
-7.2639999 13.651 -0.74000001 121 116 122
-7.283 13.656 -0.78100002 139 49 0
-7.2810001 13.655 -0.78600001 81 44 25
-7.3280001 13.66 -0.75199997 107 44 0
-7.2979999 13.652 -0.72299999 167 104 61
-7.296 13.654 -0.71499997 254 156 93
-7.2969999 13.621 -0.80800003 144 91 37
-7.3049998 13.625 -0.81300002 243 142 60
-7.3000002 13.629 -0.81800002 215 153 112
-7.302 13.632 -0.81599998 104 44 8
-7.2979999 13.624 -0.82300001 250 150 74
-7.2940001 13.598 -0.79900002 99 28 0
-7.2880001 13.624 -0.80800003 90 53 35
-7.3499999 13.772 -0.85000002 196 111 54
-7.3639998 13.771 -0.861 115 60 29
-7.3590002 13.776 -0.86500001 106 43 10
-7.342 13.79 -0.85900003 169 123 99
-7.3150001 13.763 -0.84899998 121 56 24
-7.336 13.759 -0.81400001 93 26 7
-7.323 13.769 -0.83099997 95 68 51
-7.3559999 13.773 -0.86199999 84 35 3
-7.3509998 13.771 -0.85299999 91 31 0
-7.3569999 13.765 -0.84899998 91 26 0
-7.3189998 13.742 -0.78899997 115 64 35
-7.3000002 13.757 -0.80900002 75 56 49
-7.3039999 13.746 -0.79799998 139 121 111
-7.3070002 13.76 -0.78200001 199 123 63
-7.2740002 13.695 -0.861 99 53 17
-7.2719998 13.68 -0.85600001 129 101 87
-7.2800002 13.708 -0.85600001 94 48 15
-7.2709999 13.656 -0.85799998 117 77 42
-7.2680001 13.704 -0.87300003 96 53 21
-7.2670002 13.704 -0.86500001 101 78 62
-7.29 13.626 -0.926 201 157 128
-7.2789998 13.619 -0.89200002 204 108 50
-7.2909999 13.615 -0.87800002 169 86 32
-7.2820001 13.62 -0.88 132 115 107
-7.3150001 13.66 -0.80199999 115 47 2
-7.3260002 13.653 -0.76899999 161 105 72
-7.2859998 13.69 -0.85000002 149 80 51
-7.276 13.693 -0.85299999 128 54 7
-7.3540001 13.674 -0.72299999 77 46 15
-7.336 13.661 -0.73699999 133 90 58
-7.2820001 13.618 -0.92500001 122 62 25
-7.2480001 13.595 -0.921 192 105 28
-7.2740002 13.707 -0.85299999 58 23 1
-7.2259998 13.618 -0.90899998 133 58 1
-7.263 13.674 -0.84600002 101 80 61
-7.277 13.666 -0.85100001 186 101 37
-7.2719998 13.658 -0.84600002 136 118 106
-7.2789998 13.611 -0.82800001 76 40 24
-7.2810001 13.618 -0.82700002 129 120 121
-7.2849998 13.632 -0.84500003 122 69 27
-7.2839999 13.626 -0.86199999 226 133 66
-7.289 13.623 -0.87199998 172 77 19
-7.2880001 13.622 -0.861 249 155 81
-7.2729998 13.63 -0.847 102 74 60
-7.2930002 13.624 -0.83399999 207 147 110
-7.3439999 13.64 -0.815 152 99 67
-7.342 13.647 -0.81199998 53 23 0
-7.2810001 13.626 -0.98900002 70 46 34
-7.276 13.625 -0.97500002 105 84 79
-7.2779999 13.628 -1.002 100 35 0
-7.2820001 13.622 -0.97799999 92 26 0
-7.2800002 13.625 -0.97399998 113 84 68
-7.2729998 13.61 -0.95099998 201 132 90
-7.3070002 13.763 -0.79900002 43 24 7
-7.2350001 13.652 -0.98799998 96 37 7
-7.2449999 13.647 -0.98799998 97 34 3
-7.211 13.595 -0.93900001 248 162 77
-7.211 13.6 -0.93800002 136 113 105
-7.2810001 13.61 -0.921 124 71 31
-7.2909999 13.618 -0.912 147 100 70
-7.23 13.595 -0.91900003 246 161 81
-7.2849998 13.62 -0.96899998 127 41 0
-7.2950001 13.615 -0.875 123 60 17
-7.283 13.608 -0.85500002 78 73 80
-7.2800002 13.629 -1.039 100 54 28
-7.3169999 13.788 -0.55699998 255 211 160
-7.3080001 13.788 -0.55199999 245 152 72
-7.3239999 13.623 -0.68099999 154 103 60
-7.3070002 13.73 -0.78799999 170 80 20
-7.2800002 13.654 -0.77499998 184 87 8
-7.2719998 13.65 -0.78500003 161 82 16
-7.348 13.658 -0.72399998 128 67 13
-7.3390002 13.671 -0.71499997 180 81 16
-7.3429999 13.659 -0.71899998 133 82 37
-7.3099999 13.638 -0.73299998 223 121 49
-7.322 13.635 -0.74199998 94 87 94
-7.3080001 13.614 -0.83700001 199 106 28
-7.303 13.612 -0.83499998 174 89 25
-7.2690001 13.652 -0.745 148 124 112
-7.2940001 13.656 -0.73500001 101 51 16
-7.2950001 13.653 -0.73699999 130 76 30
-7.309 13.639 -0.76800001 145 89 32
-7.2779999 13.644 -0.75599998 132 103 87
-7.3280001 13.677 -0.75599998 90 77 58
-7.335 13.633 -0.74000001 62 32 4
-7.2979999 13.629 -0.81999999 183 129 83
-7.3070002 13.624 -0.80699998 108 85 71
-7.3060002 13.633 -0.801 222 159 116
-7.3060002 13.634 -0.78799999 134 78 21
-7.2979999 13.629 -0.80299997 136 81 27
-7.3470001 13.771 -0.84899998 94 36 14
-7.3410001 13.792 -0.861 111 60 29
-7.3119998 13.767 -0.83899999 86 70 73
-7.323 13.761 -0.84600002 89 38 11
-7.302 13.756 -0.81099999 75 13 2
-7.2800002 13.684 -0.85399997 64 35 21
-7.2690001 13.705 -0.87199998 117 50 24
-7.276 13.666 -0.85699999 78 68 76
-7.2940001 13.624 -0.91299999 129 70 30
-7.2919998 13.619 -0.90700001 108 57 10
-7.335 13.647 -0.80599999 105 52 20
-7.329 13.642 -0.77600002 109 42 0
-7.329 13.63 -0.76999998 185 131 85
-7.3280001 13.641 -0.773 124 102 91
-7.3169999 13.629 -0.79799998 138 49 0
-7.3150001 13.632 -0.79500002 175 114 67
-7.2820001 13.683 -0.847 83 37 11
-7.2449999 13.617 -0.91299999 183 112 56
-7.2360001 13.623 -0.90799999 146 75 33
-7.2249999 13.599 -0.91299999 161 97 59
-7.2849998 13.619 -0.926 145 92 52
-7.256 13.607 -0.91799998 103 89 86
-7.263 13.608 -0.92699999 118 86 61
-7.2420001 13.609 -0.926 169 142 123
-7.2480001 13.607 -0.92000002 115 64 21
-7.2449999 13.632 -0.89899999 95 28 1
-7.2449999 13.62 -0.90700001 143 57 10
-7.2519999 13.597 -0.91500002 198 136 97
-7.2589998 13.602 -0.91100001 160 79 13
-7.2379999 13.601 -0.912 103 62 34
-7.243 13.597 -0.92799997 133 82 53
-7.2870002 13.674 -0.76200002 107 44 11
-7.289 13.678 -0.76200002 126 111 106
-7.2919998 13.681 -0.76599997 65 55 64
-7.27 13.664 -0.81699997 61 19 0
-7.2719998 13.664 -0.824 66 19 0
-7.2740002 13.708 -0.85699999 140 109 91
-7.277 13.704 -0.85299999 94 42 3
-7.2389998 13.628 -0.89700001 109 80 62
-7.237 13.613 -0.91000003 135 56 0
-7.2690001 13.677 -0.85100001 161 137 127
-7.2639999 13.671 -0.85100001 161 80 24
-7.2719998 13.678 -0.81699997 80 39 11
-7.2680001 13.675 -0.81999999 233 192 160
-7.2620001 13.657 -0.81199998 166 83 31
-7.2839999 13.619 -0.81800002 148 94 47
-7.289 13.603 -0.82700002 100 96 97
-7.29 13.647 -0.787 81 74 82
-7.3049998 13.642 -0.78899997 156 82 33
-7.303 13.643 -0.79900002 122 53 22
-7.27 13.649 -0.85299999 141 87 43
-7.2969999 13.637 -0.82499999 138 90 67
-7.3010001 13.656 -0.83399999 116 64 25
-7.2940001 13.653 -0.833 68 46 22
-7.2820001 13.636 -1.021 147 80 35
-7.256 13.643 -0.98900002 105 36 5
-7.2740002 13.626 -0.96899998 175 86 30
-7.3070002 13.76 -0.83499998 176 112 66
-7.2950001 13.637 -0.80800003 77 40 22
-7.2870002 13.629 -0.81199998 219 123 39
-7.2950001 13.655 -0.815 98 64 37
-7.2680001 13.605 -0.93099999 140 109 91
-7.2649999 13.603 -0.91299999 236 213 199
-7.2859998 13.612 -0.90799999 129 83 57
-7.2940001 13.621 -0.88800001 104 45 5
-7.2940001 13.628 -0.87400001 145 100 69
-7.289 13.635 -0.88 164 112 64
-7.2940001 13.639 -0.884 173 85 35
-7.2810001 13.594 -0.87300003 69 34 15
-7.283 13.623 -0.85799998 98 69 53
-7.3119998 13.79 -0.55400002 236 187 146
-7.3460002 13.662 -0.71499997 189 92 24
-7.3460002 13.667 -0.72500002 153 80 27
-7.3179998 13.636 -0.745 158 104 58
-7.3390002 13.647 -0.815 115 53 14
-7.2950001 13.647 -0.85399997 117 81 57
-7.2940001 13.652 -0.85900003 166 95 33
-7.283 13.671 -0.84899998 108 36 0
-7.2800002 13.653 -0.847 152 76 26
-7.2880001 13.649 -0.84100002 189 102 31
-7.309 13.614 -0.83399999 175 115 78
-7.2870002 13.657 -0.745 95 62 57
-7.302 13.635 -0.79500002 214 156 110
-7.3130002 13.63 -0.801 167 69 0
-7.3049998 13.639 -0.76300001 160 86 37
-7.2810001 13.637 -0.74800003 120 64 13
-7.2859998 13.641 -0.75599998 80 32 0
-7.3039999 13.638 -0.76999998 216 158 110
-7.3109999 13.636 -0.78500003 237 175 128
-7.3070002 13.643 -0.796 155 102 70
-7.3049998 13.639 -0.801 133 59 12
-7.3179998 13.643 -0.78200001 196 91 26
-7.3179998 13.644 -0.77100003 204 96 32
-7.302 13.659 -0.76499999 50 40 48
-7.3299999 13.667 -0.76099998 66 37 7
-7.2940001 13.653 -0.829 135 102 87
-7.3039999 13.654 -0.81400001 96 37 3
-7.2859998 13.672 -0.801 210 124 67
-7.2870002 13.675 -0.79299998 99 84 77
-7.2849998 13.679 -0.79500002 50 32 10
-7.276 13.633 -0.79000002 228 136 71
-7.2750001 13.642 -0.77899998 173 119 75
-7.336 13.786 -0.85000002 90 52 33
-7.342 13.79 -0.85799998 187 136 109
-7.3150001 13.762 -0.83600003 116 61 20
-7.3179998 13.749 -0.79400003 106 32 0
-7.3039999 13.755 -0.801 64 19 0
-7.2810001 13.628 -0.92699999 116 74 60
-7.283 13.627 -0.921 125 36 0
-7.2870002 13.628 -0.875 146 60 0
-7.27 13.672 -0.82300001 87 67 60
-7.29 13.661 -0.81599998 93 55 36
-7.263 13.605 -0.93400002 180 89 10
-7.244 13.606 -0.92400002 159 99 65
-7.25 13.609 -0.91100001 161 82 15
-7.2470002 13.595 -0.917 160 93 48
-7.237 13.599 -0.92900002 233 190 155
-7.2839999 13.667 -0.76099998 115 85 61
-7.2620001 13.654 -0.815 147 80 35
-7.289 13.604 -0.82999998 54 28 5
-7.2859998 13.66 -0.77899998 92 58 33
-7.2940001 13.654 -0.76800001 148 91 36
-7.2789998 13.623 -0.83600003 195 100 20
-7.2340002 13.619 -0.91299999 68 18 0
-7.2160001 13.612 -0.92400002 173 136 118
-7.2340002 13.611 -0.921 214 132 58
-7.244 13.608 -0.92400002 199 115 69
-7.2639999 13.603 -0.92299998 108 69 40
-7.2940001 13.624 -0.90100002 136 82 38
-7.2940001 13.63 -0.88300002 95 72 56
-7.3109999 13.793 -0.55400002 193 113 44
-7.3280001 13.651 -0.764 106 41 0
-7.303 13.662 -0.815 159 86 41
-7.289 13.651 -0.84600002 225 208 201
-7.3000002 13.633 -0.78500003 116 61 5
-7.2979999 13.632 -0.77700001 134 80 52
-7.3119998 13.636 -0.79500002 173 117 70
-7.3119998 13.638 -0.79299998 200 98 26
-7.3039999 13.638 -0.76700002 148 91 38
-7.316 13.642 -0.78799999 241 148 70
-7.2989998 13.636 -0.741 121 117 131
-7.289 13.672 -0.764 97 73 61
-7.3169999 13.642 -0.77700001 212 115 34
-7.303 13.637 -0.77700001 132 59 24
-7.2870002 13.661 -0.75 155 94 63
-7.3260002 13.67 -0.75800002 134 56 18
-7.3239999 13.65 -0.76099998 228 119 50
-7.2930002 13.631 -0.79299998 158 152 152
-7.2839999 13.637 -0.77899998 86 40 4
-7.277 13.637 -0.79100001 137 120 113
-7.2779999 13.64 -0.77499998 114 109 106
-7.3319998 13.787 -0.86000001 86 30 5
-7.336 13.79 -0.84600002 101 73 61
-7.3140001 13.753 -0.78799999 101 52 19
-7.3080001 13.746 -0.80699998 117 34 2
-7.309 13.748 -0.80000001 90 22 0
-7.2849998 13.62 -0.90399998 165 88 32
-7.2750001 13.671 -0.852 146 91 60
-7.2550001 13.607 -0.91600001 42 14 0
-7.2399998 13.603 -0.912 110 87 71
-7.2670002 13.659 -0.82099998 121 101 90
-7.2800002 13.637 -0.84299999 106 56 19
-7.2179999 13.608 -0.92799997 119 73 37
-7.2360001 13.615 -0.917 86 55 37
-7.2459998 13.618 -0.90899998 188 112 63
-7.2589998 13.598 -0.92000002 117 96 95
-7.296 13.626 -0.88499999 139 83 48
-7.3060002 13.64 -0.74400002 184 130 83
-7.3070002 13.66 -0.80800003 151 98 66
-7.296 13.663 -0.81599998 131 99 86
-7.2880001 13.645 -0.847 245 167 105
-7.322 13.654 -0.74699998 66 31 0
-7.2979999 13.636 -0.759 198 133 75
-7.2969999 13.634 -0.77600002 134 130 131
-7.296 13.641 -0.76499999 208 151 106
-7.2950001 13.653 -0.75400001 222 125 48
-7.3270001 13.667 -0.75599998 94 50 13
-7.29 13.645 -0.80000001 255 162 82
-7.2919998 13.638 -0.77499998 250 153 72
-7.2930002 13.644 -0.78399998 168 105 62
-7.316 13.755 -0.81199998 68 5 0
-7.2820001 13.625 -0.88800001 139 59 0
-7.2709999 13.65 -0.85000002 194 100 36
-7.289 13.623 -0.89399999 144 64 15
-7.303 13.653 -0.764 227 118 33
-7.2849998 13.627 -0.824 231 136 52
-7.2919998 13.637 -0.77899998 233 179 133
-7.2820001 13.624 -0.88800001 118 48 12
-7.2909999 13.623 -0.90200001 117 59 22
-7.2820001 13.619 -0.89700001 144 126 114
-7.316 13.65 -0.74699998 111 54 0
-7.3150001 13.656 -0.74199998 186 102 38
-7.3000002 13.649 -0.76700002 173 109 65
-7.2989998 13.652 -0.75400001 141 73 26
0 0 0 1 0 0 0 1 0 0 0 1 0 0 0 0 0 1141 1 0 0
