ply
format ascii 1.0
comment PCL generated
element vertex 1250
property float x
property float y
property float z
property uchar red
property uchar green
property uchar blue
element camera 0
property float view_px
property float view_py
property float view_pz
property float x_axisx
property float x_axisy
property float x_axisz
property float y_axisx
property float y_axisy
property float y_axisz
property float z_axisx
property float z_axisy
property float z_axisz
property float focal
property float scalex
property float scaley
property float centerx
property float centery
property int viewportx
property int viewporty
property float k1
property float k2
end_header
-3.2520001 5.566 -0.85399997 95 59 27
-3.3150001 5.645 -0.833 234 200 165
-3.2520001 5.5630002 -0.95300001 186 145 113
-3.2490001 5.5510001 -0.95200002 67 45 31
-3.2490001 5.5619998 -0.96499997 124 105 98
-3.244 5.5799999 -0.96399999 87 36 7
-3.2420001 5.5640001 -0.93699998 123 95 81
-3.2420001 5.5419998 -0.935 54 32 21
-3.2379999 5.6129999 -0.91900003 167 123 86
-3.2409999 5.618 -0.91900003 144 101 69
-3.2219999 5.6079998 -0.93800002 118 69 39
-3.2449999 5.6139998 -0.93400002 179 111 62
-3.2639999 5.6370001 -0.93099999 131 108 94
-3.27 5.6409998 -0.93199998 83 65 55
-3.283 5.6430001 -0.92299998 52 36 21
-3.277 5.6490002 -0.935 79 62 54
-3.286 5.6360002 -0.91500002 130 72 34
-3.286 5.6430001 -0.91000003 123 74 44
-3.2479999 5.618 -0.91799998 204 110 38
-3.2939999 5.6880002 -0.833 141 94 50
-3.425 5.8080001 -0.85699999 74 47 26
-3.4400001 5.7659998 -0.866 80 49 28
-3.404 5.8130002 -0.889 176 137 108
-3.3900001 5.8070002 -0.88099998 208 126 66
-3.3759999 5.8179998 -0.86000001 199 153 104
-3.3840001 5.8060002 -0.85600001 166 101 61
-3.3759999 5.8140001 -0.86299998 83 44 11
-3.391 5.8039999 -0.85000002 96 31 0
-3.391 5.7909999 -0.85799998 195 110 46
-3.414 5.803 -0.829 57 7 0
-3.4319999 5.7940001 -0.81999999 103 43 19
-3.431 5.7940001 -0.82700002 72 23 8
-3.4100001 5.7719998 -0.82300001 190 106 34
-3.4159999 5.7659998 -0.82999998 109 56 12
-3.414 5.757 -0.829 255 204 103
-3.408 5.7379999 -0.81599998 197 141 90
-3.3699999 5.7319999 -0.90600002 226 179 101
-3.3740001 5.7459998 -0.90799999 142 88 52
-3.279 5.652 -0.82599998 126 71 32
-3.3800001 5.836 -0.87400001 108 74 49
-3.368 5.836 -0.96899998 218 128 66
-3.3640001 5.8369999 -0.963 78 42 8
-3.3599999 5.855 -0.972 86 57 43
-3.345 5.7119999 -0.91000003 175 85 22
-3.3900001 5.7540002 -0.912 93 40 8
-3.3710001 5.7199998 -0.91399997 191 134 63
-3.359 5.7410002 -0.92299998 219 139 70
-3.385 5.8429999 -0.92699999 189 125 77
-3.2909999 5.7059999 -0.85500002 130 109 78
-3.3710001 5.8169999 -0.86199999 144 102 64
-3.3859999 5.8150001 -0.81 41 16 11
-3.415 5.8309999 -0.85799998 99 54 25
-3.438 5.8140001 -0.86699998 90 46 21
-3.4070001 5.8319998 -0.85299999 157 120 78
-3.385 5.8470001 -0.85900003 66 34 19
-3.381 5.8390002 -0.85399997 71 40 22
-3.2920001 5.6869998 -0.88999999 60 28 7
-3.2880001 5.6529999 -1.03 113 85 71
-3.289 5.6389999 -1.0599999 33 19 16
-3.2590001 5.6160002 -1.015 24 9 4
-3.256 5.6269999 -0.99599999 107 72 52
-3.25 5.6079998 -1.0089999 214 161 121
-3.3789999 5.8299999 -0.99000001 179 115 71
-3.388 5.7639999 -0.995 79 24 4
-3.3410001 5.6339998 -1.0369999 58 10 0
-3.293 5.665 -1.048 22 3 0
-3.296 5.6669998 -1.043 31 7 0
-3.3699999 5.8790002 -1.057 173 167 169
-3.3829999 5.8130002 -1.073 190 111 45
-3.3800001 5.895 -1.053 113 87 62
-3.3710001 5.8870001 -1.057 80 51 33
-3.3900001 5.8800001 -1.068 79 35 22
-3.2379999 5.625 -0.91600001 207 118 52
-3.2379999 5.6300001 -0.91799998 48 16 0
-3.2379999 5.632 -0.91900003 124 57 30
-3.2160001 5.6170001 -0.94 204 149 93
-3.224 5.6220002 -0.94700003 57 20 1
-3.2320001 5.6220002 -0.97000003 130 96 71
-3.2260001 5.618 -0.95300001 69 22 0
-3.234 5.6220002 -0.96499997 82 56 33
-3.234 5.618 -0.991 146 135 133
-3.2360001 5.6170001 -0.99599999 52 35 27
-3.223 5.6339998 -0.93800002 88 33 13
-3.28 5.6739998 -0.82800001 150 91 59
-3.283 5.6719999 -0.83399999 255 212 170
-3.2809999 5.671 -0.87800002 54 27 6
-3.286 5.665 -0.89099997 44 17 0
-3.2839999 5.6690001 -0.87599999 105 77 73
-3.2909999 5.651 -0.88300002 101 60 32
-3.2980001 5.6339998 -0.88599998 238 141 62
-3.283 5.6469998 -0.903 152 118 83
-3.299 5.6539998 -0.89600003 247 201 152
-3.3069999 5.677 -0.89200002 91 41 16
-3.332 5.6599998 -0.88200003 213 112 58
-3.3199999 5.6490002 -0.87699997 132 44 6
-3.326 5.651 -0.87800002 159 116 71
-3.398 5.8119998 -0.847 114 49 7
-3.388 5.7940001 -0.82700002 89 86 93
-3.286 5.632 -0.977 15 6 1
-3.286 5.6560001 -0.97799999 122 111 115
-3.313 5.4829998 -0.95300001 75 30 1
-3.325 5.4749999 -0.94099998 44 10 0
-3.3110001 5.4330001 -0.90899998 157 104 64
-3.29 5.3720002 -0.86400002 81 36 5
-3.27 5.5640001 -0.85699999 196 100 26
-3.279 5.5710001 -0.86400002 107 72 40
-3.2390001 5.585 -0.92199999 163 68 20
-3.2490001 5.553 -0.85000002 197 155 107
-3.23 5.5489998 -0.86799997 173 117 82
-3.233 5.5430002 -0.87300003 120 58 19
-3.2379999 5.5679998 -1.064 124 88 66
-3.2460001 5.5650001 -1.074 110 78 55
-3.2409999 5.566 -1.0650001 142 106 82
-3.266 5.4359999 -1.068 162 139 121
-3.2690001 5.572 -1.0599999 60 24 0
-3.2650001 5.5609999 -1.053 148 120 98
-3.2479999 5.5689998 -1.059 72 38 26
-3.2709999 5.5679998 -1.048 127 121 125
-3.2360001 5.5749998 -1.066 62 40 27
-3.267 5.4260001 -1.08 134 85 45
-3.2720001 5.5640001 -1.08 81 50 29
-3.2620001 5.5739999 -1.0829999 100 69 49
-3.29 5.5510001 -1.062 45 1 0
-3.277 5.5380001 -1.0190001 44 1 0
-3.256 5.5450001 -0.99900001 78 46 31
-3.2460001 5.5549998 -0.98000002 25 0 0
-3.244 5.5430002 -0.94099998 83 68 47
-3.247 5.5419998 -1.025 84 63 46
-3.2839999 5.5869999 -1.0140001 76 45 17
-3.276 5.5760002 -1.017 140 137 148
-3.2609999 5.5710001 -1.0369999 116 97 93
-3.2509999 5.5609999 -1.058 135 90 61
-3.267 5.572 -1.04 30 3 0
-3.2539999 5.5879998 -0.99299997 127 88 71
-3.25 5.573 -1.007 99 55 30
-3.2839999 5.5370002 -0.96100003 71 44 25
-3.2780001 5.54 -0.96600002 58 30 8
-3.27 5.5310001 -0.96200001 156 116 91
-3.27 5.5339999 -0.98000002 71 29 5
-3.2609999 5.5219998 -0.98500001 108 67 45
-3.2539999 5.5209999 -0.98199999 70 52 42
-3.2539999 5.5180001 -0.977 100 85 80
-3.2720001 5.5300002 -0.991 66 29 13
-3.263 5.592 -1.0829999 19 5 4
-3.2679999 5.5619998 -0.96700001 153 134 120
-3.2690001 5.5669999 -0.977 99 96 103
-3.325 5.5710001 -0.99400002 143 100 66
-3.3180001 5.572 -0.99599999 91 20 2
-3.2360001 5.5380001 -0.87300003 128 83 44
-3.243 5.5450001 -0.88099998 144 103 75
-3.2449999 5.553 -0.972 117 99 85
-3.247 5.5469999 -0.90899998 102 82 71
-3.2980001 5.4070001 -1.046 99 63 27
-3.2939999 5.395 -1.0039999 115 51 13
-3.2880001 5.414 -1.034 45 34 16
-3.2950001 5.4219999 -1.033 138 59 2
-3.25 5.5120001 -0.97600001 113 90 72
-3.24 5.5190001 -0.98400003 134 91 57
-3.2490001 5.5180001 -0.97899997 87 70 62
-3.497 5.777 -0.829 253 188 94
-3.4979999 5.7709999 -0.83399999 235 175 79
-3.4779999 5.7950001 -0.87599999 74 51 33
-3.474 5.796 -0.88099998 52 25 8
-3.431 5.7740002 -0.85600001 163 101 54
-3.4430001 5.7550001 -0.87199998 42 23 16
-3.4519999 5.7680001 -0.80699998 219 171 123
-3.4979999 5.7579999 -0.84100002 174 69 12
-3.4979999 5.7589998 -0.838 203 96 28
-3.5 5.7690001 -0.84100002 224 174 123
-3.5020001 5.776 -0.838 252 202 149
-3.279 5.651 -0.98299998 56 33 25
-3.2820001 5.6529999 -0.99299997 124 89 61
-3.3010001 5.658 -0.98799998 44 12 0
-3.3169999 5.6690001 -0.95899999 106 66 40
-3.316 5.6849999 -0.96399999 136 99 72
-3.3610001 5.7080002 -0.91600001 252 186 126
-3.3210001 5.638 -0.98900002 23 2 0
-3.3180001 5.6420002 -1.008 68 34 9
-3.303 5.6659999 -0.98199999 25 0 0
-3.3239999 5.638 -0.99699998 40 23 16
-3.345 5.6659999 -0.91299999 56 35 6
-3.3269999 5.671 -0.89399999 168 103 49
-3.323 5.6669998 -0.91100001 56 21 0
-3.3340001 5.664 -0.89499998 203 94 25
-3.3529999 5.6890001 -0.92000002 123 73 40
-3.3299999 5.6589999 -0.92000002 57 37 28
-3.3269999 5.6529999 -0.92299998 40 13 4
-3.339 5.6329999 -0.92299998 90 36 2
-3.3340001 5.6459999 -0.92000002 48 16 5
-3.342 5.6279998 -0.93300003 94 66 55
-3.3469999 5.6370001 -0.91900003 148 115 96
-3.3180001 5.6500001 -0.96600002 84 42 18
-3.3010001 5.6420002 -0.95300001 137 92 59
-3.313 5.6859999 -0.91799998 37 10 1
-3.3069999 5.678 -0.90200001 188 132 97
-3.3150001 5.6430001 -0.99299997 150 131 127
-3.3 5.6960001 -0.84200001 110 51 11
-3.306 5.6939998 -0.85900003 255 203 151
-3.3069999 5.6960001 -0.85600001 116 75 45
-3.3069999 5.684 -0.86199999 112 48 13
-3.342 5.6290002 -0.88700002 161 51 0
-3.3380001 5.6279998 -0.88700002 178 138 86
-3.3180001 5.6539998 -0.82499999 194 115 46
-3.4749999 5.7639999 -0.86799997 77 30 4
-3.477 5.763 -0.86199999 127 68 26
-3.398 5.8249998 -0.88200003 55 12 0
-3.4119999 5.8299999 -0.875 163 72 0
-3.402 5.8299999 -0.87400001 83 42 20
-3.3900001 5.763 -0.93699998 233 141 54
-3.352 5.6360002 -0.88800001 164 125 82
-3.322 5.665 -0.87800002 159 113 79
-3.325 5.6700001 -0.88200003 249 197 62
-3.3399999 5.6420002 -0.88700002 179 133 84
-3.3410001 5.6479998 -0.89499998 103 43 15
-3.444 5.7940001 -0.87699997 72 35 17
-3.398 5.7600002 -0.92699999 116 64 24
-3.349 5.598 -1.041 28 1 0
-3.3440001 5.5910001 -1.036 84 38 12
-3.3429999 5.5929999 -1.0599999 83 35 12
-3.369 5.612 -0.98299998 192 136 77
-3.3599999 5.619 -0.96100003 126 87 46
-3.369 5.6040001 -0.991 151 103 67
-3.345 5.5619998 -1.0039999 169 131 94
-3.342 5.5770001 -1.021 76 29 11
-3.3410001 5.5609999 -1.012 84 39 6
-3.2880001 5.6339998 -0.98900002 74 53 50
-3.323 5.6370001 -1.0039999 100 60 35
-3.4630001 5.8070002 -0.917 97 68 50
-3.47 5.809 -0.91900003 47 10 0
-3.4530001 5.8200002 -0.91399997 119 50 21
-3.477 5.802 -0.889 130 109 92
-3.467 5.8000002 -0.88200003 51 22 4
-3.4749999 5.8000002 -0.89700001 71 21 0
-3.467 5.8000002 -0.89999998 55 19 0
-3.4530001 5.7550001 -0.87400001 133 92 64
-3.46 5.7989998 -0.87199998 70 12 0
-3.448 5.8039999 -0.87400001 49 20 6
-3.434 5.802 -0.88599998 113 68 37
-3.4820001 5.757 -0.85600001 153 103 50
-3.483 5.7670002 -0.86400002 180 133 79
-3.48 5.7719998 -0.86400002 62 16 1
-3.3559999 5.6139998 -0.89499998 88 37 6
-3.3080001 5.6149998 -0.95700002 114 59 20
-3.3099999 5.6100001 -0.95599997 94 62 47
-3.3559999 5.612 -0.94300002 147 116 95
-3.3499999 5.6199999 -0.93300003 52 9 0
-3.3499999 5.6199999 -0.88800001 214 166 120
-3.3510001 5.6230001 -0.88800001 155 103 55
-3.3529999 5.6160002 -0.89999998 154 89 35
-3.3139999 5.6069999 -0.958 245 185 123
-3.348 5.6360002 -0.917 48 21 4
-3.3469999 5.6220002 -0.92500001 120 71 39
-3.3080001 5.4749999 -0.889 134 69 31
-3.4119999 5.8070002 -0.81300002 151 124 107
-3.4130001 5.7750001 -0.79299998 218 143 28
-3.4460001 5.7849998 -0.83999997 55 8 0
-3.431 5.7909999 -0.83099997 117 72 51
-3.427 5.7969999 -0.833 40 3 0
-3.4719999 5.8000002 -0.82599998 137 63 24
-3.4820001 5.7979999 -0.83099997 214 132 50
-3.454 5.789 -0.833 92 65 36
-3.4579999 5.79 -0.83200002 178 158 147
-3.461 5.8109999 -0.84399998 78 30 7
-3.4619999 5.803 -0.84299999 107 49 12
-3.4619999 5.8080001 -0.84200001 147 104 61
-3.438 5.79 -0.81099999 119 50 8
-3.415 5.7649999 -0.79900002 253 223 89
-3.3210001 5.6529999 -0.87300003 93 26 0
-3.4430001 5.7309999 -0.82300001 194 158 126
-3.398 5.7610002 -0.81099999 166 64 0
-3.3050001 5.6490002 -0.84200001 126 99 80
-3.3139999 5.6630001 -0.83899999 101 43 21
-3.3180001 5.6700001 -0.83600003 107 67 41
-3.2479999 5.6170001 -1.082 134 97 71
-3.2320001 5.6149998 -1.063 35 19 6
-3.237 5.6199999 -1.057 44 21 3
-3.2320001 5.605 -1.044 44 21 3
-3.253 5.6409998 -1.0549999 52 37 34
-3.256 5.6329999 -1.052 138 100 77
-3.25 5.638 -1.053 50 35 32
-3.244 5.6329999 -1.029 131 96 58
-3.2190001 5.6170001 -1.027 131 75 42
-3.2279999 5.6129999 -1.059 166 129 110
-3.2320001 5.6160002 -1.057 134 79 58
-3.2190001 5.6059999 -1.023 79 32 2
-3.223 5.6139998 -1.03 137 73 27
-3.23 5.6059999 -1.066 118 84 59
-3.2460001 5.6350002 -0.95599997 130 100 89
-3.2449999 5.6240001 -0.97000003 116 57 25
-3.25 5.566 -0.96799999 118 99 92
-3.2479999 5.5799999 -0.96600002 160 127 108
-3.2620001 5.5749998 -0.96899998 84 57 30
-3.2279999 5.6149998 -0.95300001 118 84 59
-3.2290001 5.6079998 -0.94099998 89 23 0
-3.2490001 5.6329999 -1.028 29 17 3
-3.2379999 5.6279998 -0.98299998 60 32 8
-3.24 5.6329999 -1.012 60 32 8
-3.2509999 5.6199999 -1.001 119 82 63
-3.247 5.619 -0.99800003 40 21 15
-3.2509999 5.6220002 -0.99800003 44 25 19
-3.263 5.625 -1.073 56 33 19
-3.342 5.6209998 -1.058 8 0 0
-3.335 5.6269999 -1.061 9 0 0
-3.3429999 5.632 -1.016 130 119 113
-3.3399999 5.6300001 -1.017 44 16 2
-3.404 5.9219999 -1.048 161 130 110
-3.3970001 5.9200001 -1.044 117 77 51
-3.2709999 5.6100001 -1.08 20 2 0
-3.3959999 5.8000002 -1.051 132 118 118
-3.405 5.7979999 -1.05 124 55 13
-3.4059999 5.783 -1.044 184 158 143
-3.4000001 5.79 -1.051 173 123 88
-3.2709999 5.566 -0.93699998 124 81 49
-3.2880001 5.585 -0.875 114 81 48
-3.277 5.651 -1 61 24 5
-3.296 5.4400001 -0.89499998 103 44 4
-3.303 5.4489999 -0.92199999 158 139 122
-3.29 5.4629998 -0.89300001 69 56 22
-3.286 5.5900002 -1.011 128 90 69
-3.286 5.5619998 -0.995 205 143 106
-3.3080001 5.5770001 -1.006 120 47 14
-3.3399999 5.5949998 -0.95999998 45 19 4
-3.359 5.5770001 -0.98000002 125 71 27
-3.3429999 5.5900002 -0.99299997 122 112 110
-3.3510001 5.592 -0.98000002 161 94 41
-3.345 5.5869999 -1.006 152 99 65
-3.3329999 5.552 -0.94300002 50 23 12
-3.358 5.5900002 -0.96100003 141 87 53
-3.359 5.5879998 -0.97799999 197 136 71
-3.253 5.5479999 -0.89499998 81 35 0
-3.256 5.5469999 -0.88300002 152 79 46
-3.2409999 5.546 -0.88999999 42 23 9
-3.3080001 5.4899998 -0.94199997 122 64 24
-3.289 5.46 -0.917 28 15 7
-3.2880001 5.461 -0.93900001 196 174 160
-3.28 5.461 -0.93599999 75 53 40
-3.299 5.4650002 -0.93400002 59 16 0
-3.247 5.6350002 -0.926 71 55 55
-3.3299999 5.6290002 -0.93300003 109 68 36
-3.3280001 5.632 -0.94099998 132 55 3
-3.3369999 5.618 -0.93699998 100 81 74
-3.277 5.579 -0.866 97 57 31
-3.302 5.652 -0.81400001 135 78 33
-3.2950001 5.6500001 -0.81900001 221 163 100
-3.2820001 5.6620002 -0.91000003 34 8 0
-3.29 5.664 -0.92500001 33 11 0
-3.283 5.6589999 -0.93699998 43 24 17
-3.276 5.6360002 -0.94700003 33 1 2
-3.29 5.6389999 -0.94 66 36 8
-3.3039999 5.6290002 -0.96600002 59 29 19
-3.27 5.6500001 -0.93900001 137 102 83
-3.299 5.6329999 -0.91299999 52 24 10
-3.3069999 5.6409998 -0.917 83 37 21
-3.3010001 5.6399999 -0.91299999 137 86 59
-3.3429999 5.6009998 -0.90499997 135 72 18
-3.3369999 5.6220002 -0.92400002 177 123 79
-3.323 5.6230001 -0.91900003 178 153 133
-3.323 5.6259999 -0.91299999 74 30 3
-3.3210001 5.6110001 -0.88800001 230 118 55
-3.3299999 5.6139998 -0.88499999 255 183 82
-3.2839999 5.592 -1.008 198 145 105
-3.279 5.6059999 -1.0089999 34 3 0
-3.2869999 5.5910001 -1.006 138 133 140
-3.2869999 5.5910001 -1.011 118 112 122
-3.309 5.5840001 -1.01 87 26 5
-3.3039999 5.592 -1.013 56 13 0
-3.2909999 5.6040001 -1.001 29 1 0
-3.2460001 5.6090002 -0.921 181 122 80
-3.3299999 5.6059999 -0.97100002 46 28 26
-3.335 5.6079998 -0.98100001 94 79 76
-3.3570001 5.612 -0.96700001 180 107 62
-3.3340001 5.6170001 -1.063 30 13 6
-3.346 5.5630002 -1.064 70 24 9
-3.335 5.5640001 -1.053 38 10 0
-3.332 5.5619998 -1.044 125 111 108
-3.335 5.5650001 -1.0470001 15 1 0
-3.3099999 5.6259999 -1.068 48 16 1
-3.302 5.6149998 -1.067 108 76 55
-3.2920001 5.6040001 -1.072 56 37 20
-3.3239999 5.6430001 -1.04 93 56 27
-3.3150001 5.6659999 -1.04 154 132 118
-3.3080001 5.6529999 -1.039 60 22 0
-3.299 5.6500001 -1.057 9 0 1
-3.316 5.6069999 -1.069 21 6 0
-3.3499999 5.6269999 -1.034 77 31 0
-3.339 5.6300001 -1.057 37 10 1
-3.3380001 5.6300001 -1.057 22 2 3
-3.3399999 5.6370001 -1.044 70 36 11
-3.3559999 5.6209998 -1.041 50 40 31
-3.2980001 5.4510002 -1.04 132 119 110
-3.319 5.4369998 -1.054 115 70 39
-3.309 5.448 -1.053 96 45 26
-3.319 5.4320002 -1.045 24 0 0
-3.3150001 5.434 -1.05 41 21 12
-3.3050001 5.4320002 -1.062 160 73 28
-3.309 5.4369998 -1.0650001 103 45 8
-3.3239999 5.4250002 -1.072 107 35 0
-3.322 5.428 -1.071 47 14 0
-3.3210001 5.4320002 -1.039 33 9 0
-3.309 5.4380002 -1.03 122 88 63
-3.3310001 5.5560002 -1.039 36 8 5
-3.3329999 5.5570002 -1.036 28 0 0
-3.3269999 5.5380001 -1.034 92 63 47
-3.3329999 5.5349998 -1.015 13 5 3
-3.3280001 5.527 -1.008 39 4 0
-3.46 5.7709999 -1.006 69 19 0
-3.4679999 5.7810001 -1.025 96 37 7
-3.3959999 5.8369999 -1.018 108 49 15
-3.3889999 5.8369999 -1.039 113 51 12
-3.4189999 5.822 -1.017 87 45 21
-3.3989999 5.823 -0.97500002 136 91 60
-3.3929999 5.8260002 -0.97399998 166 128 105
-3.408 5.763 -0.99000001 139 69 18
-3.4159999 5.7470002 -0.99400002 180 118 71
-3.434 5.7750001 -0.96100003 148 116 91
-3.425 5.7740002 -0.95700002 144 58 0
-3.447 5.7540002 -0.94099998 221 124 45
-3.427 5.7659998 -0.93900001 232 181 134
-3.4230001 5.77 -0.95200002 172 133 102
-3.4630001 5.743 -0.995 191 167 155
-3.434 5.763 -0.958 62 20 0
-3.3599999 5.7389998 -1.012 109 64 45
-3.365 5.7719998 -1.025 67 32 4
-3.378 5.7870002 -1.0190001 108 49 9
-3.378 5.7870002 -1.007 148 92 65
-3.4089999 5.7709999 -1 165 142 124
-3.3959999 5.7670002 -1.003 183 115 66
-3.391 5.7610002 -1.01 154 103 74
-3.401 5.8130002 -1.072 98 28 0
-3.3759999 5.7940001 -1 58 35 19
-3.388 5.7820001 -1.007 160 112 72
-3.392 5.7729998 -1.01 127 118 123
-3.395 5.7789998 -1.043 107 66 36
-3.388 5.7849998 -1.02 80 60 49
-3.428 5.7979999 -1.034 94 55 22
-3.421 5.8990002 -1.043 153 129 103
-3.4289999 5.8699999 -1.048 70 34 10
-3.4690001 5.7779999 -0.954 223 160 129
-3.4530001 5.7740002 -0.93800002 120 70 21
-3.4619999 5.7880001 -0.94800001 89 51 28
-3.4519999 5.8060002 -0.935 152 107 68
-3.467 5.8400002 -0.95499998 35 12 6
-3.447 5.7480001 -1.0829999 226 172 128
-3.457 5.7399998 -0.97600001 176 125 70
-3.464 5.7410002 -0.96899998 162 96 48
-3.461 5.7459998 -0.94700003 228 145 41
-3.4590001 5.7509999 -0.935 133 77 44
-3.457 5.7589998 -0.93199998 119 69 36
-3.4690001 5.7550001 -0.96399999 109 63 14
-3.471 5.7540002 -0.96899998 119 79 43
-3.464 5.7519999 -0.95300001 106 37 6
-3.464 5.7529998 -0.95700002 113 32 2
-3.437 5.7399998 -0.98199999 210 142 95
-3.444 5.75 -0.96700001 101 58 24
-3.438 5.7610002 -0.96399999 182 90 23
-3.4660001 5.7519999 -0.94700003 246 169 65
-3.4330001 5.7779999 -0.97799999 124 71 31
-3.428 5.776 -0.98500001 148 79 40
-3.451 5.8010001 -0.90200001 203 167 135
-3.4560001 5.8049998 -0.90499997 177 143 116
-3.4449999 5.7600002 -0.87900001 73 36 18
-3.454 5.777 -0.91299999 148 104 77
-3.4519999 5.7750001 -0.921 47 16 0
-3.3340001 5.4219999 -0.96799999 60 7 0
-3.359 5.408 -0.972 92 41 20
-3.3199999 5.5159998 -0.97500002 78 63 56
-3.306 5.4899998 -0.95700002 84 26 12
-3.3210001 5.467 -1.016 112 93 86
-3.319 5.4689999 -1.015 129 112 104
-3.3169999 5.467 -1.011 112 97 92
-3.3110001 5.4689999 -1.017 95 68 51
-3.309 5.4689999 -1.0319999 208 166 126
-3.319 5.4749999 -1.043 22 1 0
-3.323 5.4590001 -1.0039999 100 53 35
-3.3180001 5.461 -1.005 128 114 111
-3.3110001 5.4650002 -1.003 43 0 0
-3.3429999 5.4289999 -1.023 103 77 60
-3.302 5.4549999 -1.026 100 48 26
-3.303 5.4580002 -1.023 122 74 34
-3.3440001 5.4109998 -1.029 119 67 43
-3.358 5.4039998 -1.051 206 151 87
-3.3280001 5.4390001 -1.01 71 40 22
-3.319 5.4660001 -1.0319999 83 64 47
-3.3180001 5.4660001 -1.041 177 125 86
-3.326 5.4569998 -1.053 178 152 135
-3.319 5.4650002 -1.046 139 111 87
-3.3429999 5.4099998 -1.076 123 74 41
-3.29 5.5300002 -0.94499999 83 63 52
-3.2950001 5.533 -0.949 124 65 23
-3.3 5.5430002 -0.96100003 79 51 37
-3.319 5.546 -0.95899999 141 76 22
-3.299 5.553 -0.98799998 53 33 22
-3.3139999 5.5580001 -0.995 73 41 28
-3.3099999 5.5609999 -0.98500001 158 113 82
-3.3050001 5.5570002 -1.0089999 103 61 36
-3.329 5.5240002 -0.94700003 89 36 0
-3.3239999 5.54 -1.0190001 25 8 1
-3.273 5.3979998 -0.94199997 110 69 49
-3.2750001 5.4000001 -0.95200002 118 76 51
-3.2690001 5.5370002 -0.94700003 160 120 95
-3.253 5.5419998 -1.034 40 21 7
-3.2509999 5.5450001 -1.035 63 28 8
-3.283 5.4460001 -1.046 141 78 37
-3.2539999 5.5370002 -0.98699999 124 113 111
-3.2539999 5.539 -0.98000002 118 98 87
-3.2550001 5.5349998 -0.98799998 135 71 25
-3.257 5.5289998 -0.99000001 73 46 25
-3.2509999 5.5240002 -0.98400003 35 18 8
-3.267 5.3569999 -0.90600002 87 51 19
-3.2780001 5.441 -0.95499998 58 32 19
-3.279 5.4400001 -0.958 67 43 31
-3.299 5.4180002 -0.99699998 164 111 80
-3.279 5.4180002 -0.93800002 89 48 16
-3.28 5.4429998 -0.94700003 131 113 109
-3.2839999 5.4520001 -0.96200001 45 23 9
-3.3110001 5.3839998 -0.93800002 255 189 114
-3.286 5.3720002 -0.94300002 138 106 85
-3.29 5.4029999 -0.98900002 190 105 50
-3.2820001 5.3930001 -0.958 111 84 67
-3.2980001 5.3579998 -0.958 173 155 141
-3.267 5.3829999 -0.92400002 76 47 31
-3.2709999 5.3899999 -0.926 74 45 27
-3.3210001 5.3839998 -0.94599998 134 116 112
-3.303 5.3569999 -0.958 136 112 100
-3.306 5.3629999 -0.94700003 103 49 13
-3.2969999 5.362 -0.95499998 156 120 94
-3.329 5.3940001 -0.94800001 168 137 116
-3.3310001 5.4130001 -0.94499999 127 68 28
-3.3199999 5.4089999 -0.93900001 123 73 40
-3.3150001 5.414 -0.93900001 161 131 121
-3.326 5.4130001 -0.94800001 160 87 44
-3.312 5.4260001 -0.93900001 127 65 24
-3.3199999 5.4039998 -0.92799997 109 62 42
-3.313 5.428 -0.935 172 135 106
-3.325 5.434 -0.96100003 73 27 3
-3.358 5.402 -1.0650001 159 144 139
-3.3039999 5.4359999 -1.025 87 33 7
-3.299 5.401 -1.016 91 34 5
-3.302 5.3920002 -1.017 253 164 70
-3.3329999 5.3940001 -1.015 61 19 0
-3.346 5.3769999 -0.98400003 180 92 18
-3.3510001 5.3740001 -0.98100001 255 186 119
-3.3280001 5.375 -0.98500001 213 138 96
-3.312 5.4419999 -1.063 130 110 103
-3.2969999 5.4439998 -1.0549999 159 116 73
-3.3039999 5.4450002 -1.053 129 86 51
-3.3169999 5.4310002 -1.074 104 48 15
-3.3399999 5.4419999 -1.056 25 1 0
-3.2820001 5.4369998 -1.072 128 83 52
-3.2839999 5.4359999 -1.064 46 21 16
-3.3099999 5.5339999 -1.0470001 136 81 50
-3.335 5.5970001 -1.069 19 5 4
-3.336 5.5640001 -1.074 50 23 6
-3.3399999 5.5830002 -1.068 73 45 24
-3.474 5.79 -1.0319999 43 4 0
-3.4790001 5.7969999 -1.044 75 6 0
-3.474 5.8000002 -1.04 219 147 75
-3.4619999 5.842 -1.011 160 99 55
-3.4790001 5.77 -1.056 147 112 82
-3.47 5.7940001 -1.028 201 126 61
-3.4549999 5.8410001 -1.0700001 29 0 0
-3.4579999 5.796 -1.071 48 8 0
-3.4649999 5.8390002 -1.062 95 29 13
-3.4560001 5.8390002 -1.043 67 14 0
-3.4519999 5.8060002 -1.077 61 15 0
-3.4579999 5.802 -0.97100002 167 117 80
-3.441 5.7839999 -0.99400002 90 24 0
-3.451 5.7870002 -1 53 7 0
-3.471 5.7740002 -0.96799999 217 131 72
-3.4489999 5.7620001 -1.012 162 86 37
-3.454 5.7639999 -1.023 235 207 167
-3.4619999 5.8369999 -0.93900001 82 54 33
-3.464 5.8340001 -0.93800002 52 33 26
-3.4519999 5.8270001 -0.92900002 148 112 78
-3.4489999 5.8330002 -0.92799997 131 106 86
-3.4579999 5.8080001 -0.88300002 186 150 118
-3.447 5.809 -0.958 132 115 108
-3.3710001 5.8530002 -0.99900001 57 3 0
-3.431 5.8540001 -1.022 76 34 12
-3.4360001 5.829 -1.0140001 87 36 15
-3.3929999 5.8540001 -0.99000001 134 129 136
-3.388 5.829 -0.98400003 117 64 48
-3.3840001 5.8379998 -0.95599997 142 88 54
-3.382 5.8429999 -0.96200001 169 113 80
-3.3870001 5.8299999 -0.96499997 76 33 1
-3.382 5.8270001 -0.95300001 46 10 0
-3.2950001 5.6609998 -0.81199998 200 125 58
-3.3050001 5.6620002 -0.81300002 120 68 10
-3.299 5.664 -0.81300002 182 126 65
-3.3039999 5.6479998 -0.81999999 177 124 72
-3.2379999 5.5770001 -0.93300003 148 73 18
-3.2520001 5.559 -0.95200002 150 111 80
-3.234 5.579 -0.92799997 155 108 66
-3.273 5.6360002 -0.93000001 54 16 3
-3.28 5.6760001 -0.85399997 66 18 0
-3.2739999 5.6900001 -0.85399997 119 75 40
-3.266 5.6880002 -0.85699999 105 72 55
-3.2650001 5.6890001 -0.86199999 53 22 2
-3.263 5.684 -0.86400002 74 30 5
-3.392 5.802 -0.87699997 43 14 0
-3.4230001 5.7719998 -0.85699999 85 31 5
-3.427 5.802 -0.861 98 57 35
-3.425 5.8049998 -0.85399997 145 119 102
-3.411 5.7750001 -0.82599998 132 68 30
-3.3710001 5.7459998 -0.90799999 145 86 28
-3.378 5.7459998 -0.90799999 201 123 61
-3.3889999 5.7600002 -0.91600001 231 148 68
-3.3959999 5.7459998 -0.912 151 99 39
-3.3970001 5.7329998 -0.912 209 116 55
-3.3940001 5.7389998 -0.91299999 134 84 31
-3.385 5.8400002 -0.93199998 173 98 31
-3.2920001 5.7049999 -0.86900002 120 86 61
-3.2839999 5.7020001 -0.85100001 160 109 78
-3.3889999 5.803 -0.81300002 202 138 103
-3.4219999 5.822 -0.87199998 108 68 43
-3.4419999 5.816 -0.87099999 124 59 29
-3.2950001 5.6669998 -0.917 106 29 1
-3.2939999 5.6659999 -0.92500001 83 39 10
-3.283 5.6570001 -0.99900001 102 58 31
-3.3110001 5.651 -1.005 39 9 0
-3.3069999 5.651 -1.017 147 120 103
-3.289 5.6459999 -1.0319999 46 14 3
-3.299 5.6209998 -1.0650001 39 15 3
-3.2550001 5.6269999 -1.036 39 28 6
-3.267 5.6269999 -1.035 80 47 30
-3.3840001 5.7719998 -1 189 114 59
-3.3050001 5.671 -1.04 58 30 19
-3.3540001 5.6149998 -1.035 160 93 51
-3.3670001 5.8839998 -1.051 45 27 17
-3.375 5.8769999 -1.067 45 18 7
-3.388 5.881 -1.063 42 1 0
-3.3770001 5.888 -1.056 80 72 53
-3.3740001 5.882 -1.061 86 57 43
-3.368 5.8829999 -1.053 56 51 48
-3.381 5.8829999 -1.064 122 88 60
-3.372 5.8870001 -1.056 106 98 96
-3.4070001 5.8860002 -1.0369999 121 82 51
-3.425 5.8559999 -1.023 115 86 70
-3.273 5.6409998 -0.99400002 48 30 18
-3.234 5.6350002 -0.92299998 113 38 0
-3.244 5.625 -0.91799998 246 155 74
-3.22 5.6129999 -0.94499999 161 124 95
-3.2360001 5.6209998 -0.95999998 138 89 59
-3.233 5.619 -0.95999998 141 103 67
-3.2249999 5.6329999 -0.94 77 47 23
-3.23 5.632 -0.94300002 67 37 26
-3.2509999 5.6199999 -0.98799998 77 46 26
-3.243 5.6199999 -0.96899998 77 46 26
-3.2309999 5.6220002 -0.98799998 144 135 138
-3.233 5.618 -0.97000003 80 49 31
-3.2320001 5.6230001 -0.98400003 132 123 126
-3.2909999 5.652 -0.875 71 30 0
-3.3239999 5.678 -0.89099997 241 160 71
-3.329 5.6599998 -0.87699997 148 55 12
-3.3989999 5.7979999 -0.84299999 198 131 53
-3.404 5.8010001 -0.82800001 169 146 128
-3.3970001 5.8189998 -0.84600002 188 115 47
-3.421 5.79 -0.84299999 120 51 12
-3.4219999 5.7839999 -0.82999998 107 105 116
-3.4230001 5.7940001 -0.83999997 149 72 30
-3.398 5.7989998 -0.82200003 96 72 48
-3.3729999 5.7709999 -0.81900001 125 80 38
-3.3800001 5.7729998 -0.81800002 113 53 1
-3.402 5.7859998 -0.78500003 255 176 71
-3.3099999 5.487 -0.95599997 97 60 31
-3.253 5.527 -0.98500001 27 9 0
-3.2520001 5.52 -0.97799999 176 157 150
-3.2520001 5.526 -0.97899997 165 147 137
-3.2820001 5.3850002 -0.84299999 181 138 96
-3.3 5.448 -0.88599998 255 220 103
-3.3039999 5.4489999 -0.88700002 255 206 93
-3.273 5.5619998 -0.86400002 155 87 24
-3.25 5.553 -0.85000002 151 92 34
-3.2709999 5.5799999 -1.051 38 14 10
-3.256 5.5799999 -1.063 48 38 28
-3.257 5.546 -1.045 100 72 60
-3.2539999 5.552 -1.035 80 42 23
-3.2409999 5.566 -1.062 140 103 77
-3.2509999 5.559 -1.064 150 104 71
-3.247 5.5630002 -1.063 103 68 40
-3.2390001 5.5949998 -1.0599999 83 37 13
-3.2409999 5.6009998 -1.044 46 23 5
-3.237 5.5910001 -1.062 146 135 139
-3.286 5.5619998 -1.077 78 51 30
-3.296 5.5489998 -1.0549999 16 7 12
-3.276 5.5469999 -1.048 46 26 19
-3.2750001 5.5510001 -1.051 25 1 0
-3.263 5.5539999 -1.057 147 109 86
-3.28 5.546 -1.053 23 0 0
-3.256 5.546 -1.0190001 126 113 105
-3.244 5.5739999 -1.033 106 92 91
-3.2449999 5.579 -1.03 82 62 61
-3.244 5.5770001 -1.035 144 104 68
-3.2520001 5.573 -1.0319999 126 108 106
-3.2490001 5.599 -1.0369999 117 95 84
-3.2490001 5.5689998 -1.029 34 11 0
-3.2579999 5.5609999 -1.033 109 83 60
-3.25 5.5500002 -0.99599999 148 117 88
-3.25 5.573 -1.008 103 61 36
-3.2520001 5.5609999 -1.027 128 110 108
-3.26 5.5609999 -1.023 110 95 90
-3.276 5.5710001 -1.012 155 149 161
-3.2720001 5.5570002 -0.95200002 45 24 7
-3.266 5.5630002 -0.94800001 81 34 4
-3.273 5.5320001 -0.95899999 80 45 17
-3.2639999 5.5349998 -0.958 76 41 13
-3.263 5.5339999 -0.99299997 90 43 13
-3.2739999 5.5650001 -0.98199999 14 0 0
-3.279 5.5560002 -0.977 109 90 76
-3.2639999 5.586 -1.08 40 16 12
-3.257 5.5739999 -1.079 36 7 0
-3.2320001 5.6059999 -1.074 59 31 19
-3.299 5.599 -1.007 29 4 0
-3.336 5.586 -1.002 114 97 89
-3.2920001 5.3740001 -0.91000003 156 101 80
-3.2460001 5.5349998 -0.87300003 126 94 73
-3.25 5.552 -0.95899999 103 52 23
-3.2449999 5.553 -0.94300002 48 35 29
-3.2460001 5.5560002 -0.93699998 143 83 31
-3.299 5.3930001 -0.991 121 64 34
-3.296 5.4099998 -1.027 98 34 0
-3.302 5.4050002 -1.0369999 111 77 52
-3.293 5.421 -1.033 197 161 125
-3.2939999 5.4250002 -1.034 123 105 103
-3.4990001 5.7820001 -0.83099997 221 176 111
-3.4349999 5.7839999 -0.82700002 151 87 59
-3.427 5.7659998 -0.84200001 129 63 39
-3.4330001 5.7820001 -0.85399997 164 102 51
-3.4430001 5.7690001 -0.84200001 155 155 163
-3.4749999 5.8000002 -0.85699999 45 21 9
-3.474 5.8000002 -0.84500003 86 44 22
-3.4760001 5.777 -0.86500001 156 97 53
-3.467 5.783 -0.86699998 67 6 0
-3.4719999 5.7480001 -0.84500003 84 53 25
-3.4319999 5.7719998 -0.79799998 212 132 71
-3.441 5.7839999 -0.83200002 142 86 69
-3.441 5.7839999 -0.82800001 88 31 12
-3.5020001 5.7719998 -0.83700001 118 43 4
-3.273 5.6500001 -0.98799998 68 43 36
-3.312 5.6820002 -0.95899999 134 116 106
-3.3050001 5.6719999 -0.95899999 112 99 91
-3.326 5.6360002 -0.99900001 51 17 5
-3.322 5.6370001 -0.99199998 25 4 1
-3.348 5.6900001 -0.91900003 57 35 21
-3.3180001 5.6589999 -0.92500001 51 23 11
-3.312 5.6630001 -0.926 74 45 31
-3.3410001 5.6290002 -0.93000001 74 42 27
-3.345 5.625 -0.94199997 150 81 12
-3.345 5.625 -0.93400002 170 100 40
-3.2950001 5.664 -0.94499999 46 22 12
-3.2920001 5.6729999 -0.95599997 154 118 92
-3.302 5.6739998 -0.958 121 107 96
-3.3069999 5.6999998 -0.85699999 87 45 7
-3.306 5.6849999 -0.85600001 96 32 0
-3.3340001 5.625 -0.88800001 181 129 89
-3.3050001 5.664 -0.81199998 211 132 40
-3.4579999 5.7379999 -0.82099998 255 227 101
-3.3889999 5.8249998 -0.88999999 209 156 124
-3.392 5.8249998 -0.889 84 34 9
-3.4300001 5.823 -0.88999999 102 58 31
-3.3080001 5.6440001 -0.87699997 229 140 82
-3.388 5.7309999 -0.91000003 171 77 5
-3.4030001 5.7309999 -0.91399997 223 142 99
-3.3499999 5.5949998 -0.99800003 193 129 83
-3.3610001 5.6030002 -0.99000001 87 36 5
-3.3699999 5.599 -0.98900002 105 37 0
-3.325 5.6360002 -0.96899998 134 105 87
-3.2739999 5.645 -0.98199999 142 128 125
-3.28 5.638 -0.97799999 129 118 116
-3.339 5.6350002 -1 47 20 3
-3.2850001 5.369 -0.89700001 73 30 0
-3.4719999 5.809 -0.92500001 79 42 24
-3.447 5.8249998 -0.91299999 36 6 0
-3.4549999 5.8140001 -0.90899998 20 0 0
-3.471 5.7880001 -0.87 75 55 44
-3.4719999 5.796 -0.89099997 89 60 46
-3.4619999 5.7930002 -0.87199998 48 23 1
-3.428 5.8109999 -0.89499998 39 20 16
-3.4300001 5.8060002 -0.88999999 30 10 0
-3.424 5.8099999 -0.889 46 24 10
-3.3499999 5.6290002 -0.88599998 166 118 72
-3.3499999 5.6129999 -0.898 164 91 36
-3.342 5.619 -0.92900002 174 143 115
-3.359 5.6240001 -0.90899998 83 29 3
-3.3510001 5.619 -0.926 54 10 0
-3.4059999 5.776 -0.79400003 113 83 47
-3.4519999 5.789 -0.83999997 82 65 58
-3.411 5.8109999 -0.83200002 79 63 38
-3.487 5.7969999 -0.838 106 59 43
-3.4660001 5.803 -0.83499998 106 57 27
-3.444 5.7849998 -0.824 108 74 26
-3.3139999 5.6750002 -0.83999997 97 36 7
-3.313 5.6529999 -0.84100002 192 129 94
-3.23 5.6129999 -1.051 96 69 48
-3.24 5.599 -1.0369999 36 13 5
-3.2290001 5.6079998 -1.0369999 67 31 5
-3.2320001 5.6149998 -1.063 35 19 6
-3.2309999 5.6240001 -1.034 79 56 42
-3.2490001 5.6269999 -1.0470001 99 75 63
-3.2179999 5.612 -1.022 227 203 175
-3.221 5.605 -1.02 184 163 136
-3.224 5.6059999 -1.013 84 65 48
-3.23 5.6059999 -1.063 135 99 75
-3.23 5.5949998 -1.056 115 89 76
-3.234 5.6339998 -0.94499999 133 120 112
-3.2550001 5.5669999 -0.99400002 84 42 18
-3.256 5.5799999 -0.972 157 126 106
-3.244 5.5819998 -0.972 98 35 4
-3.2620001 5.5739999 -0.963 61 49 33
-3.24 5.5999999 -0.94300002 121 51 15
-3.2379999 5.5970001 -0.93900001 158 85 30
-3.2390001 5.6240001 -1.016 62 35 6
-3.2320001 5.618 -0.99199998 110 73 46
-3.2349999 5.6240001 -0.97600001 53 47 33
-3.24 5.631 -1.01 130 106 94
-3.293 5.6020002 -1.075 24 6 0
-3.29 5.5960002 -1.0779999 85 67 53
-3.3859999 5.8119998 -1.058 122 69 35
-3.4089999 5.8099999 -1.034 109 64 35
-3.4159999 5.809 -1.033 187 132 93
-3.4119999 5.7979999 -1.049 79 45 20
-3.3870001 5.7909999 -1.048 222 160 77
-3.2509999 5.5770001 -0.92400002 192 105 34
-3.2460001 5.5760002 -0.926 226 150 90
-3.306 5.6469998 -0.98900002 52 25 18
-3.3010001 5.4419999 -0.90200001 164 92 16
-3.2980001 5.4510002 -0.903 107 74 41
-3.302 5.4619999 -0.89099997 255 187 84
-3.3510001 5.5799999 -0.972 97 68 60
-3.3659999 5.5749998 -0.97600001 45 11 0
-3.2539999 5.5489998 -0.88999999 199 153 120
-3.2479999 5.546 -0.889 61 32 16
-3.299 5.48 -0.94300002 149 107 83
-3.3469999 5.6409998 -0.917 78 29 0
-3.3069999 5.6279998 -0.963 201 143 93
-3.3010001 5.625 -0.98100001 80 47 32
-3.316 5.619 -0.96600002 71 40 22
-3.3110001 5.6220002 -0.96200001 55 26 8
-3.3440001 5.6090002 -0.90600002 96 41 11
-3.3269999 5.6069999 -0.88499999 191 148 113
-3.313 5.6279998 -0.88700002 140 98 86
-3.286 5.598 -1.0039999 200 147 116
-3.3329999 5.625 -0.954 52 24 13
-3.3469999 5.618 -0.88599998 165 109 62
-3.3429999 5.5749998 -1.063 58 11 0
-3.336 5.579 -1.053 120 80 44
-3.3169999 5.6350002 -1.05 45 21 17
-3.309 5.6459999 -1.048 92 80 80
-3.303 5.6560001 -1.044 18 0 0
-3.3540001 5.6230001 -1.034 182 135 93
-3.349 5.6279998 -1.031 169 120 80
-3.3329999 5.6329999 -1.051 72 30 14
-3.3440001 5.625 -1.054 7 1 1
-3.3039999 5.4460001 -1.046 93 54 25
-3.303 5.4530001 -1.04 85 45 9
-3.3080001 5.4580002 -1.041 52 16 0
-3.323 5.4330001 -1.041 50 29 12
-3.342 5.5780001 -1.01 124 74 39
-3.345 5.5869999 -1.018 113 60 26
-3.3369999 5.559 -1.024 88 51 24
-3.3329999 5.5570002 -1.033 27 0 0
-3.3340001 5.5549998 -1.029 31 3 2
-3.3469999 5.579 -1.028 91 44 14
-3.336 5.5339999 -1.013 34 11 5
-3.335 5.5240002 -1.003 93 55 32
-3.335 5.5300002 -1.0089999 102 68 43
-3.3310001 5.5190001 -1 39 10 0
-3.2780001 5.5380001 -1.028 115 68 38
-3.4630001 5.7779999 -1.005 104 63 33
-3.4719999 5.7859998 -1.03 47 10 2
-3.4230001 5.7750001 -0.98900002 108 66 41
-3.438 5.7810001 -0.95300001 113 69 32
-3.441 5.7509999 -0.93300003 183 147 99
-3.431 5.7529998 -0.92799997 127 83 38
-3.425 5.7680001 -0.94700003 98 54 29
-3.4260001 5.7680001 -0.93599999 211 166 127
-3.4619999 5.743 -0.991 182 162 153
-3.3840001 5.7930002 -1.0039999 32 8 4
-3.388 5.7639999 -1.025 131 95 61
-3.3829999 5.7789998 -1.028 108 82 67
-3.3870001 5.776 -1.035 63 32 14
-3.4590001 5.7449999 -0.96200001 144 78 28
-3.471 5.7519999 -0.97000003 252 161 91
-3.448 5.7490001 -0.96100003 138 85 33
-3.4630001 5.7480001 -0.94599998 70 16 0
-3.4630001 5.8010001 -0.898 95 32 0
-3.4330001 5.8010001 -0.889 71 30 8
-3.322 5.3940001 -0.94099998 147 116 95
-3.3069999 5.5510001 -0.97799999 145 104 72
-3.309 5.5409999 -0.98500001 56 40 27
-3.3080001 5.48 -0.95999998 62 20 0
-3.2980001 5.447 -0.96799999 46 23 9
-3.3010001 5.447 -0.97100002 118 72 56
-3.299 5.4419999 -1.002 65 12 0
-3.352 5.3909998 -1.056 240 188 131
-3.3469999 5.4000001 -1.075 138 68 17
-3.325 5.4400001 -1.054 145 104 72
-3.3280001 5.4330001 -1.046 108 73 53
-3.3329999 5.4320002 -1.035 188 146 121
-3.3340001 5.4310002 -1.04 199 166 147
-3.306 5.4640002 -1.021 89 58 38
-3.3080001 5.4559999 -1.026 79 65 54
-3.3050001 5.4569998 -1.033 77 65 49
-3.3440001 5.4169998 -1.0319999 111 55 18
-3.3329999 5.4439998 -1.006 177 138 109
-3.3169999 5.4699998 -1.0470001 211 183 162
-3.3340001 5.4520001 -1.058 146 92 56
-3.3340001 5.4489999 -1.058 204 125 66
-3.3 5.5359998 -0.954 54 27 16
-3.3150001 5.572 -0.98799998 114 62 25
-3.312 5.5630002 -0.98400003 121 71 38
-3.3139999 5.5279999 -0.96799999 111 96 89
-3.2939999 5.553 -0.986 61 33 22
-3.3080001 5.5279999 -1.038 165 116 86
-3.2850001 5.4689999 -0.94400001 44 14 3
-3.2550001 5.5310001 -0.98699999 129 66 22
-3.2939999 5.4190001 -0.97399998 89 42 24
-3.2869999 5.4169998 -0.96799999 35 20 15
-3.2909999 5.4130001 -0.97299999 73 25 2
-3.2939999 5.414 -0.98299998 139 77 38
-3.3 5.4219999 -0.98299998 75 21 0
-3.299 5.4219999 -0.97500002 108 97 93
-3.29 5.4120002 -0.991 125 49 0
-3.29 5.4029999 -0.99299997 190 101 45
-3.276 5.4099998 -0.93099999 78 46 25
-3.2780001 5.4050002 -0.93699998 52 18 0
-3.306 5.3730001 -0.94800001 144 100 73
-3.2939999 5.382 -0.963 102 53 20
-3.3010001 5.3740001 -0.93400002 243 176 98
-3.2839999 5.3790002 -0.949 158 76 26
-3.3039999 5.3600001 -0.96600002 216 135 69
-3.2780001 5.3889999 -0.949 19 0 0
-3.2780001 5.3839998 -0.94099998 46 6 0
-3.2679999 5.3889999 -0.93099999 140 68 28
-3.3199999 5.4050002 -0.926 123 67 42
-3.313 5.4330001 -0.93000001 115 83 70
-3.3169999 5.434 -0.93900001 37 3 0
-3.3039999 5.3909998 -1.021 245 172 69
-3.303 5.3990002 -1.029 133 94 61
-3.342 5.4369998 -1.069 72 31 0
-3.3429999 5.4400001 -1.059 102 52 17
-3.3069999 5.5289998 -1.044 118 90 68
-3.313 5.5479999 -1.063 152 128 116
-3.3150001 5.5440001 -1.056 105 52 20
-3.3180001 5.5380001 -1.051 90 42 6
-3.306 5.5890002 -1.068 44 8 0
-3.3340001 5.5900002 -1.069 15 1 0
-3.325 5.6030002 -1.069 40 23 15
-3.3239999 5.5999999 -1.068 92 56 30
-3.4760001 5.7729998 -1.054 175 132 87
-3.428 5.803 -1.069 136 100 74
-3.4189999 5.7919998 -1.0470001 99 75 63
-3.4489999 5.7859998 -0.99599999 102 72 46
-3.444 5.776 -0.93400002 123 79 54
-3.4449999 5.7649999 -0.92699999 175 89 32
-3.4430001 5.79 -0.94199997 149 111 88
-3.474 5.7839999 -0.95899999 139 74 42
-3.46 5.8429999 -0.94 147 116 96
-3.4590001 5.8330002 -0.93300003 220 173 129
-3.4590001 5.822 -0.92699999 170 124 98
-3.4630001 5.8179998 -0.92299998 203 163 138
-3.4590001 5.7979999 -0.884 25 5 4
-3.45 5.7969999 -0.88499999 123 76 46
-3.4560001 5.8080001 -0.88 185 154 126
-3.378 5.8470001 -0.95700002 197 138 96
-3.4460001 5.8169999 -0.972 77 37 12
-3.2420001 5.5840001 -0.93300003 251 183 122
-3.2420001 5.5440001 -0.93400002 97 85 85
-3.2420001 5.5700002 -0.92900002 145 70 15
-3.289 5.6539998 -0.83999997 52 19 12
-3.2880001 5.664 -0.84299999 118 48 14
-3.28 5.6760001 -0.852 75 26 0
-3.276 5.6849999 -0.85500002 75 29 6
-3.3959999 5.8130002 -0.88599998 186 150 116
-3.382 5.802 -0.86500001 130 71 27
-3.4230001 5.7690001 -0.84500003 111 61 28
-3.405 5.8010001 -0.87 64 18 3
-3.4230001 5.7940001 -0.86199999 70 17 0
-3.4189999 5.7940001 -0.852 152 80 21
-3.425 5.7930002 -0.86000001 123 67 32
-3.4119999 5.7509999 -0.83200002 245 184 119
-3.369 5.743 -0.90899998 127 57 0
-3.375 5.7410002 -0.90799999 130 98 75
-3.3829999 5.7470002 -0.90899998 151 97 35
-3.3900001 5.743 -0.91100001 124 57 15
-3.3870001 5.8379998 -0.93000001 49 20 6
-3.293 5.698 -0.87900001 149 132 125
-3.2820001 5.6939998 -0.88 79 22 3
-3.2850001 5.6999998 -0.86400002 147 142 148
-3.2780001 5.698 -0.87400001 134 131 138
-3.3139999 5.6490002 -0.935 60 19 0
-3.302 5.6469998 -0.94199997 132 95 66
-3.3039999 5.651 -0.93099999 99 58 30
-3.313 5.6500001 -0.93199998 88 40 2
-3.3199999 5.6430001 -0.93300003 150 72 26
-3.2980001 5.6849999 -0.88599998 189 127 78
-3.2839999 5.6589999 -0.99800003 38 19 5
-3.2809999 5.6550002 -1.011 32 1 0
-3.3110001 5.671 -1.039 125 94 74
-3.3150001 5.6430001 -1.012 31 0 0
-3.2869999 5.6550002 -1.035 31 12 6
-3.2920001 5.6599998 -1.036 64 33 15
-3.299 5.6729999 -1.034 156 114 92
-3.312 5.6609998 -1.033 48 12 0
-3.263 5.6269999 -1.04 75 40 20
-3.388 5.7680001 -1.001 150 80 28
-3.3870001 5.7779999 -1.006 130 115 118
-3.425 5.75 -0.99000001 127 52 0
-3.339 5.632 -1.029 84 51 36
-3.332 5.6339998 -1.033 90 51 22
-3.3150001 5.6490002 -1.0319999 55 19 0
-3.3180001 5.6399999 -1.021 52 15 9
-3.3840001 5.8800001 -1.066 65 16 0
-3.24 5.6329999 -0.91900003 169 156 86
-3.214 5.612 -0.93900001 166 122 87
-3.2360001 5.6149998 -0.95499998 71 30 0
-3.243 5.6209998 -0.96600002 109 81 67
-3.2320001 5.618 -0.96600002 76 47 31
-3.2850001 5.6700001 -0.86199999 92 41 10
-3.3099999 5.6760001 -0.89499998 98 53 32
-3.325 5.6789999 -0.88800001 255 199 86
-3.323 5.6609998 -0.875 146 67 26
-3.3299999 5.6300001 -0.88700002 193 154 123
-3.323 5.645 -0.88200003 161 118 84
-3.4119999 5.7810001 -0.838 135 105 81
-3.3900001 5.7930002 -0.829 110 91 77
-3.3099999 5.4790001 -0.958 99 44 14
-3.2520001 5.5300002 -0.98100001 91 74 67
-3.303 5.4450002 -0.88700002 100 65 35
-3.2720001 5.5640001 -0.86000001 141 101 65
-3.2609999 5.5739999 -0.86900002 182 110 52
-3.2490001 5.572 -1.061 163 135 124
-3.2460001 5.5689998 -1.075 45 21 9
-3.26 5.5539999 -1.061 174 139 119
-3.263 5.5549998 -1.066 162 113 73
-3.2490001 5.5549998 -1.027 129 86 67
-3.2869999 5.447 -1.053 63 15 0
-3.267 5.5440001 -1.039 19 10 15
-3.2390001 5.5679998 -1.061 127 91 67
-3.247 5.5630002 -1.066 95 59 33
-3.253 5.5999999 -1.04 45 22 6
-3.309 5.566 -1.084 26 20 20
-3.277 5.5599999 -1.074 71 43 21
-3.2820001 5.572 -1.0779999 181 147 122
-3.2709999 5.5599999 -1.073 76 48 27
-3.2550001 5.5609999 -1.069 56 26 2
-3.2479999 5.5630002 -1.072 77 42 22
-3.3199999 5.5539999 -1.075 31 4 0
-3.3110001 5.553 -1.074 81 50 30
-3.2980001 5.579 -1.024 59 31 10
-3.286 5.5760002 -1.023 32 15 8
-3.2820001 5.5669999 -1.0089999 48 19 5
-3.283 5.559 -1.008 42 14 2
-3.296 5.5679998 -1.026 44 15 1
-3.28 5.5630002 -0.98500001 118 79 48
-3.2490001 5.5500002 -0.995 87 56 28
-3.2520001 5.546 -1.023 166 148 136
-3.2490001 5.546 -1.026 62 39 25
-3.256 5.5549998 -1.024 114 72 48
-3.253 5.5689998 -1.001 94 52 28
-3.26 5.5640001 -0.94800001 62 39 21
-3.27 5.5229998 -0.98299998 99 54 25
-3.253 5.5250001 -0.97899997 108 89 82
-3.2590001 5.526 -0.98100001 41 12 0
-3.296 5.5739999 -1.072 54 35 20
-3.283 5.6090002 -1.081 24 9 4
-3.2550001 5.6009998 -1.082 83 63 54
-3.244 5.5630002 -0.93300003 125 59 7
-3.2449999 5.5440001 -0.94199997 109 83 68
-3.3069999 5.4349999 -1.0420001 93 67 54
-3.2969999 5.4450002 -1.039 78 65 48
-3.29 5.4229999 -1.036 193 122 56
-3.4389999 5.8150001 -0.88200003 76 43 24
-3.4649999 5.796 -0.89399999 152 94 48
-3.447 5.7979999 -0.89700001 73 36 7
-3.3069999 5.6550002 -0.97399998 85 54 25
-3.332 5.6539998 -0.91799998 95 52 33
-3.303 5.6700001 -0.92400002 230 159 105
-3.303 5.6669998 -0.92799997 79 50 32
-3.3239999 5.6360002 -0.92900002 73 35 14
-3.3110001 5.6269999 -0.89600003 126 67 33
-3.3499999 5.6209998 -0.94800001 44 18 5
-3.3469999 5.6220002 -0.935 34 14 3
-3.3069999 5.6550002 -0.94800001 53 17 1
-3.3080001 5.652 -0.954 48 16 3
-3.2909999 5.7030001 -0.852 168 125 83
-3.2980001 5.7020001 -0.86000001 155 109 75
-3.302 5.645 -0.88599998 165 108 65
-3.3510001 5.6079998 -1.028 114 52 15
-3.365 5.6100001 -0.99599999 129 91 55
-3.3299999 5.612 -0.991 33 12 7
-3.323 5.6129999 -0.95899999 46 15 0
-3.3099999 5.618 -0.95700002 34 7 0
-3.27 5.645 -0.98199999 226 206 182
-3.4749999 5.7989998 -0.83999997 73 35 14
-3.473 5.8010001 -0.88800001 121 77 52
-3.4690001 5.803 -0.889 73 36 20
-3.451 5.7940001 -0.87099999 133 78 57
-3.4489999 5.7540002 -1.001 160 75 20
-3.3559999 5.6020002 -0.96600002 127 60 18
-3.3559999 5.6009998 -0.96200001 139 75 37
-3.348 5.605 -0.94800001 232 153 60
-3.3269999 5.6100001 -0.95999998 43 12 0
-3.322 5.6079998 -0.96399999 207 139 74
-3.322 5.612 -0.96499997 208 146 85
-3.3139999 5.6149998 -0.96100003 28 9 3
-3.325 5.6110001 -0.96799999 88 59 41
-3.3410001 5.6100001 -0.94099998 110 85 63
-3.3499999 5.6199999 -0.93000001 60 14 0
-3.345 5.6240001 -0.92900002 177 111 59
-3.28 5.3559999 -0.84299999 185 125 73
-3.2969999 5.3660002 -0.85600001 168 128 93
-3.415 5.7979999 -0.792 172 128 89
-3.4260001 5.8039999 -0.84899998 179 106 51
-3.4230001 5.8070002 -0.85100001 51 28 14
-3.4059999 5.7729998 -0.79699999 68 27 0
-3.3069999 5.6900001 -0.85000002 58 7 0
-3.3110001 5.6700001 -0.84500003 73 24 9
-3.45 5.7350001 -0.82099998 109 77 64
-3.4460001 5.7329998 -0.82099998 91 47 20
-3.447 5.7319999 -0.81699997 123 39 2
-3.2279999 5.6090002 -1.0369999 133 99 72
-3.22 5.618 -1.023 124 89 67
-3.253 5.5640001 -0.97799999 118 99 92
-3.2550001 5.5780001 -0.97600001 121 90 70
-3.26 5.5819998 -0.98900002 143 111 96
-3.233 5.6220002 -0.98299998 67 58 43
-3.244 5.6279998 -0.99299997 87 53 26
-3.408 5.7969999 -1.05 101 36 6
-3.3889999 5.7810001 -1.044 196 136 64
-3.309 5.4689999 -0.92199999 134 76 30
-3.2920001 5.4580002 -0.89200002 106 89 82
-3.2909999 5.448 -0.88800001 155 95 43
-3.2479999 5.546 -0.88599998 119 87 66
-3.257 5.5450001 -0.87900001 114 44 19
-3.2520001 5.632 -0.92400002 93 47 11
-3.3340001 5.6149998 -0.95200002 74 56 44
-3.336 5.632 -0.977 99 59 34
-3.309 5.625 -0.95700002 28 0 0
-3.302 5.6290002 -0.97299999 64 35 17
-3.2950001 5.6220002 -0.98299998 81 51 27
-3.342 5.619 -0.91500002 191 102 22
-3.3410001 5.6300001 -0.92699999 140 82 42
-3.332 5.6199999 -0.88700002 233 144 44
-3.3239999 5.6139998 -0.88700002 161 102 46
-3.3369999 5.6269999 -0.94800001 72 40 19
-3.3469999 5.618 -0.88599998 165 109 62
-3.3399999 5.5819998 -1.056 119 105 102
-3.3369999 5.5809999 -1.053 53 23 13
-3.306 5.448 -1.051 182 108 59
-3.335 5.5650001 -1.03 138 109 103
-3.3380001 5.5489998 -1.0190001 33 14 10
-3.335 5.5310001 -1.01 17 5 5
-3.3310001 5.526 -1.006 36 8 0
-3.4159999 5.77 -0.98900002 97 68 50
-3.4460001 5.757 -0.92400002 130 94 68
-3.4330001 5.757 -0.972 185 139 103
-3.3840001 5.7909999 -1.005 56 28 4
-3.47 5.8379998 -0.96100003 127 79 43
-3.4449999 5.7519999 -0.96399999 238 152 69
-3.4560001 5.7680001 -0.93199998 139 78 0
-3.319 5.4510002 -0.98500001 57 32 27
-3.319 5.4590001 -1.003 146 133 127
-3.3139999 5.4530001 -0.99000001 150 126 116
-3.323 5.533 -0.98000002 33 0 0
-3.3329999 5.5359998 -0.97500002 55 20 14
-3.302 5.5419998 -0.97799999 124 97 78
-3.3069999 5.5599999 -0.98199999 180 109 43
-3.3399999 5.5440001 -0.97600001 36 7 1
-3.335 5.5419998 -0.98299998 29 5 5
-3.3239999 5.4650002 -0.954 112 60 13
-3.3210001 5.4629998 -0.95999998 61 18 11
-3.313 5.4590001 -0.96399999 68 41 22
-3.299 5.4530001 -0.96799999 73 23 0
-3.2950001 5.4439998 -0.963 119 108 112
-3.296 5.4380002 -0.99599999 79 64 61
-3.3329999 5.4330001 -1.043 178 116 77
-3.3080001 5.4640002 -1.03 181 127 81
-3.3039999 5.4050002 -1.041 199 131 82
-3.296 5.533 -0.949 41 17 5
-3.3150001 5.572 -0.99900001 113 57 22
-3.312 5.4850001 -0.92199999 215 156 116
-3.3199999 5.448 -0.96499997 45 12 5
-3.2869999 5.4060001 -0.963 75 32 15
-3.276 5.414 -0.95999998 25 5 4
-3.277 5.4099998 -0.95200002 80 58 47
-3.2820001 5.4239998 -0.93000001 77 32 9
-3.2980001 5.4289999 -0.92799997 110 64 31
-3.2720001 5.3969998 -0.92900002 115 66 26
-3.2780001 5.4060001 -0.92699999 103 60 26
-3.2739999 5.388 -0.92000002 204 139 81
-3.2920001 5.3940001 -0.96700001 143 115 94
-3.2909999 5.3709998 -0.94800001 191 106 41
-3.2939999 5.395 -0.96899998 67 19 0
-3.296 5.4000001 -0.97399998 84 43 13
-3.306 5.3610001 -0.96399999 206 122 60
-3.3180001 5.408 -0.92500001 96 39 10
-3.3169999 5.4089999 -0.93400002 170 134 118
-3.3559999 5.408 -1.0650001 73 28 7
-3.302 5.388 -1.016 254 165 63
-3.3210001 5.5949998 -1.068 29 4 0
-3.4189999 5.7779999 -1.04 161 124 95
-3.4660001 5.7859998 -0.95300001 93 68 61
-3.4590001 5.8200002 -0.92400002 74 51 43
-3.4460001 5.8200002 -0.89999998 79 20 0
-3.381 5.8460002 -0.96499997 61 30 12
-3.2950001 5.6409998 -0.94 120 63 20
-3.2820001 5.658 -0.83399999 95 40 1
-3.3870001 5.8000002 -0.86500001 150 73 19
-3.3959999 5.8039999 -0.87900001 74 13 0
-3.421 5.7670002 -0.83899999 105 38 11
-3.404 5.7849998 -0.82800001 154 122 99
-3.4119999 5.7880001 -0.83999997 111 40 12
-3.411 5.7820001 -0.84899998 184 124 90
-3.404 5.796 -0.84899998 144 84 34
-3.3729999 5.743 -0.90799999 221 141 78
-3.3859999 5.7410002 -0.91000003 144 88 29
-3.273 5.677 -0.86799997 126 84 60
-3.2739999 5.678 -0.86900002 67 28 11
-3.283 5.691 -0.88599998 37 10 1
-3.302 5.6880002 -0.88 69 26 0
-3.289 5.6630001 -1.041 50 31 25
-3.299 5.652 -1.051 28 17 15
-3.223 5.6110001 -0.94199997 85 43 18
-3.237 5.6199999 -0.98699999 95 59 27
-3.244 5.619 -0.98199999 62 43 28
-3.2379999 5.6149998 -0.96399999 79 44 24
-3.2379999 5.6170001 -0.97000003 90 63 44
-3.3210001 5.6300001 -0.88700002 110 66 41
-3.3299999 5.6209998 -0.88800001 205 126 70
-3.4189999 5.8039999 -0.84200001 53 27 14
-3.418 5.7800002 -0.84600002 128 64 26
-3.395 5.783 -0.82200003 155 124 96
-3.3050001 5.4829998 -0.95999998 66 24 0
-3.322 5.4759998 -0.95200002 140 123 115
-3.2449999 5.5240002 -0.97799999 59 28 10
-3.279 5.54 -1.038 62 35 18
-3.237 5.5689998 -1.0599999 79 46 27
-3.253 5.598 -1.038 48 21 10
-3.234 5.5939999 -1.071 131 107 97
-3.28 5.5780001 -1.081 42 21 2
-3.2909999 5.5570002 -1.071 65 46 40
-3.2809999 5.5570002 -1.064 32 15 7
-3.263 5.5679998 -1.076 23 10 4
-3.253 5.5619998 -1.0700001 98 66 41
-3.3199999 5.5539999 -1.064 58 25 8
-3.303 5.5539999 -1.067 61 33 22
-3.26 5.552 -1.003 26 8 4
-3.2590001 5.5549998 -1.003 165 119 83
-3.2850001 5.5440001 -1.001 72 37 18
