ply
format ascii 1.0
comment PCL generated
element vertex 114
property float x
property float y
property float z
property uchar red
property uchar green
property uchar blue
element camera 1
property float view_px
property float view_py
property float view_pz
property float x_axisx
property float x_axisy
property float x_axisz
property float y_axisx
property float y_axisy
property float y_axisz
property float z_axisx
property float z_axisy
property float z_axisz
property float focal
property float scalex
property float scaley
property float centerx
property float centery
property int viewportx
property int viewporty
property float k1
property float k2
end_header
5.3130002 -9.2110004 -0.95499998 85 56 40
5.3280001 -9.2010002 -0.97000003 85 55 31
5.3080001 -9.2080002 -0.96600002 116 84 59
5.3449998 -9.2060003 -0.96100003 176 105 51
5.3309999 -9.2069998 -0.97500002 192 112 59
5.3460002 -9.2130003 -0.96899998 166 96 45
5.3600001 -9.2130003 -0.958 139 114 94
5.3590002 -9.2159996 -0.93900001 170 118 70
5.3670001 -9.2080002 -0.94 72 31 13
5.3649998 -9.2030001 -0.94700003 219 147 88
5.3579998 -9.1999998 -0.94599998 172 98 37
5.3210001 -9.2089996 -0.98199999 141 88 38
5.3210001 -9.2089996 -0.97100002 67 40 19
5.3130002 -9.2119999 -0.97299999 88 35 3
5.329 -9.2150002 -0.94700003 231 162 105
5.3239999 -9.2200003 -0.94700003 115 59 8
5.3390002 -9.21 -0.96100003 132 59 8
5.368 -9.2360001 -0.91399997 217 187 151
5.368 -9.2349997 -0.92000002 142 107 79
5.369 -9.2539997 -0.921 220 151 76
5.3649998 -9.2250004 -0.90799999 212 129 33
5.3629999 -9.2209997 -0.91100001 243 168 77
5.3660002 -9.2049999 -0.94800001 147 115 92
5.3579998 -9.2119999 -0.95200002 123 72 25
5.3099999 -9.2139997 -0.95300001 124 61 20
5.3070002 -9.2229996 -0.949 105 73 48
5.309 -9.2139997 -0.963 98 41 0
5.309 -9.2130003 -0.96799999 102 54 14
5.3119998 -9.2290001 -0.972 115 70 37
5.316 -9.2080002 -0.96200001 194 131 78
5.3260002 -9.2180004 -0.95499998 98 60 39
5.3249998 -9.217 -0.98000002 167 109 63
5.3390002 -9.2130003 -0.96899998 163 87 37
5.3340001 -9.2060003 -0.96899998 168 101 49
5.3470001 -9.2189999 -0.96100003 122 58 10
5.3590002 -9.2329998 -0.90799999 202 121 14
5.3530002 -9.2299995 -0.90600002 120 78 40
5.3499999 -9.2309999 -0.90600002 120 78 28
5.3559999 -9.2360001 -0.91100001 154 110 85
5.3590002 -9.2229996 -0.91100001 222 138 52
5.3390002 -9.2259998 -0.91600001 206 113 43
5.3590002 -9.2220001 -0.91500002 236 157 82
5.3520002 -9.2250004 -0.91900003 122 88 63
5.3410001 -9.2180004 -0.94 205 149 75
5.348 -9.2139997 -0.958 133 106 85
5.3470001 -9.2189999 -0.94199997 64 45 39
5.3400002 -9.2349997 -0.921 141 108 77
5.3610001 -9.2530003 -0.93900001 150 115 77
5.3509998 -9.2469997 -0.94099998 150 112 67
5.3530002 -9.2600002 -0.93099999 144 81 37
5.3639998 -9.2489996 -0.93199998 75 48 39
5.3610001 -9.2519999 -0.93900001 122 85 40
5.3470001 -9.25 -0.93699998 123 88 48
5.3400002 -9.25 -0.93699998 106 71 41
5.3099999 -9.2279997 -0.963 180 143 101
5.3140001 -9.2329998 -0.96899998 96 45 2
5.3119998 -9.2360001 -0.95599997 255 208 170
5.3369999 -9.2440004 -0.93699998 99 59 34
5.335 -9.2449999 -0.93699998 233 146 79
5.336 -9.2349997 -0.94199997 92 64 63
5.3439999 -9.2539997 -0.92799997 93 54 21
5.3439999 -9.2110004 -0.96700001 128 95 54
5.3319998 -9.2089996 -0.96799999 154 78 26
5.3530002 -9.2200003 -0.92799997 255 219 131
5.3449998 -9.2229996 -0.93400002 180 127 77
5.3530002 -9.2150002 -0.94 140 102 57
5.3410001 -9.224 -0.926 97 80 73
5.3670001 -9.2379999 -0.92400002 149 116 73
5.3449998 -9.2349997 -0.91600001 154 113 81
5.362 -9.2530003 -0.93400002 186 109 39
5.3460002 -9.2480001 -0.92400002 155 109 76
5.3590002 -9.2440004 -0.92299998 92 64 40
5.362 -9.2069998 -0.94199997 220 155 87
5.3559999 -9.2089996 -0.95300001 152 64 0
5.316 -9.2379999 -0.94999999 128 94 56
5.3140001 -9.2299995 -0.94999999 107 65 40
5.3179998 -9.2119999 -0.97799999 114 56 16
5.3260002 -9.2089996 -0.96799999 97 64 29
5.3610001 -9.2259998 -0.926 165 108 27
5.3600001 -9.2279997 -0.93199998 200 162 117
5.3590002 -9.2229996 -0.92000002 186 114 38
5.3600001 -9.2259998 -0.92299998 134 100 55
5.335 -9.2299995 -0.935 85 50 20
5.335 -9.2370005 -0.93599999 93 57 31
5.3379998 -9.2309999 -0.94999999 120 89 69
5.342 -9.2290001 -0.95700002 173 100 45
5.3499999 -9.2290001 -0.95099998 118 80 35
5.3280001 -9.2399998 -0.96499997 91 26 0
5.3649998 -9.25 -0.91799998 182 92 14
5.3509998 -9.2370005 -0.93900001 173 129 94
5.3499999 -9.2329998 -0.94099998 255 209 132
5.3520002 -9.2370005 -0.93699998 233 185 101
5.3499999 -9.2309999 -0.96100003 114 79 37
5.3400002 -9.2250004 -0.96100003 159 89 30
5.3520002 -9.2229996 -0.949 81 50 29
5.3660002 -9.2329998 -0.92400002 177 140 88
5.3559999 -9.2110004 -0.94099998 131 88 69
5.3610001 -9.2040005 -0.94400001 143 116 95
5.3070002 -9.2220001 -0.95499998 120 82 61
5.3210001 -9.2390003 -0.963 126 91 53
5.3239999 -9.2320004 -0.95599997 124 50 3
5.3169999 -9.2299995 -0.94700003 169 93 33
5.3369999 -9.2189999 -0.96399999 161 90 34
5.335 -9.2159996 -0.96700001 216 145 91
5.3270001 -9.2360001 -0.96600002 63 35 13
5.3340001 -9.2150002 -0.96799999 109 75 38
5.3410001 -9.2270002 -0.92500001 90 54 22
5.3330002 -9.2329998 -0.94499999 61 29 6
5.3670001 -9.2510004 -0.92400002 99 54 33
5.3579998 -9.2550001 -0.92400002 248 168 71
5.3460002 -9.2259998 -0.96200001 118 46 0
5.3629999 -9.2419996 -0.93199998 238 155 61
5.3579998 -9.2550001 -0.93000001 191 117 30
5.3509998 -9.257 -0.93000001 159 110 67
0 0 0 1 0 0 0 1 0 0 0 1 0 0 0 0 0 114 1 0 0
