ply
format ascii 1.0
comment PCL generated
element vertex 1233
property float x
property float y
property float z
property uchar red
property uchar green
property uchar blue
element camera 0
property float view_px
property float view_py
property float view_pz
property float x_axisx
property float x_axisy
property float x_axisz
property float y_axisx
property float y_axisy
property float y_axisz
property float z_axisx
property float z_axisy
property float z_axisz
property float focal
property float scalex
property float scaley
property float centerx
property float centery
property int viewportx
property int viewporty
property float k1
property float k2
end_header
6.3379998 7.9889998 -0.76999998 174 131 96
6.3270001 7.993 -0.76200002 70 28 3
6.342 7.9899998 -0.76599997 85 48 6
6.2319999 8.0100002 -0.72500002 243 234 227
6.2329998 8.0100002 -0.722 253 246 238
6.3390002 7.9200001 -0.75800002 75 30 0
6.3899999 7.954 -0.78100002 89 62 41
6.4070001 7.9720001 -0.71200001 111 77 52
6.402 7.9710002 -0.71899998 92 53 24
6.4060001 7.9660001 -0.72799999 56 29 18
6.402 7.98 -0.69199997 133 98 70
6.323 8.0089998 -0.66100001 64 45 31
6.3119998 8.0089998 -0.67699999 76 30 0
6.3140001 8 -0.685 109 64 31
6.323 8.0059996 -0.69199997 57 39 29
6.3169999 8 -0.69400001 58 47 55
6.3060002 7.9970002 -0.68099999 179 146 115
6.322 7.9970002 -0.71399999 59 40 26
6.4180002 7.928 -0.76499999 190 146 121
6.4169998 7.9260001 -0.77100003 103 51 14
6.3460002 7.9320002 -0.755 94 66 52
6.3979998 7.9349999 -0.81900001 94 63 43
6.4180002 7.9190001 -0.83899999 106 58 18
6.4749999 7.9120002 -0.81999999 215 185 157
6.401 7.928 -0.78899997 71 51 52
6.4190001 7.9330001 -0.778 87 37 4
6.4180002 7.9200001 -0.83200002 162 98 36
6.421 7.9169998 -0.83099997 141 106 76
6.4640002 7.8559999 -0.14399999 62 26 4
6.4640002 7.8530002 -0.13699999 160 137 123
6.4650002 7.8530002 -0.141 68 43 23
6.4640002 7.849 -0.156 188 166 145
6.46 7.8499999 -0.125 137 120 100
6.461 7.8509998 -0.122 74 58 35
6.4759998 7.8559999 -0.113 117 96 93
6.4749999 7.8569999 -0.117 96 81 86
6.4759998 7.8509998 -0.108 251 230 201
6.4710002 7.8520002 -0.119 171 151 126
6.4699998 7.8520002 -0.122 185 167 143
6.4689999 7.8509998 -0.133 255 235 214
6.4679999 7.8509998 -0.126 227 209 187
6.4660001 7.8509998 -0.122 117 97 72
6.4710002 7.8509998 -0.107 86 57 43
6.4450002 7.8579998 -0.23999999 58 32 15
6.4569998 7.8569999 -0.19 134 63 21
6.4549999 7.8569999 -0.19599999 133 63 14
6.4559999 7.8559999 -0.192 46 29 11
6.4510002 7.8569999 -0.212 135 127 91
6.461 7.8569999 -0.15700001 84 35 2
6.4559999 7.8530002 -0.178 131 84 40
6.4569998 7.8530002 -0.17200001 165 124 104
6.4489999 7.8530002 -0.22400001 125 114 108
6.4489999 7.8559999 -0.229 67 43 33
6.6300001 7.835 0.141 143 84 14
6.6329999 7.8390002 0.13699999 149 105 44
6.6409998 7.8400002 0.139 220 205 172
6.6469998 7.8390002 0.139 240 226 197
6.533 7.8629999 0.063000001 255 230 161
6.5380001 7.8649998 0.075999998 191 166 146
6.5409999 7.8699999 0.093000002 124 92 79
6.5370002 7.868 0.106 188 150 88
6.5560002 7.862 0.121 92 61 41
6.5440001 7.8590002 0.106 255 225 166
6.5339999 7.7360001 0.072999999 68 31 0
6.6220002 7.8319998 0.14 203 155 93
6.4489999 7.8179998 0.25799999 29 24 18
6.4180002 7.9489999 0.15800001 105 83 62
6.428 7.941 0.15800001 106 84 61
6.4239998 7.948 0.169 159 137 90
6.4380002 7.9380002 0.156 167 87 24
6.4380002 7.7940001 0.27500001 81 65 52
6.4899998 7.8600001 0.089000002 145 113 92
6.4910002 7.8600001 0.093999997 112 85 64
6.4980001 7.8530002 0.094999999 129 109 59
6.4990001 7.848 0.018999999 171 118 66
6.4980001 7.848 0.001 77 41 25
6.5040002 7.8499999 -0.003 82 53 35
6.5009999 7.848 -0.0060000001 167 150 134
6.6090002 7.8449998 0.13600001 157 97 35
6.5960002 7.8559999 0.134 72 40 29
6.5960002 7.8449998 0.134 121 105 79
6.6030002 7.8400002 0.153 183 162 169
6.592 7.8509998 0.154 84 59 52
6.6069999 7.8439999 0.156 168 90 26
6.6009998 7.8540001 0.154 91 66 59
6.506 7.8639998 0.072999999 118 91 72
6.5120001 7.803 0.035 152 74 2
6.5300002 7.836 0.1 252 221 157
6.5180001 7.7709999 0.035 162 79 11
6.5840001 7.8390002 0.142 191 129 68
6.5770001 7.842 0.13600001 155 114 52
6.5710001 7.835 0.13600001 69 46 38
6.527 7.842 0.142 142 114 66
6.5229998 7.8470001 0.138 188 168 143
6.527 7.8429999 0.131 190 165 109
6.5029998 7.8499999 0.044 237 200 155
6.5050001 7.8520002 0.057999998 180 144 94
6.6620002 7.8439999 0.14399999 90 61 53
6.5050001 7.8200002 0.037 146 94 34
6.5 7.849 -0.015 252 226 201
6.5009999 7.848 -0.013 219 200 183
6.5279999 7.842 0.089000002 217 180 109
6.5409999 7.849 0.101 247 176 94
6.5440001 7.8449998 0.106 94 71 55
6.5409999 7.8559999 0.085000001 255 224 161
6.5679998 7.8470001 0.124 255 247 231
6.5669999 7.848 0.124 254 241 224
6.5279999 7.8460002 0.055 145 119 96
6.5019999 7.848 0.037 255 228 166
6.395 7.9850001 0.244 52 42 50
6.3979998 7.993 0.25 11 11 1
6.414 7.9580002 0.183 184 163 116
6.4180002 7.9809999 0.205 198 177 134
6.4180002 7.974 0.197 74 54 47
6.7620001 7.8000002 0.199 145 63 0
6.7690001 7.8060002 0.18700001 197 152 97
6.4629998 7.9039998 0.127 188 142 83
6.48 7.9190001 0.11 100 65 59
6.4629998 7.9120002 0.132 85 55 31
6.4590001 7.9130001 0.131 69 46 30
6.4520001 7.9219999 0.139 91 65 38
6.4590001 7.9289999 0.139 176 136 84
6.4320002 7.9439998 0.161 119 98 77
6.4359999 7.9330001 0.14 173 111 52
6.4489999 7.9289999 0.147 66 42 18
6.5780001 7.928 0.259 31 16 11
6.5900002 7.9450002 0.25099999 90 77 60
6.5650001 7.8509998 0.221 113 88 58
6.5149999 7.8569999 0.204 98 66 41
6.5219998 7.8540001 0.19599999 82 47 25
6.527 7.862 0.19499999 88 44 17
6.5440001 7.8530002 0.22499999 104 86 64
6.5450001 7.862 0.25299999 196 171 131
6.5450001 7.8670001 0.18099999 114 83 63
6.553 7.8649998 0.18099999 102 71 51
6.513 7.835 0.214 91 81 80
6.54 7.6799998 0.117 114 79 47
6.5430002 7.678 0.113 151 123 76
6.5050001 7.8239999 0.20100001 126 88 39
6.5019999 7.8260002 0.208 115 66 33
6.506 7.8239999 0.206 137 129 108
6.5770001 7.908 0.255 39 28 24
6.5749998 7.8959999 0.25299999 73 65 62
6.586 7.862 0.32300001 111 102 103
6.5840001 7.8600001 0.315 140 131 134
6.5669999 7.8639998 0.31 75 74 56
6.6209998 7.835 0.152 153 83 21
6.6020002 7.8299999 0.15099999 113 86 43
6.5510001 7.6690001 0.126 152 92 20
6.5580001 7.6560001 0.108 116 81 53
6.5599999 7.6490002 0.112 99 65 37
6.5489998 7.8429999 0.23999999 245 232 226
6.5929999 7.8210001 0.28299999 40 37 44
6.5539999 7.9000001 0.25299999 99 70 38
6.5739999 7.8730001 0.273 91 80 76
6.5739999 7.868 0.27200001 135 57 0
6.572 7.8730001 0.26100001 69 60 55
6.5710001 7.869 0.26300001 57 46 40
6.573 7.8579998 0.26800001 145 131 128
6.5570002 7.651 0.114 59 42 24
6.5500002 7.6669998 0.105 63 44 29
6.5539999 7.6620002 0.101 66 30 6
6.5500002 7.677 0.093000002 98 62 36
6.5510001 7.6690001 0.093000002 74 37 18
6.5609999 7.651 0.107 149 80 21
6.5700002 7.6220002 0.13 83 64 47
6.5669999 7.632 0.123 93 63 39
6.566 7.631 0.119 67 35 12
6.5760002 7.6090002 0.13699999 70 49 30
6.5739999 7.6230001 0.141 94 68 53
6.5630002 7.6420002 0.115 91 57 30
6.5650001 7.6350002 0.119 65 33 10
6.5609999 7.6409998 0.11 74 52 29
6.5640001 7.625 0.123 64 45 28
6.559 7.6440001 0.108 80 46 19
6.6810002 7.8249998 0.161 172 116 67
6.6599998 7.823 0.152 70 41 23
6.3439999 7.888 -0.75999999 106 85 68
6.2919998 7.8740001 -0.87800002 69 43 20
6.2820001 7.8629999 -0.86199999 81 54 33
6.289 7.8629999 -0.86400002 96 68 47
6.2919998 7.8730001 -0.866 141 110 90
6.3000002 7.875 -0.852 184 136 87
6.2940001 7.8790002 -0.87 142 96 62
6.2919998 7.875 -0.85100001 51 33 23
6.3850002 7.7979999 -0.85600001 152 115 88
6.408 7.8369999 -0.82499999 168 126 78
6.4039998 7.8569999 -0.824 131 105 82
6.3270001 7.8959999 -0.87 65 42 28
6.5180001 7.7189999 0.067000002 217 136 55
6.5500002 7.586 0.184 102 48 14
6.5580001 7.6209998 0.124 163 103 49
6.5700002 7.6129999 0.14300001 70 53 37
6.566 7.6139998 0.15000001 156 90 32
6.572 7.618 0.13699999 125 98 81
6.5650001 7.5780001 0.163 95 70 48
6.5770001 7.592 0.13699999 45 24 21
6.5749998 7.6030002 0.134 41 24 17
6.5749998 7.599 0.13699999 39 20 14
6.5679998 7.5840001 0.14300001 138 82 35
6.5780001 7.5679998 0.145 43 19 7
6.5809999 7.5609999 0.148 118 91 84
6.5489998 7.6570001 0.12899999 169 117 59
6.553 7.6110001 0.14 190 145 90
6.553 7.619 0.148 133 107 82
6.553 7.6300001 0.124 171 101 39
6.5650001 7.6240001 0.148 109 63 30
6.5580001 7.625 0.15000001 114 60 16
6.5770001 7.598 0.15700001 202 134 71
6.573 7.598 0.15000001 88 70 50
6.5370002 7.6700001 0.105 117 88 56
6.5149999 7.7470002 0.044 140 104 68
6.664 7.8400002 0.14300001 125 89 63
6.5419998 7.6999998 0.089000002 97 61 29
6.5349998 7.7119999 0.085000001 97 58 29
6.5300002 7.7059999 0.086999997 212 151 96
6.4840002 7.8520002 -0.071000002 189 169 144
6.4860001 7.8530002 -0.064000003 145 128 102
6.4910002 7.8520002 -0.052999999 167 145 124
6.4920001 7.8530002 -0.048 131 110 93
6.494 7.8499999 -0.034000002 221 194 167
6.4910002 7.8600001 -0.045000002 112 52 15
6.5279999 7.8649998 0.149 133 92 70
6.5349998 7.869 0.101 80 26 0
6.5300002 7.869 0.103 179 146 127
6.5209999 7.869 0.1 191 151 92
6.5180001 7.8629999 0.106 214 168 106
6.493 7.8670001 0.086000003 163 94 39
6.5229998 7.8470001 0.186 193 168 127
6.5229998 7.8520002 0.182 71 49 0
6.4949999 7.8790002 0.103 99 69 41
6.5320001 7.8670001 0.15800001 128 99 101
6.546 7.8699999 0.22400001 147 140 112
6.546 7.8699999 0.21799999 112 60 20
6.5599999 7.881 0.25299999 31 10 15
6.5440001 7.8649998 0.236 84 69 50
6.5440001 7.8649998 0.226 67 52 33
6.546 7.8699999 0.228 98 46 6
6.5749998 7.8839998 0.236 108 95 79
6.5689998 7.8800001 0.227 235 209 194
6.5609999 7.8790002 0.227 192 166 151
6.5430002 7.8610001 0.22499999 246 219 172
6.5349998 7.8520002 0.212 222 178 107
6.5320001 7.8699999 0.117 78 58 34
6.5380001 7.8670001 0.121 88 63 43
6.5219998 7.8629999 0.12899999 221 181 145
6.54 7.8400002 0.15800001 255 206 148
6.553 7.868 0.12899999 71 45 28
6.5650001 7.8649998 0.146 110 80 52
6.5229998 7.8579998 0.16 85 63 40
6.5229998 7.8590002 0.149 119 97 73
6.526 7.8509998 0.15099999 159 109 58
6.54 7.8410001 0.171 153 128 106
6.5380001 7.8400002 0.18099999 163 120 88
6.5510001 7.8400002 0.17900001 129 119 107
6.5479999 7.8410001 0.178 83 59 35
6.552 7.8530002 0.21600001 181 158 140
6.5489998 7.8530002 0.221 140 119 114
6.5359998 7.8400002 0.149 158 113 80
6.7470002 7.8470001 0.186 150 96 62
6.4450002 7.7919998 0.259 205 148 95
6.4780002 7.8150001 0.22 114 65 32
6.4819999 7.822 0.22 163 114 81
6.4710002 7.822 0.24699999 156 110 33
6.474 7.822 0.24600001 129 119 107
6.4679999 7.8080001 0.24699999 185 171 160
6.5539999 7.6430001 0.13600001 176 141 83
6.54 7.6659999 0.127 60 41 34
6.5650001 7.8610001 0.23999999 160 110 49
6.5679998 7.8660002 0.244 44 33 27
6.5469999 7.8920002 0.34 68 69 64
6.401 7.9819999 0.25 126 77 37
6.467 7.855 -0.097000003 136 109 82
6.4809999 7.855 -0.082000002 76 64 40
6.4819999 7.8540001 -0.071999997 103 80 49
6.4819999 7.8520002 -0.075000003 150 89 44
6.4829998 7.8509998 -0.078000002 248 231 203
6.5630002 7.8649998 0.322 71 39 1
6.5609999 7.8699999 0.33500001 56 42 33
6.4050002 7.947 -0.796 250 188 139
6.4089999 7.9439998 -0.80500001 114 70 43
6.3930001 7.974 -0.72799999 115 63 26
6.402 7.9759998 -0.72399998 75 40 20
6.3990002 7.967 -0.74699998 95 45 10
6.3990002 7.9689999 -0.74199998 127 89 68
6.3540001 7.881 -0.722 65 37 25
6.3590002 7.8800001 -0.70200002 95 49 13
6.3579998 7.8800001 -0.70899999 89 37 0
6.369 7.882 -0.71799999 132 110 96
6.2270002 8.0740004 -0.60000002 253 240 232
6.2350001 8.0179996 -0.70099998 104 57 27
6.2880001 7.6630001 -0.74800003 85 67 57
6.2940001 7.6659999 -0.74400002 130 84 51
6.303 7.6589999 -0.736 192 148 121
6.3000002 7.6609998 -0.741 159 152 159
6.2940001 7.6570001 -0.745 231 181 144
6.2969999 7.6589999 -0.74199998 186 130 93
6.2979999 7.664 -0.73199999 143 102 70
6.3049998 7.7399998 -0.75400001 147 91 34
6.3049998 7.7490001 -0.73699999 115 64 21
6.2989998 7.7449999 -0.73799998 129 78 33
6.2309999 8.0129995 -0.71799999 136 124 110
6.2309999 8.0129995 -0.722 99 85 72
6.2449999 7.881 -0.71600002 91 63 49
6.3670001 7.8709998 -0.64300001 45 26 28
6.1869998 8.2410002 -0.433 184 165 150
6.1820002 8.2510004 -0.42199999 212 193 176
6.1919999 8.2259998 -0.447 125 101 89
6.2649999 7.7849998 -0.85699999 60 34 33
6.2740002 7.7940001 -0.87099999 153 114 81
6.2789998 7.7979999 -0.847 151 141 140
6.2329998 7.8039999 -0.833 104 74 48
6.27 7.783 -0.81900001 73 54 37
6.283 7.7839999 -0.83700001 110 49 5
6.2670002 7.7880001 -0.83700001 137 95 47
6.3280001 7.7639999 -0.77399999 111 57 21
6.27 7.8899999 -0.89200002 56 38 24
6.27 7.8889999 -0.87300003 94 65 51
6.335 7.8940001 -0.85399997 43 20 6
6.3340001 7.8909998 -0.85699999 81 61 62
6.3330002 7.9029999 -0.83899999 113 89 89
6.3270001 7.9499998 -0.83200002 149 123 100
6.2620001 7.8049998 -0.87900001 131 77 31
6.256 7.823 -0.88300002 75 56 62
6.263 7.842 -0.884 91 69 45
6.2540002 7.8169999 -0.87900001 53 43 44
6.2579999 7.8270001 -0.86799997 92 64 40
6.256 7.8249998 -0.87400001 78 61 67
6.2589998 7.8309999 -0.87900001 65 42 28
6.3740001 7.7709999 -0.73100001 137 89 51
6.369 7.7969999 -0.78100002 86 53 18
6.3179998 7.7480001 -0.77399999 99 46 4
6.2659998 7.8309999 -0.74299997 81 54 37
6.2680001 7.829 -0.764 147 128 121
6.2680001 7.836 -0.74900001 208 173 141
6.2740002 7.836 -0.76300001 89 67 53
6.2670002 7.8270001 -0.77499998 149 130 124
6.2800002 7.8390002 -0.78600001 169 90 33
6.2740002 7.8439999 -0.78100002 174 126 88
6.2620001 7.8280001 -0.76700002 160 117 74
6.2080002 7.7670002 -0.838 82 35 5
6.2270002 7.8629999 -0.74800003 151 119 96
6.2309999 7.8610001 -0.76099998 169 92 38
6.224 7.8610001 -0.76099998 198 155 120
6.2249999 7.8649998 -0.76599997 123 87 61
6.2160001 7.8299999 -0.77600002 143 134 135
6.2600002 7.6849999 -0.82300001 202 162 126
6.2620001 7.8410001 -0.84899998 118 101 91
6.2600002 7.8280001 -0.85100001 192 143 84
6.2709999 7.8569999 -0.86000001 157 123 86
6.2600002 7.8299999 -0.84100002 137 123 120
6.2529998 7.8829999 -0.79000002 99 50 17
6.2509999 7.8839998 -0.78799999 94 65 51
6.2550001 7.8889999 -0.81599998 78 65 59
6.2550001 7.8870001 -0.80500001 87 60 39
6.2550001 7.8569999 -0.82200003 141 57 0
6.2589998 7.8790002 -0.82499999 142 125 117
6.3060002 7.9359999 -0.82099998 107 78 60
6.3080001 7.9349999 -0.824 72 55 48
6.3049998 7.9299998 -0.83899999 129 91 44
6.3130002 7.9349999 -0.82599998 130 68 9
6.3140001 7.9330001 -0.83600003 184 141 90
6.2620001 7.8899999 -0.824 157 84 31
6.2600002 7.8860002 -0.82999998 100 71 31
6.276 7.888 -0.82099998 123 91 68
6.2750001 7.9000001 -0.84299999 137 95 53
6.2420001 7.8779998 -0.83099997 148 125 94
6.3060002 7.783 -0.833 70 52 50
6.3649998 7.79 -0.81400001 109 82 53
6.2820001 7.855 -0.86199999 118 66 19
6.3169999 7.9070001 -0.88 160 125 105
6.316 7.8990002 -0.87099999 219 181 158
6.2849998 7.8870001 -0.84799999 168 117 74
6.276 7.902 -0.84399998 185 140 83
6.283 7.8759999 -0.85000002 76 49 32
6.276 7.8769999 -0.84799999 154 99 60
6.3569999 7.8850002 -0.75999999 164 127 101
6.3340001 7.9330001 -0.84299999 168 147 120
6.3410001 7.888 -0.78500003 79 27 0
6.3390002 7.888 -0.79100001 96 58 22
6.342 7.888 -0.77899998 80 30 0
6.3189998 7.9029999 -0.85600001 123 97 80
6.2030001 7.7690001 -0.81999999 211 161 110
6.2249999 7.7909999 -0.82499999 232 210 171
6.2160001 7.8130002 -0.81099999 133 96 70
6.2329998 7.842 -0.829 177 142 102
6.2379999 7.8410001 -0.838 160 114 55
6.237 7.8239999 -0.83099997 133 107 74
6.237 7.8330002 -0.86500001 132 110 61
6.243 7.836 -0.84299999 106 67 36
6.2550001 7.8410001 -0.85299999 132 91 45
6.2220001 7.823 -0.78600001 104 55 23
6.2690001 7.8000002 -0.83600003 158 143 146
6.2620001 7.7930002 -0.82599998 115 60 19
6.2519999 7.8070002 -0.83499998 74 49 29
6.2550001 7.8200002 -0.81800002 93 73 66
6.2820001 7.7940001 -0.81800002 99 75 63
6.2399998 7.8080001 -0.85600001 90 62 40
6.2750001 7.8099999 -0.83899999 114 67 13
6.2719998 7.6999998 -0.82499999 242 214 175
6.2969999 7.7649999 -0.84399998 156 122 87
6.283 7.6630001 -0.77999997 110 69 47
6.2670002 7.6750002 -0.80199999 152 63 3
6.2080002 7.7940001 -0.76499999 128 81 39
6.3140001 7.98 -0.745 90 55 27
6.3150001 7.9829998 -0.72899997 59 41 39
6.3189998 7.9829998 -0.73900002 83 49 22
6.2919998 7.9330001 -0.82300001 129 103 78
6.2519999 7.8930001 -0.83700001 102 74 34
6.3400002 7.7540002 -0.81599998 147 109 73
6.3390002 7.7540002 -0.81999999 103 62 34
6.3390002 7.7540002 -0.80800003 133 100 67
6.3439999 7.7579999 -0.81300002 62 42 43
6.3369999 7.756 -0.792 115 73 35
6.3299999 7.7480001 -0.78500003 209 157 109
6.3330002 7.7480001 -0.78399998 52 40 40
6.3600001 7.7649999 -0.86000001 176 141 109
6.263 7.6869998 -0.81599998 127 91 55
6.2719998 7.6999998 -0.82099998 228 200 163
6.737 7.816 0.184 133 111 74
6.7259998 7.8200002 0.168 202 143 77
6.5040002 7.8470001 0.003 76 49 40
6.6300001 7.829 0.145 196 144 94
6.7069998 7.8280001 0.15099999 187 172 153
6.23 8.066 -0.61699998 55 38 30
6.23 8.026 -0.68099999 255 251 241
6.2309999 8.0089998 -0.72899997 149 140 131
6.23 8.0220003 -0.69599998 151 138 129
6.237 8.0089998 -0.73400003 110 69 41
6.322 8.0080004 -0.79400003 116 94 81
6.2620001 7.8870001 -0.87 220 191 185
6.2480001 7.973 -0.86699998 61 25 3
6.2360001 7.9809999 -0.82300001 170 157 141
6.2940001 7.9710002 -0.78399998 79 38 10
6.2399998 7.9809999 -0.81599998 219 193 170
6.2350001 7.994 -0.77700001 82 65 57
6.2379999 7.9829998 -0.80299997 205 191 178
6.2329998 7.993 -0.78500003 80 62 58
6.2399998 8.007 -0.74199998 246 243 238
6.2360001 8.0059996 -0.74000001 101 57 30
6.2360001 8.0030003 -0.74400002 250 245 239
6.2470002 7.9780002 -0.85699999 255 241 215
6.302 7.9359999 -0.838 112 60 13
6.2509999 7.8540001 -0.778 64 41 35
6.25 7.8460002 -0.77399999 95 74 73
6.2480001 7.8400002 -0.79299998 96 78 74
6.2579999 7.882 -0.79699999 206 183 169
6.25 7.849 -0.84299999 93 51 13
6.2319999 7.8410001 -0.82499999 244 209 167
6.2319999 7.8340001 -0.83399999 62 43 29
6.2449999 7.796 -0.81599998 169 139 113
6.4720001 7.8990002 -0.81900001 138 110 86
6.4679999 7.8979998 -0.81400001 62 41 24
6.4790001 7.9050002 -0.81999999 240 220 187
6.4920001 7.9330001 -0.79799998 156 109 67
6.4790001 7.9159999 -0.80599999 67 53 52
6.4770002 7.9180002 -0.79900002 89 58 40
6.5100002 7.9229999 -0.77399999 62 31 11
6.3559999 7.8730001 -0.699 73 55 31
6.4829998 7.9330001 -0.76800001 119 64 25
6.4990001 7.901 -0.75099999 137 99 63
6.4829998 7.9180002 -0.79799998 132 111 110
6.4970002 7.9109998 -0.75800002 167 124 89
6.5009999 7.902 -0.75999999 110 74 42
6.4310002 7.862 -0.33899999 120 98 84
6.3930001 7.8660002 -0.479 96 80 46
6.3940001 7.8600001 -0.47099999 206 168 132
6.3930001 7.8590002 -0.484 95 77 67
6.4029999 7.9850001 -0.66900003 108 77 46
6.402 7.9759998 -0.68800002 159 125 97
6.402 7.9819999 -0.67299998 104 82 61
6.487 7.902 -0.838 254 239 218
6.4949999 7.908 -0.85000002 92 75 57
6.4910002 7.9039998 -0.86000001 136 111 89
6.368 7.7870002 -0.76099998 96 73 67
6.3720002 7.8000002 -0.745 134 69 27
6.3730001 7.8010001 -0.759 134 70 34
6.3649998 7.8039999 -0.76499999 134 114 105
6.3639998 7.7979999 -0.73699999 164 140 112
6.369 7.79 -0.74699998 161 130 102
6.355 7.7649999 -0.745 153 109 62
6.3600001 7.7670002 -0.74699998 105 74 53
6.3579998 7.7649999 -0.75300002 179 108 56
6.3439999 7.8769999 -0.764 127 79 41
6.4190001 7.8590002 -0.38299999 183 166 150
6.4089999 7.8600001 -0.426 186 165 146
6.414 7.8639998 -0.39399999 57 38 23
6.4099998 7.8660002 -0.41600001 73 42 22
6.4070001 7.8629999 -0.44299999 73 66 74
6.402 7.8610001 -0.45500001 215 198 182
6.408 7.8600001 -0.43399999 253 232 213
6.4050002 7.8649998 -0.435 148 117 88
6.3499999 7.756 -0.77200001 163 83 30
6.3600001 7.7579999 -0.764 223 161 110
6.3439999 7.7579999 -0.78500003 98 62 38
6.3699999 7.7639999 -0.75599998 207 144 93
6.2410002 7.658 -0.79000002 174 131 88
6.2410002 7.6609998 -0.79799998 170 126 81
6.243 7.6589999 -0.79799998 162 119 74
6.2779999 7.7030001 -0.82200003 108 76 51
6.276 7.7049999 -0.82099998 133 97 61
6.2729998 7.7020001 -0.82300001 70 48 25
6.4060001 7.9829998 -0.67000002 139 108 77
6.4130001 7.8660002 -0.43099999 103 75 63
6.2459998 7.8850002 -0.72899997 70 41 23
6.3610001 7.8759999 -0.73000002 179 151 137
6.3610001 7.875 -0.72799999 104 74 76
6.3639998 7.8790002 -0.72799999 88 62 45
6.3600001 7.8769999 -0.736 92 71 70
6.4190001 7.9390001 -0.77600002 56 29 8
6.4710002 7.927 -0.79699999 164 129 99
6.427 7.9250002 -0.75199997 117 53 9
6.4250002 7.9320002 -0.759 146 87 47
6.2389998 7.8140001 -0.76999998 83 62 45
6.2540002 7.822 -0.76599997 133 93 67
6.2449999 7.8369999 -0.79699999 196 165 145
6.2579999 7.8660002 -0.74900001 58 35 19
6.335 7.8779998 -0.773 104 86 74
6.336 7.8829999 -0.79400003 120 90 64
6.3400002 7.888 -0.79000002 232 209 193
6.336 7.902 -0.824 130 92 43
6.3319998 7.8969998 -0.83099997 171 148 134
6.3340001 7.902 -0.833 144 128 129
6.2199998 7.8590002 -0.74400002 110 96 93
6.3319998 7.921 -0.75999999 83 62 43
6.4070001 7.934 -0.76300001 116 61 22
6.3979998 7.9520001 -0.764 59 43 46
6.3639998 7.8839998 -0.736 83 58 38
6.3530002 7.8779998 -0.74900001 198 153 112
6.3540001 7.8759999 -0.74299997 210 187 169
6.3569999 7.8800001 -0.75099999 77 52 32
6.3699999 7.8699999 -0.63 81 58 40
6.25 7.6719999 -0.755 127 63 15
6.2459998 7.6729999 -0.75700003 94 62 39
6.2090001 7.7800002 -0.79900002 186 145 99
6.197 7.7750001 -0.76999998 109 58 15
6.1890001 7.7870002 -0.79100001 91 46 5
6.198 7.7820001 -0.787 176 142 105
6.1950002 7.783 -0.792 175 125 66
6.3369999 7.9260001 -0.755 132 100 85
6.3379998 7.888 -0.79799998 88 36 0
6.3400002 7.8870001 -0.79900002 70 31 2
6.3429999 7.8990002 -0.81699997 109 80 62
6.335 7.9330001 -0.78399998 98 46 6
6.3239999 7.9569998 -0.81699997 85 70 65
6.323 7.987 -0.76700002 255 226 198
6.3210001 7.9850001 -0.76999998 249 221 184
6.3299999 7.9699998 -0.78500003 121 86 66
6.3330002 7.973 -0.77499998 168 153 146
6.3390002 7.9790001 -0.764 71 24 0
6.3499999 7.9429998 -0.77700001 80 53 26
6.3429999 7.9369998 -0.76800001 73 44 26
6.3099999 7.961 -0.76599997 104 61 26
6.3109999 7.9650002 -0.79100001 62 36 23
6.3119998 7.9949999 -0.79799998 113 86 65
6.3309999 7.9809999 -0.74800003 113 78 46
6.3520002 7.9910002 -0.74699998 168 105 62
6.3299999 7.9949999 -0.745 58 36 25
6.3200002 7.9879999 -0.73100001 176 102 53
6.322 7.9920001 -0.73699999 46 24 10
6.3610001 7.9889998 -0.745 148 113 81
6.369 7.9850001 -0.75300002 165 132 101
6.362 7.987 -0.75999999 166 125 97
6.3660002 7.9910002 -0.74699998 144 125 119
6.3540001 7.9850001 -0.75099999 142 109 76
6.3540001 7.987 -0.76599997 198 154 119
6.3579998 7.9489999 -0.78399998 212 194 170
6.3720002 7.928 -0.792 59 21 2
6.3769999 7.9260001 -0.79299998 93 51 27
6.4060001 7.9559999 -0.778 78 50 38
6.3860002 7.9419999 -0.80599999 95 63 42
6.4120002 7.947 -0.82200003 95 72 56
6.3920002 7.9419999 -0.81199998 87 50 24
6.4000001 7.9429998 -0.81 82 56 39
6.316 8.0319996 -0.76899999 174 144 106
6.2919998 7.9829998 -0.74299997 76 31 2
6.2789998 7.9829998 -0.74800003 92 60 22
6.2870002 7.9819999 -0.74199998 87 51 27
6.2909999 7.9829998 -0.73699999 71 25 0
6.23 8.0389996 -0.65600002 250 241 226
6.2319999 8.0369997 -0.67000002 69 60 79
6.2280002 8.0469999 -0.64600003 168 151 135
6.3049998 8.0059996 -0.671 80 44 12
6.3060002 8.0059996 -0.66399997 91 57 22
6.4070001 7.9780002 -0.72600001 143 122 93
6.257 7.8860002 -0.76300001 75 54 35
6.2649999 7.8889999 -0.76800001 151 90 46
6.2470002 7.8839998 -0.74400002 111 71 36
6.3769999 7.9349999 -0.77899998 134 107 98
6.3850002 7.9359999 -0.78100002 117 90 81
6.401 7.9749999 -0.71899998 129 93 71
6.3959999 7.973 -0.72600001 77 54 38
6.323 8.0030003 -0.699 78 60 48
6.316 7.9970002 -0.70300001 57 44 51
6.309 8 -0.667 180 151 117
6.355 7.9990001 -0.74199998 66 44 23
6.3210001 8.0019999 -0.72799999 163 93 41
6.3189998 8.0080004 -0.69499999 95 67 30
6.309 7.9990001 -0.73000002 131 91 65
6.322 7.9959998 -0.745 52 30 17
6.3140001 7.994 -0.75 115 61 27
6.3130002 7.994 -0.74599999 92 36 3
6.401 7.921 -0.82999998 70 54 54
6.3920002 7.9320002 -0.81099999 80 49 29
6.4219999 7.9130001 -0.833 182 118 56
6.4120002 7.914 -0.83099997 118 101 91
6.4159999 7.9130001 -0.833 185 146 113
6.414 7.9200001 -0.83399999 85 35 0
6.4780002 7.914 -0.81699997 247 214 183
6.4650002 7.8530002 -0.14399999 80 54 31
6.4619999 7.8499999 -0.161 119 104 65
6.4759998 7.8559999 -0.106 199 174 169
6.4770002 7.8520002 -0.104 253 233 208
6.4720001 7.8530002 -0.115 134 114 87
6.4689999 7.8509998 -0.141 212 184 162
6.4679999 7.8509998 -0.12899999 254 236 216
6.4530001 7.8579998 -0.199 127 115 75
6.4510002 7.8530002 -0.21799999 106 88 76
6.4640002 7.8520002 -0.15899999 175 149 126
6.461 7.8540001 -0.15700001 44 24 17
6.4619999 7.8559999 -0.163 59 37 14
6.4489999 7.8559999 -0.22499999 67 47 36
6.4419999 7.8579998 -0.234 205 151 107
6.6360002 7.842 0.139 206 190 157
6.5300002 7.8660002 0.061000001 95 68 49
6.5229998 7.8699999 0.054000001 81 50 29
6.5279999 7.855 0.050000001 202 150 90
6.5289998 7.849 0.059 170 144 129
6.5450001 7.8559999 0.098999999 93 67 52
6.5679998 7.8299999 0.13699999 118 87 93
6.566 7.835 0.13 195 116 39
6.5830002 7.8340001 0.147 129 115 76
6.5279999 7.7399998 0.071999997 69 41 30
6.5349998 7.7319999 0.056000002 113 46 1
6.5320001 7.7340002 0.063000001 88 51 9
6.427 7.9439998 0.163 216 124 37
6.4970002 7.8579998 -0.0099999998 181 134 78
6.5050001 7.7849998 0.035999998 88 55 38
6.5079999 7.7859998 0.029999999 74 46 22
6.506 7.7880001 0.032000002 127 86 58
6.5100002 7.7839999 0.044 141 109 60
6.5019999 7.7950001 0.029999999 75 47 23
6.5180001 7.8520002 0.107 163 134 78
6.5009999 7.8449998 0.025 246 205 143
6.4980001 7.8449998 0.016000001 254 213 167
6.4959998 7.8509998 -0.018999999 134 110 86
6.598 7.8579998 0.138 166 138 90
6.5869999 7.8369999 0.152 197 126 62
6.5939999 7.8400002 0.14 205 134 68
6.5549998 7.8660002 0.156 113 86 79
6.553 7.8439999 0.184 117 90 61
6.5040002 7.8639998 0.061999999 195 168 151
6.5229998 7.8730001 0.061000001 113 82 61
6.5040002 7.8049998 0.025 147 91 34
6.5040002 7.8070002 0.027000001 94 42 3
6.527 7.7659998 0.041000001 195 152 120
6.5240002 7.7719998 0.037 77 45 22
6.5209999 7.7750001 0.034000002 90 56 31
6.5040002 7.8099999 0.029999999 100 38 0
6.4970002 7.8470001 -0.0060000001 77 42 23
6.5029998 7.8499999 -0.012 217 166 113
6.5289998 7.8449998 0.081 199 176 158
6.533 7.8410001 0.097000003 255 239 221
6.5380001 7.8649998 0.083999999 221 198 180
6.5739999 7.8449998 0.127 255 251 237
6.408 7.98 0.255 187 185 190
6.395 7.9899998 0.25299999 146 128 126
6.415 7.961 0.19 93 71 58
6.7729998 7.7940001 0.2 179 145 99
6.4310002 7.9419999 0.148 105 81 57
6.598 7.9510002 0.25999999 166 115 52
6.5489998 7.8720002 0.206 81 60 43
6.5450001 7.8699999 0.199 145 111 99
6.553 7.8720002 0.189 95 64 44
6.553 7.8740001 0.197 102 71 53
6.5630002 7.8509998 0.228 170 115 58
6.5139999 7.8499999 0.19499999 132 86 53
6.5409999 7.8639998 0.211 155 145 120
6.5279999 7.8509998 0.211 177 146 100
6.5760002 7.914 0.24600001 48 37 35
6.5419998 7.8410001 0.16500001 168 125 91
6.5430002 7.842 0.17200001 254 242 228
6.54 7.868 0.171 123 94 64
6.553 7.868 0.25799999 68 52 37
6.579 7.9200001 0.25299999 31 30 36
6.5640001 7.888 0.25099999 61 44 37
6.5739999 7.8759999 0.249 214 197 153
6.5679998 7.8540001 0.31099999 189 177 129
6.6090002 7.835 0.156 224 174 111
6.5450001 7.8460002 0.229 255 240 197
6.5419998 7.849 0.21699999 134 115 109
6.5619998 7.8730001 0.273 100 89 87
6.5710001 7.8660002 0.26100001 111 76 46
6.5440001 7.6440001 0.115 255 172 92
6.5419998 7.6490002 0.127 101 72 42
6.5440001 7.671 0.11 135 104 75
6.553 7.6609998 0.097000003 70 35 15
6.553 7.6589999 0.114 58 41 25
6.5669999 7.6279998 0.126 76 46 22
6.5619998 7.6420002 0.112 81 47 22
6.6890001 7.8189998 0.15899999 65 44 39
6.3470001 7.8889999 -0.76300001 180 136 109
6.2950001 7.8759999 -0.87300003 70 51 36
6.3870001 7.796 -0.84899998 88 68 61
6.4000001 7.8470001 -0.81300002 71 45 20
6.4050002 7.8540001 -0.824 62 38 14
6.322 7.895 -0.84399998 61 43 33
6.3309999 7.8909998 -0.85900003 84 60 60
6.5180001 7.7249999 0.068999998 165 102 33
6.5570002 7.5840001 0.192 77 63 60
6.5609999 7.5929999 0.17900001 111 89 52
6.5609999 7.5999999 0.147 186 105 23
6.5560002 7.6030002 0.15000001 106 82 58
6.572 7.6139998 0.134 81 58 42
6.5650001 7.6350002 0.115 67 35 12
6.5700002 7.6209998 0.13 70 43 22
6.5669999 7.6149998 0.13 73 48 26
6.572 7.6090002 0.134 47 28 14
6.5669999 7.6240001 0.126 95 67 45
6.5739999 7.5819998 0.141 80 58 45
6.5640001 7.592 0.147 72 39 20
6.5539999 7.5819998 0.148 70 26 0
6.546 7.6570001 0.105 125 67 19
6.5440001 7.6339998 0.127 218 151 98
6.553 7.619 0.138 124 98 71
6.553 7.6290002 0.146 155 102 52
6.566 7.585 0.154 96 65 47
6.5749998 7.5970001 0.16500001 170 119 56
6.5370002 7.6570001 0.115 201 117 31
6.5310001 7.7249999 0.067000002 146 55 0
6.4850001 7.8530002 -0.067000002 169 149 124
6.4850001 7.855 -0.050000001 184 139 118
6.526 7.8530002 0.163 215 127 40
6.5310001 7.8670001 0.15099999 199 170 175
6.5440001 7.8600001 0.117 255 230 167
6.5029998 7.875 0.082000002 83 55 51
6.54 7.8569999 0.083999999 106 80 63
6.5029998 7.8509998 0.093000002 155 91 29
6.5570002 7.8629999 0.142 114 83 65
6.4889998 7.882 0.108 140 117 73
6.5240002 7.8590002 0.138 100 78 54
6.5229998 7.8499999 0.142 253 221 146
6.5250001 7.8530002 0.147 209 127 41
6.5679998 7.8909998 0.242 81 64 56
6.54 7.8579998 0.23899999 234 210 164
6.5380001 7.868 0.127 84 56 44
6.526 7.8639998 0.145 91 71 38
6.5630002 7.848 0.153 140 120 131
6.5760002 7.855 0.15099999 99 72 55
6.559 7.8540001 0.156 168 114 40
6.5479999 7.8660002 0.167 207 175 154
6.5560002 7.8600001 0.17200001 96 71 66
6.5549998 7.8590002 0.185 103 83 76
6.526 7.8590002 0.186 111 87 75
6.5250001 7.8379998 0.18700001 235 216 199
6.566 7.8579998 0.127 99 73 38
6.5770001 7.8569999 0.132 110 74 50
6.7389998 7.8379998 0.18700001 33 26 0
6.5359998 7.8429999 0.17 255 227 143
6.474 7.8119998 0.222 143 107 75
6.487 7.8150001 0.219 136 120 104
6.4790001 7.8150001 0.241 73 51 38
6.4759998 7.8559999 -0.097000003 60 41 24
6.4720001 7.8509998 -0.1 100 71 57
6.4759998 7.855 -0.090999998 92 51 31
6.4790001 7.8530002 -0.089000002 108 95 76
6.4780002 7.8530002 -0.093000002 133 118 97
6.4840002 7.8520002 -0.075000003 227 210 184
6.5539999 7.9070001 0.33399999 20 19 15
6.553 7.8899999 0.33899999 52 56 42
6.566 7.8579998 0.30899999 247 165 81
6.414 7.9380002 -0.78500003 154 104 79
6.4169998 7.928 -0.755 39 11 0
6.4109998 7.9679999 -0.741 192 149 115
6.362 7.993 -0.74199998 86 64 43
6.401 7.9590001 -0.73799998 87 73 73
6.3759999 7.9879999 -0.75199997 85 58 39
6.3569999 7.8730001 -0.69499999 86 43 9
6.3569999 7.8839998 -0.72100002 98 79 64
6.3520002 7.8779998 -0.72600001 94 75 60
6.3530002 7.8759999 -0.73900002 212 186 171
6.3600001 7.8730001 -0.71600002 91 79 81
6.362 7.8730001 -0.70999998 177 158 143
6.2309999 8.0179996 -0.70700002 177 168 153
6.2800002 7.671 -0.76099998 127 72 31
6.2940001 7.665 -0.74299997 132 80 32
6.3039999 7.7399998 -0.75 222 163 105
6.3099999 8.007 -0.66100001 85 40 9
6.2329998 8.0109997 -0.71799999 254 250 241
6.2449999 7.8839998 -0.71799999 107 80 53
6.1939998 8.2220001 -0.44999999 176 82 28
6.2680001 7.7859998 -0.85600001 86 59 48
6.2740002 7.7969999 -0.85500002 132 97 59
6.2579999 7.8210001 -0.861 76 52 50
6.2680001 7.848 -0.87400001 145 86 44
6.27 7.8590002 -0.86699998 106 80 55
6.2620001 7.8509998 -0.87099999 87 61 38
6.2620001 7.8569999 -0.86699998 154 123 103
6.277 7.8150001 -0.85000002 132 113 99
6.3260002 7.7600002 -0.76899999 100 69 66
6.2740002 7.8909998 -0.85000002 163 130 99
6.2919998 7.8860002 -0.86799997 131 84 54
6.3070002 7.941 -0.83499998 130 95 76
6.2979999 7.9369998 -0.82999998 117 60 7
6.289 7.8800001 -0.87599999 105 53 13
6.2919998 7.895 -0.86400002 100 60 25
6.2849998 7.895 -0.85900003 112 86 61
6.2690001 7.888 -0.87900001 110 61 20
6.3439999 7.902 -0.83999997 67 51 52
6.316 7.9330001 -0.84399998 107 80 59
6.3239999 7.9520001 -0.824 89 69 58
6.2550001 7.8390002 -0.88300002 150 141 144
6.2490001 7.8299999 -0.87800002 137 122 83
6.2540002 7.8150001 -0.83700001 137 106 88
6.3759999 7.7680001 -0.73500001 198 148 113
6.3720002 7.7740002 -0.73500001 122 76 50
6.2659998 7.8319998 -0.75099999 104 75 57
6.3540001 7.7940001 -0.72399998 130 102 78
6.2709999 7.8340001 -0.75400001 129 111 99
6.2509999 7.849 -0.76800001 90 66 64
6.2210002 7.8670001 -0.75 83 48 18
6.2550001 7.6760001 -0.79500002 111 54 9
6.2709999 7.6939998 -0.81099999 113 98 103
6.263 7.677 -0.81199998 92 66 67
6.2550001 7.6739998 -0.82999998 97 59 38
6.2750001 7.849 -0.86699998 130 74 27
6.2490001 7.8839998 -0.76300001 104 65 24
6.2490001 7.8829999 -0.759 73 42 14
6.244 7.8839998 -0.81999999 195 166 150
6.2509999 7.882 -0.81900001 58 32 15
6.2540002 7.888 -0.824 76 62 53
6.2709999 7.8930001 -0.815 176 151 129
6.2540002 7.8860002 -0.801 83 58 38
6.2639999 7.8829999 -0.82599998 125 95 71
6.2620001 7.881 -0.833 146 118 96
6.309 7.9419999 -0.82200003 97 74 58
6.3299999 7.927 -0.79100001 52 38 38
6.2950001 7.928 -0.83999997 232 191 145
6.3099999 7.9349999 -0.833 119 80 39
6.2639999 7.8829999 -0.84100002 123 98 68
6.256 7.862 -0.83999997 172 138 100
6.3010001 7.7870002 -0.84299999 165 145 134
6.2839999 7.862 -0.85900003 127 74 40
6.3410001 7.8870001 -0.78200001 227 204 188
6.2919998 7.8769999 -0.852 181 158 140
6.29 7.8899999 -0.85900003 109 70 37
6.309 7.881 -0.84200001 63 32 11
6.2800002 7.8959999 -0.84899998 135 101 73
6.2350001 7.7989998 -0.79799998 158 155 166
6.223 7.8189998 -0.81099999 129 86 35
6.223 7.8280001 -0.78100002 131 88 46
6.2620001 7.7859998 -0.83499998 133 90 55
6.2480001 7.8109999 -0.81800002 96 52 23
6.2490001 7.8010001 -0.82999998 142 85 42
6.2729998 7.7950001 -0.82300001 180 146 98
6.2909999 7.7859998 -0.83600003 148 91 46
6.237 7.8249998 -0.81900001 169 159 167
6.2420001 7.6659999 -0.80299997 134 91 48
6.2649999 7.6659999 -0.79299998 105 86 71
6.2519999 7.664 -0.79799998 119 105 102
6.217 7.7989998 -0.76200002 173 133 97
6.2210002 7.8060002 -0.755 63 41 30
6.2090001 7.8379998 -0.75300002 100 55 16
6.2859998 7.9660001 -0.764 138 104 79
6.2789998 7.9650002 -0.75300002 91 63 59
6.2839999 7.973 -0.76999998 148 105 63
6.2870002 7.9660001 -0.76999998 175 122 72
6.2870002 7.9660001 -0.76599997 199 147 99
6.3080001 7.9910002 -0.72799999 62 39 25
6.3070002 7.9920001 -0.73400003 60 33 22
6.3039999 7.9829998 -0.73699999 61 26 6
6.3010001 8.0010004 -0.67900002 155 97 59
6.3439999 7.7579999 -0.82800001 102 68 41
6.3439999 7.7529998 -0.81800002 161 99 52
6.2610002 7.6869998 -0.81199998 94 63 42
6.257 7.6830001 -0.81900001 112 67 36
6.2729998 7.6999998 -0.81400001 122 90 65
6.7379999 7.8189998 0.171 208 141 63
6.506 7.8470001 0.0049999999 203 169 131
6.6160002 7.8340001 0.156 137 117 82
6.3189998 8.0030003 -0.79500002 135 111 87
6.3010001 7.9330001 -0.82800001 99 72 53
6.2620001 7.8870001 -0.866 64 36 24
6.2919998 7.973 -0.77999997 134 91 59
6.243 7.9910002 -0.80199999 216 203 210
6.2550001 7.8909998 -0.79000002 122 96 83
6.2350001 7.9899998 -0.80400002 88 63 56
6.2329998 7.993 -0.78899997 70 51 47
6.2350001 7.9889998 -0.796 85 61 57
6.2379999 8 -0.75999999 113 67 31
6.2379999 8.0010004 -0.75400001 115 98 82
6.2490001 7.8839998 -0.76999998 83 40 5
6.244 7.8790002 -0.778 118 83 63
6.2290001 7.8319998 -0.84100002 183 103 40
6.2480001 7.8010001 -0.82800001 183 137 87
6.4809999 7.9289999 -0.796 143 100 66
6.4879999 7.9320002 -0.764 112 85 66
6.4029999 7.8670001 -0.46799999 91 74 66
6.4889998 7.9120002 -0.83200002 178 162 139
6.494 7.9099998 -0.82499999 242 219 187
6.3670001 7.7930002 -0.76700002 117 95 82
6.3649998 7.7989998 -0.745 91 56 36
6.3670001 7.796 -0.76499999 115 71 42
6.3670001 7.796 -0.76099998 163 119 90
6.3639998 7.7979999 -0.73299998 169 148 117
6.3660002 7.7950001 -0.75199997 99 54 31
6.375 7.7810001 -0.74199998 235 208 165
6.369 7.7719998 -0.745 144 82 45
6.3540001 7.8779998 -0.77499998 118 96 82
6.349 7.8759999 -0.79699999 94 67 48
6.4060001 7.862 -0.426 168 101 56
6.4070001 7.8629999 -0.41600001 160 151 112
6.4130001 7.8660002 -0.42199999 100 70 59
6.401 7.862 -0.44 160 127 96
6.4029999 7.8610001 -0.45199999 173 160 144
6.3499999 7.7540002 -0.77100003 145 97 51
6.3670001 7.7709999 -0.74900001 162 98 54
6.4050002 7.9819999 -0.67299998 130 96 61
6.4169998 7.862 -0.37099999 65 43 22
6.4190001 7.8579998 -0.37900001 195 180 161
6.421 7.9359999 -0.76499999 76 31 2
6.2490001 7.816 -0.773 132 109 101
6.2509999 7.8270001 -0.80500001 105 85 74
6.2410002 7.8369999 -0.79000002 156 121 99
6.2319999 7.8260002 -0.79100001 125 95 87
6.2329998 7.8449998 -0.81099999 64 27 0
6.2550001 7.8189998 -0.78100002 213 159 112
6.2509999 7.816 -0.79100001 221 181 130
6.257 7.8200002 -0.78600001 199 149 100
6.2579999 7.8210001 -0.78299999 128 83 41
6.2579999 7.862 -0.75599998 76 50 33
6.2729998 7.8499999 -0.76200002 90 63 54
6.349 7.8800001 -0.78299999 64 41 27
6.336 7.9029999 -0.83499998 129 81 32
6.2820001 7.8639998 -0.83600003 159 119 83
6.3260002 7.875 -0.82999998 183 171 175
6.3099999 7.882 -0.83999997 88 57 36
6.408 7.934 -0.76999998 103 68 49
6.3649998 7.9239998 -0.75599998 104 52 15
6.368 7.9239998 -0.76300001 116 66 31
6.368 7.9219999 -0.77499998 58 37 20
6.1939998 7.7909999 -0.78500003 141 125 128
6.1939998 7.79 -0.79699999 126 81 40
6.3850002 7.928 -0.80800003 189 143 109
6.3379998 7.888 -0.79799998 88 36 0
6.335 7.9299998 -0.79100001 153 109 80
6.3119998 7.9660001 -0.81999999 97 77 68
6.388 7.9310002 -0.80299997 82 54 33
6.3940001 7.934 -0.79799998 182 147 109
6.323 7.974 -0.78399998 116 70 36
6.3260002 7.967 -0.77100003 161 85 33
6.3070002 7.9619999 -0.77200001 155 91 45
6.3130002 7.9640002 -0.78100002 97 70 51
6.3000002 7.961 -0.77999997 87 72 67
6.3000002 7.9619999 -0.778 158 94 50
6.3189998 7.973 -0.75999999 176 148 126
6.323 7.9770002 -0.76099998 103 69 41
6.3200002 7.98 -0.75400001 128 77 46
6.3140001 7.9629998 -0.792 78 54 42
6.3130002 7.9850001 -0.80699998 32 7 2
6.355 7.9970002 -0.75199997 217 172 133
6.3520002 7.994 -0.755 177 128 85
6.3509998 7.9949999 -0.75099999 155 99 52
6.3429999 7.98 -0.75800002 165 143 120
6.348 7.9840002 -0.76599997 61 16 0
6.3590002 7.9920001 -0.76700002 134 100 62
6.3509998 7.9879999 -0.75199997 177 156 137
6.3530002 7.9439998 -0.78500003 59 29 3
6.369 7.9239998 -0.78299999 78 28 1
6.4130001 7.96 -0.764 65 36 20
6.3930001 7.934 -0.80800003 169 134 92
6.4050002 7.9400001 -0.82300001 163 98 42
6.4130001 7.948 -0.81900001 173 139 112
6.4050002 7.9450002 -0.824 94 56 35
6.3109999 7.9920001 -0.75199997 121 69 30
6.23 8.04 -0.653 248 239 230
6.23 8.0310001 -0.671 253 249 237
6.3060002 8.007 -0.67299998 86 32 0
6.309 8.0039997 -0.66799998 83 51 12
6.3769999 7.9330001 -0.77899998 192 112 63
6.3699999 7.9310002 -0.77999997 193 170 154
6.401 7.9710002 -0.72100002 45 27 15
6.316 7.994 -0.74000001 60 23 0
6.3099999 7.9889998 -0.72299999 87 67 66
6.3119998 7.9990001 -0.68699998 166 147 143
6.3130002 7.9980001 -0.69700003 65 53 53
6.3070002 7.9980001 -0.68599999 173 138 106
6.3140001 7.9970002 -0.70099998 64 46 34
6.322 7.993 -0.72899997 48 27 10
6.3169999 7.9889998 -0.71600002 59 39 38
6.3140001 8 -0.71399999 73 25 2
6.322 7.9959998 -0.722 48 26 12
6.309 7.9949999 -0.741 150 99 70
6.4190001 7.9190001 -0.83099997 197 158 125
6.4679999 7.902 -0.81699997 251 225 192
6.3179998 7.9970002 -0.80299997 54 32 21
6.4710002 7.8579998 -0.122 177 157 150
6.4679999 7.8509998 -0.13699999 220 195 173
6.4660001 7.8509998 -0.12899999 190 170 145
6.4580002 7.8559999 -0.176 124 71 39
6.4590001 7.8530002 -0.16500001 73 53 46
6.5349998 7.8649998 0.074000001 219 190 120
6.5300002 7.8670001 0.068999998 255 233 213
6.533 7.8470001 0.063000001 166 135 70
6.5310001 7.737 0.068000004 211 118 51
6.533 7.73 0.056000002 53 24 8
6.4899998 7.8559999 -0.0070000002 113 46 3
6.5110002 7.7880001 0.043000001 118 102 77
6.6069999 7.8559999 0.145 121 84 75
6.5840001 7.8590002 0.145 90 65 58
6.586 7.8579998 0.145 113 83 73
6.5830002 7.8540001 0.154 62 39 33
6.5910001 7.8369999 0.142 209 158 92
6.507 7.8670001 0.061000001 168 103 61
6.5120001 7.8709998 0.052999999 98 70 56
6.5300002 7.8449998 0.082999997 219 145 60
6.5190001 7.8449998 0.086000003 180 144 82
6.5510001 7.8369999 0.124 253 193 133
6.553 7.8460002 0.123 164 149 142
6.4050002 7.9819999 0.25099999 74 55 49
6.408 7.9850001 0.25299999 115 95 84
6.4109998 7.993 0.248 91 79 67
6.4260001 7.9629998 0.183 43 31 5
6.4260001 7.9549999 0.177 106 79 50
6.776 7.796 0.197 217 154 75
6.5539999 7.8759999 0.204 191 160 142
6.553 7.8649998 0.205 117 94 100
6.5570002 7.8779998 0.20999999 136 95 77
6.5609999 7.8769999 0.212 186 159 142
6.5539999 7.8779998 0.212 120 91 75
6.5689998 7.881 0.219 178 151 134
6.5479999 7.8699999 0.19499999 123 100 94
6.5089998 7.848 0.198 167 141 144
6.5289998 7.855 0.204 84 52 29
6.5770001 7.9099998 0.25299999 137 79 33
6.5700002 7.914 0.243 106 56 21
6.5689998 7.869 0.23899999 78 66 68
6.5669999 7.8909998 0.25299999 125 67 19
6.5749998 7.8699999 0.249 202 175 164
6.5770001 7.8559999 0.28 104 95 98
6.54 7.6550002 0.127 137 109 62
6.566 7.6269999 0.123 71 41 15
6.3410001 7.8850002 -0.76499999 114 74 49
6.3449998 7.8839998 -0.75400001 157 115 93
6.3520002 7.8870001 -0.75400001 108 60 20
6.3410001 7.8779998 -0.80400002 75 47 44
6.342 7.8759999 -0.81199998 105 82 66
6.3309999 7.882 -0.81699997 191 142 102
6.3249998 7.881 -0.82700002 98 67 46
6.3330002 7.888 -0.81300002 81 61 52
6.3499999 7.8800001 -0.80699998 157 107 70
6.3460002 7.881 -0.80000001 153 105 69
6.4060001 7.8540001 -0.81599998 219 198 169
6.4070001 7.8499999 -0.824 73 51 27
6.3390002 7.888 -0.852 86 36 0
6.3460002 7.8909998 -0.83099997 205 184 163
6.3429999 7.8870001 -0.829 74 58 59
6.3189998 7.8959999 -0.84799999 159 150 153
6.3189998 7.8870001 -0.84200001 89 60 44
6.3189998 7.895 -0.84899998 108 81 64
6.5619998 7.599 0.147 72 39 22
6.5739999 7.6069999 0.134 37 19 9
6.5619998 7.573 0.17200001 191 167 119
6.5780001 7.592 0.141 59 36 30
6.5780001 7.5840001 0.145 63 43 32
6.5770001 7.5879998 0.145 76 56 47
6.5760002 7.5869999 0.141 75 55 44
6.5770001 7.579 0.141 44 22 8
6.5770001 7.5710001 0.145 39 16 2
6.5780001 7.5760002 0.145 50 28 14
6.572 7.5780001 0.15000001 75 56 42
6.5450001 7.6370001 0.124 153 93 41
6.5609999 7.6300001 0.139 177 109 44
6.7659998 7.8039999 0.191 137 103 58
6.5149999 7.8449998 0.191 143 119 119
6.52 7.8569999 0.132 138 117 86
6.572 7.8429999 0.148 129 47 0
6.5560002 7.862 0.163 102 78 74
6.5570002 7.849 0.20999999 176 121 64
6.559 7.8569999 0.191 125 65 0
6.5679998 7.862 0.132 109 73 51
6.5630002 7.8559999 0.15099999 109 81 69
6.5469999 7.842 0.175 242 186 135
6.5500002 7.8439999 0.17200001 196 182 171
6.5310001 7.8449998 0.182 248 227 174
6.4780002 7.8520002 -0.097000003 145 128 108
6.4099998 7.9310002 -0.76200002 92 58 31
6.3990002 7.9679999 -0.741 47 30 14
6.4000001 7.9699998 -0.73400003 42 24 10
6.3540001 7.882 -0.72799999 79 55 43
6.355 7.8759999 -0.741 146 87 45
6.2319999 8.0139999 -0.71100003 252 245 235
6.2649999 7.848 -0.86500001 195 136 94
6.2589998 7.8330002 -0.87300003 86 61 57
6.2779999 7.7870002 -0.82099998 87 52 30
6.3179998 7.7519999 -0.77100003 88 43 1
6.2880001 7.8889999 -0.866 78 50 28
6.2989998 7.9390001 -0.82300001 87 72 67
6.2810001 7.881 -0.87099999 107 79 58
6.2950001 7.8969998 -0.861 114 78 46
6.2950001 7.8930001 -0.86500001 126 82 47
6.2729998 7.888 -0.87300003 110 61 20
6.3410001 7.9050002 -0.83600003 147 94 62
6.3150001 7.9330001 -0.83700001 72 44 23
6.2579999 7.8119998 -0.86500001 117 60 15
6.3759999 7.7729998 -0.72899997 89 51 30
6.3670001 7.7719998 -0.73799998 112 80 57
6.27 7.8400002 -0.75099999 100 74 51
6.2719998 7.8460002 -0.76800001 106 79 72
6.2779999 7.8449998 -0.78799999 56 38 34
6.2509999 7.8509998 -0.76700002 135 91 46
6.2610002 7.888 -0.78100002 96 56 30
6.256 7.8860002 -0.77499998 76 42 17
6.2600002 7.8940001 -0.796 129 102 85
6.2579999 7.8860002 -0.77999997 110 79 58
6.2709999 7.8930001 -0.81099999 139 113 96
6.27 7.8899999 -0.80699998 72 49 35
6.2680001 7.8909998 -0.79299998 71 35 9
6.2550001 7.8829999 -0.80400002 102 50 11
6.256 7.8870001 -0.81 86 58 34
6.2659998 7.8899999 -0.81699997 170 144 117
6.2579999 7.8829999 -0.81099999 123 69 25
6.2750001 7.888 -0.86000001 110 63 21
6.2210002 7.8169999 -0.80599999 74 47 36
6.237 7.8179998 -0.80900002 171 165 175
6.2519999 7.7880001 -0.847 153 114 71
6.2399998 7.7779999 -0.84600002 153 98 59
6.283 7.7950001 -0.81999999 118 74 35
6.2329998 7.8299999 -0.83399999 110 74 38
6.2350001 7.7740002 -0.85000002 90 61 43
6.2480001 7.7820001 -0.85699999 174 104 44
6.2870002 7.6700001 -0.78299999 72 34 13
6.2750001 7.671 -0.79400003 230 184 160
6.276 7.671 -0.79100001 164 122 97
6.2810001 7.6680002 -0.78600001 126 77 34
6.2519999 7.6630001 -0.80900002 86 45 17
6.2480001 7.6760001 -0.80800003 141 88 48
6.2909999 7.9640002 -0.77200001 158 108 59
6.2909999 7.9819999 -0.74599999 162 110 71
6.2709999 7.9749999 -0.73299998 35 15 4
6.276 7.9710002 -0.73100001 90 40 5
6.27 7.974 -0.73000002 61 35 22
6.2659998 7.973 -0.73500001 100 93 74
6.276 7.9759998 -0.75300002 193 152 106
6.2839999 7.9749999 -0.76499999 133 102 73
6.2649999 7.9710002 -0.74199998 48 29 15
6.2659998 7.973 -0.73799998 177 133 94
6.3439999 7.757 -0.82599998 86 46 20
6.7470002 7.8119998 0.182 223 140 62
6.3369999 7.9790001 -0.75700003 68 22 0
6.3330002 7.98 -0.76200002 148 81 39
6.3400002 7.9879999 -0.759 155 116 87
6.303 7.934 -0.82700002 98 63 41
6.3000002 7.9310002 -0.83399999 211 173 126
6.244 7.9949999 -0.792 72 57 62
6.2360001 7.9860001 -0.815 95 84 66
6.2360001 7.9860001 -0.81099999 129 116 99
6.2449999 7.987 -0.80599999 73 47 32
6.2389998 7.9840002 -0.81199998 244 234 222
6.257 7.8860002 -0.76899999 195 154 124
6.2329998 7.993 -0.792 82 61 58
6.2340002 8.0019999 -0.74800003 247 238 229
6.2319999 8.0050001 -0.74400002 151 138 129
6.237 7.8499999 -0.81199998 169 154 151
6.2509999 7.8839998 -0.77700001 84 39 6
6.2509999 7.8790002 -0.77200001 129 118 132
6.474 7.9239998 -0.79699999 199 155 120
6.3660002 7.7989998 -0.74900001 94 53 35
6.368 7.7989998 -0.74000001 182 152 126
6.3629999 7.7729998 -0.75700003 94 61 28
6.3509998 7.8769999 -0.773 82 60 49
6.408 7.8649998 -0.419 82 51 31
6.4060001 7.862 -0.428 132 120 80
6.4050002 7.9819999 -0.67699999 168 134 97
6.2509999 7.8200002 -0.76899999 113 67 34
6.2550001 7.8210001 -0.77399999 134 128 140
6.2519999 7.8179998 -0.78200001 62 39 21
6.2579999 7.8210001 -0.78500003 161 141 142
6.2579999 7.8239999 -0.78299999 158 89 34
6.3470001 7.882 -0.792 73 51 38
6.349 7.875 -0.78899997 101 72 54
6.2659998 7.8889999 -0.796 72 49 33
6.2600002 7.8860002 -0.80699998 62 35 16
6.362 7.8889999 -0.75 178 112 60
6.4060001 7.9289999 -0.773 97 52 29
6.3390002 7.888 -0.792 85 33 0
6.3340001 7.934 -0.79000002 96 43 3
6.3119998 7.9619999 -0.81900001 101 83 71
6.3119998 7.9650002 -0.764 138 68 16
6.3000002 7.9619999 -0.78399998 128 64 18
6.3070002 7.9759998 -0.773 145 93 45
6.3559999 7.9860001 -0.75300002 57 31 8
6.348 7.9429998 -0.78500003 161 139 116
6.3740001 7.9260001 -0.78500003 92 69 55
6.402 7.961 -0.74699998 49 21 10
6.3080001 8.007 -0.667 76 26 0
6.401 7.974 -0.73400003 118 62 27
6.276 7.9749999 -0.73699999 205 156 126
6.2350001 8.007 -0.72899997 253 249 246
6.2340002 8.007 -0.73299998 249 246 239
6.402 7.967 -0.72399998 89 70 55
6.309 7.9949999 -0.70499998 208 163 124
6.302 8.0039997 -0.67799997 96 59 33
6.3179998 7.9910002 -0.71899998 90 37 3
6.3179998 7.9910002 -0.72500002 75 50 43
6.3070002 7.993 -0.736 113 66 38
6.4130001 7.9400001 -0.76999998 99 47 7
6.4660001 7.8509998 -0.13600001 255 237 210
6.46 7.8569999 -0.164 98 40 3
6.5320001 7.7309999 0.059999999 42 19 1
6.5819998 7.8470001 0.133 126 112 86
6.5339999 7.8429999 0.096000001 250 231 214
6.5489998 7.836 0.148 255 177 85
6.5240002 7.8439999 0.088 112 51 4
6.5560002 7.8390002 0.132 243 170 78
6.408 7.98 0.26199999 251 251 255
6.4130001 7.9650002 0.19499999 132 88 59
6.5029998 7.8730001 0.098999999 204 158 99
6.4650002 7.9320002 0.14300001 185 124 69
6.4569998 7.9320002 0.145 180 140 79
6.5539999 7.8800001 0.219 61 34 17
6.5380001 7.862 0.199 123 93 82
6.5679998 7.875 0.212 89 60 42
6.5609999 7.8779998 0.219 222 195 178
6.546 7.869 0.19599999 89 57 36
6.539 7.8639998 0.18099999 123 99 89
6.5560002 7.8569999 0.17200001 205 182 128
6.5630002 7.8520002 0.252 118 101 93
6.5700002 7.8559999 0.25999999 66 53 47
6.566 7.631 0.126 90 58 33
6.3429999 7.8829999 -0.75700003 68 39 23
6.3499999 7.8870001 -0.75199997 216 174 152
6.3369999 7.888 -0.80699998 69 47 36
