ply
format ascii 1.0
comment PCL generated
element vertex 97
property float x
property float y
property float z
property uchar red
property uchar green
property uchar blue
element camera 1
property float view_px
property float view_py
property float view_pz
property float x_axisx
property float x_axisy
property float x_axisz
property float y_axisx
property float y_axisy
property float y_axisz
property float z_axisx
property float z_axisy
property float z_axisz
property float focal
property float scalex
property float scaley
property float centerx
property float centery
property int viewportx
property int viewporty
property float k1
property float k2
end_header
1.386 12.338 -0.46399999 94 36 0
1.378 12.335 -0.47 193 165 153
1.397 12.329 -0.463 128 61 16
1.387 12.33 -0.46799999 84 34 0
1.374 12.333 -0.48199999 115 67 27
1.37 12.342 -0.48800001 83 48 16
1.376 12.326 -0.47799999 142 57 3
1.375 12.321 -0.48300001 209 124 69
1.424 12.338 -0.5 102 75 68
1.429 12.332 -0.495 133 71 30
1.429 12.339 -0.491 230 141 75
1.373 12.339 -0.484 184 131 97
1.391 12.319 -0.47299999 144 83 29
1.405 12.318 -0.48699999 150 99 54
1.38 12.32 -0.48300001 163 73 13
1.4069999 12.315 -0.47299999 143 82 28
1.388 12.326 -0.491 176 128 92
1.415 12.315 -0.49000001 121 83 62
1.414 12.314 -0.49599999 169 135 108
1.42 12.317 -0.49700001 209 122 45
1.428 12.318 -0.48100001 218 173 134
1.419 12.317 -0.477 97 61 39
1.426 12.323 -0.47 90 54 18
1.425 12.319 -0.47799999 246 165 84
1.428 12.339 -0.48300001 151 103 63
1.42 12.336 -0.465 113 65 29
1.4220001 12.334 -0.47 236 146 68
1.425 12.329 -0.47400001 192 113 44
1.4 12.32 -0.49000001 204 146 108
1.385 12.324 -0.47400001 169 106 55
1.403 12.319 -0.46700001 111 58 18
1.402 12.319 -0.47400001 164 117 73
1.41 12.32 -0.495 91 64 45
1.4 12.332 -0.5 182 132 99
1.4 12.327 -0.49599999 163 114 74
1.428 12.32 -0.49000001 213 170 135
1.419 12.316 -0.48300001 81 45 21
1.3839999 12.334 -0.49399999 113 58 27
1.398 12.335 -0.49900001 96 66 58
1.39 12.34 -0.49399999 132 80 58
1.3789999 12.345 -0.493 72 35 19
1.418 12.319 -0.498 139 117 104
1.416 12.354 -0.50099999 97 44 4
1.42 12.349 -0.49399999 86 67 35
1.414 12.329 -0.46399999 112 34 0
1.411 12.332 -0.465 112 62 25
1.402 12.329 -0.46399999 141 89 49
1.408 12.341 -0.465 100 28 0
1.399 12.32 -0.48699999 255 176 94
1.398 12.325 -0.49399999 139 81 41
1.41 12.328 -0.49700001 143 102 80
1.4069999 12.341 -0.50199997 118 100 80
1.397 12.339 -0.5 129 75 31
1.375 12.336 -0.49000001 112 66 40
1.427 12.326 -0.48100001 96 60 26
1.416 12.338 -0.47 190 108 34
1.3940001 12.342 -0.465 177 126 83
1.387 12.346 -0.46599999 108 45 4
1.386 12.345 -0.46799999 117 78 45
1.428 12.337 -0.49000001 131 92 63
1.427 12.331 -0.491 145 116 98
1.4 12.352 -0.495 179 124 103
1.382 12.345 -0.49000001 97 65 40
1.41 12.347 -0.5 126 97 89
1.4119999 12.352 -0.498 68 44 40
1.399 12.32 -0.49000001 224 179 138
1.393 12.324 -0.484 135 86 56
1.4 12.321 -0.48199999 144 93 50
1.4119999 12.316 -0.47799999 116 53 9
1.414 12.338 -0.498 155 116 87
1.42 12.332 -0.495 232 135 41
1.416 12.345 -0.48199999 132 78 32
1.423 12.342 -0.49000001 95 61 49
1.378 12.351 -0.48800001 105 68 39
1.377 12.353 -0.48199999 122 85 58
1.381 12.351 -0.484 248 195 151
1.392 12.34 -0.465 96 37 0
1.376 12.347 -0.47799999 113 76 47
1.421 12.336 -0.47499999 187 115 33
1.427 12.328 -0.491 101 67 39
1.401 12.35 -0.47499999 67 43 31
1.397 12.339 -0.465 124 62 13
1.4170001 12.353 -0.49000001 76 48 36
1.403 12.347 -0.49000001 86 60 47
1.402 12.342 -0.498 221 154 112
1.3890001 12.346 -0.48500001 114 48 13
1.387 12.346 -0.48199999 124 85 54
1.391 12.327 -0.47 90 49 29
1.405 12.322 -0.493 241 166 64
1.425 12.323 -0.493 227 126 44
1.385 12.348 -0.47499999 67 43 33
1.3890001 12.345 -0.47 79 42 23
1.397 12.346 -0.46799999 183 144 111
1.376 12.34 -0.479 102 40 3
1.378 12.344 -0.47600001 119 91 67
1.408 12.345 -0.48500001 111 76 48
1.399 12.348 -0.48800001 152 98 52
0 0 0 1 0 0 0 1 0 0 0 1 0 0 0 0 0 97 1 0 0
