ply
format ascii 1.0
comment PCL generated
element vertex 1256
property float x
property float y
property float z
property uchar red
property uchar green
property uchar blue
element camera 0
property float view_px
property float view_py
property float view_pz
property float x_axisx
property float x_axisy
property float x_axisz
property float y_axisx
property float y_axisy
property float y_axisz
property float z_axisx
property float z_axisy
property float z_axisz
property float focal
property float scalex
property float scaley
property float centerx
property float centery
property int viewportx
property int viewporty
property float k1
property float k2
end_header
6.71 2.882 -0.713 136 114 100
6.723 2.875 -0.70899999 31 13 9
6.7069998 2.947 -0.80000001 24 3 0
6.704 2.938 -0.80599999 146 122 110
6.711 2.931 -0.81199998 22 0 0
6.7119999 2.951 -0.79500002 37 19 17
6.6259999 2.934 -0.71700001 252 218 147
6.737 2.8099999 -0.61299998 58 35 27
6.7449999 2.8069999 -0.616 64 29 9
6.7280002 2.813 -0.60900003 78 37 7
6.7329998 2.8139999 -0.61699998 109 77 66
6.7340002 2.813 -0.61400002 43 7 0
6.7350001 2.809 -0.58899999 86 75 71
6.7290001 2.8139999 -0.56800002 75 57 55
6.7309999 2.8729999 -0.65600002 68 45 29
6.7340002 2.872 -0.65700001 220 177 132
6.7249999 2.8599999 -0.64899999 183 141 101
6.7270002 2.8610001 -0.65399998 140 98 60
6.7270002 2.9419999 -0.62800002 29 1 0
6.7179999 2.819 -0.62099999 53 12 0
6.7129998 2.829 -0.639 55 32 26
6.7199998 2.8380001 -0.64399999 46 13 0
6.7210002 2.8410001 -0.64899999 43 20 12
6.723 2.8440001 -0.653 28 17 15
6.7340002 2.8299999 -0.64499998 147 120 109
6.7270002 2.8329999 -0.64099997 32 19 13
6.7270002 2.845 -0.65100002 37 26 24
6.7030001 2.848 -0.64399999 34 17 7
6.7069998 2.842 -0.62900001 114 99 80
6.7090001 2.8970001 -0.79400003 24 9 2
6.7340002 2.9070001 -0.81199998 98 76 63
6.6869998 2.9349999 -0.88599998 158 143 138
6.7490001 2.802 -0.60100001 103 85 83
6.7620001 2.802 -0.60699999 49 21 9
6.6939998 2.9330001 -0.87400001 58 38 29
6.6960001 2.934 -0.88700002 110 97 91
6.698 2.9300001 -0.87 33 13 6
6.757 2.8010001 -0.61299998 28 14 13
6.7470002 2.8069999 -0.62 152 96 59
6.618 2.931 -0.71600002 218 163 96
6.6589999 2.9059999 -0.84600002 26 17 22
6.6539998 2.9170001 -0.83999997 15 1 0
6.6560001 2.918 -0.84200001 15 11 12
6.664 2.9070001 -0.85399997 43 16 9
6.6630001 2.96 -0.88200003 105 67 28
6.6659999 2.934 -0.88200003 38 17 12
6.7049999 2.941 -0.79500002 30 4 3
6.7129998 2.925 -0.80000001 29 9 2
6.6589999 2.9619999 -0.87699997 14 4 2
6.7399998 2.9619999 -0.61400002 75 39 5
6.7399998 2.9519999 -0.62300003 78 63 44
6.717 2.9760001 -0.69099998 158 125 116
6.7160001 2.9879999 -0.67799997 32 11 0
6.7160001 2.974 -0.68400002 55 28 21
6.743 2.8380001 -0.64099997 81 52 36
6.73 2.8510001 -0.65600002 20 10 11
6.7449999 2.964 -0.63999999 93 47 13
6.7309999 2.8640001 -0.66000003 91 55 23
6.7259998 2.848 -0.65799999 45 22 14
6.6900001 2.8510001 -0.66500002 71 52 46
6.6989999 2.862 -0.69499999 22 5 0
6.7059999 2.8570001 -0.685 105 64 42
6.7030001 2.8629999 -0.70200002 70 45 25
6.7160001 2.859 -0.68900001 50 22 1
6.7030001 2.852 -0.68099999 106 67 34
6.7049999 2.8469999 -0.67699999 49 18 0
6.7480001 2.8380001 -0.58399999 63 22 2
6.744 2.839 -0.57599998 47 18 2
6.7470002 2.8440001 -0.56699997 123 100 92
6.7210002 2.8699999 -0.65600002 91 69 56
6.77 2.8340001 -0.55299997 210 159 112
6.7709999 2.8440001 -0.54900002 163 112 65
6.71 2.9760001 -0.60699999 132 78 40
6.7030001 2.9690001 -0.60100001 131 86 57
6.7389998 2.8210001 -0.54500002 163 96 25
6.7340002 2.819 -0.55000001 78 60 50
6.75 2.858 -0.551 173 107 33
6.7540002 2.842 -0.546 161 106 49
6.7350001 2.8139999 -0.59799999 143 96 50
6.7350001 2.813 -0.59500003 170 114 53
6.7319999 2.822 -0.59299999 105 73 50
6.7329998 2.823 -0.588 85 44 12
6.7670002 2.816 -0.59600002 121 78 33
6.77 2.8110001 -0.59899998 94 53 23
6.7589998 2.8269999 -0.58899999 174 115 71
6.7519999 2.8299999 -0.57599998 31 2 0
6.7659998 2.812 -0.59299999 136 97 56
6.7579999 2.836 -0.60600001 100 42 18
6.7509999 2.8410001 -0.59799999 116 96 85
6.7480001 2.846 -0.62 115 96 90
6.756 2.8329999 -0.61799997 97 58 43
6.7329998 3.006 -0.79299998 46 25 20
6.6989999 3.0009999 -0.64600003 239 214 157
6.6919999 2.9960001 -0.64300001 150 82 45
6.6100001 2.915 -0.69499999 110 70 19
6.6090002 2.911 -0.69199997 210 166 103
6.6069999 2.9100001 -0.69300002 208 164 103
6.6079998 2.9100001 -0.69499999 218 175 107
6.6090002 2.915 -0.70599997 219 178 124
6.698 3.0009999 -0.653 209 169 107
6.7030001 2.984 -0.676 74 52 41
6.7010002 2.9809999 -0.67900002 26 0 0
6.6129999 2.9119999 -0.68400002 205 156 100
6.7470002 2.845 -0.54500002 188 121 50
6.73 2.8499999 -0.54799998 183 135 95
6.737 2.852 -0.54400003 162 104 56
6.7069998 2.8429999 -0.61400002 103 74 56
6.7309999 2.8329999 -0.59100002 104 41 0
6.717 2.8269999 -0.60500002 148 103 64
6.71 2.826 -0.602 63 25 2
6.7280002 2.8469999 -0.56699997 105 60 5
6.7290001 2.842 -0.56999999 168 125 93
6.717 2.8369999 -0.57300001 129 111 99
6.6690001 2.9590001 -0.87400001 37 17 6
6.671 2.974 -0.81999999 49 17 4
6.677 2.974 -0.82599998 68 42 29
6.677 2.97 -0.85100001 123 113 114
6.6680002 2.9660001 -0.83200002 241 230 202
6.6589999 2.931 -0.85399997 17 1 1
6.6729999 2.918 -0.86799997 67 31 17
6.671 2.925 -0.85299999 24 7 0
6.6350002 2.9159999 -0.82800001 36 25 21
6.6269999 2.9070001 -0.82700002 31 18 12
6.6350002 2.9189999 -0.82599998 33 18 21
6.6329999 2.9119999 -0.82700002 30 18 22
6.652 2.8940001 -0.76300001 86 66 55
6.6389999 2.8959999 -0.75099999 8 0 2
6.6329999 2.9000001 -0.75300002 21 12 15
6.6339998 2.905 -0.82800001 19 8 12
6.6389999 2.895 -0.81599998 52 14 1
6.6389999 2.8929999 -0.81400001 31 17 16
6.6490002 2.8989999 -0.82700002 27 9 5
6.6500001 2.928 -0.83399999 20 3 0
6.6560001 2.9430001 -0.829 47 12 0
6.6459999 2.947 -0.847 113 77 43
6.6560001 2.9349999 -0.83999997 26 8 4
6.6479998 2.96 -0.85000002 17 6 4
6.6529999 2.95 -0.84200001 152 125 96
6.6599998 2.9630001 -0.86799997 93 58 26
6.6539998 2.964 -0.85100001 14 3 1
6.6539998 2.964 -0.85600001 18 8 7
6.6550002 2.971 -0.79699999 192 139 107
6.6729999 2.98 -0.79100001 154 136 126
6.6500001 2.9430001 -0.81800002 52 27 20
6.7329998 3.006 -0.77899998 22 4 0
6.71 2.987 -0.82599998 99 76 62
6.7080002 2.987 -0.82200003 54 25 7
6.6849999 2.9660001 -0.84899998 96 68 46
6.7379999 3.003 -0.79400003 18 0 0
6.73 2.9879999 -0.80800003 28 7 4
6.7049999 2.944 -0.76999998 119 91 80
6.698 2.9400001 -0.75599998 106 86 75
6.7059999 2.9489999 -0.76800001 91 53 30
6.6659999 2.9430001 -0.736 199 151 113
6.723 2.9949999 -0.80400002 11 0 4
6.6859999 2.95 -0.73699999 142 100 84
6.6890001 2.95 -0.73500001 138 100 87
6.6830001 2.9630001 -0.72000003 28 4 2
6.6869998 2.951 -0.74299997 105 94 90
6.6900001 2.9530001 -0.76499999 151 130 113
6.6810002 2.947 -0.755 143 110 75
6.671 2.96 -0.71200001 71 48 42
6.6789999 2.9579999 -0.72100002 26 16 15
6.7350001 2.9070001 -0.79900002 84 42 20
6.7389998 2.9119999 -0.79699999 57 38 32
6.7329998 2.902 -0.80000001 108 90 76
6.6939998 2.865 -0.71600002 9 0 0
6.717 2.8640001 -0.69300002 103 75 54
6.7150002 2.869 -0.70099998 21 2 0
6.7059999 2.9489999 -0.77399999 103 67 45
6.7249999 2.9159999 -0.78500003 46 22 12
6.7119999 2.934 -0.87300003 37 10 3
6.7119999 2.938 -0.87699997 29 9 2
6.7270002 2.973 -0.82800001 24 8 9
6.7270002 2.9749999 -0.80299997 27 11 11
6.7199998 2.973 -0.82300001 142 103 88
6.7470002 2.9860001 -0.80400002 34 15 9
6.7290001 2.9790001 -0.801 15 3 3
6.7140002 2.973 -0.79799998 130 108 94
6.7249999 2.9760001 -0.77600002 11 1 0
6.6989999 2.9809999 -0.81800002 54 22 0
6.7010002 2.9460001 -0.83999997 42 25 18
6.6939998 2.957 -0.83700001 58 55 40
6.7010002 2.9530001 -0.85500002 251 215 201
6.6989999 2.8900001 -0.73100001 10 4 6
6.645 2.898 -0.759 108 90 76
6.6420002 2.9030001 -0.75999999 31 19 23
6.6550002 2.9400001 -0.72899997 109 65 18
6.7069998 2.947 -0.79799998 60 36 32
6.6760001 2.9530001 -0.72600001 26 14 14
6.6669998 2.9489999 -0.71700001 66 36 26
6.7360001 2.816 -0.56999999 105 60 29
6.7379999 2.812 -0.60000002 118 73 40
6.723 2.8729999 -0.67699999 65 37 16
6.7340002 2.881 -0.685 110 67 50
6.7210002 2.875 -0.68000001 115 92 78
6.7020001 2.865 -0.65600002 108 78 67
6.7090001 2.829 -0.61699998 123 103 92
6.7059999 2.842 -0.63499999 135 104 76
6.7150002 2.8180001 -0.63499999 78 50 46
6.71 2.8299999 -0.63499999 27 13 12
6.71 2.8310001 -0.63999999 26 16 15
6.7199998 2.8399999 -0.64700001 51 24 7
6.7189999 2.8499999 -0.63999999 95 70 48
6.7140002 2.8529999 -0.64399999 86 64 51
6.7080002 2.8970001 -0.81099999 80 40 5
6.7030001 2.8970001 -0.81099999 18 4 4
6.697 2.8989999 -0.82499999 24 10 7
6.7010002 2.901 -0.81900001 11 0 0
6.7220001 2.9089999 -0.79000002 84 65 59
6.7270002 2.904 -0.79500002 32 3 0
6.6939998 2.964 -0.833 11 1 2
6.7259998 2.9200001 -0.81999999 55 37 35
6.7319999 2.914 -0.81300002 51 27 17
6.6939998 2.921 -0.86299998 99 79 70
6.6929998 2.9189999 -0.86299998 31 19 19
6.6880002 2.901 -0.87300003 144 100 61
6.6859999 2.9000001 -0.87 150 141 142
6.6820002 2.9119999 -0.87099999 31 12 5
6.7420001 2.806 -0.60299999 62 43 29
6.7659998 2.8050001 -0.602 102 88 87
6.776 2.8169999 -0.60799998 50 23 14
6.7600002 2.8080001 -0.61699998 71 46 41
6.7459998 2.8069999 -0.61799997 88 46 21
6.619 2.931 -0.72100002 251 225 164
6.6329999 2.9360001 -0.70899999 95 60 30
6.6490002 2.941 -0.69499999 30 10 3
6.652 2.947 -0.70899999 93 62 31
6.6230001 2.8870001 -0.71899998 42 31 29
6.6100001 2.9070001 -0.71399999 148 126 113
6.6259999 2.905 -0.722 38 24 13
6.6230001 2.908 -0.72500002 52 29 21
6.6799998 2.902 -0.81999999 66 29 10
6.6729999 2.9000001 -0.81099999 54 19 0
6.6630001 2.901 -0.82200003 17 5 5
6.6389999 2.8989999 -0.81900001 19 8 6
6.6370001 2.904 -0.824 18 8 7
6.6479998 2.9100001 -0.83499998 24 7 0
6.6890001 2.9000001 -0.84600002 42 21 4
6.677 2.901 -0.85000002 136 125 121
6.6880002 2.9000001 -0.84799999 29 15 14
6.664 2.9389999 -0.88499999 58 33 28
6.6539998 2.9549999 -0.87300003 137 125 127
6.7659998 2.839 -0.54799998 115 69 17
6.7659998 2.8410001 -0.54799998 138 88 39
6.7140002 2.994 -0.78399998 124 98 85
6.7150002 2.997 -0.78600001 119 106 98
6.7030001 2.9879999 -0.79000002 112 71 41
6.691 2.9719999 -0.78500003 48 12 0
6.6950002 2.987 -0.792 95 83 57
6.6859999 2.984 -0.792 118 90 76
6.6849999 2.9779999 -0.81199998 100 66 39
6.743 2.97 -0.62099999 117 80 35
6.7389998 2.9719999 -0.61900002 173 136 91
6.7220001 2.97 -0.60600001 134 67 15
6.7210002 2.957 -0.611 36 11 7
6.7150002 2.9530001 -0.61799997 22 10 10
6.711 2.9579999 -0.61699998 171 135 109
6.7199998 2.964 -0.699 38 14 10
6.7290001 2.9909999 -0.62800002 149 98 67
6.724 2.994 -0.63499999 105 94 98
6.7249999 2.9879999 -0.64200002 242 200 158
6.704 2.9990001 -0.64499998 199 181 131
6.7399998 2.994 -0.778 93 81 81
6.7410002 2.9860001 -0.78100002 114 99 96
6.7550001 2.8239999 -0.62400001 53 25 11
6.7319999 2.8570001 -0.66100001 113 90 74
6.7470002 2.8399999 -0.639 107 81 68
6.7270002 2.852 -0.63300002 84 48 32
6.7290001 2.8529999 -0.653 42 10 0
6.7270002 2.8469999 -0.648 72 36 10
6.7179999 2.9590001 -0.70099998 60 48 48
6.7119999 2.904 -0.66100001 52 28 16
6.7119999 2.9159999 -0.66299999 42 35 29
6.7059999 2.908 -0.653 77 52 32
6.7069998 2.911 -0.65700001 98 76 55
6.71 2.845 -0.66799998 113 103 91
6.6960001 2.8499999 -0.67500001 72 62 61
6.724 2.8729999 -0.65700001 40 22 10
6.717 2.9909999 -0.63 163 115 77
6.7129998 2.9860001 -0.62400001 138 88 53
6.7119999 2.99 -0.63200003 109 65 26
6.7280002 3.0039999 -0.801 25 13 15
6.7360001 2.8210001 -0.54699999 249 230 198
6.7639999 2.8329999 -0.54799998 35 10 6
6.7529998 2.8410001 -0.55500001 50 25 20
6.737 2.816 -0.55500001 167 121 88
6.7639999 2.849 -0.54699999 121 59 10
6.7529998 2.835 -0.58700001 100 79 76
6.7480001 2.8380001 -0.58700001 128 80 40
6.6960001 2.993 -0.63800001 183 125 62
6.6939998 2.9979999 -0.648 236 211 131
6.6950002 2.9979999 -0.66100001 217 168 128
6.6090002 2.9000001 -0.67299998 114 62 22
6.6139998 2.905 -0.67400002 62 19 0
6.6139998 2.905 -0.676 179 138 106
6.711 2.99 -0.67900002 47 27 16
6.704 2.973 -0.68900001 122 88 76
6.697 2.97 -0.69300002 92 58 46
6.7080002 2.97 -0.713 21 2 0
6.7119999 2.848 -0.62099999 185 131 93
6.744 2.848 -0.546 210 137 58
6.7449999 2.8559999 -0.55599999 244 180 136
6.7319999 2.8529999 -0.55900002 79 44 25
6.7350001 2.8529999 -0.54699999 129 74 18
6.6659999 2.898 -0.66399997 30 15 18
6.6630001 2.9030001 -0.65100002 35 10 3
6.6659999 2.905 -0.65100002 31 3 0
6.7199998 2.819 -0.55800003 124 93 73
6.717 2.8210001 -0.56099999 46 22 12
6.7319999 2.8210001 -0.57599998 190 143 97
6.7379999 2.839 -0.58899999 72 35 9
6.6550002 2.948 -0.71700001 25 14 12
6.6669998 2.957 -0.71100003 40 15 8
6.645 2.967 -0.79100001 103 47 0
6.6479998 2.9660001 -0.78799999 128 76 26
6.6459999 2.9619999 -0.787 247 183 119
6.6329999 2.954 -0.79900002 138 74 26
6.645 2.914 -0.76099998 54 26 14
6.6430001 2.9070001 -0.75700003 35 13 2
6.6700001 2.961 -0.87099999 53 24 18
6.6669998 2.9679999 -0.84600002 99 79 72
6.6589999 2.9360001 -0.87300003 48 26 15
6.6690001 2.904 -0.87199998 19 8 6
6.6669998 2.904 -0.87900001 31 16 11
6.6350002 2.9159999 -0.82800001 36 25 21
6.6420002 2.898 -0.80699998 158 148 147
6.6360002 2.905 -0.801 51 36 31
6.6409998 2.901 -0.80400002 28 16 18
6.664 2.892 -0.79699999 64 32 19
6.6329999 2.9119999 -0.81599998 113 107 109
6.6550002 2.9389999 -0.85000002 54 27 16
6.6529999 2.948 -0.85100001 31 13 13
6.6589999 2.931 -0.85100001 15 1 0
6.6409998 2.9619999 -0.80800003 176 115 71
6.6469998 2.9649999 -0.81300002 116 73 41
6.6539998 2.964 -0.84500003 23 9 6
6.6479998 2.951 -0.84500003 114 87 58
6.6500001 2.96 -0.82700002 41 17 17
6.651 2.9590001 -0.85600001 9 0 0
6.651 2.954 -0.82300001 31 2 0
6.6409998 2.9449999 -0.80299997 44 16 2
6.625 2.931 -0.72600001 252 221 177
6.6269999 2.934 -0.72399998 194 163 106
6.619 2.9059999 -0.66500002 118 73 40
6.6230001 2.901 -0.65899998 236 192 147
6.6030002 2.8940001 -0.667 130 87 53
6.7080002 2.928 -0.741 45 21 11
6.7059999 2.9170001 -0.72899997 20 1 0
6.7090001 2.9319999 -0.74400002 58 35 27
6.704 2.9430001 -0.73199999 12 8 9
6.6939998 2.947 -0.73400003 46 9 0
6.6960001 2.944 -0.73400003 43 7 0
6.7090001 2.9219999 -0.76999998 46 14 0
6.7179999 3.0020001 -0.80299997 152 143 148
6.618 2.8900001 -0.67000002 85 54 33
6.6339998 2.872 -0.662 198 148 115
6.6350002 2.8699999 -0.66299999 76 33 1
6.6360002 2.8770001 -0.66399997 80 31 1
6.6890001 2.9549999 -0.76800001 105 73 48
6.7010002 2.9549999 -0.77999997 73 41 18
6.7069998 2.9530001 -0.72299999 24 3 2
6.6999998 2.9549999 -0.722 8 0 0
6.691 2.9419999 -0.73900002 27 8 4
6.6890001 2.97 -0.70999998 19 9 8
6.6719999 2.96 -0.708 76 59 51
6.7049999 2.97 -0.70899999 25 2 0
6.6919999 2.97 -0.68800002 104 74 63
6.7270002 2.9170001 -0.79799998 189 158 138
6.737 2.904 -0.80500001 92 75 65
6.7080002 2.872 -0.71200001 61 43 39
6.6919999 2.859 -0.699 129 107 94
6.6420002 2.8929999 -0.81400001 139 129 130
6.73 2.904 -0.81400001 34 25 26
6.724 2.905 -0.81800002 64 29 7
6.7270002 2.9319999 -0.84500003 44 38 38
6.724 2.9300001 -0.84200001 14 0 0
6.7220001 2.925 -0.83999997 56 39 32
6.724 2.9260001 -0.84600002 35 27 25
6.7189999 2.934 -0.84200001 37 23 22
6.7249999 2.9360001 -0.85299999 27 12 9
6.7249999 2.9289999 -0.85799998 85 56 40
6.71 2.9449999 -0.83499998 54 35 28
6.7129998 2.934 -0.84899998 39 15 3
6.71 2.984 -0.82599998 41 15 2
6.7480001 2.9920001 -0.80199999 40 23 15
6.7379999 2.997 -0.79799998 20 5 0
6.7350001 2.9879999 -0.79299998 146 129 119
6.73 2.9820001 -0.787 22 1 0
6.7270002 2.9860001 -0.77600002 106 98 95
6.744 2.9920001 -0.79100001 17 2 0
6.743 2.993 -0.78600001 11 0 0
6.723 2.9760001 -0.81300002 41 26 31
6.6929998 2.9790001 -0.815 151 131 122
6.6929998 2.9719999 -0.82499999 18 4 3
6.6960001 2.9519999 -0.85000002 51 17 5
6.7030001 2.8929999 -0.76200002 54 27 8
6.698 2.8859999 -0.76899999 162 148 135
6.7010002 2.8940001 -0.75999999 57 32 12
6.6719999 2.8940001 -0.77600002 36 23 17
6.6659999 2.905 -0.79000002 28 14 13
6.6859999 2.888 -0.722 126 100 87
6.6880002 2.895 -0.72500002 16 1 0
6.6339998 2.9000001 -0.74800003 11 3 1
6.632 2.895 -0.73699999 14 3 7
6.6690001 2.905 -0.73900002 64 38 21
6.6729999 2.892 -0.72399998 61 38 24
6.677 2.901 -0.72100002 27 15 15
6.6459999 2.9130001 -0.76499999 32 12 3
6.6469998 2.915 -0.76999998 128 108 97
6.691 2.8900001 -0.79699999 31 10 5
6.6939998 2.892 -0.792 22 4 0
6.6690001 2.9549999 -0.71399999 45 33 33
6.6739998 2.9489999 -0.74000001 98 81 73
6.7020001 2.865 -0.65899998 150 120 109
6.6999998 2.865 -0.66500002 100 76 66
6.7010002 2.868 -0.662 104 82 69
6.7189999 2.8310001 -0.639 30 3 0
6.7220001 2.8299999 -0.63800001 51 22 4
6.6659999 2.9100001 -0.64600003 87 51 37
6.6620002 2.905 -0.64300001 44 15 1
6.6620002 2.9070001 -0.63999999 85 56 50
6.638 2.8840001 -0.667 128 74 48
6.6360002 2.8870001 -0.667 46 17 13
6.6350002 2.8970001 -0.662 158 113 94
6.6999998 2.891 -0.787 22 13 8
6.7049999 2.8929999 -0.78399998 54 21 6
6.7020001 2.9430001 -0.81199998 14 0 0
6.7059999 2.9360001 -0.81699997 18 3 0
6.7030001 2.971 -0.81 11 1 2
6.7119999 2.937 -0.82700002 53 24 8
6.7160001 2.9260001 -0.81999999 13 0 0
6.7059999 2.927 -0.86500001 25 11 8
6.6999998 2.9059999 -0.86199999 75 57 43
6.671 2.9300001 -0.86199999 133 117 104
6.6680002 2.934 -0.866 38 23 20
6.664 2.934 -0.86000001 13 0 0
6.7030001 2.9070001 -0.85900003 31 19 19
6.7059999 2.911 -0.85500002 43 29 16
6.6719999 2.9059999 -0.875 97 87 86
6.6789999 2.915 -0.87099999 35 16 9
6.6739998 2.9430001 -0.88 11 0 0
6.678 2.95 -0.87199998 103 102 97
6.6719999 2.947 -0.87900001 89 72 65
6.6729999 2.9330001 -0.87699997 66 51 46
6.691 2.9349999 -0.88200003 34 23 5
6.684 2.9330001 -0.87300003 143 129 128
6.6890001 2.915 -0.866 107 72 42
6.763 2.8 -0.60000002 81 44 15
6.7459998 2.8039999 -0.60900003 70 51 45
6.7620001 2.803 -0.60799998 75 56 49
6.744 2.7980001 -0.60299999 51 44 34
6.744 2.8080001 -0.59399998 141 131 122
6.7680001 2.813 -0.61299998 133 98 76
6.7309999 2.9130001 -0.80800003 81 53 39
6.6560001 2.908 -0.838 53 26 19
6.6560001 2.9030001 -0.829 30 12 8
6.658 2.9289999 -0.84600002 46 31 26
6.6170001 2.905 -0.70599997 117 71 38
6.612 2.904 -0.704 76 32 0
6.612 2.902 -0.69499999 70 38 17
6.6069999 2.898 -0.671 146 98 58
6.6240001 2.901 -0.70700002 208 176 155
6.697 2.885 -0.778 13 4 0
6.6859999 2.8870001 -0.77600002 44 38 38
6.697 2.8859999 -0.77600002 26 11 6
6.6820002 2.8870001 -0.77100003 117 113 112
6.684 2.8859999 -0.78500003 42 28 27
6.717 2.901 -0.81599998 123 106 99
6.697 2.8989999 -0.82800001 14 0 0
6.7080002 2.905 -0.83099997 19 0 0
6.7179999 2.9189999 -0.81199998 166 142 138
6.7119999 2.9260001 -0.81300002 191 172 166
6.6869998 2.9000001 -0.82999998 5 0 0
6.6880002 2.901 -0.833 12 2 1
6.6880002 2.902 -0.83700001 15 4 2
6.6570001 2.937 -0.88700002 41 22 16
6.6539998 2.9419999 -0.87199998 50 28 14
6.6999998 2.99 -0.79500002 47 5 0
6.7080002 2.9630001 -0.78600001 36 9 2
6.7350001 2.9679999 -0.634 112 98 97
6.7389998 2.9560001 -0.61000001 88 52 20
6.7379999 2.9560001 -0.634 44 31 14
6.7309999 2.948 -0.634 31 19 5
6.7379999 3.0020001 -0.77899998 126 114 114
6.744 2.997 -0.78200001 35 21 18
6.73 2.865 -0.66600001 82 57 52
6.7290001 2.8440001 -0.648 17 6 2
6.7459998 2.8329999 -0.63499999 73 45 31
6.7410002 2.8269999 -0.63800001 29 18 14
6.7059999 2.9059999 -0.73799998 30 8 0
6.7030001 2.9059999 -0.74800003 21 5 5
6.7030001 2.9059999 -0.74400002 17 3 0
6.7249999 2.8859999 -0.70200002 42 13 0
6.711 2.895 -0.70899999 112 89 83
6.7490001 2.882 -0.69599998 122 121 116
6.7309999 2.882 -0.69800001 28 3 0
6.7329998 2.882 -0.69599998 43 19 9
6.737 2.8759999 -0.704 22 7 4
6.7329998 2.868 -0.69800001 29 20 23
6.7189999 2.9449999 -0.667 50 26 14
6.7150002 2.9590001 -0.667 69 37 14
6.7160001 2.9530001 -0.671 82 69 61
6.7540002 2.8429999 -0.63099998 63 31 8
6.7189999 2.8559999 -0.68000001 24 11 3
6.7280002 2.862 -0.68400002 94 46 26
6.73 2.8840001 -0.69300002 64 36 32
6.7160001 2.9159999 -0.67000002 106 77 63
6.7189999 2.9159999 -0.68900001 32 15 7
6.7119999 2.914 -0.68300003 33 16 8
6.7179999 2.9189999 -0.68900001 164 145 138
6.704 2.9100001 -0.66900003 19 3 3
6.7090001 2.872 -0.67199999 92 65 54
6.7049999 2.9119999 -0.653 41 14 0
6.724 2.9909999 -0.62900001 77 28 0
6.7129998 2.99 -0.63499999 142 103 64
6.724 2.973 -0.611 148 78 18
6.7199998 2.98 -0.61000001 174 117 74
6.7129998 2.98 -0.61000001 109 54 15
6.7140002 2.987 -0.667 22 6 6
6.7059999 2.9920001 -0.65700001 127 104 98
6.7340002 3.0039999 -0.80000001 49 43 47
6.737 2.994 -0.80000001 33 16 8
6.7410002 2.994 -0.79900002 36 22 13
6.7449999 2.829 -0.54400003 119 99 98
6.7639999 2.835 -0.54799998 255 214 153
6.7529998 2.8540001 -0.546 209 148 85
6.7519999 2.8510001 -0.546 203 137 63
6.7540002 2.848 -0.54699999 209 141 70
6.7600002 2.8340001 -0.56099999 248 216 191
6.7670002 2.806 -0.597 98 57 27
6.7589998 2.836 -0.62699997 87 55 30
6.7550001 2.835 -0.62300003 92 36 11
6.7579999 2.8340001 -0.62400001 73 69 60
6.6950002 2.987 -0.63200003 205 164 112
6.697 3.0009999 -0.64899999 237 206 139
6.6269999 2.9100001 -0.66799998 238 193 151
6.7049999 2.97 -0.699 109 73 59
6.7010002 2.964 -0.71700001 25 1 1
6.6919999 2.967 -0.69499999 29 0 0
6.7199998 2.8469999 -0.61799997 105 56 16
6.717 2.848 -0.62699997 85 51 26
6.7259998 2.842 -0.61000001 101 76 45
6.723 2.842 -0.61199999 147 111 75
6.7119999 2.8559999 -0.64700001 100 76 64
6.7379999 2.8429999 -0.54400003 88 67 66
6.7280002 2.846 -0.54400003 151 103 57
6.7329998 2.845 -0.54500002 143 63 14
6.7360001 2.8340001 -0.54400003 79 45 10
6.7290001 2.8440001 -0.54900002 74 44 36
6.73 2.849 -0.55199999 105 60 29
6.658 2.9030001 -0.634 62 36 23
6.658 2.905 -0.634 30 6 0
6.6609998 2.9089999 -0.63499999 54 30 26
6.7119999 2.829 -0.60799998 73 27 4
6.71 2.826 -0.60399997 76 35 13
6.7280002 2.8429999 -0.55500001 94 40 6
6.7399998 2.8380001 -0.59200001 65 24 2
6.743 2.8380001 -0.59600002 57 17 0
6.6399999 2.96 -0.79299998 157 93 47
6.6409998 2.9619999 -0.79799998 120 56 18
6.6420002 2.9630001 -0.796 100 40 4
6.6440001 2.9649999 -0.79100001 139 77 26
6.6529999 2.9300001 -0.75300002 60 37 31
6.6469998 2.937 -0.74000001 50 28 15
6.664 2.967 -0.85799998 26 12 11
6.6789999 2.967 -0.84600002 129 118 122
6.6799998 2.9660001 -0.84299999 153 133 108
6.6550002 2.9289999 -0.78299999 33 14 7
6.6539998 2.937 -0.78100002 42 12 1
6.6529999 2.934 -0.77600002 78 46 33
6.6389999 2.948 -0.79000002 181 153 131
6.6389999 2.9489999 -0.78600001 11 1 2
6.6500001 2.96 -0.84500003 29 16 10
6.6560001 2.9619999 -0.83600003 8 0 2
6.652 2.9579999 -0.85699999 32 11 6
6.6700001 2.974 -0.81900001 46 18 6
6.6430001 2.961 -0.81099999 135 121 112
6.6409998 2.9560001 -0.80699998 78 33 12
6.6539998 2.951 -0.82499999 51 24 5
6.6329999 2.9489999 -0.80000001 151 141 142
6.638 2.9449999 -0.79900002 119 91 69
6.6259999 2.934 -0.72000003 212 181 114
6.6230001 2.908 -0.73000002 46 27 23
6.6129999 2.915 -0.72399998 155 136 122
6.6399999 2.9260001 -0.73900002 57 16 0
6.6859999 2.9719999 -0.67900002 42 18 8
6.6900001 2.9909999 -0.648 113 79 54
6.6880002 2.9909999 -0.639 141 87 61
6.6999998 2.971 -0.61400002 92 49 30
6.6149998 2.918 -0.69 102 73 59
6.625 2.9119999 -0.671 85 45 9
6.7030001 2.9319999 -0.74199998 96 82 79
6.7059999 2.927 -0.73799998 41 23 13
6.7090001 2.908 -0.75999999 77 52 32
6.6960001 2.947 -0.73100001 124 92 81
6.6849999 2.9519999 -0.727 137 108 102
6.7010002 2.927 -0.76300001 40 25 22
6.665 2.9489999 -0.75 55 35 26
6.6149998 2.9030001 -0.67000002 78 38 2
6.6350002 2.8759999 -0.67299998 32 3 0
6.6360002 2.8800001 -0.68000001 53 30 24
6.6430001 2.8759999 -0.68400002 30 11 13
6.7160001 2.826 -0.574 88 89 84
6.6199999 2.885 -0.67699999 80 55 50
6.6079998 2.8929999 -0.67000002 126 68 30
6.6279998 2.8859999 -0.66900003 169 105 34
6.6290002 2.8829999 -0.66799998 118 47 1
6.6329999 2.895 -0.66500002 51 32 18
6.6300001 2.8829999 -0.671 110 50 14
6.6849999 2.947 -0.759 252 228 190
6.6820002 2.954 -0.77100003 68 37 16
6.6810002 2.9560001 -0.77499998 99 70 52
6.7059999 2.9419999 -0.727 86 74 74
6.6799998 2.9489999 -0.741 56 10 0
6.6880002 2.97 -0.78299999 62 43 26
6.6700001 2.967 -0.77899998 120 96 84
6.6799998 2.9690001 -0.78600001 68 29 0
6.6989999 2.967 -0.69999999 38 9 5
6.724 2.921 -0.787 59 33 10
6.7049999 2.8670001 -0.70499998 34 23 21
6.71 2.872 -0.70700002 80 71 72
6.6929998 2.8629999 -0.70499998 17 0 0
6.6290002 2.8870001 -0.72299999 56 29 18
6.638 2.8840001 -0.71799999 37 17 10
6.6849999 2.8970001 -0.82300001 25 10 5
6.6659999 2.9059999 -0.833 39 10 0
6.7010002 2.898 -0.75099999 41 24 14
6.697 2.901 -0.74900001 48 32 19
6.73 2.915 -0.79100001 102 61 31
6.7270002 2.9170001 -0.824 69 54 47
6.7210002 2.9230001 -0.84100002 60 42 32
6.7179999 2.924 -0.83499998 32 12 5
6.7259998 2.911 -0.81900001 59 42 35
6.691 2.9619999 -0.852 74 52 39
6.7010002 2.9549999 -0.85900003 114 79 59
6.691 2.96 -0.85399997 14 3 1
6.6880002 2.9579999 -0.85799998 142 133 134
6.7119999 2.993 -0.787 62 43 29
6.7480001 2.9920001 -0.79500002 36 12 8
6.7280002 2.9809999 -0.79500002 51 24 13
6.7199998 2.9760001 -0.79400003 77 50 29
6.7010002 2.9679999 -0.82800001 16 6 7
6.7030001 2.891 -0.76700002 52 41 37
6.7030001 2.8959999 -0.75999999 63 40 22
6.6599998 2.898 -0.76200002 111 92 85
6.671 2.8870001 -0.77499998 55 41 40
6.677 2.891 -0.787 147 119 107
6.6880002 2.869 -0.71600002 45 27 23
6.6810002 2.8699999 -0.71799999 91 73 61
6.697 2.892 -0.76599997 31 15 2
6.691 2.875 -0.72100002 55 41 40
6.6700001 2.8989999 -0.74699998 45 27 15
6.6529999 2.905 -0.76700002 22 6 7
6.6440001 2.8940001 -0.74299997 34 10 6
6.631 2.8900001 -0.72600001 25 14 12
6.6490002 2.9159999 -0.77200001 12 1 0
6.6560001 2.915 -0.78100002 16 5 3
6.6869998 2.891 -0.79100001 57 38 32
6.671 2.8940001 -0.79799998 44 29 22
6.6869998 2.961 -0.71700001 27 13 10
6.6490002 2.9070001 -0.66399997 135 100 60
6.6420002 2.9000001 -0.66600001 60 24 0
6.6560001 2.8929999 -0.66500002 56 33 27
6.6529999 2.9030001 -0.66600001 38 4 0
6.7350001 2.839 -0.57800001 84 55 37
6.737 2.812 -0.62400001 69 36 27
6.7449999 2.816 -0.62699997 41 23 21
6.7059999 2.858 -0.65399998 127 95 72
6.7150002 2.829 -0.63800001 107 72 53
6.737 2.839 -0.60399997 47 23 0
6.7319999 2.8469999 -0.57099998 100 62 23
6.7360001 2.846 -0.61799997 101 55 32
6.7379999 2.8540001 -0.57099998 91 30 2
6.7090001 2.8329999 -0.61799997 94 43 16
6.757 2.8239999 -0.62099999 67 32 10
6.6259999 2.904 -0.66399997 77 28 0
6.6370001 2.8970001 -0.66299999 58 15 0
6.697 2.9000001 -0.81699997 18 4 3
6.7020001 2.9430001 -0.81699997 23 8 5
6.7179999 2.921 -0.84100002 23 4 0
6.7199998 2.9260001 -0.838 22 5 0
6.6620002 2.934 -0.85900003 16 2 0
6.665 2.9319999 -0.85699999 17 3 2
6.691 2.9000001 -0.86199999 46 36 34
6.6760001 2.8940001 -0.86500001 27 13 13
6.6960001 2.9030001 -0.85600001 56 40 25
6.6900001 2.8989999 -0.85799998 33 23 21
6.6900001 2.8989999 -0.85500002 44 32 32
6.671 2.9549999 -0.87699997 28 5 0
6.6469998 2.9360001 -0.801 26 7 1
6.6420002 2.9100001 -0.81099999 96 87 90
6.6440001 2.908 -0.80299997 34 19 14
6.6859999 2.9349999 -0.88 136 122 119
6.7389998 2.809 -0.60799998 55 17 0
6.7480001 2.8069999 -0.597 216 180 146
6.6830001 2.898 -0.85699999 61 38 30
6.6880002 2.8989999 -0.85299999 35 16 2
6.665 2.908 -0.84600002 47 31 31
6.6669998 2.9070001 -0.83700001 28 19 20
6.6599998 2.9059999 -0.83099997 54 44 42
6.6570001 2.9260001 -0.84100002 20 5 0
6.6869998 2.8989999 -0.86199999 13 3 1
6.6789999 2.905 -0.87300003 87 48 15
6.6719999 2.895 -0.87 32 16 16
6.612 2.918 -0.71700001 100 78 54
6.6220002 2.9319999 -0.71600002 90 56 31
6.6149998 2.925 -0.713 174 150 124
6.6129999 2.9219999 -0.708 134 94 25
6.6079998 2.9119999 -0.70599997 107 65 23
6.6110001 2.915 -0.69700003 243 197 122
6.6059999 2.8940001 -0.67699999 231 178 124
6.6139998 2.918 -0.70099998 234 186 110
6.6209998 2.928 -0.72500002 105 71 36
6.6259999 2.9230001 -0.73000002 120 94 81
6.625 2.914 -0.73000002 40 21 14
6.645 2.8970001 -0.80800003 136 125 129
6.6560001 2.905 -0.79500002 84 59 54
6.6659999 2.898 -0.81 63 39 29
6.6539998 2.8989999 -0.81800002 54 35 28
6.6409998 2.898 -0.80800003 70 55 50
6.7020001 2.902 -0.82300001 13 2 0
6.724 2.98 -0.77499998 99 89 87
6.711 2.973 -0.79400003 39 11 0
6.7210002 2.9779999 -0.792 120 111 112
6.711 2.967 -0.79299998 38 18 17
6.7309999 2.9630001 -0.64499998 91 80 62
6.7309999 2.9719999 -0.648 41 7 0
6.7309999 2.947 -0.62099999 58 33 26
6.7220001 2.941 -0.62199998 24 0 0
6.7129998 2.9760001 -0.68599999 50 20 12
6.7069998 2.994 -0.64899999 63 26 10
6.7399998 2.987 -0.77899998 103 90 84
6.7220001 2.832 -0.60799998 170 126 87
6.7410002 2.8429999 -0.62400001 60 29 11
6.7459998 2.8369999 -0.63700002 90 58 33
6.7049999 2.892 -0.72299999 27 9 5
6.7129998 2.8900001 -0.70499998 99 80 73
6.717 2.9059999 -0.69800001 49 29 22
6.7189999 2.9159999 -0.69599998 17 5 5
6.7210002 2.925 -0.70899999 36 24 24
6.723 2.925 -0.69499999 70 45 25
6.7199998 2.9260001 -0.70099998 84 71 63
6.7189999 2.9170001 -0.69499999 96 85 79
6.7150002 2.951 -0.66799998 136 119 112
6.7220001 2.9679999 -0.68300003 25 10 7
6.7179999 2.9690001 -0.66600001 24 6 4
6.7140002 2.957 -0.67299998 30 9 4
6.711 2.9200001 -0.66399997 150 120 94
6.743 2.8710001 -0.68699998 140 123 103
6.7340002 2.8670001 -0.69 82 56 41
6.7389998 2.8710001 -0.69800001 30 19 17
6.7329998 2.8659999 -0.69099998 35 9 0
6.7290001 2.868 -0.69800001 88 69 55
6.73 2.865 -0.68300003 15 0 0
6.7340002 2.8670001 -0.67900002 44 25 18
6.7379999 2.8729999 -0.68599999 33 16 9
6.73 2.8629999 -0.67400002 22 5 0
6.7020001 2.8759999 -0.66900003 128 99 81
6.698 2.868 -0.667 63 41 30
6.6960001 2.8599999 -0.69300002 28 0 0
6.7129998 2.927 -0.69 11 2 3
6.7179999 2.9119999 -0.69300002 15 0 0
6.7140002 2.902 -0.685 32 14 4
6.7129998 2.927 -0.671 108 80 66
6.7249999 2.8469999 -0.65799999 18 8 7
6.6919999 2.8559999 -0.68300003 41 21 14
6.6869998 2.859 -0.67799997 27 16 14
6.7049999 2.875 -0.66900003 34 17 7
6.7090001 2.8789999 -0.68099999 87 59 45
6.7059999 2.8710001 -0.667 49 22 15
6.664 2.911 -0.64200002 80 51 45
6.7340002 2.973 -0.616 156 108 60
6.7179999 2.9790001 -0.60799998 119 65 18
6.7080002 2.9690001 -0.60600001 77 19 0
6.704 2.9660001 -0.61199999 23 13 11
6.7150002 2.9630001 -0.61400002 239 174 90
6.7090001 2.9809999 -0.62 41 14 5
6.6999998 2.977 -0.62300003 84 53 25
6.6919999 2.9820001 -0.62900001 68 34 22
6.7199998 2.984 -0.64700001 71 35 23
6.7259998 2.9809999 -0.64499998 76 67 58
6.7270002 2.9790001 -0.63800001 87 36 5
6.7150002 2.977 -0.66600001 31 15 15
6.75 2.836 -0.54699999 255 253 224
6.7639999 2.802 -0.59899998 127 88 55
6.7470002 2.8399999 -0.60799998 37 19 9
6.6939998 2.993 -0.63800001 164 108 59
6.6820002 2.9779999 -0.634 107 60 30
6.6849999 2.977 -0.625 202 154 118
6.6820002 2.9820001 -0.63 68 32 18
6.6350002 2.9070001 -0.66399997 246 198 152
6.6589999 2.9300001 -0.67000002 130 115 110
6.6589999 2.934 -0.67699999 96 64 26
6.6659999 2.934 -0.67500001 118 111 93
6.6700001 2.9430001 -0.67900002 14 0 0
6.652 2.927 -0.67400002 118 83 43
6.651 2.9289999 -0.68099999 26 14 18
6.6560001 2.9360001 -0.68400002 17 4 0
6.7319999 2.8310001 -0.54500002 180 104 55
6.7449999 2.859 -0.55299997 132 82 47
6.7290001 2.842 -0.546 115 48 3
6.6589999 2.901 -0.63800001 35 5 0
6.7199998 2.826 -0.54900002 99 48 5
6.7290001 2.8310001 -0.54699999 134 52 0
6.7280002 2.8399999 -0.55199999 135 72 29
6.7280002 2.836 -0.55000001 134 50 4
6.7199998 2.8329999 -0.56199998 241 184 139
6.7160001 2.8340001 -0.60900003 137 96 68
6.6399999 2.9489999 -0.78299999 55 39 39
6.6459999 2.9579999 -0.78600001 161 78 8
6.6459999 2.95 -0.78399998 98 57 27
6.6399999 2.9519999 -0.78799999 117 94 78
6.6399999 2.9549999 -0.792 165 88 34
6.6479998 2.961 -0.787 239 171 106
6.664 2.964 -0.86500001 83 65 55
6.6760001 2.9660001 -0.838 198 184 157
6.6830001 2.9649999 -0.84100002 51 33 21
6.6789999 2.9679999 -0.829 8 0 0
6.652 2.9590001 -0.829 16 6 5
6.645 2.9649999 -0.80900002 144 92 55
6.6279998 2.8989999 -0.72799999 49 11 0
6.632 2.911 -0.736 40 29 25
6.6370001 2.9170001 -0.736 30 12 8
6.6409998 2.911 -0.74299997 44 28 28
6.6440001 2.9289999 -0.73900002 38 16 3
6.6919999 2.9890001 -0.66600001 140 125 122
6.691 2.9920001 -0.66299999 66 22 0
6.6890001 2.9949999 -0.66100001 104 93 75
6.691 2.9890001 -0.66399997 29 0 0
6.6810002 2.9790001 -0.64600003 65 42 26
6.6810002 2.9749999 -0.65499997 70 52 40
6.698 2.964 -0.611 57 15 0
6.619 2.9200001 -0.685 48 15 0
6.691 2.95 -0.73199999 63 26 18
6.704 2.925 -0.75800002 31 9 0
6.6999998 2.9460001 -0.76800001 148 121 100
6.665 2.941 -0.72899997 140 97 55
6.6680002 2.9489999 -0.74299997 70 28 3
6.6490002 2.928 -0.759 41 18 10
6.6560001 2.928 -0.764 96 76 69
6.7140002 3.0020001 -0.80299997 33 8 4
6.618 2.902 -0.66399997 255 225 179
6.6069999 2.8989999 -0.68300003 231 183 119
6.723 2.826 -0.574 128 110 98
6.6880002 2.9460001 -0.75599998 103 71 48
6.6820002 2.9519999 -0.76800001 142 116 89
6.7059999 2.944 -0.72100002 99 73 60
6.7020001 2.9389999 -0.71600002 27 18 23
6.7030001 2.9400001 -0.727 18 14 15
6.6500001 2.9590001 -0.78600001 144 82 35
6.651 2.964 -0.78799999 85 35 8
6.6539998 2.957 -0.78500003 79 43 27
6.664 2.9449999 -0.76200002 28 18 17
6.6729999 2.944 -0.75800002 32 16 16
6.6739998 2.9660001 -0.78200001 151 118 99
6.6900001 2.9590001 -0.78100002 39 14 0
6.6669998 2.96 -0.78299999 17 6 4
6.6680002 2.948 -0.77399999 27 10 3
6.7010002 2.9679999 -0.704 34 12 1
6.7160001 2.905 -0.78299999 255 215 177
6.7220001 2.869 -0.70300001 39 17 4
6.723 2.869 -0.70099998 23 11 15
6.7160001 2.8870001 -0.69300002 51 24 15
6.7389998 2.875 -0.70200002 66 57 52
6.6589999 2.875 -0.69800001 58 44 43
6.6609998 2.8729999 -0.69400001 48 32 33
6.6700001 2.8710001 -0.699 34 14 5
6.6500001 2.869 -0.69300002 48 28 29
6.6810002 2.862 -0.68000001 25 13 15
6.6849999 2.865 -0.685 165 138 127
6.671 2.895 -0.85900003 45 31 31
6.6529999 2.888 -0.70899999 29 15 14
6.6570001 2.882 -0.70300001 51 31 22
6.6469998 2.878 -0.69599998 88 67 62
6.645 2.8859999 -0.71799999 39 24 19
6.665 2.898 -0.73900002 27 9 0
6.6680002 2.8959999 -0.75 41 23 13
6.6960001 2.8989999 -0.75400001 30 19 17
6.6960001 2.898 -0.75800002 24 16 13
6.7020001 2.904 -0.74699998 17 8 11
6.7010002 2.901 -0.75099999 31 14 6
6.697 2.8989999 -0.73400003 10 2 0
6.6570001 2.938 -0.78100002 12 2 3
6.7069998 2.944 -0.84100002 162 148 148
6.7119999 2.9159999 -0.82700002 28 9 3
6.7119999 2.9170001 -0.82999998 21 4 0
6.6939998 2.9549999 -0.84899998 100 68 47
6.7399998 2.9879999 -0.80500001 68 48 41
6.7389998 2.983 -0.80400002 36 22 13
6.7490001 2.9920001 -0.79799998 33 19 10
6.6799998 2.9690001 -0.82700002 51 14 0
6.7090001 2.9449999 -0.83200002 36 22 13
6.71 2.9000001 -0.76599997 112 86 69
6.71 2.9200001 -0.70499998 83 72 66
6.7059999 2.911 -0.70499998 32 21 17
6.7069998 2.8989999 -0.71499997 47 20 9
6.6999998 2.9059999 -0.72299999 67 59 56
6.6620002 2.8940001 -0.75300002 117 111 113
6.6620002 2.898 -0.75999999 40 21 15
6.6799998 2.8659999 -0.71499997 64 50 50
6.678 2.8770001 -0.71899998 32 19 13
6.6859999 2.8989999 -0.75599998 69 38 17
6.6760001 2.8989999 -0.75599998 37 23 22
6.6820002 2.908 -0.74400002 24 4 3
6.6420002 2.937 -0.72299999 166 127 68
6.6469998 2.9400001 -0.73199999 252 208 161
6.6389999 2.9330001 -0.704 141 86 32
6.6350002 2.9349999 -0.708 66 30 14
6.6370001 2.9300001 -0.70499998 140 120 109
6.6409998 2.9360001 -0.70300001 149 135 126
6.6799998 2.8759999 -0.69 82 44 25
6.6750002 2.8940001 -0.69099998 60 46 35
6.6820002 2.888 -0.69199997 63 34 18
6.678 2.8759999 -0.69099998 173 136 109
6.6570001 2.9070001 -0.78799999 118 102 87
6.6560001 2.9100001 -0.78899997 113 86 77
6.664 2.9119999 -0.77899998 232 178 108
6.6529999 2.9159999 -0.79900002 43 24 18
6.658 2.914 -0.78899997 80 66 65
6.6739998 2.8940001 -0.79900002 43 24 18
6.6830001 2.961 -0.713 75 47 43
6.6479998 2.9119999 -0.66900003 94 54 29
6.6669998 2.9170001 -0.65700001 86 54 41
6.6620002 2.921 -0.67199999 100 55 34
6.7410002 2.8110001 -0.61900002 41 22 16
6.7249999 2.8239999 -0.60799998 128 81 53
6.7160001 2.8499999 -0.63700002 129 81 45
6.7080002 2.845 -0.639 77 52 32
6.7340002 2.8429999 -0.61500001 72 42 16
6.7179999 2.9400001 -0.62199998 171 152 137
6.7319999 2.848 -0.56900001 114 58 21
6.7420001 2.859 -0.55800003 144 93 66
6.7389998 2.8559999 -0.55699998 147 90 45
6.7090001 2.8970001 -0.79100001 41 28 20
6.7010002 2.947 -0.81300002 146 124 103
6.7059999 2.9389999 -0.824 23 6 0
6.7129998 2.918 -0.83399999 24 7 0
6.7160001 2.924 -0.85799998 25 16 17
6.7150002 2.915 -0.84799999 32 22 20
6.7140002 2.9189999 -0.852 16 6 5
6.7199998 2.9360001 -0.866 38 11 4
6.7090001 2.9389999 -0.866 30 7 1
6.7020001 2.944 -0.87400001 25 0 0
6.7179999 2.921 -0.84899998 25 7 3
6.6900001 2.8989999 -0.85100001 40 26 26
6.645 2.9159999 -0.81699997 46 16 8
6.6529999 2.927 -0.81999999 30 16 16
6.6539998 2.925 -0.81400001 36 11 6
6.652 2.9260001 -0.79699999 124 101 93
6.7410002 2.8069999 -0.60600001 207 133 84
6.7490001 2.8099999 -0.588 121 108 100
6.7639999 2.8099999 -0.61199999 59 41 29
6.7340002 2.918 -0.79500002 62 45 37
6.7090001 2.911 -0.83999997 22 7 4
6.6830001 2.898 -0.86400002 18 7 3
6.671 2.9070001 -0.83499998 16 6 7
6.612 2.8900001 -0.68400002 110 81 63
6.6100001 2.898 -0.68599999 136 88 42
6.6139998 2.9219999 -0.70599997 203 157 79
6.625 2.901 -0.70999998 203 171 148
6.6230001 2.9000001 -0.704 39 2 0
6.6209998 2.9170001 -0.72500002 35 21 10
6.6529999 2.9319999 -0.82499999 27 13 12
6.6669998 2.974 -0.815 82 54 40
6.645 2.905 -0.82800001 60 27 18
6.652 2.9089999 -0.83499998 45 36 37
6.698 2.905 -0.83499998 23 5 1
6.6560001 2.937 -0.884 32 13 6
6.7119999 2.9879999 -0.78200001 103 88 83
6.7090001 2.961 -0.792 147 125 111
6.704 2.97 -0.79400003 65 40 18
6.7220001 2.9619999 -0.64700001 54 22 7
6.7290001 2.9579999 -0.64300001 32 22 21
6.7259998 2.9549999 -0.63800001 58 25 16
6.7140002 2.9519999 -0.64600003 41 22 16
6.7010002 2.973 -0.685 82 49 40
6.7069998 2.993 -0.64399999 140 128 88
6.7410002 2.8380001 -0.63200003 62 48 37
6.7030001 2.8970001 -0.73199999 17 7 8
6.7140002 2.9549999 -0.67799997 22 9 0
6.7119999 2.9389999 -0.66000003 54 28 15
6.7069998 2.9200001 -0.65899998 101 76 56
6.7290001 2.858 -0.66900003 50 30 21
6.698 2.9119999 -0.67299998 21 3 1
6.698 2.911 -0.67500001 25 7 3
6.6789999 2.9100001 -0.65799999 46 24 11
6.6739998 2.9070001 -0.65899998 37 9 5
6.684 2.9000001 -0.67699999 101 66 44
6.691 2.914 -0.67000002 108 75 42
6.7030001 2.8759999 -0.67199999 130 98 83
6.7010002 2.8699999 -0.66500002 101 79 66
6.7140002 2.9289999 -0.69800001 26 13 7
6.7049999 2.9100001 -0.67699999 7 1 5
6.7030001 2.9059999 -0.68800002 25 10 7
6.704 2.911 -0.65399998 91 64 45
6.6869998 2.8559999 -0.66799998 17 8 9
6.6919999 2.868 -0.67299998 33 17 17
6.7080002 2.872 -0.67000002 87 58 44
6.704 2.9760001 -0.61799997 104 59 36
6.757 2.8429999 -0.54699999 152 91 37
6.7509999 2.8440001 -0.546 190 133 66
6.6919999 2.9890001 -0.63300002 107 68 39
6.6170001 2.898 -0.69499999 107 65 41
6.6170001 2.901 -0.699 163 114 71
6.6170001 2.8889999 -0.69300002 55 34 29
6.6830001 2.974 -0.64700001 81 53 41
6.6880002 2.9590001 -0.65499997 21 6 3
6.6360002 2.902 -0.66100001 132 96 60
6.6690001 2.9189999 -0.65399998 18 4 3
6.6620002 2.9200001 -0.64399999 72 40 25
6.6739998 2.928 -0.662 57 39 37
6.71 2.987 -0.67900002 38 18 7
6.6669998 2.9400001 -0.68300003 36 8 0
6.6880002 2.865 -0.68900001 207 183 171
6.6810002 2.9070001 -0.66500002 119 91 79
6.6550002 2.9360001 -0.68699998 124 110 110
6.7280002 2.8410001 -0.55199999 41 11 0
6.7399998 2.855 -0.546 205 145 93
6.73 2.8329999 -0.546 192 103 35
6.6550002 2.8870001 -0.66500002 18 7 5
6.6529999 2.8829999 -0.66900003 100 82 82
6.6430001 2.961 -0.78899997 20 6 5
6.6550002 2.9679999 -0.79000002 192 142 119
6.6859999 2.9630001 -0.83899999 42 15 6
6.6479998 2.9460001 -0.79400003 87 53 26
6.6529999 2.9590001 -0.83999997 38 24 21
6.6589999 2.9630001 -0.83099997 252 243 210
6.6609998 2.9630001 -0.82800001 248 242 208
6.658 2.9619999 -0.829 14 5 6
6.6409998 2.964 -0.80400002 134 81 47
6.6539998 2.9630001 -0.84399998 12 3 6
6.6300001 2.8959999 -0.73100001 20 8 8
6.6300001 2.9260001 -0.73100001 49 10 0
6.6659999 2.9549999 -0.70200002 98 68 42
6.664 2.944 -0.69599998 110 99 97
6.6859999 2.9630001 -0.68800002 110 110 98
6.6859999 2.984 -0.648 96 51 28
6.6890001 2.9890001 -0.64300001 195 132 89
6.6810002 2.95 -0.65200001 134 104 94
6.6830001 2.9619999 -0.66799998 72 52 45
6.6960001 2.96 -0.64700001 46 21 14
6.6989999 2.9549999 -0.65399998 35 14 11
6.704 2.9549999 -0.62199998 152 98 64
6.6230001 2.914 -0.67699999 94 66 44
6.6259999 2.9170001 -0.67699999 255 211 161
6.6240001 2.9130001 -0.67199999 93 50 18
6.6479998 2.9200001 -0.75700003 103 76 65
6.6170001 2.898 -0.66600001 142 96 37
6.6139998 2.8859999 -0.69199997 65 28 1
6.6139998 2.8959999 -0.69099998 105 75 65
6.6230001 2.881 -0.69300002 67 42 45
6.6230001 2.882 -0.68199998 93 72 67
6.6300001 2.882 -0.68300003 165 136 118
6.6300001 2.881 -0.68699998 163 122 92
6.7030001 2.941 -0.72399998 14 5 6
6.6810002 2.9489999 -0.76300001 111 94 84
6.6799998 2.9519999 -0.76999998 92 68 42
6.704 2.937 -0.708 108 82 69
6.684 2.9579999 -0.77899998 251 234 218
6.6609998 2.9619999 -0.787 16 2 1
6.664 2.9660001 -0.787 72 35 19
6.7140002 2.902 -0.69199997 47 27 18
6.7280002 2.885 -0.69400001 61 38 30
6.73 2.882 -0.69099998 41 18 4
6.7449999 2.8740001 -0.69599998 63 60 51
6.7420001 2.878 -0.69099998 38 21 14
6.7420001 2.875 -0.68900001 19 2 0
6.7030001 2.891 -0.78100002 24 13 7
6.6989999 2.888 -0.78100002 21 5 5
6.6989999 2.869 -0.71399999 16 6 7
6.698 2.8659999 -0.70700002 20 6 3
6.6939998 2.865 -0.71200001 16 6 5
6.6929998 2.865 -0.70899999 21 0 0
6.651 2.8789999 -0.671 30 12 8
6.6560001 2.8800001 -0.67299998 56 24 13
6.6859999 2.901 -0.81199998 27 15 15
6.6599998 2.8770001 -0.70499998 43 24 20
6.697 2.9000001 -0.75099999 38 22 9
6.6919999 2.9030001 -0.74699998 24 7 0
6.7010002 2.901 -0.74599999 24 9 4
6.723 2.924 -0.84899998 22 13 14
6.6960001 2.9549999 -0.85299999 103 71 50
6.6869998 2.9519999 -0.86699998 73 45 33
6.744 2.9890001 -0.80299997 93 73 66
6.7350001 2.9879999 -0.80599999 152 131 128
6.6729999 2.9790001 -0.81 70 28 12
6.671 2.977 -0.80400002 28 10 8
6.6729999 2.9779999 -0.79799998 127 114 82
6.6690001 2.973 -0.79500002 76 43 28
6.7030001 2.9000001 -0.75800002 85 62 54
6.7150002 2.9159999 -0.70099998 21 8 0
6.7069998 2.9089999 -0.704 76 46 18
6.7129998 2.905 -0.70099998 36 21 16
6.704 2.898 -0.72000003 64 52 52
6.7069998 2.8929999 -0.713 130 99 81
6.6529999 2.8900001 -0.73699999 97 94 101
6.6440001 2.8859999 -0.722 64 47 39
6.6589999 2.8840001 -0.72299999 35 2 0
6.6919999 2.8970001 -0.76099998 167 153 144
6.6750002 2.8970001 -0.76599997 38 10 9
6.6929998 2.9000001 -0.73400003 121 111 101
6.6399999 2.888 -0.72399998 42 22 15
6.6440001 2.937 -0.72100002 194 154 103
6.6329999 2.924 -0.68800002 125 112 104
6.6479998 2.941 -0.70200002 140 88 28
6.6560001 2.8729999 -0.69300002 37 8 0
6.652 2.882 -0.68099999 157 127 117
6.6630001 2.895 -0.68800002 118 86 63
6.6599998 2.8929999 -0.67900002 140 106 79
6.671 2.9000001 -0.68099999 106 94 96
6.6820002 2.865 -0.67799997 180 151 143
6.6529999 2.9159999 -0.80000001 58 26 15
6.6500001 2.9070001 -0.796 52 38 38
6.6799998 2.8929999 -0.79299998 36 31 35
6.7449999 2.8080001 -0.61900002 51 22 8
6.7309999 2.822 -0.60299999 51 19 4
6.7470002 2.8199999 -0.62699997 47 16 0
6.7030001 2.8759999 -0.676 174 141 126
6.723 2.8499999 -0.639 95 58 39
6.7150002 2.8469999 -0.62900001 193 158 118
6.698 2.8940001 -0.79799998 25 14 10
6.6999998 2.9519999 -0.81900001 24 9 6
6.7160001 2.921 -0.83700001 30 13 6
6.7129998 2.9319999 -0.86400002 56 44 44
6.7049999 2.941 -0.86900002 31 6 1
6.6989999 2.947 -0.86699998 12 2 3
6.684 2.8970001 -0.861 69 49 50
6.651 2.914 -0.80900002 67 40 21
6.6500001 2.941 -0.80699998 33 4 0
6.6550002 2.924 -0.80599999 43 20 4
6.6659999 2.934 -0.875 34 10 6
6.7410002 2.809 -0.59299999 49 30 16
6.7080002 2.9100001 -0.84299999 133 107 92
6.6810002 2.898 -0.85900003 21 2 0
6.6760001 2.905 -0.82499999 15 0 0
6.6890001 2.901 -0.81699997 21 7 6
6.6659999 2.905 -0.82499999 27 14 8
6.612 2.921 -0.71399999 97 65 44
6.6269999 2.934 -0.71499997 255 221 161
6.6279998 2.934 -0.71200001 215 174 130
6.6129999 2.891 -0.67799997 41 12 6
6.6170001 2.9260001 -0.708 138 105 86
6.6230001 2.921 -0.70300001 60 25 0
6.6290002 2.9189999 -0.69499999 162 105 36
6.618 2.902 -0.70200002 209 162 120
6.6240001 2.8900001 -0.69599998 119 78 48
6.6560001 2.901 -0.80900002 101 86 91
6.6529999 2.901 -0.80800003 14 0 0
6.6529999 2.971 -0.80599999 87 43 18
6.6399999 2.9030001 -0.80800003 85 58 41
6.711 2.9890001 -0.80199999 40 10 0
6.717 2.9690001 -0.65799999 36 18 16
6.7090001 2.9749999 -0.60799998 138 81 52
6.7069998 2.9349999 -0.67799997 72 61 57
6.7090001 2.9419999 -0.65600002 57 35 24
6.704 2.9230001 -0.65899998 48 27 8
6.6939998 2.911 -0.67799997 12 2 1
6.6919999 2.9000001 -0.69199997 29 0 0
6.698 2.915 -0.667 78 61 54
6.7490001 2.8399999 -0.60000002 42 18 6
6.743 2.8380001 -0.60000002 59 22 0
6.7399998 2.8380001 -0.602 63 32 3
6.6919999 2.9949999 -0.653 130 75 18
6.6900001 2.9909999 -0.65700001 68 35 16
6.6900001 2.99 -0.65600002 40 14 0
6.6989999 2.99 -0.63700002 220 161 85
6.6960001 2.987 -0.63300002 239 197 147
6.612 2.901 -0.69300002 107 64 45
6.6890001 2.984 -0.66299999 66 49 42
6.6880002 2.977 -0.66799998 36 21 16
6.6789999 2.9400001 -0.66900003 31 17 14
6.6799998 2.938 -0.65899998 111 84 65
6.6830001 2.9489999 -0.65799999 106 78 67
6.684 2.9549999 -0.65799999 65 32 23
6.7049999 2.918 -0.65499997 92 69 53
6.6799998 2.973 -0.64200002 98 67 49
6.6999998 2.9679999 -0.63800001 50 20 9
6.638 2.9230001 -0.68199998 129 95 58
6.6409998 2.9189999 -0.676 65 14 0
6.6409998 2.924 -0.68400002 112 71 51
6.658 2.8989999 -0.63999999 38 6 0
6.7030001 2.918 -0.65399998 203 184 169
6.6539998 2.9389999 -0.69199997 80 49 21
6.7150002 2.9530001 -0.69300002 11 1 2
6.711 2.951 -0.68300003 28 17 15
6.6789999 2.8699999 -0.699 44 18 5
6.677 2.8729999 -0.69400001 68 34 22
6.6760001 2.9059999 -0.66000003 36 11 4
6.631 2.905 -0.66399997 118 65 13
6.6420002 2.927 -0.69 38 17 12
6.6490002 2.927 -0.68300003 87 70 52
6.7290001 2.8380001 -0.54799998 102 61 31
6.665 2.971 -0.78899997 99 63 39
6.6430001 2.9100001 -0.75300002 37 8 0
6.645 2.895 -0.73500001 17 6 4
6.6630001 2.9649999 -0.82300001 118 89 59
6.652 2.954 -0.824 16 6 4
6.6500001 2.9260001 -0.74599999 113 68 45
6.6919999 2.97 -0.685 143 115 104
6.6939998 2.9760001 -0.67400002 48 34 31
6.6900001 2.967 -0.68699998 29 5 1
6.6750002 2.9530001 -0.69599998 61 31 3
6.6869998 2.964 -0.68400002 53 25 14
6.6799998 2.944 -0.65200001 71 39 28
6.7069998 2.9489999 -0.634 64 44 37
6.7059999 2.951 -0.634 57 43 40
6.698 2.9660001 -0.62300003 119 68 41
6.7049999 2.9579999 -0.63099998 174 135 106
6.704 2.9619999 -0.616 94 35 17
6.6139998 2.8870001 -0.69099998 72 36 10
6.6160002 2.882 -0.68800002 96 73 67
6.625 2.8840001 -0.67799997 64 7 0
6.6339998 2.881 -0.68199998 60 35 28
6.7210002 2.8269999 -0.56 79 53 38
6.698 2.9300001 -0.71600002 9 1 0
6.6830001 2.9489999 -0.76200002 101 81 72
6.6729999 2.948 -0.76899999 23 13 12
6.6469998 2.9519999 -0.78500003 172 150 137
6.6869998 2.9549999 -0.773 197 172 141
6.743 2.8729999 -0.69099998 21 6 0
6.7420001 2.872 -0.68699998 130 114 99
6.698 2.8989999 -0.81099999 62 25 0
6.6589999 2.882 -0.71799999 19 7 9
6.6700001 2.8900001 -0.72299999 18 4 1
6.6950002 2.901 -0.75099999 37 20 10
6.704 2.908 -0.75199997 20 10 11
6.7010002 2.901 -0.73900002 15 6 7
6.7080002 2.9400001 -0.85900003 42 24 12
6.691 2.951 -0.86799997 101 66 44
6.7090001 2.901 -0.76499999 119 93 76
6.6900001 2.8740001 -0.67799997 36 18 14
6.7010002 2.875 -0.67799997 27 0 0
6.7179999 2.915 -0.69700003 14 0 0
6.7160001 2.908 -0.699 36 17 13
6.7020001 2.8889999 -0.72500002 21 9 9
6.6560001 2.8900001 -0.73299998 15 9 9
6.6490002 2.8940001 -0.75199997 109 91 79
6.6409998 2.8870001 -0.722 32 13 6
6.6399999 2.9360001 -0.71499997 15 5 3
6.6560001 2.882 -0.68099999 109 66 47
6.6599998 2.8789999 -0.69499999 94 62 49
6.6630001 2.8959999 -0.676 136 102 77
6.6750002 2.902 -0.67299998 43 14 6
6.6799998 2.869 -0.68400002 40 12 8
6.6469998 2.9070001 -0.79799998 90 69 64
6.677 2.9000001 -0.68300003 53 21 10
6.684 2.9619999 -0.70200002 99 81 79
6.6859999 2.961 -0.69 17 2 0
6.6430001 2.9089999 -0.66799998 30 10 1
6.645 2.9170001 -0.67299998 51 8 0
6.7129998 2.845 -0.63099998 249 218 174
6.6989999 2.8959999 -0.80199999 23 9 6
6.7220001 2.9230001 -0.847 37 18 11
6.717 2.9189999 -0.84600002 59 49 47
6.6849999 2.898 -0.85799998 48 28 21
