ply
format ascii 1.0
comment PCL generated
element vertex 1272
property float x
property float y
property float z
property uchar red
property uchar green
property uchar blue
element camera 0
property float view_px
property float view_py
property float view_pz
property float x_axisx
property float x_axisy
property float x_axisz
property float y_axisx
property float y_axisy
property float y_axisz
property float z_axisx
property float z_axisy
property float z_axisz
property float focal
property float scalex
property float scaley
property float centerx
property float centery
property int viewportx
property int viewporty
property float k1
property float k2
end_header
-5.7659998 -1.733 -0.833 65 37 16
-5.7480001 -1.738 -0.83099997 46 17 0
-5.7550001 -1.756 -0.83999997 64 19 0
-5.763 -1.748 -0.84399998 98 98 98
-5.737 -1.795 -0.87900001 152 116 100
-5.7350001 -1.795 -0.89099997 146 105 75
-5.7470002 -1.751 -0.88099998 67 17 0
-5.7529998 -1.753 -0.866 100 100 100
-5.7509999 -1.757 -0.85600001 115 50 18
-5.7280002 -1.7819999 -0.89099997 56 26 16
-5.6919999 -1.79 -0.86199999 56 29 2
-5.711 -1.803 -0.86199999 164 126 81
-5.6739998 -1.795 -0.89499998 255 187 101
-5.678 -1.819 -0.90200001 221 161 89
-5.6799998 -1.816 -0.90399998 219 151 86
-5.6869998 -1.821 -0.91299999 207 118 60
-5.691 -1.817 -0.91500002 165 91 46
-5.7059999 -1.794 -0.889 30 2 0
-5.6919999 -1.7819999 -0.89600003 184 152 111
-5.6939998 -1.786 -0.89999998 78 48 22
-5.7059999 -1.757 -0.77399999 52 15 7
-5.7069998 -1.756 -0.76899999 84 17 0
-5.7979999 -1.728 -0.76899999 85 12 0
-5.796 -1.7309999 -0.77600002 212 158 96
-5.7090001 -1.756 -0.76599997 55 18 2
-5.704 -1.758 -0.77600002 94 42 5
-5.717 -1.8 -0.889 84 36 13
-5.6869998 -1.802 -0.98500001 8 0 0
-5.677 -1.841 -1.039 121 107 98
-5.6420002 -1.84 -0.99699998 53 21 0
-5.6599998 -1.8430001 -0.995 26 2 0
-5.698 -1.748 -0.78399998 74 16 0
-5.704 -1.751 -0.77999997 47 18 4
-5.671 -1.757 -0.79500002 64 45 39
-5.6789999 -1.765 -0.79900002 97 63 28
-5.6040001 -1.6720001 -0.76599997 229 165 104
-5.6890001 -1.747 -0.75700003 114 96 94
-5.6290002 -1.692 -0.82099998 85 49 15
-5.6269999 -1.691 -0.82599998 70 35 3
-5.7030001 -1.737 -0.74299997 89 47 25
-5.6589999 -1.677 -0.82200003 151 96 55
-5.638 -1.6849999 -0.81199998 96 62 25
-5.6350002 -1.6900001 -0.81199998 32 14 10
-5.6490002 -1.681 -0.81599998 205 127 65
-5.6430001 -1.678 -0.81400001 188 125 56
-5.651 -1.674 -0.81599998 255 187 116
-5.6430001 -1.673 -0.81199998 249 179 107
-5.6110001 -1.666 -0.78500003 73 44 30
-5.6170001 -1.6619999 -0.79500002 51 13 0
-5.6040001 -1.663 -0.77499998 100 36 0
-5.6059999 -1.669 -0.81 58 31 14
-5.7179999 -1.739 -0.85799998 56 29 2
-5.6570001 -1.675 -0.829 80 31 1
-5.8309999 -1.743 -0.71700001 149 62 0
-5.4920001 -1.521 -0.97500002 164 136 124
-5.4910002 -1.529 -1.0089999 44 14 12
-5.4770002 -1.498 -0.89899999 250 236 171
-5.4790001 -1.5470001 -0.88200003 128 86 62
-5.494 -1.554 -0.87099999 51 25 8
-5.494 -1.556 -0.88 111 78 61
-5.4970002 -1.561 -0.875 64 42 28
-5.4889998 -1.5369999 -0.954 127 105 94
-5.4959998 -1.553 -0.963 43 13 5
-5.4949999 -1.5549999 -0.97000003 54 21 2
-5.5120001 -1.517 -0.977 11 0 0
-5.4949999 -1.517 -0.99000001 42 24 10
-5.493 -1.559 -0.97799999 126 67 33
-5.526 -1.587 -0.833 193 135 71
-5.506 -1.571 -0.80900002 111 70 38
-5.5089998 -1.572 -0.80699998 83 64 57
-5.5040002 -1.566 -0.80699998 142 120 107
-5.5139999 -1.5779999 -0.84299999 84 56 44
-5.5149999 -1.5779999 -0.83200002 150 77 36
-5.5 -1.535 -0.80199999 99 37 0
-5.5149999 -1.5089999 -0.81099999 112 68 31
-5.527 -1.51 -0.80900002 134 79 25
-5.5279999 -1.516 -0.81 67 32 13
-5.5100002 -1.538 -0.80699998 124 75 9
-5.5180001 -1.524 -0.81099999 97 43 0
-5.506 -1.5700001 -0.82300001 121 52 21
-5.6069999 -1.633 -0.76099998 174 118 69
-5.5929999 -1.656 -0.75800002 188 135 19
-5.6269999 -1.658 -0.76700002 168 118 59
-5.618 -1.646 -0.755 253 215 114
-5.5359998 -1.602 -0.84399998 132 90 65
-5.5840001 -1.645 -0.76300001 238 166 81
-5.586 -1.665 -0.76599997 255 248 177
-5.5830002 -1.656 -0.76599997 91 65 52
-5.586 -1.66 -0.76899999 132 87 56
-5.5890002 -1.673 -0.76599997 255 233 165
-5.4840002 -1.557 -0.903 41 21 22
-5.4899998 -1.554 -0.89499998 52 33 27
-5.4710002 -1.534 -0.88099998 55 8 2
-5.553 -1.561 -0.88599998 54 18 4
-5.5440001 -1.5549999 -0.89300001 55 36 21
-5.5419998 -1.559 -0.89300001 112 105 99
-5.533 -1.562 -0.912 76 31 0
-5.5359998 -1.561 -0.921 112 91 86
-5.527 -1.566 -0.94599998 54 25 9
-5.4990001 -1.55 -0.912 65 33 10
-5.4980001 -1.556 -0.94400001 16 0 1
-5.5100002 -1.566 -0.95300001 64 34 23
-5.5110002 -1.566 -0.958 16 6 0
-5.5050001 -1.564 -0.96799999 20 0 0
-5.5089998 -1.5650001 -0.96499997 8 0 0
-5.5089998 -1.558 -0.958 99 80 74
-5.5229998 -1.553 -0.96799999 133 116 108
-5.5050001 -1.556 -0.96499997 17 7 6
-5.5300002 -1.525 -0.96399999 33 24 25
-5.52 -1.546 -0.972 31 14 6
-5.592 -1.66 -0.875 64 45 38
-5.5939999 -1.6670001 -0.87800002 10 0 0
-5.5879998 -1.655 -0.89200002 8 0 0
-5.5830002 -1.637 -0.87300003 46 20 7
-5.5939999 -1.655 -0.86699998 32 15 7
-5.592 -1.655 -0.861 15 1 0
-5.5229998 -1.595 -0.84100002 201 140 75
-5.5929999 -1.658 -0.921 81 38 21
-5.598 -1.7359999 -0.977 155 128 109
-5.6020002 -1.7309999 -0.98199999 21 0 1
-5.6040001 -1.7309999 -0.97500002 44 20 8
-5.618 -1.742 -0.96899998 48 21 2
-5.5970001 -1.669 -0.92900002 116 82 54
-5.5869999 -1.631 -0.88 24 6 2
-5.586 -1.6390001 -0.89499998 35 12 6
-5.5879998 -1.637 -0.87599999 15 4 2
-5.5840001 -1.633 -0.90100002 47 33 32
-5.585 -1.6390001 -0.91799998 62 49 41
-5.5879998 -1.6390001 -0.94099998 22 11 7
-5.5879998 -1.608 -0.91500002 10 4 4
-5.5679998 -1.615 -0.88300002 15 0 0
-5.5500002 -1.58 -0.86900002 86 77 80
-5.5339999 -1.601 -0.85500002 97 58 29
-5.5370002 -1.6 -0.86299998 92 36 9
-5.5279999 -1.584 -0.98000002 52 42 41
-5.5180001 -1.573 -0.972 12 1 0
-5.5430002 -1.585 -0.88800001 10 0 0
-5.5170002 -1.571 -0.875 103 77 60
-5.513 -1.568 -0.88300002 72 40 27
-5.5120001 -1.563 -0.921 110 90 83
-5.5190001 -1.5650001 -0.92299998 107 78 60
-5.5040002 -1.571 -0.97600001 57 39 19
-5.6209998 -1.729 -0.96899998 49 18 16
-5.6279998 -1.7029999 -0.93099999 139 97 72
-5.631 -1.7 -0.935 111 63 41
-5.6389999 -1.7029999 -0.94199997 67 18 1
-5.6479998 -1.715 -0.94300002 42 0 0
-5.6469998 -1.711 -0.94199997 52 8 0
-5.6469998 -1.722 -0.92900002 81 59 46
-5.6300001 -1.682 -0.963 35 13 2
-5.612 -1.683 -0.93300003 30 8 0
-5.6160002 -1.6900001 -0.92900002 52 24 20
-5.6240001 -1.691 -0.93599999 86 56 30
-5.6220002 -1.688 -0.93099999 54 29 22
-5.631 -1.693 -0.92900002 196 150 116
-5.6230001 -1.683 -0.93599999 63 35 24
-5.6440001 -1.7309999 -0.93800002 43 14 10
-5.5929999 -1.709 -0.99400002 31 0 0
-5.6009998 -1.693 -0.98799998 42 4 0
-5.5929999 -1.61 -0.94499999 54 15 0
-5.5960002 -1.604 -0.94300002 37 14 6
-5.6160002 -1.607 -0.92699999 9 0 0
-5.4959998 -1.5369999 -0.94199997 17 8 11
-5.4920001 -1.525 -0.95300001 19 1 0
-5.4970002 -1.544 -0.93900001 11 2 3
-5.4980001 -1.558 -0.89700001 51 26 21
-5.4910002 -1.5549999 -0.88599998 46 17 3
-5.5440001 -1.528 -0.963 58 29 21
-5.533 -1.526 -0.96200001 66 36 26
-5.552 -1.567 -0.95300001 59 28 10
-5.5419998 -1.5779999 -0.96100003 116 88 74
-5.5409999 -1.535 -0.92799997 13 5 2
-5.6620002 -1.6059999 -0.93300003 114 94 87
-5.619 -1.618 -0.94499999 6 0 0
-5.5960002 -1.613 -1.0369999 115 100 97
-5.5970001 -1.6109999 -1.0140001 56 37 31
-5.6459999 -1.654 -1.035 21 2 0
-5.5970001 -1.63 -0.97799999 6 0 0
-5.5949998 -1.624 -0.972 13 3 2
-5.6110001 -1.654 -0.94800001 12 0 2
-5.6290002 -1.6569999 -0.93800002 27 9 5
-5.6090002 -1.61 -0.95499998 116 101 98
-5.5910001 -1.666 -1.0089999 11 1 0
-5.5900002 -1.666 -0.98199999 116 89 78
-5.599 -1.652 -0.96600002 15 5 0
-5.592 -1.65 -0.97899997 114 84 56
-5.6370001 -1.623 -0.90899998 56 27 13
-5.6350002 -1.619 -0.90899998 147 103 76
-5.6440001 -1.624 -0.91799998 109 68 48
-5.6370001 -1.618 -0.898 29 4 0
-5.5910001 -1.675 -0.97500002 198 159 116
-5.6170001 -1.687 -0.98100001 181 148 139
-5.6030002 -1.679 -0.972 37 22 19
-5.6110001 -1.678 -0.96200001 31 5 0
-5.6269999 -1.689 -0.97399998 118 84 47
-5.6079998 -1.704 -0.995 150 118 107
-5.638 -1.727 -1.021 14 0 0
-5.6220002 -1.658 -0.921 129 106 92
-5.6129999 -1.659 -0.912 83 63 52
-5.6259999 -1.642 -0.92199999 134 120 117
-5.6020002 -1.676 -0.93300003 49 24 19
-5.6090002 -1.671 -0.92500001 81 46 16
-5.6009998 -1.6670001 -0.921 19 1 0
-5.4990001 -1.529 -1.0369999 78 40 21
-5.4990001 -1.534 -1.024 26 15 9
-5.5209999 -1.516 -1.043 14 6 4
-5.5279999 -1.508 -1.0420001 132 124 122
-5.5320001 -1.545 -1.043 53 11 0
-5.4949999 -1.527 -1.029 24 10 9
-5.6040001 -1.65 -1.024 19 5 2
-5.586 -1.6210001 -1.0420001 45 30 25
-5.5879998 -1.628 -1.0470001 11 0 0
-5.6329999 -1.641 -1.0420001 138 125 119
-5.625 -1.666 -1.0420001 18 1 0
-5.6339998 -1.6799999 -1.038 7 2 0
-5.6230001 -1.671 -1.0420001 68 49 35
-5.612 -1.6160001 -1.036 19 1 0
-5.6059999 -1.6210001 -1.04 21 6 0
-5.6090002 -1.617 -1.036 18 0 0
-5.6459999 -1.699 -0.93900001 92 69 61
-5.6919999 -1.753 -0.83099997 47 24 16
-5.6750002 -1.765 -0.83499998 48 22 0
-5.6789999 -1.765 -0.83099997 72 43 11
-5.6599998 -1.756 -0.833 183 148 110
-5.6739998 -1.7539999 -0.81900001 29 15 15
-5.6789999 -1.765 -0.81800002 41 13 0
-5.6659999 -1.762 -0.83499998 55 36 30
-5.6599998 -1.753 -0.838 181 168 160
-5.6729999 -1.7460001 -0.84200001 54 17 1
-5.6789999 -1.744 -0.861 20 5 2
-5.6729999 -1.747 -0.86799997 45 31 28
-5.7249999 -1.767 -0.92299998 25 7 5
-5.7220001 -1.781 -0.91399997 26 9 0
-5.6669998 -1.488 -0.94999999 56 28 6
-5.586 -1.615 -0.87699997 74 60 59
-5.6059999 -1.613 -0.91500002 121 102 98
-5.6350002 -1.451 -0.91399997 59 6 0
-5.612 -1.633 -0.93199998 8 0 0
-5.6620002 -1.649 -0.90600002 34 11 3
-5.6599998 -1.643 -0.91100001 56 28 7
-5.6609998 -1.642 -0.91500002 105 70 50
-5.6599998 -1.643 -0.90700001 68 40 19
-5.6030002 -1.617 -0.829 40 30 29
-5.6079998 -1.6210001 -0.82700002 20 9 7
-5.6149998 -1.617 -0.81400001 46 6 0
-5.6040001 -1.623 -0.81699997 18 8 0
-5.6290002 -1.627 -0.83399999 38 20 16
-5.632 -1.618 -0.829 22 4 0
-5.5879998 -1.6390001 -0.77100003 163 104 46
-5.513 -1.579 -0.80699998 55 29 14
-5.5380001 -1.564 -0.80900002 132 86 60
-5.5339999 -1.573 -0.81300002 44 10 0
-5.5380001 -1.558 -0.80599999 99 57 19
-5.5430002 -1.5779999 -0.81599998 27 13 12
-5.5300002 -1.58 -0.81699997 67 31 19
-5.5359998 -1.589 -0.83399999 84 50 25
-5.5430002 -1.517 -0.824 197 103 41
-5.5510001 -1.506 -0.833 250 177 108
-5.5469999 -1.502 -0.81999999 59 23 0
-5.54 -1.49 -0.82099998 213 151 100
-5.552 -1.503 -0.81999999 64 42 31
-5.5479999 -1.501 -0.81599998 131 99 76
-5.553 -1.526 -0.96700001 48 23 18
-5.619 -1.5089999 -0.95599997 121 98 92
-5.6389999 -1.5089999 -0.96100003 61 32 14
-5.526 -1.525 -0.94999999 17 9 6
-5.5599999 -1.534 -0.96600002 26 11 4
-5.5939999 -1.51 -0.97399998 81 49 34
-5.5549998 -1.544 -0.963 51 29 16
-5.6090002 -1.516 -0.98000002 82 72 71
-5.6300001 -1.448 -0.972 15 0 0
-5.6240001 -1.448 -0.97299999 20 11 12
-5.638 -1.4529999 -0.96700001 21 6 0
-5.6290002 -1.449 -0.95300001 95 76 61
-5.638 -1.4809999 -1.011 51 31 20
-5.651 -1.482 -1.022 30 13 3
-5.6269999 -1.451 -1.015 46 27 21
-5.6469998 -1.516 -0.98000002 42 15 0
-5.6360002 -1.515 -0.97399998 65 46 32
-5.6209998 -1.494 -0.93900001 116 98 88
-5.619 -1.48 -0.93900001 75 38 30
-5.6290002 -1.479 -0.93599999 39 5 0
-5.5869999 -1.5779999 -1.02 63 21 5
-5.6490002 -1.501 -1.039 114 83 63
-5.6680002 -1.49 -0.99400002 61 42 28
-5.6669998 -1.4859999 -0.99800003 152 78 31
-5.6529999 -1.474 -1.028 39 26 18
-5.638 -1.645 -0.95099998 35 13 0
-5.632 -1.633 -0.94700003 5 1 2
-5.6399999 -1.6390001 -0.94499999 22 6 6
-5.6440001 -1.666 -0.90700001 26 1 0
-5.6570001 -1.658 -0.88999999 34 16 12
-5.6360002 -1.659 -0.88700002 14 2 2
-5.638 -1.665 -0.89700001 88 65 57
-5.6430001 -1.654 -0.88599998 103 88 85
-5.6599998 -1.647 -0.86900002 17 0 0
-5.6609998 -1.647 -0.86799997 29 10 6
-5.6620002 -1.652 -0.91900003 166 104 55
-5.6620002 -1.6619999 -0.92799997 46 22 10
-5.6630001 -1.642 -0.92900002 36 8 4
-5.6609998 -1.643 -0.92000002 40 15 0
-5.651 -1.641 -1.016 20 0 0
-5.6430001 -1.632 -1.015 36 7 1
-5.717 -1.735 -0.87199998 63 40 32
-5.704 -1.742 -0.88099998 30 12 2
-5.7049999 -1.742 -0.88099998 43 16 9
-5.6810002 -1.738 -0.89399999 120 97 91
-5.6869998 -1.743 -0.89200002 104 89 84
-5.6830001 -1.7410001 -0.89499998 64 41 27
-5.7179999 -1.738 -0.91500002 33 6 0
-5.7059999 -1.729 -0.91100001 85 79 79
-5.7179999 -1.73 -0.89899999 85 61 49
-5.7410002 -1.794 -0.87 124 83 61
-5.7509999 -1.763 -0.85000002 82 18 0
-5.6700001 -1.647 -0.95899999 69 37 22
-5.6430001 -1.622 -0.963 66 18 0
-5.6550002 -1.636 -0.94300002 32 14 10
-5.6859999 -1.4529999 -1.0319999 23 1 0
-5.6090002 -1.665 -0.77100003 113 49 0
-5.6500001 -1.791 -0.95700002 131 105 88
-5.6440001 -1.7869999 -0.94400001 43 8 2
-5.6350002 -1.786 -0.94999999 89 85 86
-5.6939998 -1.745 -0.89899999 36 27 28
-5.6570001 -1.717 -0.94099998 75 26 0
-5.6630001 -1.722 -0.954 64 16 0
-5.6209998 -1.8049999 -0.99800003 21 1 2
-5.6279998 -1.7869999 -0.99400002 105 67 44
-5.6350002 -1.772 -0.972 68 23 2
-5.638 -1.783 -0.98100001 44 17 8
-5.6300001 -1.781 -0.96499997 42 10 0
-5.6389999 -1.77 -0.95899999 53 11 0
-5.6350002 -1.75 -0.96100003 48 22 5
-5.6409998 -1.7589999 -0.95999998 21 1 0
-5.6599998 -1.822 -0.935 140 97 44
-5.664 -1.826 -0.91799998 140 65 8
-5.7020001 -1.7819999 -0.97399998 27 13 2
-5.7010002 -1.783 -0.97899997 88 71 61
-5.697 -1.79 -0.963 15 0 0
-5.704 -1.772 -0.98100001 46 13 6
-5.6589999 -1.76 -0.847 61 34 17
-5.658 -1.76 -0.84600002 101 85 85
-5.6630001 -1.7539999 -0.85399997 65 48 38
-5.671 -1.74 -0.88999999 95 80 75
-5.6750002 -1.739 -0.89999998 9 0 0
-5.6469998 -1.663 -0.85100001 98 66 51
-5.6230001 -1.674 -0.88599998 15 1 0
-5.6240001 -1.673 -0.89200002 14 0 0
-5.6240001 -1.673 -0.889 21 10 6
-5.6129999 -1.682 -0.884 20 10 11
-5.5110002 -1.568 -0.88700002 24 4 0
-5.493 -1.554 -0.86500001 123 90 71
-5.493 -1.546 -0.86699998 32 12 5
-5.6469998 -1.813 -1.0140001 87 86 84
-5.5900002 -1.673 -0.77100003 163 134 76
-5.5900002 -1.668 -0.77600002 86 57 13
-5.5939999 -1.661 -0.77899998 222 176 142
-5.5960002 -1.649 -0.78600001 125 89 77
-5.5879998 -1.656 -0.77399999 241 189 131
-5.5929999 -1.652 -0.80000001 84 53 25
-5.6090002 -1.654 -0.75700003 241 175 53
-5.6069999 -1.66 -0.75700003 239 161 63
-5.6020002 -1.6670001 -0.84100002 51 24 7
-5.5890002 -1.663 -0.82800001 81 26 0
-5.5900002 -1.6569999 -0.83399999 42 23 17
-5.6570001 -1.719 -0.93199998 114 105 106
-5.612 -1.6799999 -0.829 123 92 61
-5.619 -1.6849999 -0.83099997 120 102 88
-5.6220002 -1.687 -0.82800001 135 93 55
-5.6220002 -1.679 -0.84600002 53 25 3
-5.6339998 -1.785 -0.96600002 60 30 22
-5.651 -1.791 -0.96600002 125 96 78
-5.6469998 -1.786 -0.97899997 29 9 0
-5.6409998 -1.783 -0.98799998 28 17 13
-5.6389999 -1.8099999 -0.991 99 62 20
-5.5960002 -1.744 -1.001 54 25 9
-5.4920001 -1.5470001 -0.96799999 89 34 4
-5.5359998 -1.584 -1.018 86 68 58
-5.552 -1.59 -1.011 34 6 2
-5.5489998 -1.5650001 -1.027 44 24 15
-5.546 -1.553 -1.0369999 34 21 15
-5.5440001 -1.564 -1.0319999 32 5 0
-5.5440001 -1.573 -1.036 52 22 12
-5.5500002 -1.549 -1.039 60 39 20
-5.5320001 -1.5549999 -1.04 56 13 0
-5.5320001 -1.563 -1.0369999 88 44 19
-5.5100002 -1.586 -1.03 28 9 2
-5.4980001 -1.557 -1.013 110 53 24
-5.5050001 -1.573 -1.027 56 4 0
-5.6339998 -1.779 -0.94599998 209 179 141
-5.651 -1.758 -0.83999997 35 20 17
-5.6059999 -1.676 -0.86900002 77 51 26
-5.6030002 -1.666 -0.86900002 18 0 0
-5.6129999 -1.679 -0.866 110 78 39
-5.631 -1.675 -0.87699997 184 165 167
-5.6240001 -1.673 -0.89300001 46 19 0
-5.631 -1.669 -0.89099997 52 38 12
-5.6209998 -1.683 -0.87099999 217 173 128
-5.6789999 -1.774 -0.85900003 43 17 2
-5.671 -1.765 -0.85500002 88 59 43
-5.6620002 -1.762 -0.85100001 93 66 49
-5.6719999 -1.757 -0.88 137 112 90
-5.6729999 -1.761 -0.88099998 70 45 25
-5.6680002 -1.774 -0.847 102 75 48
-5.6919999 -1.836 -0.97600001 36 21 14
-5.6869998 -1.826 -0.96200001 63 30 0
-5.6799998 -1.834 -0.96399999 151 93 55
-5.665 -1.822 -0.90100002 187 128 62
-5.6820002 -1.8150001 -0.90600002 179 105 34
-5.6869998 -1.8150001 -0.91299999 63 16 0
-5.7129998 -1.803 -0.91500002 68 50 40
-5.697 -1.814 -0.92400002 102 61 41
-5.6939998 -1.813 -0.921 141 76 38
-5.6750002 -1.846 -0.99699998 135 127 116
-5.6810002 -1.8279999 -0.949 143 115 75
-5.678 -1.851 -1.027 92 43 13
-5.6799998 -1.853 -1.031 81 53 31
-5.6859999 -1.854 -1.017 114 50 12
-5.7059999 -1.801 -1.024 92 65 44
-5.6989999 -1.801 -1.021 127 110 103
-5.7020001 -1.83 -1.0039999 42 15 0
-5.7069998 -1.83 -1.008 89 51 30
-5.7080002 -1.827 -1.002 56 27 21
-5.6630001 -1.822 -0.92299998 100 31 0
-5.7010002 -1.789 -0.93900001 71 35 19
-5.6960001 -1.774 -0.99699998 8 2 0
-5.5040002 -1.512 -1.026 6 0 2
-5.52 -1.501 -1.007 68 42 29
-5.4970002 -1.52 -1.008 71 44 25
-5.71 -1.793 -1.034 60 37 19
-5.7069998 -1.818 -1.038 114 58 21
-5.6659999 -1.818 -1.0369999 83 65 55
-5.6849999 -1.822 -1.044 7 1 1
-5.665 -1.8329999 -1.025 84 66 54
-5.6589999 -1.8279999 -1.023 58 36 25
-5.658 -1.826 -1.029 136 111 91
-5.6199999 -1.738 -1.022 43 18 11
-5.6259999 -1.7460001 -1.036 49 16 9
-5.6820002 -1.735 -1.0369999 7 1 3
-5.6589999 -1.7309999 -1.043 47 21 8
-5.6869998 -1.757 -1.0470001 14 0 0
-5.6669998 -1.753 -1.039 98 86 88
-5.6479998 -1.767 -1.04 16 0 0
-5.652 -1.807 -1.027 35 15 4
-5.6539998 -1.74 -1.048 10 2 0
-5.632 -1.441 -0.98799998 40 15 11
-5.632 -1.441 -0.98900002 10 0 0
-5.5819998 -1.575 -1.005 62 36 19
-5.4959998 -1.517 -0.97000003 50 40 41
-5.4920001 -1.5549999 -0.977 103 42 13
-5.5539999 -1.596 -0.97600001 21 3 1
-5.5609999 -1.592 -0.98799998 43 26 18
-5.5380001 -1.591 -0.97899997 113 78 56
-5.5609999 -1.6 -1.003 14 0 0
-5.5419998 -1.528 -0.82599998 178 105 50
-5.5409999 -1.541 -0.829 98 42 9
-5.5339999 -1.539 -0.83600003 114 49 9
-5.533 -1.529 -0.82999998 99 41 1
-5.5289998 -1.5319999 -0.84399998 71 34 16
-5.5359998 -1.538 -0.88099998 69 31 20
-5.5349998 -1.53 -0.89600003 44 17 8
-5.5300002 -1.4960001 -0.852 116 90 75
-5.5159998 -1.497 -0.85799998 55 18 9
-5.5359998 -1.501 -0.84200001 116 49 0
-5.5180001 -1.498 -0.84899998 48 5 0
-5.5819998 -1.4680001 -0.84600002 166 99 44
-5.5939999 -1.466 -0.86299998 182 117 49
-5.5999999 -1.462 -0.86900002 118 54 0
-5.5960002 -1.457 -0.86299998 72 27 0
-5.526 -1.478 -0.824 114 67 21
-5.5250001 -1.482 -0.83700001 127 104 88
-5.592 -1.443 -0.86299998 147 111 75
-5.605 -1.439 -0.861 246 217 159
-5.631 -1.442 -0.93300003 85 49 25
-5.6370001 -1.4529999 -0.92299998 142 110 95
-5.5089998 -1.5140001 -0.90200001 72 58 57
-5.5120001 -1.517 -0.88499999 26 6 0
-5.4949999 -1.5039999 -0.898 144 124 113
-5.5019999 -1.5140001 -0.87800002 73 40 23
-5.5089998 -1.513 -0.87400001 36 15 14
-5.513 -1.5089999 -0.87099999 107 80 63
-5.5219998 -1.5140001 -0.91000003 20 12 10
-5.5229998 -1.515 -0.90899998 100 84 85
-5.5380001 -1.5 -0.83899999 214 137 81
-5.5409999 -1.492 -0.83499998 189 127 70
-5.5500002 -1.502 -0.83499998 248 177 113
-5.4749999 -1.516 -0.89899999 221 195 168
-5.533 -1.5140001 -0.88700002 30 8 0
-5.5279999 -1.517 -0.89200002 29 14 11
-5.5240002 -1.515 -0.884 42 19 13
-5.4840002 -1.495 -0.88800001 132 113 106
-5.4899998 -1.508 -0.89999998 91 73 33
-5.494 -1.517 -0.903 47 29 25
-5.5100002 -1.507 -0.995 20 0 0
-5.5409999 -1.541 -0.80800003 136 76 39
-5.5440001 -1.546 -0.824 188 132 73
-5.5450001 -1.534 -0.81800002 216 121 39
-5.5469999 -1.577 -0.81900001 63 51 51
-5.5469999 -1.572 -0.81699997 49 13 0
-5.6110001 -1.488 -0.95300001 192 122 71
-5.612 -1.471 -0.94 69 18 1
-5.6329999 -1.477 -0.93099999 47 20 1
-5.6079998 -1.6210001 -0.81999999 33 19 18
-5.5450001 -1.594 -0.83899999 230 130 36
-5.6360002 -1.624 -0.80599999 51 20 2
-5.6370001 -1.63 -0.80699998 54 21 6
-5.6420002 -1.6390001 -0.81699997 159 84 26
-5.6409998 -1.637 -0.81800002 61 37 25
-5.6399999 -1.632 -0.82200003 75 37 18
-5.638 -1.636 -0.81 42 14 0
-5.6420002 -1.649 -0.82099998 174 94 31
-5.6129999 -1.6 -0.78299999 173 120 78
-5.6750002 -1.6339999 -0.94599998 103 76 69
-5.664 -1.645 -0.935 77 40 21
-5.6609998 -1.643 -0.91500002 58 31 12
-5.658 -1.64 -0.91600001 43 15 4
-5.6539998 -1.631 -0.92400002 104 62 38
-5.6539998 -1.633 -0.912 30 18 22
-5.8210001 -1.699 -0.71899998 138 80 40
-5.6090002 -1.467 -0.89399999 46 23 9
-5.6339998 -1.4859999 -0.89200002 68 45 37
-5.6279998 -1.479 -0.89099997 58 29 15
-5.5999999 -1.608 -0.866 53 21 10
-5.6360002 -1.624 -0.86799997 43 9 0
-5.6409998 -1.62 -0.85600001 109 89 82
-5.6329999 -1.624 -0.86500001 50 16 6
-5.6370001 -1.625 -0.86699998 145 114 96
-5.6240001 -1.6210001 -0.87699997 10 2 0
-5.6059999 -1.456 -0.87699997 78 13 0
-5.5240002 -1.539 -0.80500001 84 45 4
-5.6269999 -1.454 -0.98199999 9 0 1
-5.6209998 -1.448 -0.98699999 8 0 2
-5.625 -1.464 -0.97000003 21 2 0
-5.6300001 -1.442 -0.98400003 23 5 3
-5.631 -1.484 -0.98299998 17 9 6
-5.6329999 -1.436 -0.87400001 63 42 23
-5.631 -1.437 -0.85799998 49 7 0
-5.6370001 -1.4400001 -0.85000002 73 36 27
-5.6350002 -1.441 -0.84799999 84 37 11
-5.6230001 -1.46 -0.95999998 23 8 1
-5.6700001 -1.492 -1.045 185 149 117
-5.691 -1.474 -1.035 112 106 108
-5.6560001 -1.4960001 -1.046 88 63 43
-5.6550002 -1.498 -1.038 87 54 39
-5.6630001 -1.497 -1.038 211 175 153
-5.6890001 -1.454 -1.025 81 36 5
-5.6859999 -1.465 -1.025 98 81 73
-5.6859999 -1.46 -1.021 112 68 39
-5.684 -1.498 -1.031 100 91 92
-5.6490002 -1.645 -1.026 38 16 0
-5.645 -1.61 -1.013 111 68 49
-5.618 -1.681 -1.0369999 49 29 20
-5.6199999 -1.676 -1.039 120 85 57
-5.6149998 -1.675 -1.031 30 14 1
-5.5999999 -1.679 -1.031 98 66 53
-5.6409998 -1.683 -1.033 9 4 1
-5.6409998 -1.666 -1.035 118 95 87
-5.6550002 -1.5089999 -0.995 26 12 11
-5.6539998 -1.626 -0.995 132 111 108
-5.6430001 -1.618 -0.991 33 19 8
-5.6560001 -1.665 -0.99800003 136 96 60
-5.5479999 -1.522 -1.012 33 19 16
-5.572 -1.557 -1.017 16 4 4
-5.5679998 -1.53 -1.029 46 27 23
-5.573 -1.544 -1.012 39 20 13
-5.572 -1.546 -1.006 59 41 31
-5.7969999 -1.74 -0.70599997 133 75 25
-5.7919998 -1.732 -0.71600002 154 120 95
-5.6090002 -1.602 -0.79000002 120 61 17
-5.585 -1.6440001 -0.77600002 151 121 93
-5.5879998 -1.645 -0.778 64 47 37
-5.5910001 -1.643 -0.829 94 80 77
-5.5869999 -1.658 -0.773 134 89 50
-5.5890002 -1.663 -0.773 247 201 142
-5.6269999 -1.648 -0.76999998 167 86 7
-5.6079998 -1.642 -0.759 99 68 40
-5.8010001 -1.726 -0.75700003 99 68 48
-5.7329998 -1.768 -0.73000002 188 93 25
-5.7389998 -1.75 -0.73199999 103 60 28
-5.7360001 -1.7539999 -0.73199999 57 19 6
-5.7340002 -1.765 -0.73500001 156 61 0
-5.5960002 -1.681 -0.759 178 132 72
-5.6929998 -1.73 -0.73299998 60 28 13
-5.7189999 -1.742 -0.71600002 158 88 37
-5.7140002 -1.734 -0.71899998 183 89 27
-5.7270002 -1.7460001 -0.72000003 109 33 0
-5.7270002 -1.753 -0.72100002 98 55 23
-5.711 -1.756 -0.74199998 111 36 0
-5.7280002 -1.7539999 -0.74800003 30 1 0
-5.7160001 -1.751 -0.75800002 196 111 44
-5.7319999 -1.7460001 -0.74800003 30 2 0
-5.717 -1.749 -0.76099998 44 14 3
-5.7249999 -1.742 -0.75 117 43 0
-5.7259998 -1.755 -0.74299997 125 65 15
-5.7399998 -1.737 -0.741 51 22 8
-5.7399998 -1.752 -0.74199998 185 84 6
-5.6900001 -1.7460001 -0.72299999 90 47 13
-5.6900001 -1.755 -0.73400003 123 82 50
-5.717 -1.756 -0.94800001 22 8 8
-5.691 -1.751 -0.995 35 10 3
-5.6890001 -1.727 -0.98799998 14 0 0
-5.7049999 -1.74 -0.94199997 56 50 54
-5.6939998 -1.76 -1.036 105 95 94
-5.6960001 -1.783 -1.025 20 5 0
-5.6900001 -1.7690001 -1.027 8 0 0
-5.6859999 -1.7690001 -1.0369999 8 0 0
-5.6880002 -1.719 -0.99199998 142 95 69
-5.6830001 -1.72 -0.97500002 64 36 22
-5.677 -1.714 -0.97399998 52 24 12
-5.6960001 -1.73 -0.97799999 58 21 3
-5.6529999 -1.674 -1.022 47 20 13
-5.6529999 -1.671 -1.015 24 9 2
-5.651 -1.664 -1.0319999 16 2 2
-5.6469998 -1.6849999 -1.003 25 7 5
-5.6690001 -1.7130001 -0.97899997 9 0 0
-5.6739998 -1.659 -1.0140001 97 73 63
-5.6690001 -1.642 -1.023 118 104 103
-5.684 -1.855 -1.024 136 91 62
-5.7189999 -1.818 -1.0190001 38 13 6
-5.7090001 -1.825 -0.99800003 124 87 60
-5.6820002 -1.84 -0.97399998 163 128 98
-5.6810002 -1.837 -0.97100002 136 102 75
-5.6820002 -1.842 -0.995 29 1 0
-5.691 -1.799 -1.038 110 104 106
-5.6869998 -1.808 -1.048 6 0 2
-5.7059999 -1.811 -1.039 37 8 0
-5.7140002 -1.834 -1.02 132 56 6
-5.6360002 -1.4529999 -1.02 19 4 1
-5.6389999 -1.447 -1.0140001 56 17 0
-5.5219998 -1.51 -1.0369999 118 105 96
-5.7870002 -1.74 -0.79100001 93 26 0
-5.7909999 -1.73 -0.77700001 138 79 37
-5.7670002 -1.733 -0.82700002 44 17 0
-5.8140001 -1.721 -0.75099999 101 55 29
-5.7420001 -1.735 -0.73799998 154 94 70
-5.717 -1.739 -0.75999999 73 35 16
-5.717 -1.724 -0.72600001 132 69 28
-5.7709999 -1.726 -0.80599999 71 4 0
-5.7750001 -1.729 -0.80500001 78 16 0
-5.7740002 -1.729 -0.80599999 173 106 80
-5.796 -1.735 -0.77899998 24 0 0
-5.7719998 -1.724 -0.801 87 23 0
-5.7940001 -1.725 -0.77399999 77 8 0
-5.7789998 -1.724 -0.77200001 136 113 99
-5.7969999 -1.719 -0.72500002 179 136 101
-5.618 -1.6210001 -0.83099997 24 9 2
-5.6129999 -1.622 -0.82099998 26 0 0
-5.631 -1.617 -0.796 81 34 14
-5.6339998 -1.641 -0.78600001 171 96 31
-5.631 -1.618 -0.82599998 23 5 0
-5.7979999 -1.719 -0.69599998 111 61 10
-5.835 -1.715 -0.71600002 189 132 51
-5.6129999 -1.495 -0.95099998 114 85 71
-5.4580002 -1.508 -0.898 172 138 93
-5.4699998 -1.492 -0.88800001 180 155 99
-5.5180001 -1.5039999 -0.86500001 97 60 42
-5.4970002 -1.549 -0.80199999 103 49 15
-5.5380001 -1.55 -0.83399999 96 40 13
-5.5970001 -1.652 -0.81699997 73 54 48
-5.4829998 -1.523 -0.90799999 65 8 0
-5.4829998 -1.525 -0.90700001 243 206 164
-5.4749999 -1.528 -0.89999998 146 107 66
-5.4819999 -1.5319999 -0.90399998 45 16 0
-5.4990001 -1.5089999 -0.83499998 31 2 0
-5.5149999 -1.498 -0.84799999 46 19 12
-5.5079999 -1.507 -0.847 68 35 30
-5.5089998 -1.5089999 -0.85399997 51 27 17
-5.4949999 -1.512 -0.83999997 38 3 0
-5.4920001 -1.5319999 -0.861 64 38 21
-5.493 -1.518 -0.86199999 130 105 83
-5.507 -1.505 -0.866 113 103 78
-5.5050001 -1.55 -0.83099997 79 49 38
-5.5089998 -1.536 -0.83600003 65 27 18
-5.6149998 -1.434 -0.85399997 72 32 6
-5.461 -1.5140001 -0.87599999 220 164 77
-5.4679999 -1.5190001 -0.86000001 101 64 38
-5.5890002 -1.454 -0.85699999 117 65 8
-5.5180001 -1.506 -1.017 16 2 0
-5.6199999 -1.474 -0.93400002 35 6 0
-5.631 -1.482 -0.93800002 81 42 25
-5.6420002 -1.457 -0.93000001 73 39 14
-5.6459999 -1.465 -0.92900002 23 4 0
-5.6539998 -1.472 -0.93099999 48 20 0
-5.6570001 -1.479 -0.926 67 40 13
-5.6420002 -1.457 -0.94199997 100 69 48
-5.8390002 -1.73 -0.71700001 137 78 20
-5.8390002 -1.732 -0.71799999 204 115 55
-5.8390002 -1.735 -0.71899998 212 135 47
-5.71 -1.739 -0.77100003 46 14 0
-5.7059999 -1.75 -0.77600002 37 4 0
-5.7090001 -1.744 -0.76999998 48 19 5
-5.7069998 -1.7539999 -0.77899998 36 1 0
-5.7399998 -1.737 -0.74900001 31 6 0
-5.756 -1.73 -0.833 115 64 35
-5.7519999 -1.742 -0.83700001 33 3 0
-5.763 -1.734 -0.81999999 54 28 13
-5.7690001 -1.738 -0.80299997 45 8 0
-5.7470002 -1.7410001 -0.861 114 104 102
-5.7620001 -1.743 -0.847 62 24 11
-5.7589998 -1.747 -0.84899998 54 32 21
-5.7490001 -1.74 -0.85399997 120 68 46
-5.7579999 -1.751 -0.84399998 100 49 18
-5.7319999 -1.789 -0.88700002 44 11 6
-5.6950002 -1.733 -0.93099999 102 73 59
-5.6849999 -1.738 -0.92799997 42 15 0
-5.6830001 -1.737 -0.93099999 50 37 29
-5.737 -1.747 -0.88099998 175 129 95
-5.7249999 -1.7460001 -0.89999998 249 245 244
-5.7290001 -1.7460001 -0.884 87 83 84
-5.7220001 -1.744 -0.89700001 99 63 51
-5.6929998 -1.794 -0.85600001 35 5 0
-5.697 -1.786 -0.85399997 71 38 5
-5.678 -1.837 -0.96899998 102 70 29
-5.6869998 -1.77 -0.81300002 61 23 0
-5.7249999 -1.761 -0.83899999 123 77 53
-5.7220001 -1.761 -0.838 57 24 0
-5.7140002 -1.76 -0.83499998 96 66 40
-5.691 -1.776 -0.815 71 26 5
-5.704 -1.794 -0.87900001 74 49 29
-5.7010002 -1.783 -0.89200002 100 69 48
-5.7249999 -1.7410001 -0.74699998 168 95 54
-5.7680001 -1.738 -0.79900002 63 25 4
-5.711 -1.755 -0.76700002 139 56 2
-5.6869998 -1.789 -1.01 51 37 26
-5.684 -1.7869999 -0.99599999 12 1 0
-5.6900001 -1.802 -1.01 51 37 34
-5.684 -1.789 -0.98900002 122 73 41
-5.6849999 -1.786 -0.991 21 6 1
-5.6939998 -1.7869999 -0.977 39 22 14
-5.6729999 -1.8329999 -1.038 59 44 39
-5.671 -1.839 -1.022 29 9 0
-5.697 -1.743 -0.778 135 77 40
-5.6950002 -1.743 -0.77600002 76 26 3
-5.6919999 -1.755 -0.72899997 128 78 41
-5.6869998 -1.76 -0.77399999 60 29 1
-5.6900001 -1.744 -0.77100003 48 26 15
-5.6399999 -1.697 -0.81699997 84 48 12
-5.6479998 -1.6849999 -0.82099998 215 131 69
-5.592 -1.675 -0.773 166 128 81
-5.6880002 -1.7460001 -0.74299997 85 49 17
-5.6199999 -1.671 -0.81199998 106 83 75
-5.6009998 -1.661 -0.80400002 84 27 0
-5.5999999 -1.655 -0.79699999 108 49 7
-5.6500001 -1.6849999 -0.824 170 99 47
-5.4899998 -1.5369999 -0.958 25 5 0
-5.4920001 -1.528 -0.963 13 2 0
-5.493 -1.526 -0.96499997 142 115 104
-5.5 -1.521 -0.93800002 6 0 2
-5.4980001 -1.522 -0.94599998 40 15 10
-5.5079999 -1.543 -0.84500003 50 38 24
-5.5209999 -1.5880001 -0.83700001 50 26 22
-5.5219998 -1.591 -0.84100002 213 149 88
-5.507 -1.573 -0.81 79 44 12
-5.7919998 -1.725 -0.71600002 80 34 0
-5.8039999 -1.697 -0.708 160 129 109
-5.7870002 -1.707 -0.708 62 31 11
-5.5019999 -1.531 -0.815 117 43 0
-5.5009999 -1.536 -0.815 195 118 62
-5.5339999 -1.5140001 -0.81099999 89 41 0
-5.5339999 -1.507 -0.81099999 104 54 31
-5.539 -1.5190001 -0.81699997 98 63 43
-5.5250001 -1.52 -0.81 148 123 93
-5.5019999 -1.566 -0.82099998 140 109 91
-5.513 -1.556 -0.801 207 183 137
-5.4980001 -1.554 -0.81300002 248 185 105
-5.4980001 -1.55 -0.81800002 255 204 128
-5.5050001 -1.564 -0.80500001 140 93 41
-5.4980001 -1.556 -0.80900002 207 134 57
-5.4980001 -1.557 -0.80199999 105 50 19
-5.6209998 -1.641 -0.76099998 100 30 0
-5.5840001 -1.645 -0.759 199 124 41
-5.5970001 -1.601 -0.78899997 43 24 9
-5.598 -1.607 -0.79799998 92 58 33
-5.631 -1.646 -0.778 188 105 29
-5.6290002 -1.648 -0.77499998 197 107 31
-5.6339998 -1.653 -0.78500003 142 84 38
-5.6279998 -1.65 -0.77600002 191 111 42
-5.5910001 -1.661 -0.759 160 97 2
-5.5970001 -1.659 -0.75700003 246 190 77
-5.5970001 -1.661 -0.75599998 180 108 10
-5.6110001 -1.6670001 -0.76200002 42 16 3
-5.5349998 -1.561 -0.926 59 0 0
-5.5320001 -1.5650001 -0.92400002 50 2 0
-5.5089998 -1.5650001 -0.94700003 63 32 14
-5.5040002 -1.557 -0.95300001 85 67 63
-5.506 -1.561 -0.96100003 52 33 19
-5.5170002 -1.515 -0.92500001 96 95 91
-5.5180001 -1.5190001 -0.93400002 34 11 5
-5.5910001 -1.652 -0.91600001 12 1 0
-5.5960002 -1.6569999 -0.917 7 2 0
-5.592 -1.645 -0.875 31 4 0
-5.5970001 -1.617 -0.89200002 19 5 4
-5.5749998 -1.6210001 -0.88800001 93 66 57
-5.5879998 -1.628 -0.90600002 101 80 77
-5.5890002 -1.626 -0.91100001 19 0 0
-5.5900002 -1.615 -0.92000002 15 1 0
-5.592 -1.627 -0.92299998 117 93 83
-5.5910001 -1.618 -0.926 22 7 2
-5.5900002 -1.669 -0.97600001 65 20 0
-5.5890002 -1.675 -0.97500002 128 87 55
-5.5929999 -1.674 -0.97299999 168 124 77
-5.5890002 -1.64 -0.95599997 19 0 0
-5.5970001 -1.617 -0.89700001 116 98 96
-5.5139999 -1.572 -0.84899998 47 2 0
-5.513 -1.569 -0.85500002 62 41 22
-5.5279999 -1.562 -0.903 62 50 50
-5.566 -1.607 -0.87 50 32 30
-5.5359998 -1.5880001 -0.86699998 45 17 6
-5.5229998 -1.5700001 -0.96200001 73 46 29
-5.526 -1.569 -0.926 91 68 62
-5.5229998 -1.585 -0.86799997 52 4 0
-5.625 -1.691 -0.94599998 41 13 1
-5.6199999 -1.679 -0.94800001 40 25 18
-5.652 -1.712 -0.94300002 158 110 87
-5.6440001 -1.702 -0.93699998 105 55 22
-5.6589999 -1.728 -0.92000002 54 34 23
-5.6630001 -1.7309999 -0.93900001 66 27 0
-5.599 -1.7029999 -0.98299998 69 42 23
-5.6209998 -1.728 -0.97100002 109 78 60
-5.619 -1.6160001 -0.91399997 133 113 112
-5.507 -1.52 -0.94 22 10 14
-5.5139999 -1.521 -0.93900001 81 71 72
-5.5149999 -1.521 -0.94300002 57 23 11
-5.493 -1.525 -0.94700003 47 27 20
-5.5 -1.548 -0.93400002 130 111 97
-5.5 -1.557 -0.90100002 23 3 2
-5.507 -1.5599999 -0.91299999 21 0 0
-5.5100002 -1.563 -0.89200002 63 37 24
-5.5419998 -1.558 -0.94499999 14 7 1
-5.5539999 -1.558 -0.954 47 19 5
-5.6090002 -1.61 -0.96799999 17 3 0
-5.645 -1.618 -0.93900001 119 96 90
-5.6630001 -1.608 -0.935 97 49 9
-5.6570001 -1.608 -0.93400002 36 15 10
-5.5960002 -1.615 -1.0470001 11 0 0
-5.5999999 -1.608 -1.0190001 23 2 0
-5.6030002 -1.608 -1.0140001 50 37 29
-5.5949998 -1.655 -1.007 23 4 0
-5.5949998 -1.648 -1.005 18 0 0
-5.6259999 -1.631 -0.93800002 121 116 113
-5.605 -1.645 -0.93599999 2 0 1
-5.6110001 -1.637 -0.949 2 0 1
-5.5949998 -1.656 -1.011 20 1 3
-5.5960002 -1.676 -1.007 89 62 41
-5.6009998 -1.681 -0.97500002 43 22 17
-5.6290002 -1.666 -0.93099999 81 63 61
-5.6069999 -1.668 -0.91900003 38 19 13
-5.592 -1.6670001 -0.98299998 255 224 178
-5.6269999 -1.724 -0.972 36 13 0
-5.6420002 -1.717 -0.97899997 90 39 10
-5.6479998 -1.714 -1.01 53 21 10
-5.6420002 -1.711 -1.011 45 11 1
-5.6149998 -1.674 -1.017 48 26 3
-5.6059999 -1.671 -0.92799997 43 12 0
-5.5050001 -1.525 -1.036 18 5 0
-5.5040002 -1.54 -1.033 114 109 105
-5.6110001 -1.658 -1.0470001 26 11 6
-5.612 -1.654 -1.0420001 19 4 0
-5.605 -1.637 -1.045 67 48 44
-5.5879998 -1.623 -1.046 39 28 26
-5.6129999 -1.625 -1.044 19 1 1
-5.645 -1.671 -0.97500002 161 123 61
-5.6350002 -1.677 -0.97799999 122 90 65
-5.6409998 -1.702 -0.93300003 97 50 22
-5.6290002 -1.658 -0.94300002 65 47 45
-5.6329999 -1.637 -0.954 6 0 2
-5.6529999 -1.758 -0.83700001 73 58 53
-5.6799998 -1.765 -0.80900002 49 19 0
-5.6799998 -1.765 -0.81300002 39 12 0
-5.6690001 -1.752 -0.86799997 92 74 70
-5.671 -1.748 -0.88499999 125 103 80
-5.6560001 -1.756 -0.84100002 48 35 29
-5.698 -1.742 -0.861 87 41 25
-5.6370001 -1.699 -0.82700002 73 37 21
-5.6849999 -1.745 -0.84200001 62 27 7
-5.6739998 -1.77 -0.89399999 75 43 20
-5.6700001 -1.781 -0.89999998 163 104 48
-5.671 -1.756 -0.89399999 33 14 8
-5.671 -1.7460001 -0.88800001 14 0 0
-5.723 -1.788 -0.91500002 22 1 0
-5.7059999 -1.739 -0.89099997 33 13 2
-5.717 -1.7359999 -0.89200002 30 1 0
-5.6719999 -1.5 -0.95999998 112 75 49
-5.5879998 -1.61 -0.87 126 96 88
-5.5770001 -1.61 -0.87 39 18 13
-5.6360002 -1.476 -0.90700001 11 0 0
-5.6440001 -1.465 -0.89999998 28 5 0
-5.612 -1.633 -0.926 6 0 0
-5.6020002 -1.638 -0.91900003 13 4 5
-5.605 -1.645 -0.926 69 63 63
-5.6609998 -1.653 -0.90100002 24 14 15
-5.6589999 -1.649 -0.89700001 131 75 26
-5.6609998 -1.647 -0.91000003 53 31 20
-5.6589999 -1.641 -0.90899998 77 47 37
-5.6430001 -1.633 -0.83999997 35 6 0
-5.6399999 -1.633 -0.83099997 33 12 7
-5.6360002 -1.6289999 -0.85000002 36 10 0
-5.52 -1.587 -0.84100002 113 70 38
-5.513 -1.579 -0.80900002 25 3 0
-5.5139999 -1.5650001 -0.80299997 77 43 0
-5.527 -1.571 -0.80500001 121 76 45
-5.52 -1.571 -0.80599999 239 191 119
-5.559 -1.576 -0.84200001 42 5 0
-5.5339999 -1.585 -0.83099997 113 68 45
-5.5349998 -1.495 -0.83999997 153 102 59
-5.6030002 -1.612 -0.98500001 21 16 13
-5.5349998 -1.5190001 -0.91399997 11 0 0
-5.52 -1.5190001 -0.93800002 25 20 17
-5.5300002 -1.515 -0.92699999 10 0 0
-5.5250001 -1.5190001 -0.93599999 50 21 7
-5.612 -1.513 -0.98500001 44 29 26
-5.625 -1.449 -0.96899998 13 4 5
-5.6430001 -1.466 -1.0190001 53 25 13
-5.6469998 -1.479 -1.016 56 32 28
-5.6360002 -1.493 -0.99299997 57 30 9
-5.6339998 -1.485 -0.98900002 113 95 85
-5.6370001 -1.502 -0.99199998 143 125 113
-5.6409998 -1.499 -0.99800003 21 0 0
-5.6329999 -1.4809999 -0.98900002 38 13 8
-5.6129999 -1.6059999 -1.027 13 2 0
-5.6149998 -1.609 -1.027 24 9 4
-5.6209998 -1.607 -1.0089999 112 104 102
-5.599 -1.609 -1.005 18 3 0
-5.619 -1.61 -0.99800003 21 1 0
-5.632 -1.6109999 -1.005 10 0 0
-5.631 -1.615 -1.002 202 162 126
-5.6339998 -1.619 -0.98799998 52 17 0
-5.6589999 -1.65 -0.889 21 6 0
-5.658 -1.64 -0.89499998 177 151 138
-5.6589999 -1.6339999 -0.89399999 43 9 0
-5.6570001 -1.64 -0.88999999 96 67 53
-5.6570001 -1.6390001 -0.88999999 45 18 11
-5.6329999 -1.515 -0.995 39 24 21
-5.6500001 -1.4859999 -1.041 17 6 2
-5.5310001 -1.5089999 -1.041 137 128 129
-5.6269999 -1.669 -0.90200001 38 4 0
-5.6360002 -1.6670001 -0.93599999 28 17 11
-5.6409998 -1.671 -0.89999998 99 88 86
-5.6240001 -1.673 -0.89600003 29 1 0
-5.6599998 -1.654 -0.88999999 41 26 19
-5.6479998 -1.649 -0.86699998 67 35 22
-5.737 -1.738 -0.85100001 113 98 95
-5.7179999 -1.7410001 -0.91900003 43 20 14
-5.7290001 -1.7640001 -0.84399998 188 136 96
-5.7329998 -1.771 -0.85500002 91 50 32
-5.7220001 -1.772 -0.84799999 60 14 0
-5.7319999 -1.767 -0.852 126 81 52
-5.7340002 -1.7920001 -0.86299998 152 106 54
-5.6919999 -1.771 -0.89600003 73 29 4
-5.6989999 -1.771 -0.91600001 42 23 9
-5.684 -1.772 -0.89700001 43 6 0
-5.691 -1.774 -0.88200003 50 32 18
-5.6890001 -1.777 -0.89200002 161 128 97
-5.6729999 -1.633 -0.95499998 60 34 9
-5.6680002 -1.649 -0.95300001 169 106 52
-5.664 -1.632 -0.96100003 47 16 0
-5.6149998 -1.666 -0.75999999 99 32 13
-5.6880002 -1.737 -0.90899998 44 30 21
-5.7049999 -1.734 -0.91000003 98 92 94
-5.6760001 -1.733 -0.91399997 32 19 11
-5.7049999 -1.735 -0.91500002 98 89 92
-5.6550002 -1.771 -0.90399998 94 67 50
-5.6810002 -1.721 -0.96499997 75 58 51
-5.6849999 -1.728 -0.972 23 3 0
-5.6820002 -1.725 -0.96600002 85 68 61
-5.6490002 -1.748 -0.958 105 54 25
-5.6459999 -1.739 -0.93800002 19 0 0
-5.6479998 -1.747 -0.93900001 37 16 13
-5.651 -1.737 -0.94300002 29 7 0
-5.6269999 -1.788 -1.0039999 135 105 103
-5.6220002 -1.748 -0.972 31 4 0
-5.6100001 -1.752 -0.995 84 79 76
-5.6609998 -1.793 -0.949 166 134 96
-5.6570001 -1.793 -0.95300001 143 109 71
-5.6719999 -1.8099999 -0.95300001 84 46 25
-5.6589999 -1.798 -0.94099998 118 45 4
-5.6560001 -1.7920001 -0.94700003 141 77 41
-5.6700001 -1.806 -0.94099998 63 10 0
-5.704 -1.79 -0.954 63 36 15
-5.71 -1.762 -0.97000003 85 64 43
-5.7080002 -1.7539999 -0.95999998 116 93 79
-5.6950002 -1.793 -1.0140001 76 50 37
-5.631 -1.669 -0.88 99 69 58
-5.4980001 -1.5599999 -0.87199998 113 85 64
-5.6100001 -1.654 -0.75700003 240 171 50
-5.6030002 -1.65 -0.75800002 140 88 31
-5.6009998 -1.6670001 -0.847 94 61 44
-5.599 -1.659 -0.86299998 22 7 0
-5.6009998 -1.663 -0.84399998 114 100 99
-5.645 -1.785 -0.98400003 62 43 29
-5.651 -1.788 -0.98100001 47 30 14
-5.658 -1.7970001 -0.97500002 43 15 12
-5.619 -1.705 -1.012 174 137 118
-5.6209998 -1.717 -1.016 186 158 121
-5.6220002 -1.697 -1.017 196 172 98
-5.5380001 -1.581 -1.022 40 32 13
-5.5380001 -1.5880001 -1.005 47 12 0
-5.5289998 -1.552 -1.044 133 128 125
-5.5359998 -1.572 -1.035 81 36 7
-5.5279999 -1.581 -1.044 116 81 53
-5.5419998 -1.568 -1.0369999 110 64 38
-5.6339998 -1.777 -0.95200002 49 23 8
-5.625 -1.676 -0.86799997 157 109 63
-5.6259999 -1.677 -0.85299999 25 4 0
-5.6240001 -1.678 -0.84600002 41 18 4
-5.6869998 -1.771 -0.80599999 110 68 43
-5.658 -1.768 -0.84399998 57 26 6
-5.6719999 -1.753 -0.88999999 55 33 19
-5.6760001 -1.765 -0.86699998 63 42 25
-5.6789999 -1.77 -0.861 33 18 21
-5.684 -1.844 -0.98000002 68 42 25
-5.6869998 -1.839 -0.98100001 110 76 28
-5.684 -1.8049999 -0.93699998 95 20 0
-5.6719999 -1.8279999 -0.91299999 242 183 67
-5.6890001 -1.812 -0.926 69 22 0
-5.7049999 -1.802 -0.92400002 43 24 10
-5.652 -1.791 -0.963 60 33 26
-5.711 -1.827 -1.003 109 72 53
-5.6700001 -1.824 -0.92299998 82 28 0
-5.7030001 -1.781 -0.93900001 52 25 4
-5.704 -1.7690001 -0.94800001 28 14 13
-5.7220001 -1.749 -0.92299998 38 19 12
-5.6999998 -1.77 -1.012 95 75 66
-5.6820002 -1.739 -0.926 20 5 2
-5.526 -1.502 -0.99400002 166 136 112
-5.5289998 -1.515 -0.98100001 32 9 1
-5.4920001 -1.525 -1.0039999 34 11 3
-5.4959998 -1.52 -1.0039999 2 1 0
-5.6269999 -1.448 -1.0140001 17 2 0
-5.7059999 -1.809 -1.04 103 97 97
-5.6750002 -1.816 -1.041 12 2 1
-5.618 -1.751 -1.027 35 22 13
-5.6170001 -1.735 -1.0140001 134 97 89
-5.6830001 -1.733 -1.0089999 167 143 131
-5.658 -1.745 -1.044 17 7 8
-5.6479998 -1.776 -1.04 74 46 22
-5.658 -1.775 -1.0369999 15 1 0
-5.6750002 -1.747 -1.045 15 0 0
-5.6750002 -1.462 -0.986 70 43 26
-5.6669998 -1.471 -0.99299997 43 20 14
-5.572 -1.589 -0.99400002 37 17 8
-5.4980001 -1.5140001 -0.97799999 46 24 11
-5.527 -1.58 -1.0140001 58 30 9
-5.5440001 -1.5880001 -0.99599999 26 13 7
-5.5479999 -1.589 -0.99000001 80 42 23
-5.5489998 -1.592 -0.98400003 31 19 19
-5.5510001 -1.592 -0.98699999 37 25 3
-5.5580001 -1.595 -1.01 90 48 26
-5.5890002 -1.624 -1.022 17 2 0
-5.5890002 -1.623 -1.024 12 0 0
-5.533 -1.518 -0.98900002 27 0 0
-5.5409999 -1.508 -1 16 2 1
-5.5939999 -1.483 -0.87400001 32 2 0
-5.5450001 -1.559 -0.87 26 0 0
-5.553 -1.563 -0.88700002 27 12 9
-5.5359998 -1.529 -0.86699998 21 0 0
-5.5310001 -1.529 -0.85799998 37 14 8
-5.533 -1.522 -0.86900002 24 5 1
-5.5349998 -1.53 -0.898 86 58 44
-5.5339999 -1.527 -0.89300001 58 28 18
-5.5339999 -1.529 -0.89200002 51 26 19
-5.533 -1.487 -0.82999998 51 34 27
-5.526 -1.4859999 -0.84100002 121 94 77
-5.5209999 -1.489 -0.83700001 71 15 0
-5.5279999 -1.49 -0.83999997 35 2 0
-5.5370002 -1.487 -0.81900001 37 5 0
-5.533 -1.493 -0.81 85 14 0
-5.5370002 -1.4910001 -0.81699997 107 53 9
-5.5110002 -1.483 -0.82300001 38 20 10
-5.6040001 -1.4400001 -0.86299998 255 225 171
-5.5960002 -1.449 -0.866 73 12 0
-5.5180001 -1.516 -0.884 25 0 0
-5.5180001 -1.5140001 -0.90700001 4 0 1
-5.5320001 -1.5039999 -0.84600002 86 45 27
-5.5370002 -1.506 -0.83600003 121 55 7
-5.5040002 -1.5190001 -0.89099997 27 7 0
-5.5240002 -1.51 -0.87199998 78 30 10
-5.5159998 -1.513 -0.98100001 142 123 116
-5.507 -1.5089999 -1 49 21 18
-5.513 -1.5039999 -1.005 17 7 6
-5.5359998 -1.524 -0.82800001 95 59 23
-5.5409999 -1.518 -0.81800002 152 62 2
-5.5409999 -1.569 -0.81400001 42 2 0
-5.6139998 -1.477 -0.94400001 118 58 30
-5.6139998 -1.474 -0.94199997 83 28 8
-5.6170001 -1.475 -0.93900001 74 29 8
-5.6079998 -1.615 -0.81099999 36 0 0
-5.5949998 -1.653 -0.83700001 24 0 0
-5.6009998 -1.6289999 -0.83600003 31 8 0
-5.605 -1.63 -0.847 110 74 48
-5.5430002 -1.582 -0.833 45 5 0
-5.5510001 -1.58 -0.83200002 84 74 75
-5.5510001 -1.5779999 -0.82700002 186 144 119
-5.6469998 -1.635 -0.84799999 42 18 8
-5.6479998 -1.636 -0.84299999 76 48 26
-5.6490002 -1.637 -0.84200001 155 133 122
-5.645 -1.636 -0.83899999 51 23 11
-5.6570001 -1.6390001 -0.85500002 193 125 80
-5.6560001 -1.642 -0.85600001 131 70 26
-5.6469998 -1.638 -0.82999998 180 150 139
-5.6399999 -1.641 -0.81099999 159 89 29
-5.6420002 -1.6390001 -0.81900001 172 101 45
-5.6069999 -1.604 -0.77700001 158 98 46
-5.6199999 -1.6059999 -0.77899998 198 122 47
-5.6630001 -1.642 -0.93199998 42 19 5
-5.6630001 -1.642 -0.93699998 34 10 0
-5.6399999 -1.462 -0.92199999 75 12 0
-5.631 -1.49 -0.88200003 70 33 15
-5.6370001 -1.494 -0.87699997 53 14 7
-5.6300001 -1.46 -0.84399998 94 45 13
-5.6230001 -1.485 -0.97000003 11 2 3
-5.6170001 -1.488 -0.96399999 59 21 8
-5.6269999 -1.454 -0.97799999 8 0 0
-5.6329999 -1.4630001 -0.99900001 22 7 4
-5.6279998 -1.455 -0.99800003 84 69 66
-5.6269999 -1.449 -1.001 81 71 72
-5.6469998 -1.451 -0.85900003 176 126 55
-5.6479998 -1.452 -0.86199999 217 175 103
-5.6360002 -1.446 -0.87699997 81 50 29
-5.6440001 -1.461 -0.87900001 135 112 98
-5.6240001 -1.615 -0.99800003 14 4 3
-5.6199999 -1.4579999 -0.95300001 30 7 1
-5.625 -1.4630001 -0.96200001 80 56 46
-5.6750002 -1.4680001 -0.97000003 14 0 0
-5.6700001 -1.4680001 -0.96700001 127 105 94
-5.6680002 -1.485 -1.044 54 31 15
-5.6750002 -1.489 -1.048 113 84 54
-5.6529999 -1.513 -0.98100001 40 17 0
-5.665 -1.465 -0.96600002 38 16 3
-5.6529999 -1.464 -1.025 54 32 8
-5.6859999 -1.49 -1.021 19 6 0
-5.6440001 -1.614 -1.0140001 101 74 53
-5.6059999 -1.677 -1.036 84 51 36
-5.605 -1.665 -1.034 17 2 0
-5.6440001 -1.6619999 -1.041 83 73 74
-5.6529999 -1.502 -1.001 17 6 4
-5.7950001 -1.724 -0.70099998 149 96 42
-5.6059999 -1.6 -0.787 69 42 23
-5.5960002 -1.64 -0.833 11 5 7
-5.5869999 -1.66 -0.77100003 251 226 169
-5.6269999 -1.642 -0.77100003 254 180 81
-5.652 -1.669 -0.83499998 76 43 24
-5.599 -1.676 -0.75999999 166 125 61
-5.6880002 -1.74 -0.71399999 153 133 124
-5.7340002 -1.755 -0.72799999 150 88 49
-5.7319999 -1.7640001 -0.73000002 24 11 18
-5.6919999 -1.733 -0.73299998 49 17 2
-5.6929998 -1.789 -1.031 21 6 1
-5.6719999 -1.728 -1.011 6 1 0
-5.6750002 -1.728 -1.002 20 0 0
-5.6729999 -1.727 -0.99199998 19 1 0
-5.6690001 -1.727 -1.01 57 11 0
-5.6279998 -1.684 -0.99400002 78 33 0
-5.6350002 -1.6799999 -1.001 64 16 2
-5.625 -1.692 -0.99299997 174 125 84
-5.6529999 -1.673 -1 106 82 70
-5.6389999 -1.687 -1.022 132 113 106
-5.6290002 -1.691 -1.013 113 87 70
-5.6690001 -1.723 -0.98699999 133 107 94
-5.612 -1.673 -1.045 56 36 25
-5.6059999 -1.6720001 -1.033 134 114 115
-5.6100001 -1.6720001 -1.039 28 8 0
-5.7160001 -1.8150001 -1.013 83 50 35
-5.7049999 -1.829 -1.034 45 15 7
-5.6960001 -1.84 -1.0140001 151 84 39
-5.789 -1.73 -0.778 84 29 0
-5.777 -1.738 -0.81400001 109 61 39
-5.7579999 -1.728 -0.82800001 65 9 0
-5.6430001 -1.635 -0.83499998 39 19 10
-5.7129998 -1.73 -0.722 139 92 64
-5.7909999 -1.737 -0.78600001 26 2 0
-5.796 -1.7309999 -0.78500003 66 20 5
-5.79 -1.7079999 -0.72500002 35 17 17
-5.7930002 -1.719 -0.72600001 234 194 158
-5.803 -1.732 -0.72100002 83 44 15
-5.6279998 -1.622 -0.81 44 11 4
-5.6220002 -1.618 -0.81599998 75 57 35
-5.6370001 -1.633 -0.80500001 32 8 0
-5.6370001 -1.631 -0.82099998 66 27 12
-5.6350002 -1.623 -0.80599999 69 33 11
-5.6370001 -1.456 -0.88499999 151 121 93
-5.645 -1.462 -0.89499998 81 49 28
-5.5289998 -1.513 -0.861 80 36 25
-5.5250001 -1.55 -0.80400002 239 203 151
-5.5339999 -1.55 -0.84899998 43 9 0
-5.5219998 -1.52 -0.84399998 78 19 3
-5.5250001 -1.518 -0.83700001 87 47 39
-5.5929999 -1.652 -0.80400002 98 64 39
-5.5970001 -1.647 -0.81099999 22 8 8
-5.4790001 -1.5039999 -0.87400001 218 193 152
-5.4850001 -1.517 -0.86199999 125 75 38
-5.4949999 -1.511 -0.866 60 27 12
-5.4959998 -1.543 -0.86299998 43 0 0
-5.5190001 -1.4960001 -0.84500003 68 24 11
-5.619 -1.4349999 -0.85299999 86 51 23
-5.5500002 -1.558 -0.81199998 93 55 19
-5.5510001 -1.563 -0.81900001 136 94 46
-5.5500002 -1.562 -0.82099998 214 180 108
-5.599 -1.4680001 -0.84799999 100 42 0
-5.6009998 -1.485 -0.85100001 88 57 39
-5.618 -1.474 -0.935 44 10 0
-5.6339998 -1.447 -0.93599999 66 29 2
-5.6350002 -1.451 -0.93900001 51 27 27
-5.7119999 -1.7460001 -0.76700002 86 45 27
-5.7080002 -1.755 -0.773 72 35 17
-5.737 -1.748 -0.74699998 214 122 39
-5.7529998 -1.73 -0.833 66 13 0
-5.7610002 -1.748 -0.829 81 14 0
-5.7680001 -1.747 -0.824 94 32 9
-5.7659998 -1.733 -0.81800002 46 20 5
-5.7550001 -1.751 -0.85600001 111 50 22
-5.7389998 -1.74 -0.861 90 52 33
-5.7490001 -1.739 -0.85900003 80 45 25
-5.7420001 -1.743 -0.86400002 96 50 26
-5.73 -1.762 -0.89600003 52 34 30
-5.7259998 -1.772 -0.90200001 68 48 37
-5.7280002 -1.778 -0.89300001 119 86 71
-5.737 -1.7869999 -0.87599999 80 27 9
-5.7350001 -1.79 -0.87900001 36 21 14
-5.7340002 -1.7920001 -0.88300002 57 21 5
-5.71 -1.738 -0.92400002 95 85 83
-5.7020001 -1.739 -0.94099998 103 86 79
-5.6939998 -1.738 -0.94 57 21 5
-5.684 -1.733 -0.93900001 29 10 6
-5.6810002 -1.723 -0.94 24 3 0
-5.691 -1.7359999 -0.95300001 43 33 32
-5.658 -1.72 -0.94199997 171 125 102
-5.71 -1.7359999 -0.89600003 44 25 11
-5.7210002 -1.74 -0.90100002 33 4 0
-5.691 -1.784 -0.85500002 110 86 62
-5.6869998 -1.798 -0.90600002 50 12 0
-5.6599998 -1.8099999 -0.90200001 96 74 60
-5.6539998 -1.8 -0.89999998 209 151 88
-5.664 -1.809 -0.90100002 192 107 24
-5.6659999 -1.845 -0.991 19 0 0
-5.6659999 -1.844 -0.98400003 170 113 83
-5.7010002 -1.819 -0.98199999 137 98 69
-5.6919999 -1.826 -0.98100001 78 43 23
-5.6789999 -1.8430001 -0.98500001 31 2 0
-5.678 -1.8430001 -0.98799998 90 39 8
-5.7199998 -1.766 -0.84200001 111 63 41
-5.7140002 -1.776 -0.847 38 7 2
-5.717 -1.784 -0.852 92 81 79
-5.717 -1.79 -0.85900003 43 7 0
-5.7010002 -1.7819999 -0.88700002 131 82 49
-5.7670002 -1.7309999 -0.787 30 8 0
-5.7740002 -1.733 -0.79299998 128 89 60
-5.6859999 -1.783 -0.99900001 11 0 0
-5.6869998 -1.784 -0.98799998 58 31 14
-5.6900001 -1.785 -0.98299998 40 0 0
-5.6799998 -1.8380001 -1.039 52 34 24
-5.6830001 -1.841 -1.005 48 25 7
-5.6900001 -1.842 -1.012 64 31 16
-5.71 -1.756 -0.73900002 205 124 59
-5.6919999 -1.755 -0.72500002 100 41 0
-5.6919999 -1.751 -0.72899997 65 20 0
-5.6830001 -1.745 -0.77399999 19 3 3
-5.6960001 -1.74 -0.77399999 108 49 15
-5.6300001 -1.691 -0.81599998 158 107 44
-5.6900001 -1.748 -0.75199997 146 110 74
-5.6500001 -1.677 -0.81599998 213 138 73
-5.652 -1.673 -0.833 181 110 56
-5.6160002 -1.665 -0.80500001 79 54 32
-5.7030001 -1.762 -0.79900002 144 91 37
-5.704 -1.762 -0.80599999 138 79 37
-5.6739998 -1.7539999 -0.81099999 56 45 43
-5.4660001 -1.525 -0.89499998 74 42 17
-5.4990001 -1.564 -0.972 64 36 24
-5.5079999 -1.572 -0.80800003 166 132 95
-5.5489998 -1.586 -0.838 111 64 36
-5.79 -1.716 -0.713 84 57 48
-5.8049998 -1.698 -0.71799999 211 183 169
-5.5250001 -1.4859999 -0.82300001 186 132 96
