ply
format ascii 1.0
comment PCL generated
element vertex 260
property float x
property float y
property float z
property uchar red
property uchar green
property uchar blue
element camera 1
property float view_px
property float view_py
property float view_pz
property float x_axisx
property float x_axisy
property float x_axisz
property float y_axisx
property float y_axisy
property float y_axisz
property float z_axisx
property float z_axisy
property float z_axisz
property float focal
property float scalex
property float scaley
property float centerx
property float centery
property int viewportx
property int viewporty
property float k1
property float k2
end_header
-5.2329998 12.574 -0.67900002 227 130 53
-5.2329998 12.566 -0.66500002 221 134 65
-5.2389998 12.566 -0.66399997 147 101 52
-5.2709999 12.605 -0.77700001 185 154 125
-5.263 12.619 -0.778 86 32 0
-5.27 12.62 -0.78100002 63 33 31
-5.2789998 12.61 -0.77399999 142 111 91
-5.2280002 12.537 -0.69599998 77 59 37
-5.2309999 12.528 -0.68300003 226 177 137
-5.2350001 12.524 -0.68900001 254 202 152
-5.2810001 12.622 -0.77399999 115 68 26
-5.2919998 12.63 -0.76499999 113 40 0
-5.2880001 12.61 -0.76599997 131 86 55
-5.2360001 12.566 -0.676 213 176 108
-5.2249999 12.541 -0.68400002 153 113 78
-5.2280002 12.545 -0.66900003 196 148 100
-5.2179999 12.549 -0.69400001 180 131 90
-5.2280002 12.539 -0.685 230 178 138
-5.2729998 12.616 -0.77700001 204 130 85
-5.3239999 12.66 -0.73900002 120 71 38
-5.3260002 12.671 -0.74400002 110 65 24
-5.3299999 12.65 -0.74199998 192 159 140
-5.3260002 12.664 -0.74400002 100 62 25
-5.2290001 12.576 -0.68400002 79 42 33
-5.2210002 12.57 -0.68699998 93 57 35
-5.2249999 12.565 -0.67299998 198 123 68
-5.2379999 12.572 -0.69300002 211 150 129
-5.3200002 12.671 -0.74800003 105 69 43
-5.3189998 12.66 -0.75400001 120 70 35
-5.2709999 12.628 -0.76899999 124 91 76
-5.257 12.632 -0.76099998 105 72 53
-5.2779999 12.624 -0.76599997 139 84 45
-5.23 12.575 -0.68099999 204 127 71
-5.2249999 12.572 -0.68599999 155 105 70
-5.23 12.567 -0.67299998 137 89 49
-5.2480001 12.527 -0.68900001 181 130 75
-5.2480001 12.535 -0.69800001 255 212 163
-5.25 12.532 -0.69300002 190 146 99
-5.2290001 12.544 -0.67199999 229 147 73
-5.2620001 12.601 -0.76999998 161 107 61
-5.263 12.582 -0.77600002 162 118 93
-5.2649999 12.608 -0.77200001 97 74 60
-5.276 12.61 -0.77499998 106 47 7
-5.2550001 12.627 -0.76300001 183 151 130
-5.2519999 12.619 -0.75999999 85 55 44
-5.2579999 12.576 -0.76499999 123 84 55
-5.2670002 12.579 -0.76800001 92 50 12
-5.2420001 12.537 -0.69400001 177 139 100
-5.2220001 12.555 -0.68099999 149 100 57
-5.2290001 12.561 -0.69 112 65 35
-5.3179998 12.673 -0.74299997 171 117 79
-5.3249998 12.657 -0.74199998 132 71 27
-5.3200002 12.645 -0.75 53 22 17
-5.2610002 12.575 -0.75800002 156 92 80
-5.2529998 12.579 -0.75800002 106 77 71
-5.2680001 12.558 -0.69300002 166 100 78
-5.2540002 12.549 -0.70200002 255 194 137
-5.2680001 12.56 -0.69300002 151 96 55
-5.2680001 12.545 -0.69099998 137 105 84
-5.2750001 12.547 -0.68800002 197 115 33
-5.2600002 12.537 -0.69700003 170 108 47
-5.263 12.533 -0.69400001 167 125 83
-5.2550001 12.526 -0.68300003 176 86 8
-5.316 12.657 -0.727 156 104 65
-5.3140001 12.642 -0.727 147 103 64
-5.309 12.647 -0.72000003 140 94 70
-5.3200002 12.636 -0.74299997 230 153 85
-5.3039999 12.629 -0.755 186 128 82
-5.2639999 12.631 -0.76099998 77 49 45
-5.224 12.552 -0.67299998 162 109 67
-5.2280002 12.555 -0.69199997 217 152 86
-5.2389998 12.528 -0.68199998 209 123 38
-5.2519999 12.529 -0.67199999 159 101 63
-5.2350001 12.528 -0.68400002 218 165 125
-5.25 12.526 -0.685 170 116 78
-5.2659998 12.582 -0.76800001 83 69 32
-5.2680001 12.597 -0.773 156 112 75
-5.2779999 12.6 -0.76999998 102 48 2
-5.2719998 12.599 -0.76099998 46 17 0
-5.276 12.601 -0.755 103 58 19
-5.2690001 12.616 -0.778 101 66 47
-5.257 12.609 -0.76700002 183 110 67
-5.2529998 12.604 -0.74900001 104 72 61
-5.2579999 12.603 -0.75700003 145 111 86
-5.2509999 12.554 -0.76999998 99 35 0
-5.25 12.556 -0.77100003 93 65 43
-5.2519999 12.552 -0.76999998 82 32 0
-5.25 12.552 -0.76999998 176 148 134
-5.237 12.543 -0.70200002 190 127 73
-5.223 12.548 -0.68300003 148 99 67
-5.3049998 12.662 -0.74699998 120 46 9
-5.302 12.639 -0.75800002 139 90 47
-5.2969999 12.628 -0.75400001 140 106 81
-5.257 12.57 -0.73699999 161 82 23
-5.2579999 12.565 -0.73000002 146 66 13
-5.257 12.57 -0.72500002 157 73 3
-5.2340002 12.571 -0.69400001 144 76 15
-5.2379999 12.561 -0.70099998 83 47 13
-5.2470002 12.548 -0.70300001 188 138 87
-5.2399998 12.561 -0.69599998 255 211 149
-5.2919998 12.664 -0.72600001 131 97 70
-5.2880001 12.664 -0.72299999 108 30 0
-5.289 12.661 -0.72000003 154 112 87
-5.302 12.656 -0.72100002 106 35 5
-5.2750001 12.536 -0.68400002 155 113 65
-5.2859998 12.555 -0.68599999 207 131 47
-5.3080001 12.634 -0.736 116 72 47
-5.3010001 12.626 -0.741 121 71 34
-5.2979999 12.629 -0.73400003 204 165 134
-5.3099999 12.632 -0.741 119 75 40
-5.276 12.555 -0.67400002 169 100 43
-5.2810001 12.565 -0.68300003 104 50 6
-5.27 12.556 -0.671 117 77 42
-5.2719998 12.56 -0.676 169 137 112
-5.2589998 12.555 -0.68400002 73 37 23
-5.2789998 12.564 -0.69 160 78 5
-5.256 12.564 -0.722 136 55 2
-5.3000002 12.626 -0.75199997 126 80 47
-5.2870002 12.618 -0.75700003 111 62 29
-5.2880001 12.61 -0.76200002 143 76 31
-5.2820001 12.62 -0.76800001 129 81 43
-5.289 12.629 -0.759 205 151 115
-5.289 12.647 -0.755 136 72 34
-5.276 12.628 -0.76200002 187 125 114
-5.2740002 12.549 -0.67500001 175 111 24
-5.2670002 12.541 -0.67400002 156 112 63
-5.2740002 12.538 -0.67699999 102 59 17
-5.2270002 12.552 -0.671 255 198 115
-5.2610002 12.548 -0.667 136 90 41
-5.256 12.552 -0.66299999 162 120 78
-5.2610002 12.544 -0.66799998 183 131 81
-5.2519999 12.536 -0.66399997 180 77 0
-5.2420001 12.535 -0.66799998 187 137 74
-5.243 12.537 -0.66100001 178 124 78
-5.2639999 12.583 -0.76999998 62 39 21
-5.256 12.608 -0.75700003 121 46 6
-5.2680001 12.604 -0.74699998 145 65 16
-5.2639999 12.603 -0.75 115 56 22
-5.277 12.6 -0.74400002 154 88 76
-5.256 12.621 -0.75300002 79 23 0
-5.2600002 12.624 -0.74800003 66 30 6
-5.2639999 12.613 -0.74800003 112 36 0
-5.2740002 12.618 -0.73900002 101 58 26
-5.2680001 12.623 -0.74400002 93 21 0
-5.23 12.545 -0.69400001 235 182 140
-5.2389998 12.541 -0.69700003 188 131 78
-5.237 12.549 -0.70200002 181 119 70
-5.3140001 12.662 -0.75 139 91 55
-5.2550001 12.563 -0.73799998 119 41 0
-5.2550001 12.531 -0.69 209 162 118
-5.3080001 12.641 -0.72299999 172 111 57
-5.322 12.664 -0.736 105 66 35
-5.3189998 12.666 -0.74000001 155 103 66
-5.3210001 12.661 -0.73299998 143 94 64
-5.2810001 12.56 -0.68300003 118 83 55
-5.276 12.553 -0.67400002 137 83 37
-5.2779999 12.564 -0.68900001 127 97 87
-5.2820001 12.558 -0.68699998 88 54 19
-5.2670002 12.536 -0.67799997 108 73 53
-5.3179998 12.634 -0.74299997 104 56 18
-5.3130002 12.636 -0.74400002 142 79 35
-5.2870002 12.622 -0.74900001 163 120 101
-5.2820001 12.617 -0.741 80 35 14
-5.2849998 12.651 -0.72100002 175 129 95
-5.237 12.557 -0.667 138 95 52
-5.2410002 12.553 -0.66399997 118 57 0
-5.2410002 12.562 -0.66500002 187 114 46
-5.2420001 12.562 -0.66900003 134 82 42
-5.243 12.561 -0.67000002 206 123 31
-5.25 12.555 -0.67000002 199 125 30
-5.2719998 12.561 -0.68400002 162 130 109
-5.2670002 12.559 -0.68900001 147 96 51
-5.223 12.549 -0.69300002 189 146 114
-5.2350001 12.539 -0.67500001 181 148 113
-5.237 12.535 -0.66900003 211 162 119
-5.2610002 12.597 -0.76700002 114 66 30
-5.256 12.613 -0.764 120 70 43
-5.2639999 12.606 -0.74699998 67 26 0
-5.2729998 12.601 -0.75099999 65 29 7
-5.2589998 12.627 -0.75099999 117 64 32
-5.2600002 12.617 -0.75099999 86 22 0
-5.2880001 12.658 -0.72399998 212 141 95
-5.2750001 12.662 -0.745 77 42 22
-5.2800002 12.651 -0.75 93 39 5
-5.2839999 12.668 -0.75199997 62 29 14
-5.2789998 12.657 -0.74599999 92 64 42
-5.2789998 12.609 -0.727 97 52 10
-5.2779999 12.606 -0.72299999 89 58 37
-5.2810001 12.608 -0.72100002 168 109 49
-5.2810001 12.612 -0.74400002 119 84 56
-5.2859998 12.625 -0.73199999 136 94 70
-5.3000002 12.657 -0.75400001 128 64 18
-5.3130002 12.645 -0.75300002 178 116 69
-5.3099999 12.657 -0.727 177 148 130
-5.2969999 12.662 -0.73699999 91 53 30
-5.3189998 12.657 -0.73400003 143 105 84
-5.2329998 12.562 -0.69800001 133 107 90
-5.2509999 12.55 -0.699 91 61 37
-5.2519999 12.534 -0.69400001 163 125 86
-5.2519999 12.55 -0.69700003 254 216 133
-5.257 12.529 -0.68400002 255 214 153
-5.2410002 12.534 -0.67299998 212 158 114
-5.2529998 12.553 -0.68699998 110 57 25
-5.2639999 12.547 -0.67000002 186 88 1
-5.2940001 12.639 -0.72100002 148 98 61
-5.2930002 12.632 -0.72299999 173 102 58
-5.283 12.606 -0.759 107 65 41
-5.289 12.618 -0.75400001 129 84 51
-5.3239999 12.654 -0.73900002 107 58 25
-5.2859998 12.625 -0.73900002 155 96 40
-5.2849998 12.638 -0.71799999 154 109 86
-5.2779999 12.646 -0.75099999 84 26 6
-5.2729998 12.643 -0.75400001 120 110 75
-5.2649999 12.63 -0.75400001 75 13 0
-5.2670002 12.599 -0.76300001 118 69 37
-5.2659998 12.604 -0.74800003 179 146 131
-5.289 12.662 -0.73299998 191 106 51
-5.2779999 12.607 -0.745 166 121 90
-5.2670002 12.632 -0.745 90 25 3
-5.2810001 12.648 -0.73199999 139 92 64
-5.3060002 12.658 -0.755 146 83 50
-5.3000002 12.644 -0.75300002 194 128 78
-5.3060002 12.661 -0.73900002 95 27 0
-5.2909999 12.654 -0.72299999 148 65 11
-5.2620001 12.543 -0.69400001 255 222 185
-5.2509999 12.551 -0.69499999 208 154 110
-5.243 12.556 -0.69400001 210 166 117
-5.2420001 12.534 -0.671 203 134 57
-5.2600002 12.532 -0.67199999 107 51 0
-5.2399998 12.56 -0.68300003 67 33 21
-5.2459998 12.554 -0.69199997 177 115 92
-5.3189998 12.648 -0.736 143 107 73
-5.3150001 12.639 -0.745 149 116 85
-5.2859998 12.629 -0.73299998 116 79 52
-5.2820001 12.634 -0.73500001 132 87 58
-5.2740002 12.628 -0.73699999 97 47 12
-5.2719998 12.631 -0.76099998 120 37 0
-5.2220001 12.551 -0.68199998 246 176 104
-5.2579999 12.621 -0.76700002 180 117 84
-5.2639999 12.601 -0.75700003 119 41 0
-5.2820001 12.611 -0.75400001 160 103 50
-5.2859998 12.666 -0.741 151 86 46
-5.2919998 12.658 -0.75099999 124 42 2
-5.2729998 12.643 -0.74299997 71 30 8
-5.3000002 12.636 -0.73100001 178 133 110
-5.2950001 12.645 -0.72299999 180 95 38
-5.276 12.545 -0.68300003 174 120 76
-5.2449999 12.543 -0.66399997 170 72 0
-5.2639999 12.629 -0.75300002 111 78 61
-5.283 12.66 -0.73199999 135 62 29
-5.2870002 12.662 -0.74900001 110 77 70
-5.2969999 12.659 -0.74800003 126 67 27
-5.2690001 12.627 -0.741 149 110 71
-5.2750001 12.648 -0.74299997 151 78 27
-5.2810001 12.646 -0.73500001 82 41 13
-5.309 12.654 -0.75300002 150 98 61
-5.296 12.636 -0.72600001 170 126 87
-5.2470002 12.548 -0.66399997 100 40 0
-5.2800002 12.662 -0.74599999 131 100 82
-5.2969999 12.659 -0.75 106 53 19
0 0 0 1 0 0 0 1 0 0 0 1 0 0 0 0 0 260 1 0 0
