ply
format ascii 1.0
comment PCL generated
element vertex 817
property float x
property float y
property float z
property uchar red
property uchar green
property uchar blue
element camera 1
property float view_px
property float view_py
property float view_pz
property float x_axisx
property float x_axisy
property float x_axisz
property float y_axisx
property float y_axisy
property float y_axisz
property float z_axisx
property float z_axisy
property float z_axisz
property float focal
property float scalex
property float scaley
property float centerx
property float centery
property int viewportx
property int viewporty
property float k1
property float k2
end_header
6.9619999 -3.3139999 -0.83200002 140 109 52
6.9640002 -3.3199999 -0.833 130 105 39
6.961 -3.3139999 -0.83099997 230 199 142
6.9650002 -3.316 -0.83600003 162 132 72
6.9580002 -3.3239999 -0.83600003 221 183 118
6.7880001 -3.3629999 -0.87900001 56 33 17
6.7950001 -3.372 -0.87800002 160 124 88
6.7810001 -3.362 -0.87400001 117 100 90
6.8130002 -3.3770001 -0.89200002 89 58 30
6.796 -3.368 -0.88099998 201 157 118
6.789 -3.358 -0.88099998 96 51 56
6.7839999 -3.3570001 -0.87400001 162 124 87
6.79 -3.3529999 -0.86299998 137 117 106
6.7909999 -3.342 -0.86000001 155 116 77
6.9390001 -3.2950001 -0.92299998 200 125 58
6.9320002 -3.2909999 -0.91600001 206 136 74
6.9380002 -3.2850001 -0.91500002 119 77 52
6.7989998 -3.3599999 -0.88700002 137 60 14
6.8119998 -3.2980001 -0.90799999 126 53 10
6.8140001 -3.3010001 -0.91900003 163 106 53
6.8060002 -3.2969999 -0.90600002 166 116 81
6.8099999 -3.2939999 -0.90499997 154 120 85
6.9439998 -3.28 -0.91399997 202 132 60
6.9439998 -3.2869999 -0.912 177 136 114
6.9429998 -3.302 -0.91900003 226 163 158
6.8509998 -3.365 -0.87099999 134 100 65
6.8410001 -3.3670001 -0.866 177 131 69
6.8540001 -3.365 -0.86900002 226 200 79
6.9070001 -3.273 -0.81999999 92 47 18
6.9109998 -3.2839999 -0.80199999 136 58 10
6.9159999 -3.273 -0.82300001 139 77 26
6.9180002 -3.2850001 -0.81800002 146 89 44
6.8940001 -3.2479999 -0.91500002 140 120 109
6.8899999 -3.243 -0.91299999 125 62 21
6.882 -3.25 -0.92699999 148 121 110
6.9060001 -3.253 -0.91000003 181 139 115
6.9050002 -3.25 -0.90700001 77 31 0
6.9089999 -3.257 -0.90799999 125 107 97
6.9039998 -3.257 -0.91000003 67 38 20
6.7909999 -3.368 -0.87300003 134 77 24
6.8119998 -3.309 -0.91500002 166 116 79
6.8179998 -3.303 -0.92400002 86 87 91
6.8189998 -3.313 -0.917 143 82 37
6.8039999 -3.349 -0.88700002 124 55 16
6.7979999 -3.355 -0.88 119 53 19
6.8400002 -3.358 -0.93000001 52 21 0
6.848 -3.358 -0.93000001 75 41 6
6.8530002 -3.372 -0.93000001 91 48 5
6.8010001 -3.369 -0.884 124 73 30
6.9330001 -3.312 -0.917 80 45 17
6.9460001 -3.2909999 -0.90600002 170 137 118
6.9419999 -3.296 -0.91299999 112 58 22
6.9380002 -3.303 -0.91100001 98 42 15
6.9390001 -3.3 -0.91000003 227 178 122
6.8179998 -3.3039999 -0.90799999 137 101 67
6.8109999 -3.3039999 -0.90200001 96 63 28
6.8210001 -3.303 -0.91500002 157 100 55
6.9640002 -3.312 -0.83600003 116 84 33
6.9460001 -3.313 -0.89700001 182 152 126
6.941 -3.302 -0.898 153 91 30
6.954 -3.306 -0.88499999 144 101 58
6.954 -3.3069999 -0.88300002 170 119 66
6.9460001 -3.3110001 -0.889 126 74 27
6.9439998 -3.286 -0.90100002 190 119 55
6.941 -3.289 -0.90499997 201 159 111
6.948 -3.2839999 -0.90700001 119 78 50
6.941 -3.3 -0.89300001 182 121 66
6.8330002 -3.3710001 -0.90200001 70 30 4
6.8210001 -3.3759999 -0.89399999 42 15 0
6.8449998 -3.375 -0.89499998 238 186 138
6.8460002 -3.365 -0.86199999 49 14 0
6.8639998 -3.3759999 -0.861 135 94 28
6.902 -3.286 -0.77499998 156 126 76
6.9050002 -3.2839999 -0.78100002 152 123 81
6.901 -3.2820001 -0.76899999 91 61 9
6.9029999 -3.2839999 -0.778 145 117 70
6.9520001 -3.306 -0.824 251 216 152
6.8990002 -3.2820001 -0.77100003 144 111 60
6.8930001 -3.28 -0.76899999 133 97 45
6.901 -3.2820001 -0.78299999 223 181 105
6.875 -3.2550001 -0.86900002 148 91 36
6.881 -3.2579999 -0.87300003 124 80 41
6.8740001 -3.2579999 -0.86400002 146 83 29
6.8860002 -3.2409999 -0.90899998 120 73 29
6.8790002 -3.244 -0.91600001 229 151 87
6.881 -3.2420001 -0.90899998 147 100 54
6.809 -3.3050001 -0.91399997 56 27 11
6.8060002 -3.3080001 -0.91299999 122 122 120
6.8200002 -3.323 -0.91399997 101 66 28
6.8179998 -3.3150001 -0.91000003 127 113 112
6.8150001 -3.3340001 -0.90600002 97 82 53
6.8179998 -3.3150001 -0.90899998 115 81 56
6.7930002 -3.3610001 -0.86699998 236 194 146
6.7909999 -3.362 -0.88 133 50 0
6.8740001 -3.253 -0.87199998 125 65 15
6.8610001 -3.2449999 -0.866 185 117 72
6.8509998 -3.247 -0.87900001 68 22 0
6.8439999 -3.244 -0.89499998 158 115 81
6.848 -3.2390001 -0.89600003 166 99 57
6.8520002 -3.2460001 -0.88200003 186 105 50
6.849 -3.2479999 -0.88599998 93 21 0
6.8410001 -3.3369999 -0.91500002 153 95 55
6.8460002 -3.345 -0.90600002 136 62 13
6.855 -3.3540001 -0.912 86 18 0
6.8520002 -3.355 -0.91799998 145 92 52
6.8429999 -3.3540001 -0.92799997 130 82 33
6.8470001 -3.3529999 -0.926 123 101 88
6.9320002 -3.312 -0.89700001 82 39 7
6.9310002 -3.3110001 -0.91399997 113 64 31
6.8330002 -3.3429999 -0.87 230 146 73
6.8460002 -3.3269999 -0.87 108 85 67
6.8449998 -3.3239999 -0.88 186 118 109
6.8280001 -3.309 -0.90899998 176 116 66
6.8540001 -3.3529999 -0.926 188 114 41
6.8610001 -3.359 -0.912 88 61 44
6.8670001 -3.3510001 -0.898 138 65 30
6.855 -3.3599999 -0.92000002 187 110 42
6.8410001 -3.2650001 -0.89499998 91 22 0
6.8449998 -3.2490001 -0.89899999 140 90 57
6.842 -3.2720001 -0.89999998 182 112 110
6.842 -3.2720001 -0.875 188 118 108
6.8460002 -3.276 -0.88200003 128 89 82
6.9289999 -3.3139999 -0.88599998 197 145 88
6.9400001 -3.299 -0.90399998 212 134 68
6.8590002 -3.3710001 -0.92299998 190 126 126
6.9530001 -3.3180001 -0.866 98 56 32
6.9549999 -3.2920001 -0.86699998 85 57 33
6.9450002 -3.2920001 -0.87300003 132 79 27
6.947 -3.283 -0.861 210 173 147
6.9590001 -3.293 -0.84600002 144 77 25
6.9419999 -3.286 -0.86500001 157 98 38
6.9390001 -3.2839999 -0.86400002 189 139 104
6.9289999 -3.2869999 -0.884 151 126 104
6.8509998 -3.3599999 -0.90700001 157 115 67
6.8660002 -3.3699999 -0.89300001 238 179 109
6.8429999 -3.352 -0.833 40 16 0
6.8390002 -3.358 -0.83700001 84 67 47
6.8499999 -3.3559999 -0.83399999 105 76 36
6.842 -3.355 -0.83499998 40 16 0
6.9289999 -3.277 -0.86000001 182 123 83
6.9250002 -3.2880001 -0.80599999 123 84 55
6.9349999 -3.2839999 -0.82099998 136 84 44
6.8969998 -3.2780001 -0.801 128 81 27
6.8990002 -3.2820001 -0.78100002 233 187 110
6.9229999 -3.28 -0.84799999 113 93 94
6.901 -3.2820001 -0.83899999 211 145 67
6.9000001 -3.2809999 -0.852 215 140 75
6.9070001 -3.273 -0.82599998 117 101 102
6.927 -3.28 -0.83700001 91 38 20
6.862 -3.24 -0.88200003 161 103 57
6.8590002 -3.2460001 -0.87599999 70 32 11
6.848 -3.2479999 -0.90100002 175 90 36
6.8940001 -3.2479999 -0.91100001 159 98 54
6.8060002 -3.306 -0.90600002 67 33 8
6.8429999 -3.325 -0.83700001 237 189 115
6.8460002 -3.3310001 -0.83600003 217 194 39
6.8509998 -3.3329999 -0.83499998 215 197 59
6.8379998 -3.336 -0.83200002 236 187 120
6.8449998 -3.339 -0.833 231 184 116
6.8429999 -3.26 -0.87599999 156 100 63
6.835 -3.2539999 -0.86799997 235 186 154
6.8410001 -3.256 -0.87900001 199 146 114
6.8839998 -3.26 -0.88999999 110 73 44
6.902 -3.273 -0.88 75 40 20
6.895 -3.257 -0.89600003 183 129 85
6.8039999 -3.3740001 -0.87900001 44 16 0
6.855 -3.3740001 -0.92299998 80 35 0
6.848 -3.3710001 -0.921 132 126 114
6.8119998 -3.368 -0.88999999 169 119 68
6.8239999 -3.3429999 -0.90600002 166 106 105
6.8270001 -3.329 -0.926 97 64 31
6.823 -3.359 -0.89899999 137 69 30
6.8309999 -3.3610001 -0.90600002 101 44 14
6.8340001 -3.3399999 -0.86299998 219 146 77
6.869 -3.3559999 -0.89700001 115 47 12
6.8629999 -3.355 -0.89099997 106 37 6
6.9260001 -3.312 -0.90799999 123 49 4
6.8309999 -3.369 -0.89600003 154 95 89
6.8330002 -3.336 -0.92500001 174 119 65
6.8260002 -3.3280001 -0.92400002 65 43 29
6.8319998 -3.336 -0.91600001 124 69 15
6.816 -3.3399999 -0.89899999 133 88 57
6.8200002 -3.3380001 -0.88599998 128 79 47
6.8189998 -3.329 -0.89099997 115 65 30
6.8169999 -3.355 -0.89099997 127 87 51
6.8210001 -3.3329999 -0.889 136 81 40
6.8270001 -3.3440001 -0.86400002 208 128 57
6.8239999 -3.346 -0.87199998 123 75 35
6.8000002 -3.362 -0.86299998 147 104 61
6.836 -3.3329999 -0.84100002 147 133 106
6.823 -3.342 -0.84200001 81 50 21
6.835 -3.339 -0.83399999 148 90 42
6.8309999 -3.3369999 -0.847 250 180 85
6.8429999 -3.323 -0.84399998 237 185 109
6.8400002 -3.332 -0.847 206 131 63
6.9510002 -3.3 -0.83200002 190 168 118
6.9520001 -3.2950001 -0.84100002 144 111 68
6.9450002 -3.2839999 -0.83399999 176 136 75
6.9489999 -3.3150001 -0.87099999 177 123 63
6.9429998 -3.319 -0.85900003 86 41 18
6.9380002 -3.3169999 -0.861 89 46 14
6.954 -3.306 -0.88 185 126 68
6.9510002 -3.2909999 -0.86000001 155 108 66
6.9419999 -3.2920001 -0.90100002 247 178 87
6.9510002 -3.303 -0.88200003 148 96 48
6.8660002 -3.3699999 -0.85100001 139 93 41
6.8540001 -3.3610001 -0.852 183 148 82
6.8439999 -3.369 -0.884 141 105 43
6.8509998 -3.3800001 -0.88999999 79 38 6
6.848 -3.3729999 -0.889 83 23 0
6.848 -3.382 -0.89200002 166 122 83
6.8340001 -3.368 -0.87099999 151 121 87
6.855 -3.3759999 -0.89200002 93 79 79
6.842 -3.359 -0.85399997 135 84 29
6.8439999 -3.358 -0.85100001 227 210 141
6.79 -3.3529999 -0.86799997 117 83 55
6.8330002 -3.359 -0.85600001 129 105 93
6.835 -3.3610001 -0.86199999 52 19 2
6.9369998 -3.2820001 -0.83700001 243 198 157
6.9429998 -3.2909999 -0.83099997 187 129 89
6.9369998 -3.296 -0.82800001 162 134 113
6.9330001 -3.296 -0.82499999 227 168 88
6.9510002 -3.303 -0.824 219 188 133
6.9439998 -3.3050001 -0.82599998 57 33 21
6.928 -3.29 -0.81800002 125 93 72
6.8889999 -3.279 -0.77399999 143 104 27
6.8769999 -3.2690001 -0.85299999 114 69 27
6.8730001 -3.2679999 -0.85100001 139 89 52
6.8839998 -3.277 -0.84600002 78 58 59
6.9219999 -3.2780001 -0.86199999 105 63 21
6.9159999 -3.2739999 -0.87 185 114 60
6.8990002 -3.2750001 -0.866 156 111 70
6.9200001 -3.2780001 -0.86799997 86 50 28
6.9159999 -3.29 -0.88099998 59 35 35
6.9239998 -3.29 -0.88499999 164 117 87
6.8920002 -3.2809999 -0.84600002 101 58 26
6.8850002 -3.2449999 -0.89899999 62 34 12
6.8449998 -3.2479999 -0.89099997 153 106 64
6.809 -3.3080001 -0.91100001 143 88 34
6.796 -3.3499999 -0.87199998 92 53 20
6.8379998 -3.253 -0.86900002 161 102 62
6.8449998 -3.2550001 -0.88499999 93 40 9
6.8449998 -3.257 -0.88599998 45 17 3
6.8460002 -3.27 -0.88499999 158 114 67
6.8379998 -3.267 -0.86000001 142 79 36
6.842 -3.273 -0.86299998 137 89 40
6.8410001 -3.266 -0.86799997 195 139 102
6.8870001 -3.2539999 -0.926 139 115 103
6.882 -3.263 -0.92900002 203 115 43
6.8579998 -3.2720001 -0.92699999 169 144 137
6.855 -3.27 -0.926 167 102 100
6.8569999 -3.277 -0.917 180 101 24
6.8569999 -3.2690001 -0.93199998 66 34 9
6.8540001 -3.2679999 -0.91299999 162 94 93
6.8499999 -3.277 -0.89700001 212 129 63
6.8769999 -3.26 -0.92299998 153 87 37
6.908 -3.2650001 -0.90399998 181 108 57
6.9130001 -3.2679999 -0.90399998 175 135 109
6.9239998 -3.289 -0.912 182 131 78
6.8569999 -3.346 -0.884 182 118 44
6.8559999 -3.342 -0.87599999 152 90 33
6.8509998 -3.3329999 -0.88700002 196 119 51
6.8709998 -3.3399999 -0.87199998 99 33 1
6.8520002 -3.332 -0.89099997 117 86 58
6.8520002 -3.3399999 -0.89499998 116 66 31
6.8449998 -3.3269999 -0.86000001 224 166 103
6.829 -3.339 -0.85799998 170 109 62
6.848 -3.3110001 -0.86900002 189 111 39
6.868 -3.3050001 -0.84600002 120 80 45
6.8759999 -3.3180001 -0.85100001 233 148 84
6.8759999 -3.306 -0.84100002 160 76 16
6.803 -3.372 -0.87300003 101 39 2
6.7969999 -3.3640001 -0.87 72 51 32
6.803 -3.3629999 -0.86699998 217 152 88
6.8119998 -3.368 -0.87699997 65 27 6
6.8449998 -3.359 -0.91500002 60 28 3
6.842 -3.3529999 -0.91900003 115 63 16
6.8540001 -3.375 -0.91500002 180 114 66
6.8649998 -3.372 -0.89200002 197 132 50
6.8140001 -3.359 -0.89099997 79 59 48
6.9229999 -3.3099999 -0.90200001 71 37 10
6.8319998 -3.346 -0.90700001 89 50 7
6.8979998 -3.3310001 -0.87699997 107 48 8
6.888 -3.325 -0.88200003 73 18 0
6.9000001 -3.322 -0.88999999 71 16 0
6.855 -3.319 -0.88800001 144 87 32
6.829 -3.3139999 -0.91000003 250 194 145
6.8319998 -3.316 -0.912 162 125 81
6.8270001 -3.316 -0.90399998 117 88 72
6.8509998 -3.323 -0.89200002 211 163 114
6.8509998 -3.319 -0.88599998 144 102 64
6.8330002 -3.313 -0.91500002 226 170 119
6.8559999 -3.325 -0.89600003 166 108 44
6.8540001 -3.3180001 -0.88999999 148 94 32
6.8429999 -3.372 -0.89099997 199 150 107
6.836 -3.339 -0.91900003 159 99 99
6.8410001 -3.3499999 -0.91399997 39 24 19
6.8379998 -3.319 -0.92000002 105 44 15
6.8410001 -3.3169999 -0.91500002 128 69 39
6.7950001 -3.362 -0.86799997 156 112 65
6.7989998 -3.3529999 -0.85900003 227 175 118
6.7979999 -3.3399999 -0.861 162 120 80
6.809 -3.352 -0.86000001 71 36 14
6.796 -3.3540001 -0.86199999 162 110 52
6.8499999 -3.3080001 -0.88700002 224 172 99
6.8499999 -3.3069999 -0.87900001 141 98 55
6.8449998 -3.2839999 -0.87699997 198 147 102
6.7919998 -3.3440001 -0.866 96 81 40
6.8010001 -3.3440001 -0.87199998 140 98 58
6.8319998 -3.3369999 -0.84399998 201 133 52
6.954 -3.329 -0.833 161 128 95
6.948 -3.309 -0.82300001 143 89 43
6.9439998 -3.3210001 -0.84600002 253 204 128
6.9400001 -3.296 -0.88300002 170 111 55
6.9489999 -3.3 -0.87900001 128 77 24
6.9380002 -3.2950001 -0.88599998 152 89 36
6.9380002 -3.2950001 -0.884 163 98 40
6.9559999 -3.303 -0.87300003 85 42 7
6.9460001 -3.289 -0.866 187 146 118
6.9359999 -3.296 -0.89700001 185 138 96
6.9260001 -3.299 -0.90100002 220 140 81
6.8410001 -3.358 -0.84399998 149 86 81
6.829 -3.339 -0.84600002 158 97 50
6.869 -3.3280001 -0.85000002 138 57 0
6.8579998 -3.3299999 -0.83700001 113 49 5
6.8639998 -3.3380001 -0.838 113 34 0
6.8559999 -3.3529999 -0.90700001 92 22 0
6.8569999 -3.3529999 -0.90100002 109 36 4
6.8540001 -3.358 -0.84299999 189 146 54
6.855 -3.3469999 -0.83600003 100 67 0
6.855 -3.3429999 -0.83499998 196 166 70
6.8569999 -3.3469999 -0.83899999 137 100 22
6.8369999 -3.3670001 -0.88499999 159 110 69
6.8319998 -3.3659999 -0.87400001 161 99 42
6.8200002 -3.368 -0.87300003 170 120 59
6.8239999 -3.3629999 -0.86400002 216 152 80
6.8249998 -3.3659999 -0.87699997 93 45 7
6.8119998 -3.3659999 -0.87300003 40 7 0
6.9429998 -3.283 -0.83700001 159 110 52
6.9310002 -3.2869999 -0.87099999 180 110 40
6.8499999 -3.3269999 -0.838 211 161 90
6.9070001 -3.289 -0.787 125 100 60
6.9050002 -3.2839999 -0.78799999 94 62 13
6.9060001 -3.286 -0.78200001 162 133 89
6.9330001 -3.3010001 -0.82700002 247 191 116
6.9219999 -3.306 -0.81400001 145 102 47
6.835 -3.27 -0.85299999 122 60 21
6.8330002 -3.26 -0.85699999 113 87 72
6.8969998 -3.332 -0.85600001 57 23 0
6.9029999 -3.329 -0.85699999 211 149 66
6.9120002 -3.332 -0.84399998 51 15 1
6.9260001 -3.3080001 -0.801 124 91 60
6.921 -3.3080001 -0.81199998 159 123 63
6.9250002 -3.296 -0.81900001 131 90 46
6.901 -3.279 -0.86299998 150 107 73
6.8899999 -3.279 -0.85900003 175 106 47
6.8909998 -3.2809999 -0.838 45 12 0
6.895 -3.283 -0.815 35 0 0
6.9060001 -3.2850001 -0.84200001 181 111 42
6.9120002 -3.2850001 -0.85100001 183 110 42
6.908 -3.2850001 -0.83499998 123 82 52
6.9109998 -3.2820001 -0.861 118 74 25
6.8579998 -3.2420001 -0.90100002 131 53 4
6.855 -3.247 -0.90700001 165 82 28
6.8530002 -3.256 -0.91000003 140 82 45
6.8509998 -3.2509999 -0.90399998 129 70 30
6.8509998 -3.247 -0.88300002 66 3 0
6.8439999 -3.247 -0.89399999 159 106 72
6.8670001 -3.247 -0.87599999 205 148 105
6.8670001 -3.2490001 -0.88099998 186 128 82
6.855 -3.244 -0.88499999 121 96 92
6.881 -3.2679999 -0.88599998 149 107 65
6.8979998 -3.257 -0.917 80 29 0
6.8870001 -3.2690001 -0.92699999 171 150 133
6.9260001 -3.3110001 -0.90899998 67 36 8
6.9190001 -3.3099999 -0.90200001 120 39 0
6.9089999 -3.3210001 -0.89300001 169 120 77
6.9109998 -3.3210001 -0.89399999 215 168 124
6.9060001 -3.316 -0.89700001 136 57 14
6.8520002 -3.2609999 -0.91100001 77 42 22
6.8470001 -3.267 -0.903 50 19 0
6.8600001 -3.26 -0.917 136 70 35
6.8709998 -3.2550001 -0.91799998 216 142 93
6.8559999 -3.253 -0.91000003 143 76 34
6.8639998 -3.2609999 -0.92199999 152 86 36
6.8569999 -3.26 -0.92299998 160 131 113
6.8829999 -3.2590001 -0.89200002 112 67 34
6.8740001 -3.253 -0.889 157 117 81
6.8600001 -3.3499999 -0.89099997 116 47 16
6.8540001 -3.3039999 -0.875 167 87 14
6.8759999 -3.303 -0.87 168 124 95
6.8579998 -3.2909999 -0.875 92 43 10
6.8720002 -3.2950001 -0.86799997 151 66 12
6.8410001 -3.3099999 -0.84799999 172 119 41
6.8460002 -3.3199999 -0.85799998 229 170 110
6.868 -3.306 -0.866 201 136 82
6.8369999 -3.3570001 -0.90799999 109 49 13
6.8260002 -3.3440001 -0.87800002 148 79 24
6.822 -3.336 -0.88800001 185 147 108
6.8330002 -3.335 -0.89399999 140 99 55
6.8390002 -3.332 -0.903 161 94 51
6.8260002 -3.3310001 -0.89999998 72 57 54
6.8260002 -3.3629999 -0.85699999 149 89 37
6.8319998 -3.358 -0.847 124 90 42
6.8649998 -3.3310001 -0.866 108 70 25
6.849 -3.332 -0.87699997 128 83 24
6.8499999 -3.3239999 -0.87900001 179 101 29
6.8860002 -3.325 -0.87699997 144 81 40
6.8559999 -3.3169999 -0.884 164 84 11
6.8530002 -3.3099999 -0.889 173 125 77
6.8189998 -3.329 -0.89999998 116 75 53
6.8299999 -3.3199999 -0.90799999 94 25 0
6.849 -3.3010001 -0.88700002 212 157 74
6.8509998 -3.2920001 -0.88999999 160 102 38
6.8499999 -3.299 -0.89499998 167 121 71
6.8499999 -3.3050001 -0.88200003 200 148 90
6.8379998 -3.2950001 -0.86799997 115 55 18
6.8509998 -3.2950001 -0.87900001 132 68 33
6.836 -3.3139999 -0.91500002 82 16 0
6.8449998 -3.3310001 -0.90700001 150 76 27
6.8509998 -3.3099999 -0.89099997 224 172 89
6.8509998 -3.296 -0.89899999 165 113 56
6.8709998 -3.345 -0.875 114 83 54
6.8740001 -3.3469999 -0.86900002 159 98 35
6.8959999 -3.3399999 -0.87 91 35 2
6.8769999 -3.355 -0.86699998 190 143 71
6.829 -3.3169999 -0.92500001 143 89 42
6.8179998 -3.369 -0.89600003 138 89 85
6.8099999 -3.362 -0.88800001 101 85 72
6.7979999 -3.3570001 -0.86199999 231 180 127
6.8070002 -3.355 -0.861 101 67 32
6.8390002 -3.3039999 -0.86500001 185 118 109
6.8140001 -3.3429999 -0.87599999 185 144 98
6.7950001 -3.342 -0.861 201 162 123
6.8109999 -3.339 -0.87099999 77 40 14
6.809 -3.349 -0.86500001 98 76 65
6.8390002 -3.302 -0.85900003 178 133 74
6.8390002 -3.3050001 -0.852 175 108 99
6.8179998 -3.3429999 -0.87800002 94 50 23
6.849 -3.3150001 -0.84200001 201 148 72
6.855 -3.299 -0.84799999 137 104 61
6.8340001 -3.3369999 -0.84100002 79 47 0
6.9200001 -3.3080001 -0.80699998 141 107 62
6.9159999 -3.316 -0.81699997 134 103 72
6.9520001 -3.323 -0.83700001 186 150 114
6.927 -3.313 -0.87 179 113 37
6.9190001 -3.3310001 -0.86199999 124 63 0
6.9229999 -3.316 -0.88 128 97 76
6.9229999 -3.3139999 -0.88800001 153 110 67
6.934 -3.2920001 -0.88099998 149 91 43
6.941 -3.3 -0.89099997 141 80 26
6.948 -3.2980001 -0.87599999 167 109 46
6.9559999 -3.2969999 -0.86900002 119 89 63
6.9520001 -3.2980001 -0.86199999 157 136 119
6.9380002 -3.296 -0.88999999 158 97 43
6.927 -3.2950001 -0.88999999 115 38 0
6.842 -3.358 -0.84299999 152 120 61
6.8509998 -3.359 -0.85000002 168 152 103
6.849 -3.342 -0.83399999 251 216 114
6.849 -3.3499999 -0.83200002 89 60 0
6.8520002 -3.348 -0.833 94 65 0
6.8540001 -3.346 -0.83499998 165 139 54
6.8979998 -3.336 -0.86500001 198 140 58
6.9029999 -3.332 -0.86900002 97 57 32
6.868 -3.369 -0.86400002 180 131 54
6.8670001 -3.365 -0.88599998 186 133 67
6.8629999 -3.369 -0.85900003 119 90 60
6.8800001 -3.3629999 -0.85900003 254 240 193
6.8730001 -3.362 -0.85399997 141 91 6
6.8070002 -3.349 -0.86199999 158 110 61
6.8340001 -3.369 -0.88999999 106 68 29
6.9390001 -3.2820001 -0.85399997 211 146 80
6.941 -3.283 -0.85500002 166 103 34
6.9450002 -3.2839999 -0.83600003 173 132 76
6.941 -3.283 -0.83700001 150 91 31
6.928 -3.2839999 -0.84500003 185 113 73
6.9330001 -3.2880001 -0.87199998 191 119 47
6.9330001 -3.2909999 -0.87699997 184 118 58
6.9260001 -3.2880001 -0.875 163 127 103
6.948 -3.289 -0.83999997 125 88 44
6.9180002 -3.283 -0.83099997 172 102 40
6.9130001 -3.286 -0.83700001 202 128 57
6.8959999 -3.2880001 -0.77200001 113 81 30
6.8460002 -3.3510001 -0.83200002 100 74 15
6.848 -3.3499999 -0.83200002 105 76 16
6.8899999 -3.286 -0.77899998 143 97 64
6.8860002 -3.296 -0.78399998 113 78 48
6.8909998 -3.2820001 -0.77499998 152 112 40
6.8839998 -3.3010001 -0.80900002 130 55 13
6.8839998 -3.306 -0.81599998 111 85 48
6.8850002 -3.29 -0.80900002 111 76 44
6.8930001 -3.2869999 -0.81099999 54 7 0
6.8889999 -3.2909999 -0.81800002 100 64 28
6.882 -3.286 -0.84100002 86 25 0
6.8709998 -3.2880001 -0.84500003 149 107 69
6.9029999 -3.283 -0.78399998 254 220 159
6.9390001 -3.322 -0.83399999 142 100 60
6.9250002 -3.3299999 -0.84299999 84 56 35
6.8979998 -3.2809999 -0.78600001 208 173 145
6.8899999 -3.283 -0.78600001 171 138 107
6.8829999 -3.2850001 -0.79299998 205 136 95
6.888 -3.283 -0.78500003 178 134 39
6.8330002 -3.2579999 -0.861 171 110 81
6.888 -3.2809999 -0.78100002 236 196 108
6.9330001 -3.325 -0.85500002 81 43 22
6.921 -3.3050001 -0.80800003 137 102 46
6.9190001 -3.2839999 -0.84200001 73 17 0
6.869 -3.302 -0.84600002 71 34 5
6.8670001 -3.247 -0.89700001 159 104 65
6.8520002 -3.2449999 -0.903 130 61 19
6.8530002 -3.2509999 -0.90600002 118 33 0
6.8109999 -3.3610001 -0.86500001 87 41 8
6.8200002 -3.3610001 -0.86199999 114 47 2
6.8740001 -3.253 -0.87900001 138 76 27
6.8889999 -3.27 -0.86900002 98 50 12
6.881 -3.28 -0.88300002 122 73 33
6.8769999 -3.273 -0.89399999 153 95 45
6.8870001 -3.2720001 -0.89600003 112 47 9
6.8730001 -3.276 -0.89600003 171 114 61
6.8699999 -3.28 -0.89399999 173 106 51
6.8610001 -3.2509999 -0.90600002 158 135 121
6.875 -3.253 -0.91799998 228 151 95
6.9310002 -3.303 -0.91799998 175 111 109
6.9260001 -3.2939999 -0.91399997 88 41 11
6.8940001 -3.3139999 -0.89300001 181 110 104
6.8759999 -3.2690001 -0.91600001 220 145 78
6.8670001 -3.273 -0.91299999 177 153 141
6.8699999 -3.2690001 -0.917 156 85 43
6.9050002 -3.2720001 -0.903 93 42 11
6.895 -3.26 -0.91500002 158 138 127
6.928 -3.3 -0.90899998 209 163 114
6.9219999 -3.303 -0.90100002 65 31 4
6.914 -3.3199999 -0.89300001 138 86 36
6.914 -3.3080001 -0.89300001 127 43 0
6.8660002 -3.2679999 -0.92199999 77 36 8
6.8629999 -3.27 -0.93000001 118 60 14
6.8829999 -3.296 -0.87400001 111 50 5
6.8850002 -3.303 -0.875 157 95 44
6.862 -3.277 -0.847 125 66 10
6.8610001 -3.2739999 -0.847 148 83 25
6.8470001 -3.2869999 -0.83600003 87 35 13
6.855 -3.2739999 -0.84600002 181 108 40
6.8639998 -3.286 -0.87699997 84 38 5
6.8530002 -3.2939999 -0.89200002 185 118 47
6.8579998 -3.283 -0.88700002 165 113 56
6.8499999 -3.2780001 -0.89200002 88 29 0
6.849 -3.279 -0.884 108 44 0
6.862 -3.313 -0.86400002 209 163 77
6.8839998 -3.3199999 -0.866 142 57 2
6.8850002 -3.3169999 -0.87099999 134 46 0
6.8590002 -3.2939999 -0.84500003 189 147 73
6.8610001 -3.2969999 -0.847 185 145 75
6.8540001 -3.339 -0.83499998 240 213 98
6.836 -3.3640001 -0.90799999 76 10 0
6.822 -3.3329999 -0.88999999 142 69 18
6.8309999 -3.3380001 -0.889 85 51 23
6.8439999 -3.339 -0.87099999 142 83 39
6.836 -3.339 -0.86000001 125 55 0
6.8379998 -3.349 -0.83499998 131 116 59
6.8340001 -3.348 -0.83700001 63 44 4
6.836 -3.346 -0.83499998 69 49 0
6.842 -3.346 -0.833 221 199 97
6.8239999 -3.349 -0.85000002 111 96 55
6.8210001 -3.3629999 -0.861 44 9 0
6.8839998 -3.3280001 -0.85299999 144 76 29
6.8969998 -3.3380001 -0.87099999 130 86 49
6.895 -3.3380001 -0.86799997 190 147 102
6.895 -3.3380001 -0.87099999 165 123 83
6.8330002 -3.326 -0.92400002 155 98 43
6.836 -3.316 -0.91799998 124 61 7
6.8000002 -3.3499999 -0.861 31 5 0
6.802 -3.3599999 -0.86199999 113 71 33
6.8410001 -3.3069999 -0.85399997 188 128 55
6.8559999 -3.322 -0.84399998 157 102 35
6.849 -3.299 -0.847 129 97 50
6.9429998 -3.3110001 -0.83099997 183 148 90
6.9489999 -3.312 -0.82800001 244 205 126
6.9089999 -3.312 -0.80900002 113 64 23
6.902 -3.3199999 -0.81400001 81 58 50
6.901 -3.313 -0.80500001 187 144 99
6.9219999 -3.316 -0.88200003 213 151 102
6.927 -3.313 -0.86699998 92 36 3
6.9229999 -3.319 -0.85900003 219 133 58
6.9359999 -3.293 -0.87900001 177 109 46
6.9530001 -3.2980001 -0.87400001 187 139 90
6.9559999 -3.3010001 -0.86900002 80 41 10
6.8759999 -3.3559999 -0.86000001 121 62 20
6.869 -3.3529999 -0.847 64 12 0
6.848 -3.358 -0.84799999 197 149 101
6.8559999 -3.3380001 -0.87 106 43 0
6.849 -3.348 -0.833 202 176 91
6.8670001 -3.3629999 -0.88800001 179 128 63
6.8509998 -3.3380001 -0.83399999 247 232 87
6.8439999 -3.335 -0.83499998 233 213 62
6.8210001 -3.3740001 -0.88599998 184 131 81
6.9390001 -3.2820001 -0.85600001 198 134 72
6.9289999 -3.286 -0.87 163 98 32
6.8870001 -3.302 -0.83999997 86 59 42
6.8800001 -3.312 -0.833 47 31 32
6.8870001 -3.319 -0.81800002 96 72 38
6.895 -3.332 -0.81999999 76 44 29
6.8889999 -3.329 -0.82499999 57 27 3
6.895 -3.319 -0.80900002 210 135 78
6.882 -3.3210001 -0.82599998 112 83 65
6.8870001 -3.316 -0.81900001 46 36 35
6.8909998 -3.3169999 -0.81300002 83 56 37
6.8940001 -3.309 -0.79000002 126 105 88
6.8909998 -3.3050001 -0.801 132 109 95
6.9070001 -3.29 -0.792 69 41 2
6.9070001 -3.289 -0.78899997 117 91 54
6.8850002 -3.296 -0.79000002 168 128 92
6.9109998 -3.299 -0.79500002 114 86 49
6.8850002 -3.29 -0.80800003 62 27 0
6.9000001 -3.2880001 -0.778 162 130 79
6.9180002 -3.2920001 -0.80500001 153 116 71
6.9109998 -3.2969999 -0.79799998 69 42 13
6.9510002 -3.3269999 -0.83099997 46 16 5
6.9499998 -3.313 -0.84600002 243 190 148
6.948 -3.309 -0.86299998 147 91 34
6.9510002 -3.296 -0.84600002 105 80 60
6.8959999 -3.2820001 -0.77999997 221 168 72
6.8410001 -3.256 -0.85299999 135 82 48
6.8470001 -3.2550001 -0.85100001 109 57 36
6.8499999 -3.256 -0.866 41 4 0
6.848 -3.2550001 -0.84799999 87 38 24
6.8460002 -3.2590001 -0.85000002 86 34 20
6.8460002 -3.26 -0.85000002 122 64 27
6.8530002 -3.2550001 -0.84299999 170 91 25
6.8379998 -3.276 -0.84100002 247 193 146
6.8449998 -3.2550001 -0.86900002 70 5 0
6.8629999 -3.2520001 -0.86400002 163 83 32
6.8860002 -3.2880001 -0.78299999 220 176 141
6.8600001 -3.2590001 -0.84200001 136 68 7
6.8610001 -3.2720001 -0.847 161 92 35
6.869 -3.279 -0.84600002 101 74 55
6.8610001 -3.2579999 -0.84200001 166 100 42
6.855 -3.289 -0.84299999 153 113 43
6.8649998 -3.2690001 -0.84899998 145 80 24
6.8610001 -3.256 -0.84299999 151 83 22
6.8590002 -3.2539999 -0.84200001 125 54 10
6.8639998 -3.266 -0.84899998 167 102 46
6.928 -3.326 -0.84600002 69 25 12
6.9190001 -3.3299999 -0.85799998 136 89 33
6.9169998 -3.3299999 -0.84799999 116 72 23
6.9099998 -3.3280001 -0.86799997 84 25 0
6.9349999 -3.312 -0.83099997 142 82 30
6.915 -3.3310001 -0.84200001 83 67 68
6.9130001 -3.3269999 -0.82800001 161 111 62
6.9050002 -3.3280001 -0.824 55 33 22
6.9109998 -3.335 -0.83200002 148 82 30
6.8969998 -3.3310001 -0.83099997 131 59 11
6.8979998 -3.325 -0.81599998 167 113 69
6.8920002 -3.3299999 -0.82700002 101 61 25
6.9089999 -3.3399999 -0.83899999 104 85 71
6.9289999 -3.3 -0.82499999 178 124 54
6.8569999 -3.2920001 -0.84299999 94 53 0
6.862 -3.2449999 -0.89499998 172 105 50
6.8509998 -3.2539999 -0.90200001 162 78 34
6.8759999 -3.2539999 -0.87599999 138 86 38
6.888 -3.2750001 -0.86199999 144 78 26
6.8990002 -3.276 -0.87900001 142 119 105
6.8460002 -3.267 -0.90100002 124 50 15
6.9239998 -3.2909999 -0.91399997 65 31 3
6.902 -3.2739999 -0.903 41 12 0
6.8870001 -3.27 -0.89899999 45 10 0
6.8930001 -3.2679999 -0.90200001 59 27 4
6.875 -3.2720001 -0.90499997 129 59 23
6.915 -3.2720001 -0.90499997 81 51 27
6.9029999 -3.2709999 -0.91100001 139 83 48
6.9109998 -3.27 -0.912 76 45 24
6.9120002 -3.2720001 -0.912 205 129 71
6.8559999 -3.26 -0.91600001 160 104 71
6.862 -3.2639999 -0.92799997 189 105 33
6.8569999 -3.277 -0.898 99 38 9
6.8340001 -3.289 -0.84399998 111 41 16
6.8850002 -3.3169999 -0.88200003 167 84 32
6.8959999 -3.302 -0.88499999 122 90 65
6.8530002 -3.3050001 -0.88300002 152 93 17
6.8460002 -3.2850001 -0.87900001 174 129 62
6.8499999 -3.3280001 -0.89200002 222 185 156
6.8410001 -3.3399999 -0.86799997 128 94 48
6.8330002 -3.355 -0.84200001 67 52 33
6.8410001 -3.3510001 -0.83399999 96 76 23
6.8179998 -3.3629999 -0.86799997 114 55 11
6.8870001 -3.319 -0.84899998 116 37 0
6.881 -3.3139999 -0.83399999 80 45 13
6.869 -3.335 -0.84899998 159 79 18
6.868 -3.3399999 -0.852 136 108 71
6.882 -3.3210001 -0.86199999 105 57 9
6.8179998 -3.3280001 -0.89499998 136 91 62
6.8829999 -3.3280001 -0.86699998 163 89 42
6.8179998 -3.3429999 -0.88200003 128 86 62
6.8119998 -3.3540001 -0.88800001 156 73 21
6.8049998 -3.349 -0.86199999 139 84 30
6.8429999 -3.2869999 -0.87 112 39 0
6.8369999 -3.2880001 -0.86400002 134 48 0
6.914 -3.312 -0.81099999 154 104 55
6.9429998 -3.312 -0.87400001 146 105 59
6.9489999 -3.2939999 -0.87199998 147 88 30
6.8559999 -3.3399999 -0.83600003 203 167 71
6.9380002 -3.283 -0.85900003 161 112 80
6.8839998 -3.3150001 -0.82300001 162 109 59
6.8779998 -3.3169999 -0.82999998 205 127 79
6.8850002 -3.3050001 -0.801 83 62 45
6.8940001 -3.3010001 -0.77999997 92 45 1
6.8829999 -3.289 -0.79799998 49 19 8
6.8870001 -3.2939999 -0.81199998 113 94 80
6.8909998 -3.2909999 -0.83099997 131 87 60
6.954 -3.3169999 -0.82700002 123 104 97
6.895 -3.2820001 -0.77999997 238 186 85
6.8959999 -3.28 -0.80000001 170 126 65
6.8340001 -3.2579999 -0.85799998 85 27 3
6.8530002 -3.253 -0.84399998 182 105 33
6.8540001 -3.2539999 -0.84500003 174 96 22
6.8520002 -3.2550001 -0.847 102 47 8
6.8449998 -3.273 -0.84100002 216 161 122
6.8379998 -3.277 -0.85799998 69 13 0
6.8499999 -3.2509999 -0.87099999 131 88 53
6.8629999 -3.2609999 -0.852 136 74 23
6.8639998 -3.263 -0.85100001 129 62 7
6.8720002 -3.266 -0.85699999 148 83 29
6.8509998 -3.2590001 -0.84299999 236 166 115
6.8579998 -3.256 -0.84500003 176 102 29
6.8579998 -3.2639999 -0.84500003 194 123 69
6.8600001 -3.257 -0.84600002 162 92 22
6.881 -3.2780001 -0.84600002 109 59 22
6.862 -3.2679999 -0.847 143 74 17
6.8610001 -3.2809999 -0.847 140 84 23
6.9120002 -3.3210001 -0.884 125 73 26
6.9250002 -3.3269999 -0.83099997 105 73 32
6.908 -3.3239999 -0.82099998 131 58 5
6.8920002 -3.3299999 -0.82499999 138 91 45
6.8670001 -3.3640001 -0.847 161 114 62
6.9239998 -3.306 -0.79900002 112 77 39
6.9159999 -3.3080001 -0.80500001 108 77 49
6.8730001 -3.267 -0.85600001 106 44 0
6.868 -3.2490001 -0.90200001 163 100 59
6.8759999 -3.2539999 -0.87800002 128 75 33
6.8759999 -3.263 -0.866 113 56 13
6.8759999 -3.267 -0.85799998 147 90 45
6.8790002 -3.2650001 -0.926 180 115 111
6.8779998 -3.286 -0.88 80 33 3
6.868 -3.279 -0.89200002 57 26 6
6.9000001 -3.3039999 -0.88599998 98 60 24
6.8990002 -3.2969999 -0.884 122 53 12
6.869 -3.2780001 -0.90200001 103 56 26
6.8899999 -3.266 -0.90899998 57 26 5
6.915 -3.276 -0.912 60 24 2
6.9190001 -3.3 -0.89499998 162 85 33
6.9130001 -3.2969999 -0.88099998 201 118 74
6.8579998 -3.283 -0.889 208 148 88
6.8340001 -3.2850001 -0.847 186 125 68
6.8330002 -3.289 -0.85600001 118 77 49
6.8379998 -3.2920001 -0.86799997 122 58 14
6.869 -3.3080001 -0.86400002 196 161 121
6.8400002 -3.3499999 -0.83399999 81 64 18
6.835 -3.3440001 -0.83600003 170 148 72
6.9000001 -3.3310001 -0.861 110 68 26
6.8899999 -3.335 -0.85600001 217 160 73
6.8449998 -3.289 -0.84399998 163 104 26
6.9039998 -3.2969999 -0.79500002 119 89 51
6.914 -3.3039999 -0.79799998 122 93 59
6.9000001 -3.306 -0.801 158 107 42
6.9489999 -3.3050001 -0.86299998 153 126 105
6.8639998 -3.359 -0.84500003 195 150 95
6.8720002 -3.346 -0.85799998 237 176 95
6.869 -3.3429999 -0.85500002 188 124 34
6.9460001 -3.2880001 -0.84200001 185 147 100
6.8870001 -3.303 -0.81800002 95 52 20
6.8920002 -3.3050001 -0.82800001 183 106 98
6.8829999 -3.3150001 -0.82599998 87 53 25
6.8899999 -3.3169999 -0.83200002 73 47 32
6.9050002 -3.3110001 -0.80599999 116 102 102
6.8860002 -3.3050001 -0.78899997 154 134 123
6.8860002 -3.299 -0.787 103 75 51
6.8850002 -3.296 -0.80299997 102 58 13
6.8540001 -3.257 -0.85299999 126 52 5
6.8579998 -3.2550001 -0.84200001 156 85 19
6.8559999 -3.256 -0.84200001 151 77 14
6.8530002 -3.2709999 -0.84600002 162 92 22
6.8610001 -3.2579999 -0.847 187 119 56
6.862 -3.26 -0.85100001 203 137 76
6.8579998 -3.289 -0.84500003 97 62 40
6.8600001 -3.2780001 -0.847 135 73 12
6.8509998 -3.286 -0.84200001 225 176 81
6.8909998 -3.329 -0.84799999 75 38 9
6.9320002 -3.3069999 -0.82800001 206 157 91
6.927 -3.3150001 -0.82700002 76 30 14
6.9260001 -3.3199999 -0.82499999 110 92 82
6.8850002 -3.2679999 -0.86900002 151 134 127
6.8800001 -3.2679999 -0.91299999 183 118 116
6.8990002 -3.2850001 -0.87699997 202 125 117
6.9050002 -3.313 -0.89300001 163 81 33
6.9159999 -3.3039999 -0.88999999 125 42 2
6.835 -3.2820001 -0.85600001 144 52 1
6.8390002 -3.2969999 -0.85799998 137 92 53
6.8390002 -3.3469999 -0.83399999 109 91 17
6.8429999 -3.348 -0.833 172 152 91
6.8309999 -3.3499999 -0.84299999 232 179 101
6.8930001 -3.335 -0.85900003 97 28 0
6.8790002 -3.3399999 -0.86199999 164 88 38
6.8520002 -3.2909999 -0.84399998 191 145 70
6.8530002 -3.2869999 -0.84299999 226 179 87
6.902 -3.2820001 -0.78600001 217 179 114
6.8870001 -3.2850001 -0.79000002 147 74 33
6.8860002 -3.2850001 -0.78600001 113 44 13
6.8559999 -3.2539999 -0.84299999 162 85 15
6.8870001 -3.2679999 -0.917 150 88 41
6.9029999 -3.296 -0.88200003 148 71 27
6.888 -3.296 -0.87699997 178 103 63
6.8390002 -3.2950001 -0.86000001 197 109 46
6.8860002 -3.296 -0.79699999 140 98 56
6.902 -3.2920001 -0.78799999 103 74 40
6.848 -3.2780001 -0.84399998 139 95 60
6.862 -3.26 -0.85299999 159 90 33
6.869 -3.2509999 -0.88499999 201 140 83
6.8969998 -3.2920001 -0.78200001 169 143 110
0 0 0 1 0 0 0 1 0 0 0 1 0 0 0 0 0 817 1 0 0
