ply
format ascii 1.0
comment PCL generated
element vertex 1233
property float x
property float y
property float z
property uchar red
property uchar green
property uchar blue
element camera 0
property float view_px
property float view_py
property float view_pz
property float x_axisx
property float x_axisy
property float x_axisz
property float y_axisx
property float y_axisy
property float y_axisz
property float z_axisx
property float z_axisy
property float z_axisz
property float focal
property float scalex
property float scaley
property float centerx
property float centery
property int viewportx
property int viewporty
property float k1
property float k2
end_header
-3.895 4.0310001 -1.068 29 20 5
-3.773 3.9489999 -1.0700001 159 131 119
-3.7609999 3.954 -1.063 148 98 63
-3.74 3.9719999 -1.063 240 167 99
-3.7590001 3.9649999 -1.062 150 121 103
-3.733 3.973 -1.059 171 111 57
-3.733 3.9719999 -1.0549999 161 142 127
-3.796 3.9489999 -1.0369999 119 62 19
-3.904 4.0219998 -0.87099999 138 101 82
-3.904 4.0190001 -0.85299999 147 90 60
-3.7579999 3.9890001 -0.82800001 191 120 32
-3.7490001 3.974 -0.83099997 109 44 14
-3.7509999 3.9679999 -0.829 254 178 126
-3.8870001 4.0370002 -0.83399999 247 189 139
-3.7620001 3.9949999 -0.93800002 101 46 15
-3.7579999 3.9879999 -0.94999999 54 30 18
-3.757 3.9890001 -0.94 147 108 79
-3.763 3.99 -0.94599998 187 154 139
-3.8069999 3.973 -0.89499998 118 47 0
-3.918 4.0310001 -0.86199999 163 129 101
-3.9260001 4.0339999 -0.88599998 141 108 77
-3.9170001 4.0409999 -0.86199999 199 124 56
-3.9200001 4.0419998 -0.92199999 29 16 10
-3.914 4.0339999 -0.92500001 61 38 22
-3.9219999 4.0419998 -0.935 158 126 103
-3.9170001 4.0380001 -0.92900002 131 94 67
-3.9070001 4.0320001 -0.95099998 118 116 119
-3.914 4.04 -0.93599999 92 56 30
-3.747 4.0180001 -0.83600003 108 34 0
-3.744 4.0110002 -0.83600003 188 129 89
-3.7320001 4.0170002 -0.83099997 173 150 142
-3.898 4.026 -0.95499998 116 69 39
-3.8840001 4.0240002 -0.94300002 171 128 93
-3.8959999 4.0279999 -0.94099998 231 178 112
-3.7279999 3.9920001 -0.83099997 175 99 39
-3.7260001 3.9879999 -0.833 202 142 80
-3.7479999 3.9690001 -0.833 202 129 76
-3.744 3.9820001 -0.90700001 154 98 47
-3.7490001 3.9849999 -0.92299998 37 9 0
-3.753 4.0019999 -0.90499997 192 118 73
-3.7390001 3.9790001 -0.91600001 116 53 0
-3.9000001 4.0310001 -1.011 208 150 86
-3.8870001 4.0180001 -1.0089999 160 107 63
-3.888 4.0250001 -1.017 111 76 48
-3.895 4.0300002 -1.0089999 119 100 60
-3.902 4.0310001 -1.003 73 29 4
-3.9059999 4.0310001 -1.008 160 110 57
-3.9430001 4.0500002 -1.025 33 16 0
-3.9289999 4.039 -1.031 214 184 173
-3.915 4.0419998 -1.0319999 76 34 18
-3.9189999 4.0440001 -1.03 110 62 26
-3.9000001 4.039 -1.068 70 34 20
-3.8989999 4.0339999 -1.046 31 0 0
-3.9030001 4.0760002 -0.98299998 142 108 83
-3.908 4.0700002 -0.97299999 122 95 76
-3.9159999 4.0700002 -0.986 50 23 12
-3.9119999 4.0599999 -0.90200001 247 185 84
-3.9159999 4.053 -0.89700001 151 114 85
-3.9159999 4.0570002 -0.92000002 87 64 48
-3.9400001 4.04 -1.0190001 159 90 31
-3.9300001 4.0539999 -1.013 97 51 25
-3.9219999 4.0489998 -1.006 120 67 17
-3.931 4.0489998 -1.012 143 95 47
-3.891 4.0370002 -1.048 117 93 81
-3.878 4.0289998 -1.04 116 53 0
-3.846 4.033 -1.068 117 73 38
-3.8559999 4.0419998 -1.056 44 19 12
-3.842 4.026 -1.068 183 149 122
-3.839 4.0310001 -1.067 106 58 22
-3.7709999 4.0300002 -0.85500002 242 197 140
-3.75 4.0320001 -0.85000002 138 92 43
-3.7479999 4.0279999 -0.861 17 6 4
-3.747 4.0359998 -0.866 16 5 3
-3.8770001 4.0539999 -1.058 143 87 40
-3.8599999 4.0469999 -1.053 88 69 54
-3.8640001 4.0650001 -1.041 119 71 33
-3.7420001 4.0310001 -1.005 93 64 48
-3.829 4.0300002 -1.0650001 107 59 23
-3.8199999 3.9749999 -0.98199999 184 109 41
-3.78 4.0139999 -0.917 197 142 88
-3.779 4.0180001 -0.92299998 177 141 109
-3.786 4.0229998 -0.91399997 170 135 103
-3.7720001 4.0089998 -0.91900003 194 142 94
-3.7539999 4.0040002 -0.90700001 209 137 63
-3.7579999 3.9990001 -0.92699999 158 89 34
-3.7739999 4.0120001 -0.92199999 187 136 93
-3.76 4.0089998 -0.90399998 145 92 48
-3.776 4.0100002 -0.93000001 177 130 84
-3.711 3.948 -0.89200002 150 132 112
-3.7130001 3.9360001 -0.88700002 142 114 93
-3.7119999 3.957 -0.87599999 225 179 130
-3.7490001 3.9530001 -0.85900003 117 106 104
-3.7520001 3.954 -0.85600001 121 108 102
-3.7360001 3.9419999 -0.86199999 126 114 102
-3.717 3.931 -0.88499999 123 89 54
-3.7160001 3.931 -0.88700002 78 44 6
-3.7349999 3.925 -0.87699997 150 117 76
-3.908 4.0510001 -0.84899998 182 113 56
-3.8759999 4.0040002 -1.022 92 49 17
-3.8740001 4.0120001 -1.031 149 93 34
-3.7880001 3.9349999 -1.028 231 176 112
-3.7980001 3.9449999 -1.017 219 141 69
-3.8069999 3.973 -1.064 255 195 143
-3.8099999 3.9820001 -1.069 140 81 39
-3.8080001 3.9960001 -1.0650001 61 20 0
-3.8080001 3.984 -1.067 101 46 16
-3.809 3.9849999 -1.0700001 188 135 93
-3.882 4.0370002 -1.069 139 90 58
-3.842 4.0279999 -1.069 52 8 0
-3.888 4.0289998 -1.068 171 118 78
-3.8039999 3.9890001 -1.0700001 77 27 2
-3.7780001 3.948 -1.068 187 165 152
-3.78 3.934 -1.062 255 215 153
-3.7739999 3.9389999 -1.0650001 191 159 121
-3.743 3.974 -1.063 86 58 36
-3.7539999 3.9790001 -1.066 53 17 3
-3.737 3.9679999 -1.057 146 86 36
-3.777 3.9260001 -0.91500002 98 62 30
-3.7850001 3.931 -0.912 139 95 58
-3.7869999 3.9349999 -0.91600001 160 89 35
-3.727 3.983 -1.046 164 136 125
-3.7969999 3.95 -1.0369999 162 117 84
-3.744 3.9790001 -0.96399999 177 130 86
-3.7420001 3.9820001 -0.97399998 64 26 3
-3.747 3.9860001 -0.96399999 65 4 0
-3.8859999 4.0159998 -0.93300003 104 55 12
-3.878 4.0219998 -0.84799999 140 75 37
-3.901 4.0300002 -0.838 152 94 44
-3.8789999 4.0469999 -0.83499998 91 38 7
-3.777 3.9319999 -0.90799999 152 126 111
-3.7709999 3.9419999 -0.89700001 161 138 124
-3.776 3.9419999 -0.89200002 138 113 106
-3.7809999 3.941 -0.89200002 149 119 109
-3.7850001 3.957 -0.90200001 150 121 107
-3.789 3.944 -0.90600002 96 61 42
-3.79 3.957 -0.90499997 182 115 63
-3.8 3.961 -0.91900003 70 44 27
-3.7969999 3.95 -0.91600001 52 34 14
-3.793 3.9619999 -0.91399997 210 152 104
-3.796 3.96 -0.92400002 196 148 99
-3.7980001 3.97 -0.93599999 88 65 49
-3.9170001 4.053 -0.92000002 47 31 16
-3.9219999 4.0370002 -0.89600003 168 114 67
-3.925 4.0349998 -0.89200002 170 127 84
-3.9219999 4.0339999 -0.898 162 102 66
-3.8629999 4.0809999 -0.986 103 74 56
-3.8659999 4.0819998 -0.99199998 135 82 28
-3.8710001 4.0879998 -0.98699999 218 165 113
-3.862 4.0799999 -0.99299997 114 65 32
-3.9119999 4.0609999 -0.963 35 7 3
-3.9030001 4.0710001 -0.97100002 56 24 1
-3.9030001 4.0650001 -0.96600002 142 121 102
-3.8929999 4.02 -0.85299999 87 56 35
-3.8770001 4.072 -0.99699998 101 43 6
-3.7579999 3.9890001 -0.84299999 168 85 9
-3.757 3.9809999 -0.84200001 183 115 50
-3.7509999 3.9690001 -0.83099997 199 120 63
-3.8069999 3.9790001 -0.93000001 78 55 39
-3.7950001 3.9760001 -0.94300002 62 15 0
-3.7060001 3.9979999 -0.86900002 174 131 96
-3.7090001 4.0009999 -0.86199999 149 130 116
-3.704 3.9949999 -0.87 177 137 102
-3.7149999 4.0149999 -0.866 146 109 82
-3.721 4.0009999 -0.88 111 44 1
-3.7219999 3.9860001 -0.88499999 90 25 0
-3.733 3.993 -0.89300001 164 102 65
-3.7449999 4.0009999 -0.898 193 120 67
-3.8099999 3.9790001 -0.89899999 176 111 57
-3.7869999 3.974 -0.87900001 117 61 26
-3.7939999 3.9790001 -0.875 160 87 34
-3.789 3.9779999 -0.875 83 43 7
-3.7939999 3.974 -0.87900001 157 74 20
-3.7179999 4.0040002 -0.852 138 120 106
-3.72 4.0029998 -0.847 207 147 85
-3.72 4.0019999 -0.84399998 134 69 27
-3.7179999 3.9990001 -0.84899998 246 214 137
-3.721 3.994 -0.84399998 193 116 60
-3.7149999 3.9890001 -0.85100001 68 36 15
-3.7130001 3.997 -0.85600001 173 127 103
-3.723 3.993 -0.84100002 192 122 63
-3.724 3.9920001 -0.838 215 146 91
-3.7490001 3.9990001 -0.83099997 101 54 38
-3.7360001 4.0100002 -0.83499998 124 59 21
-3.8299999 3.9820001 -1.0089999 221 179 157
-3.835 3.9909999 -1.016 125 83 61
-3.8340001 3.9809999 -1.003 231 162 105
-3.8410001 3.993 -0.98699999 246 170 76
-3.8380001 3.99 -0.986 225 153 55
-3.8399999 4.0009999 -0.98699999 137 117 92
-3.911 4.026 -1.016 125 73 23
-3.914 4.0310001 -1.013 211 145 93
-3.892 4.0320001 -1.031 151 98 48
-3.9100001 4.0320001 -1.0089999 83 47 23
-3.921 4.046 -1.003 180 135 94
-3.914 4.0359998 -1.01 196 140 91
-3.9219999 4.053 -1.027 97 54 38
-3.885 4.0289998 -1.026 139 105 78
-3.8800001 4.013 -1.0140001 224 169 104
-3.881 4.0100002 -1.007 183 128 74
-3.8840001 4.013 -1.006 188 133 77
-3.9059999 4.0619998 -0.90899998 86 26 0
-3.9230001 4.0609999 -1.022 226 177 110
-3.928 4.0419998 -1.02 87 54 37
-3.927 4.0419998 -1.015 173 129 80
-3.937 4.039 -1.017 175 132 89
-3.944 4.04 -1.0190001 196 130 78
-3.8829999 4.039 -1.053 34 5 1
-3.868 4.0359998 -1.0549999 107 81 58
-3.8640001 4.0409999 -1.0549999 34 9 4
-3.8759999 4.039 -1.069 84 43 23
-3.8770001 4.0630002 -1.044 150 108 83
-3.872 4.0669999 -1.04 173 128 95
-3.875 4.0630002 -1.0470001 150 110 100
-3.8369999 4.0159998 -1.0599999 79 43 19
-3.829 4.0159998 -1.051 77 31 0
-3.8280001 4.0219998 -1.061 85 45 9
-3.8199999 4.0250001 -1.066 174 139 111
-3.8180001 4.0250001 -1.068 93 63 39
-3.823 4.0279999 -1.064 196 152 123
-3.7420001 4.0310001 -0.85500002 199 153 94
-3.733 4.027 -0.84299999 50 28 14
-3.885 4.046 -1.061 94 68 55
-3.8759999 4.0469999 -1.0650001 57 19 0
-3.7550001 3.997 -1.063 40 0 0
-3.78 4.0019999 -1.068 77 16 0
-3.799 4.0019999 -1.066 70 46 20
-3.7820001 4.0079999 -1.0599999 105 62 27
-3.825 4.0300002 -1.0650001 130 86 57
-3.8269999 4.0279999 -1.064 98 53 22
-3.7390001 4.0279999 -1.0039999 254 226 204
-3.819 3.9909999 -0.98799998 151 95 48
-3.8150001 3.9890001 -0.98799998 198 140 92
-3.812 3.99 -0.98799998 191 140 95
-3.8239999 3.9909999 -0.98900002 192 152 116
-3.832 3.9879999 -0.98699999 145 113 74
-3.7950001 3.9779999 -0.96899998 84 50 23
-3.8 3.9590001 -0.96499997 51 23 9
-3.7969999 3.9660001 -0.96200001 167 149 139
-3.8199999 3.973 -0.98699999 209 143 85
-3.776 3.994 -0.97399998 185 139 123
-3.796 4.0019999 -0.97299999 161 130 110
-3.7720001 4.006 -0.97899997 205 164 132
-3.7839999 4.0190001 -0.91799998 176 142 115
-3.777 4.0089998 -0.91100001 115 64 35
-3.7939999 4.0100002 -0.921 117 50 0
-3.783 3.924 -0.90799999 76 49 20
-3.789 3.9260001 -0.90600002 182 137 104
-3.79 3.9200001 -0.90700001 194 145 113
-3.7780001 3.9289999 -0.90899998 169 142 121
-3.744 3.9230001 -0.88800001 198 146 89
-3.7460001 3.934 -0.889 181 141 115
-3.7460001 3.9330001 -0.90200001 119 91 69
-3.7360001 3.9360001 -0.89300001 76 49 22
-3.747 3.957 -0.85600001 141 126 121
-3.7160001 3.9519999 -0.87400001 175 135 100
-3.73 3.9330001 -0.87300003 147 119 80
-3.717 3.9400001 -0.88200003 63 31 10
-3.7219999 3.9860001 -0.84799999 149 86 45
-3.7449999 3.9619999 -0.84100002 161 90 38
-3.733 3.9749999 -0.838 136 101 73
-3.744 3.9619999 -0.84299999 165 94 50
-3.7119999 3.95 -0.88599998 188 117 63
-3.793 3.921 -0.90600002 199 149 112
-3.7950001 3.9219999 -0.90600002 190 144 108
-3.8 3.9749999 -0.87900001 79 36 17
-3.8210001 3.983 -0.87599999 144 81 28
-3.7980001 3.937 -0.90499997 72 38 13
-3.8010001 3.931 -0.90200001 205 172 155
-3.7980001 3.9319999 -0.903 182 145 126
-3.7780001 3.9590001 -0.88599998 111 82 52
-3.8310001 3.977 -0.99400002 236 152 54
-3.7950001 3.9430001 -1.017 253 179 104
-3.7980001 3.9519999 -1.008 143 90 40
-3.7720001 3.937 -1.0420001 92 60 37
-3.7690001 3.9360001 -1.036 178 157 152
-3.8399999 3.9820001 -0.995 229 151 53
-3.7490001 4.0219998 -0.99400002 129 78 31
-3.7360001 4.0180001 -0.99000001 106 71 43
-3.7539999 4.0040002 -0.977 104 73 55
-3.756 4.0029998 -0.977 95 60 41
-3.7609999 4.006 -0.977 73 44 28
-3.75 4.0209999 -0.98799998 131 100 82
-3.7920001 3.9519999 -1.061 149 89 29
-3.8050001 3.993 -1.0549999 50 15 0
-3.806 3.9879999 -1.051 79 29 0
-3.829 3.9920001 -1.048 91 62 46
-3.7839999 4.0019999 -1.054 80 28 4
-3.7909999 3.9979999 -1.0470001 45 5 0
-3.7850001 3.9979999 -1.041 103 68 46
-3.7869999 3.9990001 -1.052 60 27 8
-3.8410001 4.033 -1.068 152 106 70
-3.7590001 3.9679999 -1.059 118 91 70
-3.7780001 3.9690001 -1.067 134 50 3
-3.796 3.9809999 -1.073 134 86 48
-3.78 3.9949999 -1.071 42 6 0
-3.74 3.9749999 -1.066 139 81 41
-3.7309999 4.013 -0.99599999 169 138 117
-3.753 4 -0.97600001 51 20 0
-3.7509999 4.0029998 -0.97799999 145 110 88
-3.7309999 3.977 -1.046 130 95 65
-3.7360001 4.0159998 -1.003 83 60 44
-3.7390001 3.9879999 -1.0470001 142 104 83
-3.7379999 3.987 -1.044 63 27 15
-3.7449999 3.994 -1.0470001 107 63 28
-3.7309999 3.96 -0.95200002 190 166 154
-3.7279999 3.96 -0.96100003 140 115 95
-3.717 3.951 -0.963 92 66 49
-3.7149999 3.947 -0.95999998 132 110 99
-3.7219999 3.9489999 -0.95499998 143 124 107
-3.7449999 3.9920001 -0.977 133 91 66
-3.7349999 3.9979999 -0.98500001 79 47 32
-3.7409999 3.9990001 -0.98299998 79 43 21
-3.7349999 3.967 -1.0599999 203 139 68
-3.7720001 3.934 -0.921 91 47 12
-3.78 3.9360001 -0.91799998 82 36 2
-3.77 3.941 -0.93300003 76 61 42
-3.783 3.9389999 -0.91900003 125 72 22
-3.78 3.9360001 -1.043 145 78 0
-3.789 3.9360001 -1.031 155 131 127
-3.7679999 3.9400001 -1.027 84 51 36
-3.799 3.954 -1.0319999 164 107 38
-3.803 3.9719999 -1.039 114 56 16
-3.7980001 3.9649999 -1.038 98 45 13
-3.747 3.9820001 -0.92500001 155 95 58
-3.882 4.0159998 -0.93699998 165 111 51
-3.885 4.0139999 -0.926 133 111 98
-3.8989999 4.0250001 -0.93199998 130 114 114
-3.902 4.026 -0.91799998 151 112 73
-3.904 4.0320001 -0.926 77 49 28
-3.904 4.0240002 -0.91000003 119 105 102
-3.892 4.02 -0.92500001 143 103 68
-3.734 4.02 -0.83899999 139 103 87
-3.743 4.0209999 -0.838 190 121 79
-3.7390001 4.0240002 -0.84299999 194 123 77
-3.7520001 4.0209999 -0.83499998 164 104 67
-3.8789999 4.0359998 -0.83999997 173 122 69
-3.869 4.0219998 -0.84899998 106 49 19
-3.7479999 3.937 -0.90200001 157 120 94
-3.7509999 3.9349999 -0.90899998 113 87 64
-3.7650001 3.9449999 -0.89700001 125 60 22
-3.7409999 4 -0.83399999 90 44 28
-3.724 3.994 -0.83700001 195 116 57
-3.7690001 3.9990001 -0.83999997 119 98 71
-3.7739999 3.993 -0.84600002 74 32 7
-3.757 3.974 -0.85299999 193 141 102
-3.7869999 3.9590001 -0.93199998 103 60 28
-3.7550001 3.987 -0.94999999 100 53 11
-3.779 3.951 -0.95599997 106 48 10
-3.7750001 3.9519999 -0.95099998 50 19 1
-3.7780001 3.947 -0.958 244 209 179
-3.7720001 3.95 -0.95599997 88 74 73
-3.7690001 3.9549999 -0.94499999 53 17 1
-3.7520001 3.9849999 -0.926 155 128 109
-3.757 3.9920001 -0.91900003 190 107 41
-3.7980001 3.9660001 -0.921 122 100 87
-3.7980001 3.9660001 -0.92000002 154 110 73
-3.786 3.927 -0.91000003 193 167 144
-3.789 3.9289999 -0.91000003 116 75 43
-3.7920001 3.9260001 -0.90799999 185 141 112
-3.9100001 4.0419998 -0.95200002 55 10 0
-3.9070001 4.0380001 -0.94499999 182 151 131
-3.915 4.0409999 -0.96200001 90 53 26
-3.898 4.0289998 -0.94099998 125 81 54
-3.901 4.0320001 -0.94300002 113 75 39
-3.8510001 4.0770001 -0.98100001 156 138 128
-3.848 4.0749998 -0.98500001 232 202 176
-3.898 4.0289998 -0.97000003 117 73 44
-3.9119999 4.0510001 -0.97399998 209 155 95
-3.9130001 4.0560002 -0.98100001 251 197 127
-3.9100001 4.052 -0.98299998 185 126 68
-3.8870001 4.0300002 -0.94999999 115 78 49
-3.9119999 4.059 -0.986 221 162 96
-3.915 4.0549998 -1.008 146 120 105
-3.918 4.0609999 -1.0140001 80 54 29
-3.8870001 4.0479999 -0.83499998 141 86 55
-3.8959999 4.0409999 -0.83600003 163 116 72
-3.901 4.0209999 -0.86000001 155 116 85
-3.8670001 4.059 -0.99699998 93 47 14
-3.8540001 4.0599999 -0.98299998 53 15 0
-3.8670001 4.0539999 -0.99599999 150 107 73
-3.848 4.059 -0.98299998 179 153 128
-3.8729999 4.053 -1.006 98 59 30
-3.892 4.0609999 -1.003 172 143 127
-3.892 4.0640001 -0.995 182 137 104
-3.878 4.073 -0.99000001 142 90 50
-3.898 4.0650001 -0.93099999 64 36 22
-3.7739999 4.0009999 -0.95300001 138 96 54
-3.7750001 3.9960001 -0.94700003 89 74 55
-3.783 3.997 -0.935 196 141 87
-3.7780001 3.9960001 -0.95200002 69 33 7
-3.7980001 3.983 -0.93300003 127 105 92
-3.8039999 3.994 -0.92299998 188 169 155
-3.7909999 3.9749999 -0.94800001 93 51 26
-3.7920001 3.974 -0.94199997 71 45 30
-3.7880001 3.9649999 -0.958 100 58 34
-3.714 4.007 -0.875 191 119 60
-3.7130001 4.0029998 -0.87300003 142 98 59
-3.8169999 3.9849999 -0.884 175 108 63
-3.816 3.983 -0.90399998 107 49 11
-3.8150001 3.9849999 -0.90100002 229 165 121
-3.8110001 3.9890001 -0.90799999 46 32 32
-3.8010001 4.0120001 -0.921 147 127 118
-3.796 4.0040002 -0.92299998 204 139 83
-3.7609999 4.0190001 -0.85799998 189 122 79
-3.779 3.9809999 -0.87699997 173 125 85
-3.7130001 4.0019999 -0.85799998 152 108 79
-3.72 4.0180001 -0.85799998 107 70 44
-3.7179999 4.0209999 -0.866 105 73 50
-3.7179999 4.0170002 -0.86199999 106 71 39
-3.723 4.0009999 -0.84100002 204 139 97
-3.7260001 4.0079999 -0.84399998 178 102 40
-3.7309999 4.006 -0.83899999 159 85 22
-3.7079999 3.987 -0.86400002 104 53 10
-3.7509999 3.9809999 -0.83399999 146 40 0
-3.75 4.0100002 -0.83600003 180 134 108
-3.825 3.9920001 -1.043 122 91 70
-3.813 3.984 -1.026 79 36 17
-3.8150001 3.987 -1.027 176 139 112
-3.8659999 3.9890001 -1.026 188 122 62
-3.859 3.993 -1.028 146 106 81
-3.869 3.99 -1.026 226 157 102
-3.839 3.997 -1.03 162 117 88
-3.8510001 3.9949999 -1.022 102 52 15
-3.8410001 3.994 -1.02 79 36 17
-3.8559999 3.9879999 -1.003 150 127 111
-3.855 3.9990001 -1.031 138 118 111
-3.8559999 3.9949999 -1.026 121 73 37
-3.868 4.0320001 -1.01 94 53 25
-3.869 4.039 -1.018 154 89 35
-3.8610001 4.0370002 -1.023 122 103 97
-3.862 4.0640001 -0.97399998 168 134 109
-3.875 4.053 -0.96700001 250 184 126
-3.862 4.0669999 -0.97299999 215 184 155
-3.924 4.04 -1.0089999 138 95 50
-3.9100001 4.0510001 -1.026 215 152 83
-3.881 4.0229998 -1.0190001 166 127 94
-3.904 4.0339999 -1.026 125 81 56
-3.904 4.04 -1.04 180 124 67
-3.895 4.0419998 -1.0470001 51 24 13
-3.895 4.0510001 -1.052 104 59 26
-3.8859999 4.033 -1.036 172 124 75
-3.892 4.0370002 -1.045 129 102 93
-3.872 4.0500002 -1.021 128 80 44
-3.8729999 4.0479999 -1.0319999 131 68 17
-3.865 4.0450001 -1.045 155 101 63
-3.858 4.026 -1.0319999 67 37 27
-3.8959999 4.0679998 -1.017 144 72 13
-3.908 4.0580001 -1.0140001 180 135 104
-3.908 4.0580001 -1.018 189 112 44
-3.905 4.0650001 -0.98799998 63 37 22
-3.9089999 4.066 -0.986 166 105 58
-3.888 4.0250001 -1.003 95 51 24
-3.9319999 4.046 -1.011 153 110 65
-3.875 4.0370002 -1.0599999 58 24 0
-3.872 4.0149999 -1.057 67 34 15
-3.8629999 3.994 -1.028 113 82 64
-3.8670001 3.9990001 -1.028 196 148 108
-3.875 4.02 -1.03 70 42 18
-3.8710001 4.0170002 -1.0319999 165 122 80
-3.8870001 4.0320001 -1.033 86 46 20
-3.8540001 4.0180001 -1.0319999 168 96 38
-3.865 4.0110002 -1.03 158 131 112
-3.865 4.0250001 -1.035 49 15 3
-3.8559999 4.0599999 -0.97399998 224 180 143
-3.8710001 4.053 -0.972 211 187 159
-3.7420001 4.0320001 -0.866 5 0 0
-3.733 4.0289998 -0.86500001 205 135 65
-3.734 4.0279999 -0.85500002 184 144 92
-3.8740001 4.0479999 -1.062 64 17 0
-3.8740001 4.0489998 -1.056 72 21 0
-3.8840001 4.059 -1.0470001 118 72 48
-3.891 4.0510001 -1.041 186 138 98
-3.8789999 4.0609999 -1.045 84 38 15
-3.7679999 3.997 -1.067 97 49 26
-3.777 3.9990001 -1.069 83 23 0
-3.8150001 3.9860001 -0.98699999 210 149 94
-3.7980001 3.99 -0.977 145 109 95
-3.8080001 3.9879999 -0.98699999 81 32 0
-3.8180001 3.9790001 -0.98500001 177 103 40
-3.7920001 3.9749999 -0.954 79 50 36
-3.767 4.0029998 -0.97799999 184 131 89
-3.7750001 4.0079999 -0.91299999 89 33 0
-3.7809999 4.0089998 -0.91000003 71 27 2
-3.7130001 3.944 -0.89899999 194 115 76
-3.743 3.928 -0.88300002 181 144 118
-3.737 3.925 -0.87699997 115 84 63
-3.7750001 3.9419999 -0.88999999 137 115 104
-3.7590001 3.944 -0.88800001 156 124 109
-3.766 3.9909999 -0.85399997 206 149 106
-3.743 3.9619999 -0.84799999 186 116 67
-3.75 3.9660001 -0.83399999 158 90 53
-3.7490001 3.9660001 -0.83700001 185 120 82
-3.74 3.9300001 -0.87099999 149 126 112
-3.7420001 3.931 -0.88099998 136 98 77
-3.744 3.9400001 -0.87699997 190 118 10
-3.727 3.9319999 -0.88200003 166 136 102
-3.7219999 3.96 -0.86699998 226 173 121
-3.7219999 3.948 -0.87099999 165 78 7
-3.724 3.9590001 -0.86699998 183 122 68
-3.734 3.9489999 -0.86400002 142 132 130
-3.747 3.9660001 -0.84100002 166 108 62
-3.7130001 3.948 -0.88499999 163 110 60
-3.796 3.924 -0.903 174 132 107
-3.793 3.9460001 -0.90899998 175 141 114
-3.799 3.9430001 -0.91399997 101 62 31
-3.796 3.9400001 -0.917 167 130 103
-3.7980001 3.938 -0.91399997 92 53 24
-3.8710001 3.9920001 -1.024 171 132 93
-3.8699999 3.9860001 -1.016 204 130 65
-3.8199999 3.9779999 -1.008 182 128 81
-3.8150001 3.977 -1.011 93 49 14
-3.832 3.993 -0.98799998 148 122 87
-3.7650001 3.9690001 -1.056 160 73 4
-3.789 3.938 -1.02 220 127 31
-3.786 3.938 -1.028 190 142 94
-3.767 3.9360001 -1.044 181 162 155
-3.77 3.9360001 -1.053 211 164 118
-3.7550001 3.9849999 -1.072 176 141 111
-3.7690001 3.9909999 -1.068 47 9 0
-3.7820001 3.984 -1.068 49 32 16
-3.8210001 4.02 -1.0599999 96 52 13
-3.8199999 4.013 -1.067 238 151 56
-3.8180001 4.0229998 -1.068 144 113 92
-3.825 4.0139999 -1.05 103 61 49
-3.829 3.9990001 -1.044 42 14 3
-3.835 4.0089998 -1.064 155 121 93
-3.7869999 4 -0.98000002 190 163 146
-3.783 3.9979999 -0.98500001 189 160 142
-3.793 3.9960001 -0.98100001 152 121 101
-3.825 3.9860001 -0.98799998 151 117 82
-3.7219999 4.0219998 -0.88200003 123 52 10
-3.7460001 4.0219998 -0.99199998 171 139 124
-3.7980001 3.9690001 -1.057 69 15 0
-3.8110001 3.971 -1.071 191 141 92
-3.802 3.9690001 -1.071 159 113 63
-3.7950001 3.9549999 -1.067 228 169 103
-3.793 3.951 -1.0549999 180 131 90
-3.895 4.0370002 -1.069 66 21 0
-3.8 4 -1.064 95 56 27
-3.8050001 3.9990001 -1.0470001 50 14 2
-3.7969999 3.9909999 -1.072 64 15 0
-3.7920001 3.984 -1.072 127 87 52
-3.7780001 3.9360001 -1.045 233 164 95
-3.78 3.934 -1.0650001 211 170 108
-3.74 3.9779999 -1.067 77 43 15
-3.747 4.0139999 -1.001 102 39 0
-3.733 4.0149999 -0.995 97 62 40
-3.733 3.984 -1.044 150 119 99
-3.7390001 3.984 -1.0420001 82 41 21
-3.7460001 3.9660001 -1.053 162 134 113
-3.7379999 3.973 -0.96899998 88 46 21
-3.7360001 3.971 -0.96499997 58 13 0
-3.7360001 3.9779999 -0.97899997 199 144 87
-3.7290001 3.9579999 -0.95499998 109 81 67
-3.7309999 3.9489999 -0.94999999 94 84 59
-3.7309999 3.9449999 -0.95700002 251 199 142
-3.737 3.947 -0.94700003 103 74 58
-3.747 4 -0.97899997 75 39 13
-3.744 4.0050001 -0.98500001 144 88 39
-3.756 3.9890001 -0.954 135 104 84
-3.7650001 3.993 -0.954 57 33 21
-3.773 3.9360001 -1.058 229 189 140
-3.7739999 3.9360001 -1.061 110 84 57
-3.75 3.927 -0.91299999 197 148 107
-3.7360001 3.9319999 -0.97799999 174 127 73
-3.737 3.938 -0.97299999 185 117 70
-3.7379999 3.938 -0.97600001 168 98 47
-3.7349999 3.97 -0.97799999 160 112 66
-3.721 3.951 -0.98199999 159 92 50
-3.7309999 3.9619999 -0.98799998 89 50 21
-3.783 3.938 -1.031 85 66 60
-3.77 3.9419999 -1.036 90 52 29
-3.8039999 3.961 -1.03 104 44 0
-3.8 3.9619999 -1.02 155 97 34
-3.806 3.9760001 -1.0420001 131 79 55
-3.7449999 3.9749999 -0.93099999 64 30 0
-3.7509999 3.983 -0.95599997 170 136 111
-3.7509999 3.9860001 -0.95999998 120 76 39
-3.7490001 3.983 -0.94300002 108 63 30
-3.747 3.95 -0.92900002 79 52 35
-3.7479999 3.9519999 -0.94 47 22 2
-3.878 4.0149999 -0.93199998 214 170 125
-3.881 4.0159998 -0.921 168 127 95
-3.875 4.0159998 -0.93099999 240 195 153
-3.9070001 4.0359998 -0.89300001 134 92 67
-3.882 4.0159998 -0.93199998 131 101 73
-3.9070001 4.0339999 -0.93199998 75 38 11
-3.8900001 4.0279999 -0.84200001 137 72 32
-3.7460001 4.0279999 -0.847 37 0 0
-3.7520001 4.0300002 -0.847 181 137 92
-3.76 3.9460001 -0.90200001 222 166 107
-3.743 4.006 -0.83600003 101 56 35
-3.7609999 3.9979999 -0.82700002 94 55 40
-3.776 4.0009999 -0.84399998 252 194 131
-3.7720001 4.0110002 -0.84100002 100 43 13
-3.7620001 4.0149999 -0.83399999 105 60 37
-3.7609999 4.0100002 -0.83399999 193 158 128
-3.7609999 4.0050001 -0.833 122 66 19
-3.783 3.9360001 -0.917 134 67 15
-3.9200001 4.0380001 -0.89200002 154 119 81
-3.914 4.0510001 -0.96499997 67 31 7
-3.858 4.066 -0.98299998 246 215 186
-3.8670001 4.0830002 -0.98400003 171 141 117
-3.8740001 4.0830002 -0.98100001 150 122 100
-3.859 4.0799999 -0.98199999 153 136 128
-3.9070001 4.0349998 -0.95999998 106 44 5
-3.9100001 4.0609999 -0.96899998 53 30 24
-3.881 4.0599999 -0.96200001 102 48 14
-3.8789999 4.0539999 -0.95999998 90 62 48
-3.869 4.0619998 -0.94199997 70 35 7
-3.882 4.0689998 -0.96499997 137 84 44
-3.891 4.0279999 -0.96799999 170 142 120
-3.9130001 4.0619998 -0.986 190 141 98
-3.891 4.0489998 -0.83600003 175 118 63
-3.885 4.04 -0.83499998 214 162 114
-3.8859999 4.02 -0.85399997 163 131 108
-3.8889999 4.0640001 -0.991 210 178 157
-3.8770001 4.0749998 -0.98900002 154 110 85
-3.8789999 4.079 -0.97600001 124 93 72
-3.9100001 4.0419998 -1.007 147 99 61
-3.905 4.0409999 -1.007 92 46 20
-3.905 4.0640001 -0.95099998 149 121 99
-3.8840001 4.0749998 -0.88700002 134 92 70
-3.8929999 4.0669999 -0.89399999 91 61 35
-3.892 4.0710001 -0.88 220 150 91
-3.8770001 4.073 -0.89300001 82 31 2
-3.8929999 4.059 -0.91100001 164 139 132
-3.8800001 4.0650001 -0.91799998 78 26 4
-3.8640001 4.072 -0.88800001 204 122 75
-3.8710001 4.059 -0.89200002 101 36 16
-3.8570001 4.0700002 -0.889 106 60 34
-3.862 4.0770001 -0.88800001 233 174 116
-3.8840001 4.0570002 -0.903 125 88 61
-3.8710001 4.0549998 -0.92199999 160 106 68
-3.8729999 4.0609999 -0.92799997 162 146 133
-3.8659999 4.0770001 -0.87699997 218 175 132
-3.902 4.0609999 -0.847 142 93 37
-3.8940001 4.0609999 -0.85100001 51 12 0
-3.7839999 3.9909999 -0.94499999 64 32 9
-3.79 4.007 -0.92299998 90 51 18
-3.7969999 3.9719999 -0.92900002 97 81 81
-3.7969999 3.9809999 -0.93400002 101 60 40
-3.7920001 3.9790001 -0.94599998 101 60 28
-3.757 4.0019999 -0.91000003 116 50 16
-3.7720001 4.006 -0.89600003 49 26 20
-3.7609999 4.0089998 -0.889 41 11 0
-3.7119999 4.0040002 -0.86699998 201 131 71
-3.7219999 3.9949999 -0.88 102 75 56
-3.7969999 4.0190001 -0.917 64 34 24
-3.803 4.0120001 -0.912 57 46 44
-3.799 4.0170002 -0.90799999 252 168 82
-3.803 4.0079999 -0.90399998 176 119 76
-3.8840001 4.0209999 -0.86000001 165 105 69
-3.8800001 4.0240002 -0.86299998 115 60 21
-3.813 3.987 -0.89899999 195 132 81
-3.767 4.013 -0.87699997 130 101 83
-3.8 3.9860001 -0.87199998 190 119 63
-3.7260001 3.994 -0.83399999 129 52 0
-3.7309999 3.9960001 -0.83499998 183 155 134
-3.7119999 3.9949999 -0.87400001 96 79 71
-3.72 3.9820001 -0.875 180 151 133
-3.7160001 4 -0.85399997 172 117 53
-3.7179999 4.0139999 -0.85799998 141 104 62
-3.723 4.0190001 -0.861 83 55 43
-3.7390001 3.961 -0.91500002 147 110 81
-3.7379999 3.9660001 -0.90600002 91 74 48
-3.743 3.9660001 -0.921 116 77 48
-3.7420001 3.961 -0.91900003 150 106 77
-3.8310001 4.0180001 -1.012 214 158 101
-3.823 4.0100002 -1.003 181 133 85
-3.8269999 4.0159998 -0.99699998 114 81 72
-3.855 4.02 -1.021 249 175 78
-3.8139999 4.007 -1.008 237 151 50
-3.823 3.994 -1.021 162 107 40
-3.8169999 3.993 -1.031 106 68 47
-3.8380001 3.9990001 -1.039 61 27 15
-3.862 3.997 -1.028 96 65 45
-3.849 3.9860001 -0.99599999 217 140 58
-3.8599999 3.9920001 -1.002 160 111 68
-3.8640001 4.0300002 -1.016 150 79 23
-3.8610001 4.0320001 -1.025 117 67 32
-3.8729999 4.0469999 -0.99900001 104 64 38
-3.8699999 4.046 -0.99400002 141 90 63
-3.872 4.0279999 -1.006 82 62 37
-3.8770001 4.0380001 -0.99400002 70 49 32
-3.921 4.0539999 -1.025 154 108 92
-3.8959999 4.0650001 -1.025 110 73 47
-3.8929999 4.0489998 -1.034 130 68 11
-3.8510001 3.994 -0.99400002 228 149 70
-3.9130001 4.04 -0.90799999 74 32 7
-3.9000001 4.0580001 -1.01 107 72 52
-3.9030001 4.0650001 -0.98799998 168 127 97
-3.8940001 4.059 -0.99699998 84 58 45
-3.8800001 4.0599999 -1.008 102 55 27
-3.882 4.0229998 -1.001 214 158 101
-3.8829999 4.0289998 -0.99699998 174 122 82
-3.9319999 4.0409999 -1.011 171 130 86
-3.937 4.0419998 -1.011 217 160 105
-3.891 4.052 -1.054 47 21 8
-3.8740001 4.0380001 -1.056 57 28 14
-3.869 4.0089998 -1.03 135 96 65
-3.8510001 4.0149999 -1.02 96 47 6
-3.8099999 3.9920001 -1.036 106 56 21
-3.8010001 3.9960001 -1.026 178 139 110
-3.8039999 3.9990001 -1.022 174 138 112
-3.813 3.9890001 -1.031 66 26 1
-3.8310001 4.0229998 -1.069 252 175 83
-3.8570001 4.0669999 -0.97500002 221 192 160
-3.859 4.0450001 -0.97100002 102 72 46
-3.8499999 4.046 -0.97500002 161 126 106
-3.882 4.0409999 -0.96200001 123 101 87
-3.8510001 4.0149999 -1.001 137 77 25
-3.849 4.0089998 -0.99699998 162 117 86
-3.8380001 4.0120001 -0.99000001 41 11 0
-3.8559999 4.0409999 -0.97299999 62 32 8
-3.862 4.0440001 -0.97799999 174 148 125
-3.848 4.0359998 -1.069 166 120 94
-3.7620001 4.0029998 -1.051 137 101 77
-3.776 3.9990001 -1.066 106 42 7
-3.7839999 3.9979999 -1.069 72 33 2
-3.773 3.9960001 -1.036 178 147 127
-3.7780001 3.9990001 -1.041 86 68 44
-3.7690001 4.0019999 -1.04 64 30 5
-3.7880001 3.997 -1.029 156 124 103
-3.8080001 3.9909999 -0.98799998 114 92 71
-3.796 3.9979999 -0.97299999 105 69 57
-3.812 3.9849999 -0.98699999 86 67 52
-3.793 3.9779999 -0.95599997 40 15 10
-3.7820001 3.9590001 -0.963 221 182 151
-3.7850001 3.96 -0.96200001 167 121 95
-3.7739999 3.951 -0.96399999 159 96 61
-3.7820001 3.9560001 -0.95700002 105 60 37
-3.793 3.97 -0.93599999 98 59 28
-3.77 4 -0.97799999 199 148 117
-3.7160001 3.9590001 -0.88800001 245 199 149
-3.7160001 3.9579999 -0.89399999 160 88 40
-3.7130001 3.964 -0.87800002 77 46 26
-3.733 3.937 -0.89700001 87 50 24
-3.7279999 3.9349999 -0.88999999 183 153 129
-3.763 3.974 -0.866 176 133 91
-3.7119999 3.957 -0.87800002 199 153 104
-3.7639999 3.9489999 -0.88200003 146 128 124
-3.7539999 3.941 -0.88800001 100 70 44
-3.7460001 3.9449999 -0.87199998 93 58 30
-3.737 3.9630001 -0.85699999 118 56 19
-3.733 3.948 -0.86500001 109 73 49
-3.7509999 3.957 -0.85399997 126 111 106
-3.721 3.9460001 -0.87199998 116 47 0
-3.7290001 3.9289999 -0.88300002 140 109 78
-3.7119999 3.9719999 -0.87300003 137 77 25
-3.724 3.973 -0.89399999 171 105 47
-3.7190001 3.973 -0.903 251 205 155
-3.727 3.9749999 -0.89999998 201 155 96
-3.7279999 3.9679999 -0.89999998 118 71 29
-3.7249999 3.9690001 -0.89999998 119 107 107
-3.7920001 3.9449999 -0.90799999 164 123 91
-3.8010001 3.931 -0.903 144 116 104
-3.7980001 3.937 -0.91299999 102 63 34
-3.7880001 3.9519999 -0.92400002 113 72 44
-3.8959999 4.0510001 -0.838 174 115 59
-3.875 3.9979999 -1.0190001 137 92 51
-3.8599999 3.9820001 -1.02 245 186 118
-3.8169999 3.9779999 -1.011 198 139 71
-3.8369999 3.9979999 -0.98799998 153 138 105
-3.8210001 4.007 -0.99699998 166 141 121
-3.7639999 3.9649999 -1.059 41 8 0
-3.7739999 3.9460001 -1.0190001 171 145 128
-3.7620001 3.951 -1.056 161 113 65
-3.7379999 3.994 -0.991 111 80 60
-3.737 3.997 -0.99400002 251 169 85
-3.7149999 3.9430001 -0.97500002 57 19 0
-3.7260001 3.9400001 -0.98299998 52 13 0
-3.72 3.9430001 -0.97500002 186 147 118
-3.7249999 3.9449999 -0.98400003 253 212 148
-3.786 3.961 -0.96899998 53 12 0
-3.7780001 3.961 -0.96899998 199 148 101
-3.7839999 3.9649999 -0.97399998 76 38 19
-3.812 3.9760001 -0.991 151 103 57
-3.802 3.9809999 -0.98500001 233 202 184
-3.7980001 3.9749999 -0.98900002 95 59 37
-3.7550001 3.9849999 -1.071 31 19 5
-3.7750001 3.9960001 -1.069 47 33 7
-3.822 4.0050001 -1.048 82 33 3
-3.7980001 3.9990001 -1.045 44 14 3
-3.809 3.993 -1.048 33 0 0
-3.7309999 4.02 -0.87699997 92 54 33
-3.743 3.9779999 -0.93699998 221 165 128
-3.734 3.9619999 -0.95200002 180 156 144
-3.7690001 4.0120001 -0.98500001 104 68 34
-3.783 4.0040002 -0.99800003 140 128 128
-3.793 3.9519999 -1.0470001 209 126 58
-3.7920001 3.954 -1.051 173 118 62
-3.802 3.964 -1.005 118 67 22
-3.802 3.9590001 -1.011 124 64 14
-3.803 3.967 -1 131 79 31
-3.8039999 3.971 -1.002 94 45 12
-3.7950001 3.957 -1.008 161 126 104
-3.766 3.987 -1.059 128 105 73
-3.8840001 4.0409999 -1.064 78 38 13
-3.7739999 3.9619999 -1.066 127 51 2
-3.8 3.9790001 -1.073 167 117 68
-3.7720001 3.941 -1.059 136 108 84
-3.77 3.9389999 -1.053 205 168 139
-3.7590001 4 -0.99800003 81 42 13
-3.766 4.0029998 -0.99599999 153 122 102
-3.74 3.9909999 -0.99299997 165 105 35
-3.7409999 3.9949999 -0.99599999 153 79 34
-3.7479999 3.9890001 -1 111 70 40
-3.74 3.9690001 -1.058 169 111 61
-3.744 3.973 -0.95499998 88 47 29
-3.733 3.9630001 -0.95999998 83 32 3
-3.734 4.007 -0.99800003 70 44 19
-3.7390001 4.0079999 -1.001 58 47 19
-3.7679999 3.993 -0.94999999 140 109 89
-3.76 3.994 -0.96100003 116 84 61
-3.724 3.954 -0.96100003 96 69 52
-3.72 3.9530001 -0.96700001 124 103 86
-3.7539999 3.934 -0.92299998 60 47 28
-3.723 3.941 -0.96200001 106 92 66
-3.7349999 3.9389999 -0.96200001 51 13 0
-3.7320001 3.937 -0.97799999 186 142 97
-3.7320001 3.937 -0.98000002 168 122 72
-3.76 3.9449999 -0.96600002 125 64 19
-3.723 3.951 -0.98199999 188 117 71
-3.7320001 3.96 -0.98199999 155 110 71
-3.7750001 3.9530001 -0.949 126 86 60
-3.7839999 3.9590001 -0.95599997 140 72 23
-3.74 3.9419999 -0.95599997 39 7 0
-3.7920001 3.9430001 -1.031 183 123 73
-3.7969999 3.9579999 -1.02 220 145 80
-3.747 3.967 -0.93000001 106 93 84
-3.7449999 3.9549999 -0.93000001 61 14 0
-3.7479999 3.9489999 -0.92199999 119 74 35
-3.905 4.04 -0.88 59 29 18
-3.885 4.0170002 -0.92299998 125 97 76
-3.895 4.027 -0.84200001 112 72 36
-3.888 4.0289998 -0.84299999 71 14 0
-3.885 4.0710001 -0.85699999 88 55 48
-3.8889999 4.072 -0.86199999 231 183 137
-3.869 4.0830002 -0.86799997 81 36 7
-3.878 4.0749998 -0.86799997 165 132 87
-3.8800001 4.0560002 -0.85000002 147 146 125
-3.8840001 4.0539999 -0.84500003 89 63 50
-3.776 4.026 -0.84899998 250 216 179
-3.8570001 4.0570002 -0.87 147 95 56
-3.8599999 4.0539999 -0.861 125 67 21
-3.862 4.059 -0.86400002 82 47 28
-3.8629999 4.0700002 -0.87400001 201 150 105
-3.8640001 4.0640001 -0.86900002 224 163 96
-3.8640001 4.066 -0.87099999 194 137 84
-3.7739999 3.9349999 -0.91000003 171 134 107
-3.7639999 4.0050001 -0.83700001 145 76 37
-3.7590001 4.0029998 -0.82800001 188 154 127
-3.7880001 3.97 -0.93900001 95 35 1
-3.9219999 4.0370002 -0.88499999 152 118 91
-3.9119999 4.0479999 -0.89099997 148 112 90
-3.858 4.0749998 -0.97899997 157 139 129
-3.9059999 4.0359998 -0.963 125 67 30
-3.911 4.0560002 -0.97100002 47 8 0
-3.9159999 4.0609999 -0.98100001 184 133 88
-3.9119999 4.0679998 -0.98199999 78 56 35
-3.905 4.0500002 -0.95300001 33 8 1
-3.878 4.0809999 -0.97299999 222 188 161
-3.8699999 4.0739999 -0.97399998 173 142 113
-3.8740001 4.0630002 -0.97399998 180 152 140
-3.914 4.0689998 -0.98400003 167 139 125
-3.898 4.0489998 -0.99000001 100 59 27
-3.8940001 4.0609999 -0.90399998 77 20 0
-3.891 4.059 -0.921 152 105 63
-3.881 4.0599999 -0.94599998 103 85 73
-3.868 4.0609999 -0.88800001 101 57 30
-3.881 4.0560002 -0.91399997 185 154 134
-3.8599999 4.0339999 -0.91299999 160 124 100
-3.8570001 4.0310001 -0.917 161 126 106
-3.8610001 4.0409999 -0.92500001 139 122 106
-3.8559999 4.0310001 -0.90799999 176 139 113
-3.875 4.0770001 -0.87099999 206 155 100
-3.8870001 4.073 -0.86900002 203 142 97
-3.8080001 3.9879999 -0.921 116 88 67
-3.7939999 3.997 -0.92500001 90 24 0
-3.7739999 4.006 -0.90399998 120 75 44
-3.7219999 4.0149999 -0.87800002 53 37 22
-3.7249999 4.0089998 -0.87800002 96 62 50
-3.7360001 4.0009999 -0.88999999 165 95 43
-3.7320001 3.9990001 -0.88599998 128 55 0
-3.799 4.0180001 -0.912 241 158 78
-3.803 4.0079999 -0.90700001 155 94 47
-3.8039999 4.0120001 -0.91600001 60 49 45
-3.823 4 -0.88200003 157 94 51
-3.862 4.0430002 -0.87400001 145 87 37
-3.858 4.059 -0.87800002 135 96 63
-3.7920001 4.006 -0.889 64 28 14
-3.7980001 4.0089998 -0.889 254 178 66
-3.753 4.0139999 -0.86799997 107 75 50
-3.77 3.987 -0.87199998 150 105 82
-3.8069999 3.987 -0.87699997 142 71 27
-3.793 3.973 -0.89999998 139 98 70
-3.7869999 3.9690001 -0.88999999 163 103 43
-3.7249999 3.9960001 -0.83700001 202 126 76
-3.7130001 3.9909999 -0.86900002 91 61 37
-3.717 3.9990001 -0.87599999 156 87 22
-3.7190001 4.0079999 -0.85299999 255 227 162
-3.7260001 4.0240002 -0.86699998 208 165 122
-3.8399999 3.994 -1.0089999 130 88 66
-3.8329999 4.0159998 -1.039 86 59 48
-3.8380001 4.0029998 -1.035 61 45 22
-3.8340001 4.007 -1.0190001 67 23 0
-3.8380001 4.0079999 -1.0190001 70 42 18
-3.8329999 4.0029998 -1.029 61 31 21
-3.8510001 4.0229998 -1.003 26 17 12
-3.822 3.984 -1.011 183 112 60
-3.8340001 3.9979999 -1.035 71 29 13
-3.822 4 -1.044 61 34 23
-3.8729999 4.0110002 -1.006 218 159 93
-3.8699999 4.0079999 -1.007 198 145 105
-3.8710001 4.0110002 -1.006 140 104 70
-3.8670001 4.0009999 -1.006 144 117 98
-3.8729999 4.0209999 -1.003 255 194 137
-3.849 4.0029998 -1.036 94 66 55
-3.862 4.0279999 -1.018 208 152 115
-3.855 4.02 -1.008 58 20 11
-3.8729999 4.0320001 -0.98400003 97 72 52
-3.872 4.0419998 -0.98299998 140 118 104
-3.878 4.0339999 -0.98500001 55 24 3
-3.882 4.0489998 -0.95899999 150 136 127
-3.8759999 4.0370002 -0.94599998 103 91 91
-3.901 4.0430002 -1.035 108 71 55
-3.902 4.0580001 -1.021 87 27 0
-3.9130001 4.0549998 -1.023 242 172 102
-3.8770001 4.0170002 -1.017 196 144 87
-3.8829999 4.0279999 -1.029 197 150 98
-3.8759999 4.0630002 -1.041 29 14 11
-3.8789999 4.059 -1.036 163 102 55
-3.855 3.99 -1 229 165 77
-3.8599999 3.9949999 -1.002 102 50 3
-3.8710001 4.0669999 -1.04 70 30 18
-3.8800001 4.0560002 -1.016 130 81 49
-3.8900001 4.0380001 -0.98100001 156 113 81
-3.898 4.0419998 -0.97399998 139 87 50
-3.9300001 4.0440001 -1.01 208 147 92
-3.8629999 4.046 -1.049 60 38 27
-3.865 4.0409999 -1.049 62 39 31
-3.8659999 4.033 -1.043 151 128 114
-3.869 4.013 -1.031 75 39 15
-3.8039999 3.994 -1.041 56 24 13
-3.8110001 3.997 -1.046 161 133 122
-3.826 4.0229998 -1.069 135 99 75
-3.8510001 4.0689998 -0.97899997 145 116 98
-3.855 4.0570002 -0.98100001 84 50 22
-3.8789999 4.0359998 -0.97299999 128 57 1
-3.872 4.0159998 -0.93400002 123 92 72
-3.7709999 3.9990001 -1.053 88 27 0
-3.7980001 3.993 -1.071 73 39 12
-3.7720001 4.0019999 -0.99599999 105 73 52
-3.7850001 3.9979999 -1.006 184 180 194
-3.7869999 4.0040002 -0.89600003 82 49 32
-3.7750001 4.0019999 -0.89099997 194 136 86
-3.7679999 3.997 -0.93300003 164 113 84
-3.724 3.9330001 -0.88800001 187 157 129
-3.7590001 3.957 -0.87800002 181 111 42
-3.7579999 3.971 -0.866 198 159 118
-3.7739999 3.994 -0.852 155 120 100
-3.7260001 3.974 -0.88099998 87 55 32
-3.7590001 3.9449999 -0.89099997 129 54 15
-3.747 3.9419999 -0.88099998 135 70 4
-3.743 3.944 -0.90600002 162 100 59
-3.734 3.9449999 -0.90200001 226 155 89
-3.744 3.941 -0.875 180 161 157
-3.73 3.96 -0.86400002 241 180 126
-3.7309999 3.9619999 -0.86299998 120 59 12
-3.7290001 3.944 -0.86799997 166 151 146
-3.7260001 3.9449999 -0.86900002 176 83 16
-3.7279999 3.971 -0.84799999 116 81 43
-3.7950001 3.9300001 -0.91100001 127 90 63
-3.872 3.9890001 -1.02 225 186 147
-3.8710001 3.9960001 -1.005 254 185 94
-3.835 3.994 -0.98799998 144 124 89
-3.8340001 3.997 -0.98900002 152 136 103
-3.8299999 4 -0.99000001 163 115 79
-3.7950001 3.96 -1.038 144 88 37
-3.786 3.9530001 -1.011 201 158 113
-3.7880001 3.967 -0.99400002 140 104 78
-3.796 3.9590001 -0.963 203 175 154
-3.802 3.987 -0.98199999 190 122 87
-3.8239999 4.0120001 -1.064 122 84 48
-3.7279999 4.0180001 -0.88 66 31 3
-3.7520001 3.9879999 -0.93900001 252 203 162
-3.7349999 3.9560001 -0.93599999 57 38 23
-3.763 4.0079999 -0.99299997 52 13 0
-3.7550001 3.9879999 -1.003 97 53 24
-3.7639999 3.9719999 -1.012 110 86 76
-3.756 3.9909999 -1.006 66 31 1
-3.753 3.9860001 -0.99900001 134 89 56
-3.8099999 3.9749999 -1.069 248 189 131
-3.7720001 3.9920001 -0.99800003 82 33 0
-3.7490001 3.9909999 -1.04 141 98 64
-3.7720001 3.993 -1.0369999 47 13 1
-3.7809999 3.9860001 -1.027 46 23 5
-3.8889999 4.039 -1.066 137 96 76
-3.7739999 3.971 -1.058 188 104 14
-3.7909999 3.9890001 -1.071 176 132 107
-3.789 3.9909999 -1.0700001 61 16 0
-3.789 3.997 -1.069 149 115 80
-3.7679999 3.9430001 -1.05 99 68 39
-3.7690001 3.9430001 -1.053 178 160 146
-3.7739999 3.9360001 -1.0650001 206 164 116
-3.77 3.9419999 -1.054 152 121 92
-3.7679999 3.997 -1.038 194 167 148
-3.7550001 4.013 -0.99599999 106 51 20
-3.743 3.9649999 -0.94700003 143 114 96
-3.7449999 3.974 -0.94800001 77 71 47
-3.73 3.96 -0.958 78 42 16
-3.7349999 4.0040002 -0.99299997 84 68 34
-3.756 3.99 -0.96100003 90 34 0
-3.7939999 3.9860001 -0.95499998 37 21 5
-3.7320001 3.9619999 -0.972 246 192 118
-3.7509999 3.931 -0.917 209 161 121
-3.7479999 3.944 -0.91100001 181 126 87
-3.76 3.9460001 -0.93000001 56 34 20
-3.7550001 3.9449999 -0.95099998 113 67 33
-3.7349999 3.937 -0.97399998 221 156 66
-3.7309999 3.9389999 -0.972 164 125 110
-3.7490001 3.948 -0.97000003 243 189 125
-3.75 3.9449999 -0.96600002 118 63 22
-3.7490001 3.9489999 -0.97100002 254 190 142
-3.7460001 3.944 -0.96700001 223 155 82
-3.7379999 3.944 -0.977 162 92 40
-3.7260001 3.9560001 -0.96499997 82 57 37
-3.7379999 3.9389999 -0.96700001 234 154 65
-3.747 3.9449999 -0.95999998 199 115 17
-3.773 3.9619999 -0.97299999 38 4 0
-3.8629999 4.0190001 -0.91399997 131 78 34
-3.872 4.026 -0.90399998 62 21 0
-3.8870001 4.0209999 -0.92199999 116 90 77
-3.8829999 4.0240002 -0.91100001 117 80 64
-3.914 4.052 -0.921 154 120 93
-3.8699999 4.0580001 -0.94199997 155 137 117
-3.8789999 4.059 -0.94300002 181 160 141
-3.8900001 4.0250001 -0.84399998 81 45 9
-3.7709999 4.0229998 -0.85000002 247 210 166
-3.8670001 4.0700002 -0.86900002 206 155 98
-3.858 4.0700002 -0.88200003 97 48 15
-3.7809999 3.9460001 -0.92400002 140 70 18
-3.734 4 -0.83600003 177 118 60
-3.777 3.9519999 -0.93000001 52 16 4
-3.7780001 3.948 -0.926 41 3 0
-3.7820001 3.961 -0.93800002 85 37 15
-3.891 4.0599999 -0.86199999 151 110 78
-3.9070001 4.039 -0.96399999 110 56 9
-3.9089999 4.0409999 -0.96399999 224 151 82
-3.9000001 4.0619998 -0.958 120 97 83
-3.895 4.0640001 -0.96100003 130 103 86
-3.8670001 4.072 -0.97399998 151 121 93
-3.8710001 4.0770001 -0.977 188 157 129
-3.865 4.0609999 -0.97500002 144 103 71
-3.8729999 4.059 -0.97299999 157 125 102
-3.8829999 4.0419998 -0.954 126 109 93
-3.8859999 4.052 -0.84200001 187 160 143
-3.9100001 4.0570002 -1.011 185 144 112
-3.902 4.059 -0.93300003 54 26 12
-3.8959999 4.0640001 -0.93800002 73 40 31
-3.8870001 4.0599999 -0.912 72 31 11
-3.8889999 4.0619998 -0.92699999 87 51 37
-3.885 4.0630002 -0.93400002 55 20 0
-3.8840001 4.0599999 -0.949 81 45 33
-3.8900001 4.066 -0.96200001 97 82 75
-3.869 4.0489998 -0.93199998 124 62 21
-3.8710001 4.0539999 -0.93000001 146 83 40
-3.891 4.0510001 -0.84200001 105 57 35
-3.888 4.0619998 -0.85299999 71 29 13
-3.7920001 3.973 -0.912 185 132 100
-3.7349999 4.0079999 -0.88499999 207 128 71
-3.8039999 4.006 -0.89999998 183 122 31
-3.803 4.0029998 -0.90499997 175 122 80
-3.8199999 4 -0.88599998 169 110 70
-3.8599999 4.0489998 -0.86400002 169 106 53
-3.8110001 3.994 -0.884 214 150 112
-3.8169999 3.9960001 -0.87800002 175 112 77
-3.8010001 3.9909999 -0.87800002 137 76 31
-3.802 4.0019999 -0.917 105 91 82
-3.7839999 4.0029998 -0.88 88 52 38
-3.757 4.0079999 -0.884 65 32 13
-3.75 4.0089998 -0.875 60 29 1
-3.72 4.013 -0.85500002 190 159 104
-3.7249999 4.0159998 -0.85399997 141 76 36
-3.73 4.0170002 -0.84799999 158 139 125
-3.727 4.0120001 -0.84899998 205 140 84
-3.75 4.0219998 -0.84100002 198 136 95
-3.737 3.9619999 -0.90799999 103 60 25
-3.7279999 3.9549999 -0.90700001 105 62 19
-3.7219999 3.954 -0.90200001 75 50 28
-3.8399999 3.9860001 -1.001 179 109 50
-3.845 4.0089998 -1.028 79 47 34
-3.8050001 4.0050001 -1.0140001 90 49 29
-3.8 4.0040002 -1.015 92 39 5
-3.796 3.9990001 -1.021 53 44 37
-3.839 4.0110002 -1.013 189 141 105
-3.8169999 3.9979999 -1.018 136 78 30
-3.8629999 4.027 -1.01 41 32 37
-3.8640001 4.0349998 -1.028 69 36 19
-3.8699999 4.0409999 -1.036 137 79 41
-3.868 4.0359998 -1.04 168 121 77
-3.8699999 4.0419998 -1.03 186 122 61
-3.8729999 4.0570002 -1.049 188 133 79
-3.8729999 4.0609999 -1.04 100 82 78
-3.872 4.0510001 -1.041 170 116 70
-3.8610001 4.0009999 -1.002 152 99 47
-3.8540001 4.0029998 -1.001 205 146 86
-3.891 4.0700002 -0.98000002 90 55 33
-3.8870001 4.059 -1.0190001 113 80 61
-3.8659999 4.033 -1.046 188 149 108
-3.812 3.994 -1.043 156 123 114
-3.8199999 4.0019999 -1.05 186 132 88
-3.826 4.0279999 -1.069 181 147 119
-3.859 4.0549998 -0.98199999 220 165 126
-3.8740001 4.033 -0.97799999 100 55 16
-3.7579999 3.974 -1.034 236 162 101
-3.7479999 3.9779999 -1.039 112 87 65
-3.7579999 3.9779999 -1.034 177 104 49
-3.74 3.9719999 -1.04 37 9 0
-3.7709999 4.0040002 -1.044 40 6 0
-3.7939999 3.9960001 -1.039 66 25 7
-3.7820001 3.993 -1.011 195 167 143
-3.7839999 3.9879999 -1.024 175 148 127
-3.7490001 4.0120001 -0.98400003 152 107 68
-3.789 4.02 -0.917 201 168 137
-3.7909999 4.0149999 -0.91299999 201 141 89
-3.8010001 4.0100002 -0.90200001 209 128 36
-3.7190001 3.9630001 -0.89399999 156 84 44
-3.721 3.938 -0.89300001 149 122 101
-3.7590001 3.95 -0.87599999 113 86 65
-3.7449999 3.9630001 -0.88200003 110 63 35
-3.7449999 3.9549999 -0.87199998 85 25 0
-3.7460001 3.9449999 -0.87900001 255 179 78
-3.727 3.98 -0.84399998 105 55 22
-3.7179999 3.964 -0.87300003 227 190 146
-3.8870001 4.0219998 -0.85799998 177 119 71
-3.835 4.007 -0.991 44 27 19
-3.832 4.0110002 -0.995 252 180 98
-3.832 4.0019999 -0.99000001 92 74 62
-3.836 4.0009999 -0.98900002 166 146 119
-3.835 4.0040002 -0.99000001 150 107 72
-3.8150001 4.0029998 -1 222 170 120
-3.8139999 4.0040002 -1.0039999 197 144 102
-3.8169999 4.0040002 -0.99900001 149 125 101
-3.819 3.9949999 -0.99000001 95 36 0
-3.7409999 4.0009999 -0.98500001 202 129 84
-3.7909999 3.971 -0.98000002 232 165 94
-3.7939999 3.9719999 -0.99199998 227 168 92
-3.7909999 3.961 -1.007 154 98 24
-3.7720001 3.964 -0.98400003 93 45 9
-3.7880001 3.9990001 -0.99599999 87 41 0
-3.793 3.9960001 -0.995 103 61 23
-3.7590001 4.0019999 -1.045 170 145 138
-3.802 4.0050001 -1.008 210 141 38
-3.793 4.0040002 -1.006 65 54 52
-3.7920001 4.0019999 -1.01 122 104 102
-3.7449999 4.0120001 -0.98699999 68 32 8
-3.7520001 4.0139999 -0.986 223 146 78
-3.7690001 3.9460001 -1.035 108 67 37
-3.7720001 3.964 -1.0140001 199 164 145
-3.7709999 3.9549999 -1.0190001 161 82 23
-3.7639999 3.9560001 -1.023 147 66 3
-3.763 3.9660001 -0.995 89 54 34
-3.7509999 3.9820001 -1.039 146 61 4
-3.7539999 3.984 -1.04 110 58 21
-3.744 4.006 -1.002 242 215 186
-3.753 4.0019999 -1.05 117 82 52
-3.809 3.9749999 -1.073 222 166 117
-3.7679999 3.947 -1.056 99 72 53
-3.7460001 3.98 -0.98799998 134 107 80
-3.7449999 3.9719999 -0.94300002 58 36 25
-3.7320001 3.961 -0.96600002 241 184 117
-3.7309999 4.0110002 -0.99800003 63 43 32
-3.7349999 4.006 -0.98900002 109 54 24
-3.7839999 3.9890001 -0.94800001 99 64 45
-3.7869999 3.9849999 -0.95899999 77 34 2
-3.723 3.9549999 -0.96399999 94 69 49
-3.7539999 3.9349999 -0.91799998 157 106 61
-3.7420001 3.9419999 -0.96600002 212 150 91
-3.7320001 3.9449999 -0.98299998 143 81 40
-3.7520001 3.951 -0.93599999 35 19 6
-3.898 4.027 -0.89499998 129 85 58
-3.911 4.046 -0.93900001 50 22 10
-3.9100001 4.0510001 -0.87800002 113 92 75
-3.9100001 4.046 -0.88300002 40 7 0
-3.9100001 4.0500002 -0.89099997 141 101 76
-3.882 4.0229998 -0.84899998 129 58 12
-3.862 4.0619998 -0.87199998 215 127 40
-3.8599999 4.052 -0.86799997 155 121 96
-3.882 4.0679998 -0.85799998 50 10 2
-3.8859999 4.066 -0.85399997 188 141 99
-3.8050001 3.9790001 -0.92199999 86 40 6
-3.793 3.977 -0.91100001 171 102 45
-3.9030001 4.0380001 -0.88300002 116 84 71
-3.902 4.0370002 -0.884 120 70 37
-3.895 4.0300002 -0.89200002 121 85 53
-3.885 4.0279999 -0.88999999 150 121 103
-3.8940001 4.0310001 -0.88999999 90 43 13
-3.9059999 4.0430002 -0.96799999 105 61 34
-3.868 4.0809999 -0.98100001 159 127 106
-3.898 4.0619998 -0.95700002 160 135 115
-3.8770001 4.0710001 -0.972 154 120 93
-3.8940001 4.0710001 -0.96899998 45 32 16
-3.9000001 4.0710001 -0.97500002 87 70 54
-3.8889999 4.039 -0.99400002 149 130 123
-3.9100001 4.052 -1.008 248 201 159
-3.865 4.039 -0.912 118 99 84
-3.875 4.0469999 -0.90100002 56 28 14
-3.891 4.0650001 -0.93099999 154 128 111
-3.885 4.059 -0.94300002 54 16 5
-3.8889999 4.0609999 -0.958 46 22 12
-3.865 4.046 -0.93599999 152 130 119
-3.7650001 4.0110002 -0.85399997 249 212 167
-3.7709999 3.9979999 -0.85000002 159 97 36
-3.7869999 3.9890001 -0.93300003 69 33 11
-3.789 4.0009999 -0.92400002 109 68 46
-3.7360001 4.007 -0.88800001 130 99 71
-3.7360001 4.0170002 -0.87300003 144 129 126
-3.7179999 4.007 -0.85500002 204 160 99
-3.816 3.9879999 -0.88599998 102 54 5
-3.869 4.039 -0.86699998 132 120 72
-3.8710001 4.0349998 -0.87400001 61 30 10
-3.7969999 4 -0.88800001 255 203 94
-3.7390001 4.0019999 -0.83499998 88 51 35
-3.7190001 3.973 -0.86299998 120 85 47
-3.7219999 4.0110002 -0.852 208 184 120
-3.7279999 4.0159998 -0.85100001 116 77 20
-3.7650001 4.0219998 -0.84500003 187 149 102
-3.7420001 3.9519999 -0.91100001 104 51 19
-3.747 3.9449999 -0.88599998 219 181 144
-3.744 3.941 -0.88499999 211 146 42
-3.7349999 3.9619999 -0.90499997 138 93 60
