ply
format ascii 1.0
comment PCL generated
element vertex 1182
property float x
property float y
property float z
property uchar red
property uchar green
property uchar blue
element camera 0
property float view_px
property float view_py
property float view_pz
property float x_axisx
property float x_axisy
property float x_axisz
property float y_axisx
property float y_axisy
property float y_axisz
property float z_axisx
property float z_axisy
property float z_axisz
property float focal
property float scalex
property float scaley
property float centerx
property float centery
property int viewportx
property int viewporty
property float k1
property float k2
end_header
-3.9030001 9.415 -0.76999998 189 102 33
-3.849 9.3310003 -0.77399999 110 91 85
-4 9.2600002 -0.59899998 229 162 58
-3.8399999 9.2930002 -0.77999997 186 141 100
-3.8440001 9.3000002 -0.76899999 142 120 106
-3.967 9.2600002 -0.59100002 220 119 37
-3.967 9.2629995 -0.58899999 103 62 40
-3.9790001 9.2609997 -0.57200003 202 138 94
-3.882 9.2840004 -1.02 191 135 84
-3.8789999 9.2880001 -1.007 224 172 112
-3.8770001 9.2860003 -1.027 245 175 126
-3.9679999 9.2589998 -0.59399998 154 97 54
-3.846 9.2869997 -0.79400003 101 68 49
-3.8469999 9.2840004 -0.78799999 186 130 113
-3.8340001 9.3100004 -0.787 243 156 59
-3.8329999 9.2980003 -0.78600001 141 94 50
-3.967 9.2889996 -0.82300001 97 34 1
-3.911 9.3199997 -1.063 240 162 80
-3.957 9.3450003 -1.044 209 159 124
-3.95 9.3409996 -1.059 92 67 36
-3.961 9.3610001 -1.041 210 157 105
-3.9630001 9.3479996 -1.026 165 122 80
-3.9560001 9.3559999 -1.035 174 148 113
-3.9820001 9.3509998 -0.88099998 160 88 38
-3.9790001 9.3540001 -0.875 173 83 20
-3.9790001 9.3629999 -0.88099998 126 66 30
-3.8940001 9.3529997 -1.0549999 132 83 42
-3.895 9.3549995 -1.0470001 81 22 0
-3.9300001 9.3620005 -1.024 168 101 49
-3.937 9.3610001 -1.029 154 95 39
-3.8929999 9.3610001 -1.035 122 74 38
-3.882 9.3400002 -1.0319999 234 192 152
-3.924 9.3629999 -1.018 86 21 0
-3.9579999 9.3509998 -1.025 178 78 3
-3.901 9.434 -0.66900003 196 153 119
-3.9119999 9.4429998 -0.67900002 139 110 78
-3.908 9.4429998 -0.67900002 55 40 37
-3.891 9.3669996 -0.62599999 135 107 103
-3.8859999 9.3640003 -0.63 61 25 9
-3.9000001 9.3789997 -0.62099999 93 61 23
-3.8959999 9.3870001 -0.62900001 254 176 101
-3.908 9.4200001 -0.65100002 203 154 113
-3.8840001 9.3529997 -0.62199998 183 86 9
-3.8699999 9.323 -0.79299998 83 57 34
-3.868 9.3299999 -0.79299998 184 107 51
-3.875 9.3299999 -0.78899997 213 118 24
-3.8510001 9.2939997 -0.77100003 96 67 59
-3.855 9.302 -0.76599997 180 100 37
-3.855 9.2950001 -0.76999998 132 82 47
-3.895 9.3369999 -1.057 117 60 17
-3.882 9.3369999 -1.052 205 116 56
-3.882 9.3430004 -1.056 54 38 23
-4.007 9.2639999 -0.59200001 255 229 182
-3.878 9.342 -1.0549999 247 165 105
-3.8840001 9.3059998 -1.035 149 104 73
-3.8840001 9.3129997 -1.013 76 52 40
-3.8840001 9.3140001 -1.038 116 67 35
-3.8829999 9.302 -1.018 139 87 50
-3.8800001 9.3000002 -1.0039999 168 100 25
-3.8710001 9.2930002 -0.86199999 130 86 59
-3.8670001 9.2930002 -0.85699999 150 109 65
-3.862 9.2989998 -0.85900003 149 79 17
-3.862 9.2989998 -0.85299999 200 141 75
-3.8629999 9.2969999 -0.84600002 173 133 97
-3.8840001 9.2910004 -1.0319999 183 130 96
-3.891 9.2880001 -1.021 159 95 57
-3.9119999 9.3929996 -0.80299997 158 116 78
-3.869 9.309 -0.80500001 227 109 21
-3.872 9.3120003 -0.81099999 195 84 2
-3.868 9.3100004 -0.80699998 149 97 57
-3.8729999 9.3109999 -0.84899998 165 119 70
-3.8740001 9.3039999 -0.84899998 155 110 71
-3.9749999 9.3640003 -0.87199998 176 122 75
-3.9779999 9.3509998 -0.87 131 79 42
-3.971 9.3529997 -0.87 133 79 41
-3.9630001 9.2959995 -0.82700002 210 131 64
-3.964 9.2959995 -0.82200003 177 99 33
-4.007 9.2740002 -0.57200003 111 64 12
-4 9.2919998 -0.56999999 143 119 71
-3.993 9.2659998 -0.57200003 109 60 2
-4.0029998 9.2690001 -0.58099997 162 130 81
-3.9690001 9.2779999 -0.583 104 53 6
-3.9619999 9.2840004 -0.58399999 216 161 107
-3.9649999 9.2919998 -0.57300001 203 142 95
-3.925 9.4350004 -0.67900002 193 122 60
-3.9100001 9.4250002 -0.69400001 105 90 85
-3.911 9.4420004 -0.68800002 207 186 159
-3.9779999 9.3149996 -0.61400002 57 39 37
-3.9779999 9.2989998 -0.61299998 60 42 40
-3.983 9.302 -0.61199999 220 201 195
-3.987 9.2919998 -0.61299998 147 88 44
-3.8889999 9.3509998 -0.61799997 193 91 16
-3.8940001 9.3929996 -0.792 186 136 99
-3.888 9.3999996 -0.79900002 161 87 14
-3.8870001 9.3959999 -0.79500002 177 99 50
-3.9130001 9.3839998 -0.79000002 130 87 55
-3.905 9.3859997 -0.79299998 41 13 0
-3.9070001 9.3970003 -0.801 85 39 13
-3.9130001 9.3699999 -0.79400003 151 114 87
-3.901 9.3929996 -0.79299998 77 33 4
-3.9000001 9.3979998 -0.796 161 90 36
-3.8829999 9.4259996 -0.67900002 131 84 42
-3.885 9.4329996 -0.66299999 92 38 0
-3.8429999 9.2930002 -0.77700001 190 145 103
-3.849 9.2869997 -0.778 224 131 36
-3.8410001 9.29 -0.78799999 193 146 102
-3.836 9.2919998 -0.78500003 139 78 21
-3.836 9.309 -0.79699999 137 95 57
-3.836 9.309 -0.80400002 76 48 26
-3.8440001 9.3120003 -0.80299997 81 40 18
-3.8599999 9.2889996 -0.78600001 194 155 124
-3.865 9.2919998 -0.78399998 147 95 55
-3.9530001 9.3009996 -0.82099998 218 111 31
-3.934 9.3210001 -0.824 74 30 5
-3.9519999 9.3059998 -0.82599998 77 33 8
-3.9460001 9.3170004 -0.84399998 77 23 0
-3.938 9.3100004 -0.83999997 136 89 63
-4.0180001 9.2910004 -0.59200001 92 43 10
-4.0079999 9.29 -0.59600002 92 80 82
-3.9719999 9.2740002 -0.61199999 145 107 86
-3.964 9.2790003 -0.61299998 150 83 28
-3.964 9.2659998 -0.60600001 251 202 144
-3.971 9.2749996 -0.61199999 149 89 39
-3.9849999 9.2810001 -0.61400002 178 112 54
-3.9779999 9.3140001 -0.611 173 126 80
-3.9990001 9.3050003 -0.60699999 182 116 55
-3.9590001 9.3500004 -1.062 231 178 84
-3.9519999 9.3500004 -1.049 179 125 78
-3.9489999 9.3479996 -1.052 218 153 61
-3.9530001 9.3479996 -1.0420001 239 183 132
-3.924 9.3559999 -1.061 187 129 83
-3.9100001 9.3520002 -1.046 110 55 24
-3.9200001 9.3450003 -1.057 146 91 52
-3.9289999 9.342 -1.061 190 151 112
-3.908 9.3929996 -0.787 148 98 65
-3.892 9.3900003 -0.986 124 51 16
-3.8959999 9.3879995 -0.986 187 115 43
-3.8889999 9.3879995 -0.98900002 148 81 11
-3.882 9.3269997 -0.91600001 105 59 33
-3.881 9.3179998 -0.92900002 176 89 20
-3.881 9.3179998 -0.92500001 182 102 29
-3.9560001 9.3549995 -1.0470001 170 143 113
-3.9560001 9.3579998 -1.0369999 234 174 120
-3.964 9.3380003 -1.03 148 106 64
-3.9579999 9.3269997 -1.034 250 197 129
-3.9590001 9.3319998 -1.028 190 141 109
-3.9719999 9.3459997 -0.87 153 76 24
-3.9660001 9.3450003 -0.866 178 86 13
-3.9189999 9.3290005 -1.061 149 93 42
-3.9330001 9.3599997 -1.024 174 125 85
-3.9100001 9.3500004 -1.0140001 163 114 74
-3.925 9.3500004 -1.016 186 111 54
-3.8940001 9.4359999 -0.66799998 172 135 109
-3.8900001 9.4309998 -0.67400002 224 143 61
-3.9890001 9.283 -0.56999999 185 97 25
-3.9890001 9.2889996 -0.574 242 149 45
-3.987 9.2770004 -0.565 204 139 99
-3.997 9.2889996 -0.57200003 129 88 60
-3.8380001 9.3079996 -0.77100003 184 131 91
-3.845 9.3030005 -0.76999998 201 113 26
-3.8380001 9.3179998 -0.78799999 223 131 54
-3.8829999 9.3319998 -0.63499999 155 104 51
-3.8889999 9.3140001 -0.634 63 36 19
-3.8840001 9.3299999 -0.63700002 255 169 90
-3.891 9.3179998 -0.62400001 222 151 95
-3.888 9.3570004 -0.62099999 180 134 101
-3.9260001 9.2950001 -0.72100002 152 96 47
-3.9289999 9.3030005 -0.72299999 167 102 60
-3.918 9.3109999 -0.72399998 182 170 148
-3.925 9.2989998 -0.72000003 165 139 124
-3.9690001 9.2950001 -0.77899998 218 127 44
-3.9690001 9.3009996 -0.78200001 182 151 122
-3.9690001 9.2950001 -0.77399999 209 125 37
-3.9159999 9.2980003 -0.71399999 158 95 16
-3.915 9.302 -0.71100003 171 123 83
-3.9189999 9.29 -0.71200001 148 126 113
-3.8599999 9.2939997 -0.77200001 225 178 134
-3.8699999 9.2950001 -0.77399999 181 95 20
-3.914 9.3079996 -0.71399999 157 91 41
-3.9809999 9.309 -0.59600002 121 106 103
-3.9760001 9.3149996 -0.59399998 159 118 100
-3.9779999 9.3179998 -0.59799999 80 38 14
-3.974 9.3120003 -0.59799999 54 34 27
-3.891 9.3319998 -0.62 167 115 58
-3.8929999 9.3280001 -0.61699998 161 114 70
-3.8469999 9.3000002 -0.76899999 228 144 54
-3.902 9.3360004 -1.0599999 112 66 30
-3.9000001 9.3479996 -1.053 107 57 20
-3.99 9.2650003 -0.57200003 120 61 17
-3.9879999 9.2690001 -0.57200003 123 85 40
-3.9879999 9.2629995 -0.574 177 100 32
-3.9590001 9.2740002 -0.602 162 113 80
-3.983 9.2690001 -0.57300001 130 89 45
-3.983 9.2620001 -0.57300001 199 160 131
-4.006 9.2690001 -0.58200002 191 119 61
-4.007 9.2600002 -0.602 232 140 65
-3.994 9.2629995 -0.579 172 130 90
-3.8870001 9.3170004 -1.034 211 112 45
-3.8840001 9.3210001 -1.038 159 88 36
-3.8800001 9.3210001 -1.0470001 150 130 123
-3.888 9.335 -1.04 150 92 44
-3.8859999 9.342 -1.039 168 109 65
-3.882 9.2989998 -1.011 136 54 14
-3.898 9.335 -1.011 112 107 111
-3.908 9.342 -1.01 97 74 68
-3.898 9.3339996 -1.003 73 47 34
-3.868 9.3000002 -0.86699998 148 68 7
-3.875 9.3079996 -0.86699998 171 128 73
-3.8800001 9.3120003 -0.92900002 169 71 8
-3.9560001 9.335 -1.041 144 99 57
-3.9200001 9.3179998 -1.058 172 128 79
-3.9000001 9.3319998 -0.82099998 193 121 71
-3.905 9.3360004 -0.81300002 171 104 59
-3.902 9.3360004 -0.81900001 130 67 23
-3.901 9.3330002 -0.82700002 162 96 48
-3.9089999 9.3299999 -0.833 154 109 70
-3.8970001 9.335 -0.82499999 131 67 23
-3.885 9.3210001 -0.86500001 125 81 52
-3.882 9.3140001 -0.85699999 212 113 30
-3.902 9.408 -0.80000001 245 185 113
-3.9070001 9.4069996 -0.80400002 143 105 84
-3.905 9.4099998 -0.80500001 199 135 61
-3.9059999 9.4160004 -0.81400001 195 143 96
-4.013 9.2770004 -0.57999998 99 73 50
-4.0019999 9.2779999 -0.57499999 142 94 58
-3.974 9.3000002 -0.57800001 135 42 0
-3.97 9.2720003 -0.58600003 243 166 60
-3.9760001 9.2659998 -0.58200002 242 148 61
-3.9760001 9.2729998 -0.57999998 198 109 7
-3.8870001 9.3240004 -0.64300001 118 84 39
-3.8900001 9.3140001 -0.63499999 129 77 29
-3.846 9.3179998 -0.76800001 78 54 52
-3.9260001 9.4280005 -0.67900002 183 116 61
-3.927 9.427 -0.67699999 204 140 104
-3.914 9.4280005 -0.68800002 58 35 17
-3.9030001 9.4239998 -0.68400002 205 136 81
-3.898 9.3999996 -0.79799998 240 176 86
-3.9860001 9.2639999 -0.60500002 231 153 79
-3.848 9.2849998 -0.78200001 114 79 57
-3.862 9.2939997 -0.77600002 255 175 63
-3.8559999 9.2889996 -0.778 244 163 45
-3.8529999 9.2869997 -0.78200001 240 156 40
-3.8629999 9.2939997 -0.778 147 102 61
-3.9749999 9.3030005 -0.787 99 84 51
-3.9760001 9.3070002 -0.78299999 168 134 96
-3.9749999 9.2969999 -0.78200001 213 161 113
-3.9779999 9.2910004 -0.79100001 55 10 0
-3.9260001 9.3199997 -0.82499999 97 52 29
-3.9130001 9.3339996 -0.81400001 194 122 74
-3.9100001 9.3380003 -0.81300002 145 76 34
-3.9200001 9.3330002 -0.815 89 42 24
-3.8570001 9.2950001 -0.79699999 204 86 0
-3.862 9.3009996 -0.792 149 128 111
-3.8629999 9.2969999 -0.78899997 196 136 66
-3.8659999 9.2939997 -0.78500003 185 131 67
-3.862 9.2939997 -0.78899997 235 146 42
-3.8559999 9.3389997 -0.78200001 152 120 81
-4.0139999 9.2819996 -0.59200001 97 69 47
-4.006 9.2819996 -0.60299999 169 114 73
-4.0120001 9.2749996 -0.60100001 222 160 113
-3.9849999 9.3039999 -0.58700001 254 235 228
-3.997 9.3009996 -0.60399997 128 74 38
-3.99 9.3030005 -0.60799998 74 38 12
-3.9560001 9.3479996 -1.062 132 90 50
-3.9119999 9.3590002 -1.045 110 62 24
-3.924 9.3529997 -1.0549999 49 22 1
-3.948 9.3570004 -1.063 185 144 100
-3.9519999 9.3520002 -1.062 254 195 105
-3.9300001 9.3500004 -1.01 130 64 16
-3.8840001 9.3269997 -0.94199997 87 60 41
-3.8929999 9.3389997 -0.93800002 192 122 52
-3.961 9.3330002 -1.035 178 136 94
-3.957 9.3450003 -0.94499999 151 95 36
-3.9519999 9.3520002 -0.94199997 169 89 36
-3.951 9.3529997 -0.95300001 192 101 28
-3.9549999 9.3549995 -0.93599999 149 78 22
-3.951 9.3590002 -0.94 197 113 51
-3.944 9.3599997 -0.96200001 209 107 32
-3.9549999 9.3459997 -1.018 200 158 118
-3.954 9.3079996 -0.83200002 124 69 38
-3.9549999 9.302 -0.82700002 188 82 6
-3.96 9.3009996 -0.83700001 67 48 16
-3.918 9.335 -1.061 192 157 117
-3.9119999 9.3439999 -1.0089999 199 148 103
-3.892 9.3509998 -1.034 232 150 77
-3.9119999 9.3839998 -0.97500002 202 122 49
-3.911 9.3660002 -0.97600001 144 107 98
-3.9089999 9.3870001 -0.97899997 183 105 31
-3.9059999 9.3800001 -0.97799999 130 56 0
-3.9119999 9.3780003 -0.96700001 184 130 86
-3.9030001 9.3719997 -0.97299999 125 68 15
-3.9100001 9.3500004 -1.025 136 60 11
-3.892 9.434 -0.66799998 77 59 59
-3.8859999 9.3470001 -0.62400001 185 134 81
-3.8859999 9.3430004 -0.63 192 136 87
-3.8870001 9.3559999 -0.63200003 117 91 58
-3.888 9.3389997 -0.63599998 157 108 65
-3.9030001 9.3830004 -0.62699997 202 147 93
-3.9159999 9.4280005 -0.66299999 131 75 24
-3.8989999 9.3590002 -0.61699998 123 81 65
-3.8970001 9.3690004 -0.625 47 33 32
-3.9170001 9.3149996 -0.71700001 175 130 97
-3.915 9.3249998 -0.71600002 127 73 37
-3.915 9.3190002 -0.70999998 52 28 18
-3.971 9.2989998 -0.77499998 173 98 31
-3.9189999 9.2959995 -0.71399999 234 169 115
-3.925 9.2930002 -0.72100002 169 115 71
-3.9300001 9.2889996 -0.71700001 139 81 31
-3.9549999 9.2849998 -0.61000001 122 69 37
-3.8940001 9.309 -0.634 115 81 44
-3.901 9.3800001 -0.62800002 93 74 67
-3.9089999 9.3319998 -0.61299998 158 99 55
-3.904 9.3409996 -0.61400002 145 100 59
-3.902 9.3470001 -0.611 236 152 80
-3.918 9.3360004 -0.61400002 142 88 28
-3.9189999 9.3290005 -0.61299998 180 123 80
-3.973 9.2910004 -0.61400002 185 138 84
-3.888 9.335 -0.62599999 101 42 2
-3.868 9.3009996 -0.77700001 113 59 21
-3.8740001 9.3109999 -0.77200001 142 125 115
-3.855 9.2910004 -0.79900002 255 195 133
-3.8399999 9.3109999 -0.80299997 119 67 28
-3.8399999 9.3129997 -0.801 223 172 151
-3.8889999 9.3479996 -1.061 208 118 55
-3.973 9.2609997 -0.58700001 198 105 28
-3.9790001 9.2600002 -0.60000002 202 115 48
-3.997 9.2650003 -0.58200002 153 84 25
-3.8929999 9.3269997 -1.0470001 173 62 0
-3.881 9.3479996 -1.048 142 76 28
-3.8859999 9.29 -1.0089999 241 188 134
-3.8829999 9.3050003 -1.008 170 121 80
-3.885 9.3439999 -1.033 211 150 105
-3.8989999 9.3450003 -1.0319999 161 103 65
-3.885 9.3149996 -0.88200003 251 209 135
-3.892 9.3339996 -0.87 126 78 30
-3.941 9.2919998 -0.83600003 183 137 85
-3.938 9.3009996 -0.829 122 57 15
-3.869 9.2959995 -0.85100001 146 107 68
-3.948 9.3400002 -1.038 173 110 69
-3.914 9.3140001 -1.048 151 93 43
-3.9189999 9.3240004 -1.049 165 115 66
-3.9230001 9.3109999 -1.027 139 98 54
-3.8599999 9.3079996 -0.801 68 47 42
-3.9219999 9.3400002 -0.86699998 199 148 93
-3.918 9.3319998 -0.85000002 96 51 28
-3.915 9.3389997 -0.85900003 130 69 25
-4.0019999 9.2889996 -0.57499999 81 30 0
-4.0019999 9.2849998 -0.57599998 108 61 33
-4.0120001 9.2910004 -0.588 156 99 46
-3.9820001 9.2950001 -0.57499999 144 103 59
-3.967 9.2709999 -0.58899999 183 144 105
-3.9749999 9.2709999 -0.58200002 224 144 45
-3.984 9.2849998 -0.57300001 140 104 56
-3.9809999 9.2720003 -0.60699999 204 154 103
-3.862 9.3109999 -0.76899999 90 66 66
-3.855 9.3039999 -0.76700002 254 165 73
-3.924 9.4160004 -0.68699998 58 33 11
-3.8859999 9.4259996 -0.671 230 179 122
-3.8970001 9.3929996 -0.792 90 46 9
-3.8970001 9.4230003 -0.68199998 169 99 40
-3.885 9.4169998 -0.67900002 207 123 50
-3.8970001 9.4130001 -0.68400002 212 171 143
-3.8929999 9.335 -0.92799997 177 129 93
-3.8959999 9.3389997 -0.93699998 138 62 4
-3.901 9.3389997 -0.93400002 51 31 20
-3.901 9.368 -0.96899998 57 36 33
-3.9100001 9.3719997 -0.963 218 140 68
-3.9089999 9.3380003 -0.86299998 142 106 72
-3.904 9.3500004 -0.86900002 182 139 104
-3.9030001 9.3330002 -0.86799997 225 188 110
-3.904 9.3319998 -0.866 237 145 60
-3.9879999 9.2770004 -0.611 153 109 60
-3.835 9.3070002 -0.78799999 251 163 63
-3.835 9.3009996 -0.79500002 222 140 38
-3.8380001 9.3179998 -0.78200001 167 79 5
-3.8399999 9.3190002 -0.77899998 218 139 47
-3.8540001 9.2869997 -0.78899997 57 37 13
-3.8599999 9.2930002 -0.79100001 148 94 47
-3.8529999 9.2880001 -0.77499998 247 159 69
-3.961 9.2969999 -0.824 140 96 57
-3.973 9.2959995 -0.79100001 157 122 90
-3.927 9.3190002 -0.81800002 101 59 37
-3.931 9.3319998 -0.81699997 115 71 46
-3.9260001 9.3389997 -0.81800002 117 72 41
-3.9719999 9.2939997 -0.76999998 162 97 39
-3.895 9.3100004 -0.86000001 181 123 77
-3.911 9.3330002 -0.81400001 143 91 51
-3.875 9.3360004 -0.78600001 126 67 11
-3.898 9.3839998 -0.787 182 128 94
-3.8840001 9.3959999 -0.79299998 190 104 29
-3.8840001 9.3959999 -0.78600001 218 133 43
-3.8740001 9.3459997 -0.78100002 138 89 48
-3.882 9.3549995 -0.78200001 108 63 32
-3.8710001 9.3509998 -0.77700001 197 142 78
-3.987 9.2880001 -0.61299998 52 34 32
-3.9949999 9.2989998 -0.583 101 75 62
-3.918 9.3500004 -1.0319999 169 113 78
-3.915 9.3459997 -1.043 148 83 29
-3.9300001 9.3559999 -1.062 230 140 64
-3.9389999 9.3520002 -1.0190001 201 153 105
-3.8900001 9.3269997 -1 253 173 86
-3.8900001 9.323 -1.006 247 163 77
-3.8870001 9.3280001 -0.92400002 220 171 113
-3.9260001 9.368 -0.96200001 218 143 76
-3.9130001 9.3640003 -0.958 222 148 77
-3.9419999 9.3620005 -0.97399998 123 47 0
-3.9300001 9.3620005 -0.96200001 228 116 42
-3.9549999 9.349 -0.94 252 206 147
-3.947 9.3549995 -0.95300001 122 69 37
-3.944 9.3529997 -0.97500002 159 56 0
-3.9630001 9.3409996 -1.026 189 134 70
-3.9619999 9.3500004 -0.86500001 194 108 49
-3.961 9.3459997 -0.86500001 143 61 5
-3.931 9.3330002 -0.824 130 84 60
-3.96 9.3549995 -0.86500001 173 88 24
-3.9549999 9.3050003 -0.838 113 59 25
-3.924 9.3290005 -1.052 116 73 28
-3.9300001 9.3479996 -1.003 159 66 5
-3.915 9.342 -1.007 163 88 30
-3.9300001 9.3500004 -0.99800003 120 53 10
-3.9100001 9.3769999 -0.97299999 171 97 32
-3.9030001 9.3479996 -1.0319999 137 55 5
-3.8959999 9.3599997 -1.036 107 58 15
-3.902 9.4300003 -0.65600002 162 81 18
-3.9719999 9.3000002 -0.583 211 119 44
-3.994 9.2950001 -0.61000001 169 106 52
-3.8889999 9.3579998 -0.62199998 101 70 24
-3.8859999 9.3330002 -0.63599998 220 128 45
-3.8900001 9.3369999 -0.63800001 242 151 72
-3.901 9.3179998 -0.62300003 159 118 72
-3.898 9.323 -0.62 228 133 65
-3.9059999 9.3240004 -0.616 141 59 1
-3.8729999 9.3140001 -0.76599997 164 119 77
-3.8770001 9.3190002 -0.76800001 44 34 35
-3.8740001 9.3199997 -0.76599997 142 118 108
-3.8729999 9.3249998 -0.78100002 209 104 12
-3.9189999 9.2989998 -0.70599997 158 93 35
-3.9170001 9.3079996 -0.708 92 68 58
-3.918 9.3030005 -0.70099998 125 60 6
-3.9170001 9.309 -0.708 160 97 43
-3.925 9.2910004 -0.70999998 150 101 58
-3.934 9.29 -0.71100003 195 156 115
-3.947 9.2880001 -0.60600001 182 120 71
-3.9560001 9.2849998 -0.59899998 182 107 49
-3.9489999 9.2889996 -0.61299998 133 73 23
-3.964 9.3009996 -0.60699999 151 110 88
-3.9649999 9.3059998 -0.59899998 135 98 72
-3.8970001 9.3540001 -0.61699998 131 82 41
-3.8959999 9.3789997 -0.64399999 134 72 31
-3.9059999 9.3549995 -0.62 200 163 119
-3.9030001 9.3280001 -0.616 150 65 1
-3.8989999 9.3319998 -0.61400002 186 140 106
-3.9749999 9.3050003 -0.61299998 201 165 143
-3.924 9.29 -0.69599998 173 124 81
-3.921 9.2969999 -0.70099998 255 192 139
-3.8699999 9.3129997 -0.78399998 72 50 26
-3.8529999 9.3100004 -0.79900002 144 108 86
-3.858 9.3149996 -0.796 160 101 45
-3.8540001 9.3039999 -0.80000001 208 164 117
-3.8499999 9.3000002 -0.80000001 221 110 21
-3.8399999 9.2930002 -0.80000001 172 116 99
-3.8380001 9.2950001 -0.79500002 229 147 37
-3.904 9.3140001 -1.057 235 156 53
-3.905 9.3140001 -1.041 141 99 59
-3.921 9.3070002 -1.023 255 195 90
-3.98 9.2620001 -0.60299999 221 127 53
-3.98 9.2869997 -0.574 121 78 43
-3.993 9.2779999 -0.57099998 158 69 3
-3.8940001 9.2930002 -1.015 199 140 100
-3.892 9.302 -1.029 153 110 101
-3.8829999 9.3109999 -0.88999999 94 54 29
-3.8800001 9.3059998 -0.89300001 142 114 102
-3.8829999 9.3210001 -0.91100001 113 70 38
-3.908 9.3500004 -0.875 70 43 22
-3.8989999 9.3400002 -0.89099997 158 115 73
-3.895 9.3400002 -0.88999999 110 92 70
-3.895 9.3389997 -0.889 76 57 27
-3.8800001 9.3059998 -0.87900001 116 88 76
-3.885 9.3120003 -0.93699998 172 70 4
-3.891 9.3140001 -0.958 196 169 140
-3.8929999 9.3109999 -0.94 179 80 13
-3.8670001 9.2969999 -0.86000001 210 105 24
-3.8789999 9.3079996 -0.85799998 169 117 78
-3.882 9.2989998 -0.86199999 152 103 47
-3.951 9.3059998 -0.85000002 87 40 10
-3.9530001 9.2959995 -0.85299999 201 164 135
-3.9519999 9.2980003 -0.847 207 108 51
-3.951 9.3149996 -0.86199999 231 202 162
-3.8859999 9.2889996 -1.002 86 63 55
-3.8989999 9.29 -0.986 115 66 10
-3.891 9.2969999 -0.98100001 246 175 97
-3.8900001 9.2930002 -0.91399997 80 52 40
-3.8870001 9.2919998 -0.91299999 230 146 50
-3.8889999 9.2880001 -0.90100002 128 98 88
-3.901 9.2959995 -0.91000003 123 102 97
-3.9070001 9.3400002 -0.82800001 134 75 31
-3.9089999 9.3459997 -0.82200003 85 38 12
-3.9130001 9.368 -0.833 113 69 32
-3.911 9.3620005 -0.83999997 91 37 9
-3.9119999 9.3459997 -0.861 180 120 70
-3.9130001 9.3339996 -0.84799999 152 84 39
-3.9119999 9.3479996 -0.86500001 83 61 24
-3.9170001 9.3369999 -0.84399998 167 100 48
-3.905 9.3269997 -0.85299999 71 42 44
-3.911 9.4160004 -0.82499999 204 117 37
-3.964 9.3599997 -0.866 215 136 69
-3.961 9.3660002 -0.87300003 125 49 0
-4.0050001 9.2790003 -0.57700002 140 115 111
-3.977 9.2959995 -0.57700002 192 102 14
-3.984 9.2840004 -0.61400002 155 104 51
-3.862 9.3050003 -0.76999998 171 125 101
-3.8399999 9.3149996 -0.773 150 122 111
-3.8410001 9.3190002 -0.778 195 107 35
-3.9100001 9.4040003 -0.773 160 127 108
-3.8929999 9.3959999 -0.76899999 129 80 48
-3.888 9.3990002 -0.76599997 111 66 37
-3.8940001 9.3859997 -0.76700002 128 101 74
-3.882 9.4189997 -0.671 181 110 44
-3.8829999 9.4090004 -0.66299999 114 81 38
-3.8989999 9.4090004 -0.801 151 83 22
-3.8989999 9.408 -0.80299997 143 80 36
-3.8399999 9.316 -0.79900002 224 200 188
-3.8970001 9.4219999 -0.64999998 193 133 79
-3.8859999 9.4180002 -0.65799999 193 137 100
-3.8929999 9.4130001 -0.64999998 176 125 94
-3.8870001 9.4139996 -0.65700001 146 105 73
-3.8840001 9.4160004 -0.66500002 174 79 25
-3.8510001 9.3240004 -0.77100003 168 119 61
-3.9349999 9.3369999 -0.64700001 86 61 30
-3.918 9.3360004 -0.65100002 235 197 158
-3.9260001 9.3290005 -0.64399999 217 166 113
-3.9519999 9.3140001 -0.87300003 172 135 93
-3.948 9.3219995 -0.86500001 230 138 71
-3.951 9.3199997 -0.87599999 175 105 56
-3.9100001 9.3640003 -0.85500002 63 43 42
-3.9089999 9.3540001 -0.86799997 73 47 46
-3.924 9.3649998 -0.85000002 122 76 42
-3.9100001 9.3579998 -0.85000002 161 110 67
-3.987 9.2720003 -0.60699999 144 88 51
-3.99 9.2700005 -0.60600001 250 193 148
-3.8570001 9.2910004 -0.79500002 169 109 37
-3.9590001 9.2989998 -0.82999998 92 48 19
-3.9419999 9.3059998 -0.833 101 55 29
-3.9749999 9.2939997 -0.78600001 58 16 0
-3.9100001 9.3290005 -0.82099998 238 130 42
-3.8699999 9.3330002 -0.78500003 144 83 38
-3.8859999 9.3850002 -0.78600001 177 124 84
-3.9030001 9.335 -0.77600002 186 100 17
-3.908 9.3389997 -0.78100002 103 68 46
-3.908 9.3380003 -0.77999997 146 99 71
-3.911 9.3330002 -0.76700002 158 114 87
-3.852 9.3310003 -0.77399999 218 129 39
-3.961 9.3540001 -1.0599999 139 83 34
-3.9100001 9.3509998 -1.039 127 50 4
-3.9260001 9.3549995 -1.026 103 50 6
-3.9489999 9.3479996 -1.061 163 120 77
-3.9070001 9.3400002 -0.991 147 68 12
-3.934 9.3520002 -1.017 119 66 26
-3.9059999 9.3579998 -0.92299998 144 75 20
-3.9030001 9.3599997 -0.92299998 176 114 53
-3.9089999 9.3439999 -0.91600001 88 43 2
-3.9300001 9.3599997 -0.94700003 232 132 44
-3.9300001 9.3579998 -0.95300001 98 66 55
-3.905 9.3059998 -0.949 111 58 16
-3.9070001 9.3039999 -0.95700002 123 97 84
-3.9159999 9.3039999 -0.94800001 174 117 72
-3.888 9.3170004 -0.95300001 197 85 11
-3.8940001 9.3330002 -0.99900001 132 68 33
-3.8959999 9.3400002 -0.97899997 133 96 70
-3.8929999 9.3290005 -0.99599999 164 122 98
-3.9100001 9.3660002 -0.96200001 192 118 45
-3.9089999 9.3559999 -0.954 222 130 63
-3.9549999 9.335 -1.035 157 110 64
-3.9319999 9.3520002 -1.003 120 44 0
-3.9660001 9.3500004 -0.86699998 222 122 36
-3.9059999 9.4250002 -0.65499997 138 90 54
-3.99 9.2959995 -0.61199999 107 95 97
-3.8859999 9.3529997 -0.63999999 186 135 116
-3.888 9.3570004 -0.63599998 145 99 63
-3.8959999 9.3190002 -0.63800001 191 124 71
-3.9219999 9.4209995 -0.68199998 167 102 44
-3.9100001 9.3339996 -0.76499999 171 144 117
-3.918 9.3039999 -0.70499998 184 119 53
-3.96 9.2889996 -0.60500002 161 70 13
-3.964 9.2959995 -0.59299999 231 132 47
-3.9260001 9.3360004 -0.62 158 111 65
-3.9130001 9.3479996 -0.61699998 216 130 27
-3.9100001 9.3579998 -0.62400001 123 63 11
-3.904 9.3599997 -0.63 209 161 125
-3.8959999 9.3269997 -0.61699998 168 117 74
-3.892 9.3400002 -0.61400002 195 150 117
-3.915 9.3140001 -0.639 165 138 121
-3.9230001 9.316 -0.62599999 105 76 60
-3.95 9.3079996 -0.70099998 95 49 25
-3.9460001 9.316 -0.69999999 152 104 84
-3.937 9.3190002 -0.68800002 145 81 37
-3.9449999 9.302 -0.69499999 136 80 31
-3.9449999 9.3179998 -0.71799999 99 67 42
-3.9690001 9.2919998 -0.61199999 238 203 183
-3.983 9.3050003 -0.60600001 255 226 209
-3.9389999 9.3050003 -0.69300002 148 116 93
-3.9349999 9.2969999 -0.69499999 211 149 98
-3.9360001 9.2889996 -0.69400001 163 103 69
-3.8559999 9.2939997 -0.77100003 127 107 100
-3.8640001 9.3199997 -0.79500002 164 83 2
-3.846 9.2889996 -0.79500002 255 209 148
-3.846 9.2969999 -0.80000001 176 121 64
-3.8889999 9.3179998 -1.026 139 45 0
-3.8940001 9.3149996 -1.045 52 32 21
-3.9089999 9.3210001 -1.039 115 64 19
-3.9660001 9.2709999 -0.60699999 92 63 47
-3.9660001 9.2629995 -0.60299999 173 116 63
-3.9760001 9.29 -0.574 194 128 80
-3.8989999 9.3109999 -1.023 202 125 35
-3.895 9.3339996 -1.029 160 77 23
-3.901 9.335 -1.023 157 90 37
-3.8829999 9.2910004 -1.025 177 120 67
-3.8870001 9.2930002 -1.031 146 94 47
-3.881 9.3059998 -0.89899999 78 51 44
-3.882 9.3030005 -0.91399997 95 59 37
-3.885 9.3129997 -0.87800002 255 212 152
-3.8759999 9.3059998 -0.85900003 171 133 96
-3.8859999 9.3100004 -0.861 68 44 32
-3.954 9.3129997 -0.88 158 106 58
-3.9519999 9.3039999 -0.87199998 141 96 57
-3.9460001 9.2980003 -0.87900001 111 64 44
-3.947 9.3079996 -0.884 109 68 36
-3.95 9.3109999 -0.90200001 201 107 37
-3.9530001 9.302 -0.86000001 140 67 16
-3.9430001 9.3430004 -1.058 247 177 89
-3.9319999 9.3400002 -1.058 175 131 86
-3.9319999 9.3369999 -1.052 159 121 74
-3.9170001 9.3450003 -1.049 102 48 4
-3.928 9.3330002 -1.058 144 109 89
-3.8940001 9.2930002 -1.003 210 151 107
-3.888 9.2930002 -0.99800003 127 86 66
-3.891 9.302 -0.98699999 216 153 40
-3.888 9.3100004 -0.93199998 173 79 15
-3.918 9.3070002 -0.92000002 134 82 42
-3.908 9.3070002 -0.93599999 175 96 39
-3.9130001 9.3059998 -0.91600001 227 150 46
-3.9200001 9.3660002 -0.82800001 125 60 28
-3.9219999 9.3710003 -0.82800001 173 97 48
-3.914 9.3719997 -0.833 139 81 41
-3.9000001 9.4020004 -0.824 130 92 71
-3.9059999 9.3879995 -0.838 183 150 109
-3.9089999 9.401 -0.82999998 218 183 155
-3.8989999 9.4060001 -0.829 194 128 52
-3.9100001 9.335 -0.83499998 179 82 3
-3.915 9.3330002 -0.83099997 139 101 64
-3.8959999 9.3249998 -0.866 203 107 30
-3.9059999 9.4160004 -0.82499999 89 65 65
-3.911 9.4049997 -0.83700001 215 131 33
-3.9449999 9.309 -0.89200002 196 109 42
-3.941 9.3030005 -0.89999998 180 78 3
-3.9489999 9.316 -0.88800001 97 60 41
-3.9170001 9.3310003 -0.86299998 212 174 137
-3.9660001 9.3559999 -0.86799997 234 129 46
-3.9189999 9.3959999 -0.83899999 178 148 114
-3.9119999 9.4060001 -0.833 219 135 37
-3.914 9.401 -0.84600002 245 173 97
-3.96 9.2939997 -0.583 201 113 23
-3.8529999 9.3299999 -0.77100003 109 79 43
-3.915 9.3470001 -0.653 158 83 16
-3.9059999 9.3439999 -0.65200001 215 177 132
-3.9089999 9.4090004 -0.77399999 100 67 34
-3.977 9.29 -0.74800003 196 132 26
-3.9790001 9.29 -0.74299997 70 15 0
-3.977 9.29 -0.74400002 192 134 27
-3.905 9.3719997 -0.78899997 138 93 54
-3.8889999 9.3929996 -0.68199998 141 78 34
-3.8989999 9.408 -0.68699998 180 154 141
-3.885 9.3990002 -0.778 243 175 76
-3.885 9.3959999 -0.77899998 244 170 73
-3.882 9.3889999 -0.77600002 144 89 50
-3.8859999 9.4239998 -0.66600001 160 80 19
-3.885 9.4099998 -0.67299998 132 78 40
-3.8929999 9.4119997 -0.68000001 245 162 86
-3.845 9.3149996 -0.76899999 154 73 8
-3.8900001 9.4020004 -0.65100002 140 92 52
-3.891 9.4029999 -0.66399997 142 74 27
-3.8929999 9.4119997 -0.64999998 178 83 1
-3.902 9.408 -0.64899999 118 66 16
-3.9059999 9.3990002 -0.648 119 84 46
-3.9119999 9.408 -0.64899999 177 122 66
-3.925 9.401 -0.64899999 171 135 123
-3.888 9.4069996 -0.67799997 202 133 58
-3.8929999 9.3780003 -0.66799998 114 56 19
-3.8929999 9.3950005 -0.67400002 164 127 101
-3.9200001 9.3590002 -0.62800002 104 60 0
-3.971 9.3610001 -0.889 153 105 67
-3.9679999 9.3509998 -0.89200002 173 90 20
-3.961 9.3520002 -0.88999999 128 72 39
-3.9719999 9.3520002 -0.89099997 161 93 46
-3.9660001 9.3470001 -0.889 169 116 76
-3.9230001 9.3299999 -0.875 67 21 0
-3.9400001 9.342 -0.86500001 161 69 2
-3.914 9.3760004 -0.84200001 100 60 35
-3.904 9.375 -0.85500002 132 96 62
-3.905 9.3629999 -0.85299999 119 92 62
-3.9219999 9.3430004 -0.87199998 255 217 145
-3.9189999 9.3389997 -0.88499999 146 74 26
-3.9430001 9.3479996 -0.87099999 183 84 3
-3.961 9.2969999 -0.83200002 151 103 63
-3.957 9.2919998 -0.83700001 189 139 86
-3.95 9.2939997 -0.85100001 81 42 1
-3.947 9.2919998 -0.85299999 101 57 30
-3.941 9.3059998 -0.83200002 123 73 46
-3.9719999 9.2959995 -0.78100002 86 44 20
-3.9219999 9.3190002 -0.85500002 111 61 34
-3.938 9.316 -0.861 119 59 25
-3.9200001 9.3179998 -0.86199999 130 83 53
-3.9349999 9.3050003 -0.87300003 206 132 61
-3.9260001 9.3039999 -0.86400002 202 140 67
-3.9349999 9.309 -0.85100001 122 70 20
-3.9400001 9.3140001 -0.85100001 121 80 36
-3.947 9.3100004 -0.85100001 129 76 42
-3.8710001 9.3459997 -0.77399999 79 53 28
-3.8729999 9.3400002 -0.78100002 130 85 43
-3.9579999 9.3520002 -1.061 145 60 0
-3.954 9.3570004 -1.0549999 189 139 52
-3.925 9.3459997 -0.99400002 125 82 39
-3.9289999 9.3479996 -0.99199998 73 28 0
-3.928 9.3500004 -0.98299998 103 28 0
-3.948 9.3529997 -1.028 130 79 34
-3.8989999 9.3330002 -0.92199999 232 164 81
-3.8929999 9.3360004 -0.93699998 117 59 13
-3.892 9.3319998 -0.92900002 141 128 94
-3.902 9.3059998 -0.91900003 187 133 89
-3.898 9.3039999 -0.917 209 135 74
-3.908 9.3400002 -0.92799997 116 74 32
-3.895 9.3140001 -0.94599998 224 118 44
-3.901 9.3070002 -0.93599999 192 104 33
-3.888 9.316 -0.99599999 240 187 81
-3.8859999 9.3190002 -0.95099998 190 78 4
-3.891 9.3170004 -0.95999998 197 87 12
-3.9170001 9.3710003 -0.97100002 108 45 12
-3.9159999 9.3570004 -0.97000003 87 31 0
-3.941 9.3100004 -0.93199998 106 59 29
-3.9360001 9.3109999 -0.93099999 184 135 95
-3.931 9.309 -0.93400002 255 184 64
-3.9349999 9.3120003 -0.94 245 174 50
-3.905 9.3190002 -0.63499999 188 93 25
-3.927 9.3990002 -0.65600002 186 126 89
-3.9300001 9.3879995 -0.65200001 161 101 38
-3.931 9.4060001 -0.662 154 91 48
-3.9289999 9.3879995 -0.66000003 154 88 40
-3.891 9.3640003 -0.63499999 108 71 18
-3.8970001 9.3629999 -0.63700002 168 123 81
-3.895 9.3549995 -0.64099997 197 119 55
-3.9100001 9.3710003 -0.64700001 244 208 196
-3.9030001 9.3780003 -0.648 155 99 50
-3.925 9.3769999 -0.64700001 244 187 132
-3.9200001 9.375 -0.65100002 255 209 118
-3.902 9.3739996 -0.65399998 153 90 39
-3.9319999 9.3380003 -0.62199998 154 99 45
-3.9219999 9.3470001 -0.61900002 146 97 54
-3.918 9.3269997 -0.64600003 151 124 103
-3.928 9.3269997 -0.62699997 180 153 136
-3.925 9.3260002 -0.62400001 126 75 18
-3.925 9.3299999 -0.62199998 175 136 93
-3.9330001 9.3330002 -0.62800002 185 139 89
-3.914 9.3529997 -0.62 144 90 54
-3.934 9.3319998 -0.64300001 183 145 106
-3.937 9.3389997 -0.63700002 174 141 106
-3.934 9.323 -0.634 149 101 55
-3.914 9.3170004 -0.63599998 242 148 61
-3.9460001 9.3109999 -0.70999998 67 40 29
-3.9430001 9.3100004 -0.71499997 155 103 64
-3.9460001 9.302 -0.71200001 145 84 30
-3.9400001 9.3100004 -0.69499999 118 74 37
-3.938 9.3179998 -0.69700003 124 82 60
-3.9360001 9.2980003 -0.72600001 181 135 101
-3.9349999 9.2950001 -0.72000003 193 163 139
-3.9779999 9.2910004 -0.722 167 110 5
-3.8340001 9.2980003 -0.79299998 91 62 46
-3.881 9.3479996 -1.05 168 104 56
-3.8940001 9.3260002 -1.024 230 151 74
-3.8929999 9.3030005 -1.034 135 79 30
-3.9170001 9.3439999 -1.038 128 79 38
-3.9219999 9.3330002 -1.046 229 155 68
-3.9170001 9.3339996 -1.036 128 54 9
-3.918 9.3389997 -1.0319999 111 68 33
-3.974 9.2690001 -0.60799998 121 69 30
-3.9820001 9.2749996 -0.574 197 157 122
-3.9860001 9.2869997 -0.574 190 122 75
-3.8940001 9.3070002 -1.023 131 79 39
-3.895 9.3369999 -1.031 188 126 85
-3.9000001 9.3149996 -1.0470001 143 90 38
-3.8870001 9.302 -0.87400001 228 126 60
-3.8929999 9.3070002 -0.87699997 206 164 124
-3.8929999 9.2910004 -0.89200002 240 147 70
-3.888 9.3030005 -0.87 206 93 25
-3.937 9.302 -0.84500003 186 158 74
-3.875 9.3030005 -0.85399997 248 133 42
-3.9389999 9.2980003 -0.86500001 131 78 26
-3.9449999 9.2959995 -0.86199999 98 79 39
-3.951 9.3129997 -0.86400002 146 111 71
-3.9530001 9.3070002 -0.86799997 144 71 20
-3.95 9.302 -0.86500001 193 149 110
-3.924 9.3400002 -1.059 243 156 77
-3.8889999 9.2950001 -0.99800003 210 163 107
-3.9170001 9.3380003 -0.82300001 141 67 18
-3.8989999 9.4090004 -0.80800003 156 92 30
-3.911 9.3400002 -0.82700002 104 41 8
-3.918 9.3620005 -0.83700001 86 38 0
-3.9089999 9.3290005 -0.847 216 119 38
-3.9030001 9.4099998 -0.829 184 114 42
-3.911 9.4040003 -0.82999998 158 122 86
-3.8959999 9.335 -0.884 136 92 45
-3.895 9.3280001 -0.87900001 243 207 131
-3.8870001 9.3179998 -0.87400001 140 97 46
-3.941 9.3079996 -0.89399999 70 32 9
-3.9219999 9.382 -0.84299999 180 104 54
-3.9159999 9.3909998 -0.83899999 167 113 85
-3.9749999 9.3629999 -0.884 121 71 34
-3.9619999 9.3620005 -0.88099998 102 42 8
-3.9630001 9.2969999 -0.58899999 164 128 102
-3.967 9.2950001 -0.57800001 205 119 42
-3.9760001 9.2790003 -0.58099997 204 131 78
-3.9649999 9.3039999 -0.60000002 142 75 32
-3.964 9.3030005 -0.59100002 150 61 3
-3.868 9.3210001 -0.77200001 130 84 51
-3.859 9.3269997 -0.77399999 190 95 5
-3.875 9.335 -0.78100002 171 116 75
-3.9300001 9.3439999 -0.65200001 33 18 21
-3.9200001 9.3620005 -0.65799999 201 121 68
-3.9059999 9.401 -0.77999997 170 129 97
-3.9219999 9.3179998 -0.71799999 157 100 47
-3.9100001 9.3450003 -0.78100002 171 85 34
-3.9100001 9.3430004 -0.78799999 161 80 33
-3.9100001 9.3409996 -0.77399999 161 79 23
-3.9070001 9.3360004 -0.77100003 124 88 66
-3.9089999 9.3719997 -0.79100001 170 126 91
-3.908 9.3599997 -0.79299998 117 79 56
-3.895 9.3959999 -0.68199998 210 166 139
-3.9070001 9.4020004 -0.68900001 78 54 30
-3.9070001 9.3909998 -0.68800002 124 54 18
-3.908 9.3839998 -0.685 129 85 46
-3.8900001 9.4040003 -0.68000001 216 130 57
-3.8959999 9.382 -0.78500003 103 63 37
-3.905 9.375 -0.78100002 85 40 9
-3.8840001 9.3839998 -0.76899999 173 125 89
-3.8859999 9.408 -0.67400002 158 105 73
-3.8929999 9.3809996 -0.65200001 188 132 73
-3.901 9.3769999 -0.66399997 161 123 87
-3.898 9.4029999 -0.64899999 173 115 65
-3.9189999 9.3579998 -0.63599998 148 111 93
-3.931 9.3559999 -0.62800002 121 97 73
-3.9289999 9.3660002 -0.64200002 160 116 67
-3.931 9.3760004 -0.653 124 81 39
-3.9319999 9.3669996 -0.64499998 182 119 76
-3.905 9.3400002 -0.70099998 169 136 93
-3.9000001 9.342 -0.70300001 163 83 24
-3.9070001 9.3459997 -0.69599998 67 42 20
-3.895 9.3240004 -0.64600003 199 150 107
-3.9300001 9.3030005 -0.69300002 224 118 18
-3.9030001 9.3409996 -0.70200002 141 62 0
-3.902 9.3360004 -0.70899999 139 86 42
-3.904 9.3380003 -0.70599997 134 100 63
-3.9230001 9.323 -0.69300002 83 41 19
-3.924 9.3140001 -0.69400001 224 126 37
-3.9330001 9.3199997 -0.69400001 175 139 115
-3.9549999 9.3470001 -0.89200002 169 62 6
-3.974 9.3570004 -0.889 87 38 8
-3.9630001 9.3409996 -0.88499999 119 77 35
-3.967 9.3470001 -0.88700002 222 171 128
-3.904 9.3900003 -0.87699997 148 76 26
-3.901 9.3699999 -0.87199998 159 117 75
-3.9000001 9.3940001 -0.86699998 198 137 93
-3.904 9.3529997 -0.87 158 106 66
-3.9000001 9.375 -0.86400002 128 82 46
-3.911 9.3839998 -0.88800001 168 98 13
-3.902 9.3620005 -0.92199999 160 104 43
-3.904 9.3889999 -0.86000001 160 85 27
-3.908 9.3970003 -0.85100001 110 81 65
-3.9170001 9.3710003 -0.852 174 120 74
-3.9200001 9.3719997 -0.91900003 167 122 67
-3.937 9.3730001 -0.917 255 227 162
-3.925 9.3839998 -0.91100001 70 32 11
-3.9159999 9.3710003 -0.92299998 108 47 0
-3.9419999 9.3769999 -0.91600001 255 225 162
-3.9200001 9.3579998 -0.93099999 250 181 106
-3.9159999 9.3669996 -0.92299998 56 18 0
-3.9130001 9.3959999 -0.85000002 199 117 33
-3.915 9.3929996 -0.84600002 124 83 55
-3.951 9.3590002 -0.87199998 147 71 21
-3.9489999 9.3450003 -0.86799997 216 131 66
-3.947 9.3590002 -0.87300003 91 58 39
-3.9449999 9.3579998 -0.88099998 156 103 63
-3.9949999 9.2670002 -0.60600001 127 64 31
-3.948 9.2930002 -0.84299999 127 80 50
-3.9400001 9.2950001 -0.84899998 204 98 36
-3.9300001 9.3059998 -0.85100001 179 143 119
-3.9230001 9.3059998 -0.85600001 254 213 134
-3.8989999 9.3109999 -0.86900002 233 112 39
-3.881 9.2950001 -0.87199998 164 117 87
-3.882 9.3009996 -0.884 243 182 115
-3.915 9.3249998 -0.87199998 174 134 99
-3.915 9.3280001 -0.87699997 248 208 138
-3.911 9.3269997 -0.87800002 142 132 105
-3.869 9.3360004 -0.76800001 221 123 48
-3.872 9.3330002 -0.76899999 158 110 70
-3.869 9.3339996 -0.76999998 125 79 46
-3.915 9.3389997 -0.99400002 110 63 21
-3.9579999 9.3380003 -1.021 198 154 127
-3.9159999 9.342 -0.98000002 167 81 22
-3.8989999 9.3430004 -0.98400003 104 60 25
-3.9419999 9.3369999 -1.013 129 74 35
-3.9059999 9.3280001 -0.91399997 112 61 30
-3.9170001 9.3369999 -0.89700001 251 204 158
-3.9059999 9.309 -0.93099999 200 108 43
-3.9089999 9.3570004 -0.93000001 195 124 58
-3.9089999 9.3450003 -0.93699998 148 104 77
-3.911 9.3549995 -0.93599999 60 32 28
-3.947 9.3269997 -0.93300003 152 106 70
-3.9449999 9.3290005 -0.92900002 151 111 76
-3.9419999 9.3210001 -0.93300003 177 117 67
-3.944 9.3310003 -0.93800002 252 200 152
-3.9449999 9.3290005 -0.935 182 94 22
-3.918 9.3640003 -0.921 141 105 69
-3.918 9.342 -0.898 128 55 12
-3.944 9.3199997 -0.94300002 135 86 46
-3.948 9.3470001 -0.95899999 97 51 18
-3.9489999 9.3459997 -0.95200002 67 21 0
-3.9449999 9.3479996 -0.96499997 122 44 6
-3.944 9.3389997 -0.96899998 93 49 22
-3.921 9.3590002 -0.93900001 167 90 20
-3.895 9.309 -0.93199998 113 48 8
-3.891 9.3070002 -0.92500001 177 98 42
-3.888 9.3179998 -1.003 155 99 50
-3.885 9.3249998 -0.95099998 159 59 0
-3.888 9.3109999 -0.991 255 230 105
-3.9130001 9.3079996 -0.96499997 124 81 62
-3.8900001 9.3059998 -0.98699999 255 213 92
-3.9230001 9.3660002 -0.96499997 172 106 45
-3.944 9.3520002 -0.96799999 144 134 133
-3.938 9.3400002 -0.98000002 186 81 24
-3.9389999 9.323 -0.93000001 105 74 53
-3.938 9.349 -1.028 100 46 10
-3.934 9.342 -1.022 211 154 109
-3.9159999 9.4239998 -0.66000003 116 64 25
-3.891 9.3439999 -0.63800001 214 124 48
-3.9100001 9.3210001 -0.64200002 187 134 90
-3.9289999 9.3870001 -0.662 184 113 35
-3.924 9.3870001 -0.65399998 201 149 99
-3.9319999 9.4040003 -0.66900003 154 93 62
-3.9230001 9.3610001 -0.63700002 104 74 46
-3.9000001 9.3549995 -0.64700001 125 75 26
-3.902 9.3500004 -0.65100002 121 49 11
-3.9389999 9.3430004 -0.63 168 108 54
-3.9260001 9.3360004 -0.64600003 212 176 142
-3.911 9.342 -0.616 217 134 32
-3.9719999 9.3100004 -0.611 85 66 60
-3.934 9.3260002 -0.64200002 130 95 73
-3.9159999 9.3240004 -0.64600003 76 47 5
-3.9449999 9.3140001 -0.71200001 176 131 112
-3.9389999 9.2989998 -0.71799999 130 79 50
-3.9790001 9.2889996 -0.72299999 172 146 113
-3.9779999 9.2910004 -0.713 187 125 24
-3.977 9.2869997 -0.71200001 181 151 115
-3.938 9.2919998 -0.708 199 151 103
-3.9389999 9.2969999 -0.71100003 169 108 45
-3.8429999 9.3000002 -0.80199999 197 108 52
-3.881 9.3470001 -1.052 99 51 15
-3.895 9.3290005 -1.024 161 105 58
-3.9170001 9.3339996 -1.029 103 29 0
-3.925 9.335 -1.023 159 74 19
-3.904 9.3190002 -1.03 244 165 72
-3.9649999 9.2799997 -0.59399998 174 132 90
-3.905 9.3360004 -1.006 119 61 0
-3.888 9.2950001 -1.026 162 111 68
-3.8900001 9.3109999 -0.89700001 127 84 42
-3.8870001 9.302 -0.87800002 209 117 52
-3.8829999 9.3009996 -0.88999999 181 118 41
-3.881 9.3050003 -0.89399999 213 154 74
-3.882 9.3190002 -0.93699998 194 91 24
-3.8870001 9.3039999 -0.86699998 204 141 97
-3.938 9.2950001 -0.85100001 118 69 36
-3.937 9.2989998 -0.84799999 206 109 32
-3.8989999 9.3149996 -0.90899998 251 200 143
-3.9000001 9.3129997 -0.89899999 159 140 136
-3.9489999 9.2959995 -0.86000001 213 105 43
-3.901 9.2969999 -0.99299997 216 135 30
-3.895 9.3079996 -0.926 140 48 0
-3.918 9.3299999 -0.90200001 147 97 60
-3.908 9.3179998 -0.91399997 199 151 115
-3.9260001 9.3380003 -0.82800001 110 62 26
-3.921 9.3640003 -0.83200002 169 105 61
-3.9030001 9.4040003 -0.80400002 207 138 47
-3.9089999 9.4090004 -0.824 226 137 45
-3.905 9.4090004 -0.81999999 156 85 33
-3.9089999 9.408 -0.833 177 89 0
-3.941 9.3109999 -0.89200002 187 94 24
-3.9389999 9.3170004 -0.90700001 79 46 31
-3.9460001 9.323 -0.903 109 74 44
-3.9579999 9.3590002 -0.87 193 103 27
-3.96 9.3599997 -0.88499999 196 158 93
-3.911 9.3990002 -0.84100002 67 43 43
-3.9660001 9.2989998 -0.59799999 180 83 6
-3.872 9.3260002 -0.77100003 162 135 108
-3.8800001 9.3430004 -0.77700001 218 116 31
-3.881 9.3570004 -0.773 183 128 63
-3.901 9.349 -0.77899998 121 74 44
-3.9100001 9.3339996 -0.76099998 117 73 46
-3.9319999 9.3459997 -0.64899999 227 170 91
-3.9300001 9.3579998 -0.65499997 173 109 63
-3.9349999 9.3629999 -0.64700001 126 93 84
-3.925 9.401 -0.68000001 153 126 97
-3.911 9.401 -0.69099998 213 142 88
-3.9130001 9.3879995 -0.69199997 216 146 97
-3.924 9.4119997 -0.68099999 149 127 106
-3.9189999 9.4020004 -0.68199998 208 145 92
-3.9089999 9.4029999 -0.69400001 174 99 42
-3.9070001 9.4099998 -0.69400001 134 71 17
-3.9089999 9.3590002 -0.70499998 143 87 38
-3.9089999 9.3559999 -0.71200001 134 79 25
-3.9089999 9.3439999 -0.70200002 134 48 0
-3.924 9.3769999 -0.662 105 76 34
-3.9030001 9.3409996 -0.70700002 158 76 2
-3.915 9.3369999 -0.76700002 136 89 61
-3.911 9.3559999 -0.70999998 154 99 58
-3.921 9.4160004 -0.68699998 168 96 46
-3.905 9.4180002 -0.69 90 55 23
-3.904 9.3479996 -0.78200001 156 111 78
-3.9070001 9.3620005 -0.77700001 101 64 38
-3.908 9.3640003 -0.792 85 41 16
-3.8989999 9.3839998 -0.77399999 246 193 143
-3.8970001 9.3929996 -0.773 248 161 81
-3.898 9.3909998 -0.66299999 192 114 39
-3.8789999 9.3549995 -0.77399999 143 90 50
-3.911 9.3459997 -0.76200002 78 66 50
-3.934 9.3210001 -0.713 199 158 114
-3.878 9.3500004 -0.76999998 94 73 56
-3.911 9.3889999 -0.66799998 198 117 61
-3.8970001 9.3850002 -0.66000003 215 153 92
-3.8970001 9.3979998 -0.66000003 195 97 24
-3.8970001 9.4090004 -0.64999998 175 123 84
-3.9130001 9.4139996 -0.65399998 206 142 68
-3.891 9.4020004 -0.671 166 101 59
-3.9260001 9.3549995 -0.62699997 135 80 39
-3.918 9.3260002 -0.69599998 77 50 39
-3.8940001 9.3249998 -0.64399999 148 87 30
-3.9330001 9.2889996 -0.69400001 247 214 179
-3.95 9.3509998 -0.889 250 222 157
-3.95 9.3540001 -0.88599998 129 73 38
-3.9649999 9.3389997 -0.86900002 212 117 51
-3.9449999 9.3280001 -0.87800002 91 35 2
-3.973 9.3459997 -0.87099999 163 105 65
-3.9719999 9.3459997 -0.87699997 213 108 40
-3.974 9.3470001 -0.87900001 87 65 42
-3.9560001 9.3369999 -0.88700002 88 46 22
-3.9000001 9.3800001 -0.866 139 118 99
-3.9030001 9.3690004 -0.87099999 120 71 41
-3.915 9.3649998 -0.90700001 175 118 73
-3.911 9.3620005 -0.91900003 134 106 85
-3.9130001 9.3640003 -0.917 195 120 55
-3.924 9.3290005 -0.889 56 28 16
-3.9159999 9.3319998 -0.88599998 112 67 38
-3.9200001 9.3409996 -0.88999999 103 76 55
-3.921 9.3430004 -0.898 90 58 43
-3.924 9.3369999 -0.89399999 136 66 17
-3.9230001 9.3369999 -0.88999999 135 74 27
-3.9289999 9.3719997 -0.89700001 140 87 55
-3.914 9.3739996 -0.89499998 99 51 11
-3.9289999 9.3710003 -0.898 116 69 41
-3.947 9.3520002 -0.86799997 203 87 0
-3.9200001 9.3809996 -0.85100001 117 64 30
-3.9119999 9.3950005 -0.85299999 80 40 14
-3.9289999 9.3030005 -0.861 228 137 66
-3.904 9.2969999 -0.89399999 178 121 76
-3.8959999 9.2980003 -0.89200002 117 72 39
-3.898 9.2950001 -0.898 253 156 75
-3.885 9.3000002 -0.86799997 129 90 59
-3.8770001 9.302 -0.87599999 154 69 2
-3.8829999 9.3000002 -0.87900001 140 91 48
-3.9159999 9.3190002 -0.86199999 132 87 58
-3.9189999 9.3260002 -0.87099999 206 81 1
-3.8659999 9.3360004 -0.77200001 135 106 74
-3.937 9.3430004 -0.99400002 55 34 5
-3.9419999 9.3299999 -0.99400002 146 100 67
-3.9330001 9.3450003 -1.01 159 107 67
-3.9400001 9.3439999 -1.016 202 143 101
-3.9419999 9.3339996 -1.015 214 169 127
-3.9349999 9.3269997 -1.012 164 103 59
-3.918 9.3100004 -0.92299998 254 176 75
-3.911 9.3610001 -0.93199998 149 79 20
-3.9330001 9.335 -0.91299999 244 163 84
-3.9449999 9.3330002 -0.91799998 155 116 75
-3.9319999 9.3430004 -0.91500002 172 135 106
-3.9130001 9.3610001 -0.917 107 66 34
-3.947 9.3479996 -0.94099998 169 122 92
-3.938 9.3459997 -0.935 92 70 49
-3.9449999 9.3389997 -0.95099998 199 102 21
-3.944 9.3310003 -0.95200002 135 99 65
-3.947 9.3409996 -0.95499998 140 92 54
-3.944 9.3269997 -0.94400001 124 73 42
-3.9389999 9.3149996 -0.94599998 252 183 54
-3.938 9.3140001 -0.94999999 241 168 40
-3.9170001 9.3610001 -0.94 161 88 19
-3.924 9.3610001 -0.94599998 209 133 58
-3.8929999 9.335 -0.954 119 61 11
-3.888 9.3319998 -0.954 135 84 39
-3.9059999 9.3549995 -0.97299999 122 49 0
-3.9319999 9.3120003 -0.98400003 117 65 28
-3.921 9.3190002 -1.006 171 100 54
-3.9200001 9.309 -0.98900002 193 150 118
-3.9070001 9.3610001 -0.96600002 149 101 63
-3.9059999 9.3610001 -0.97399998 128 115 109
-3.938 9.3339996 -0.986 156 52 1
-3.9430001 9.323 -0.98100001 241 159 59
-3.918 9.3100004 -0.93900001 233 136 67
-3.9400001 9.316 -0.93599999 112 64 24
-3.937 9.3319998 -1.025 141 62 21
-3.901 9.4180002 -0.64999998 202 168 156
-3.8959999 9.3430004 -0.64700001 170 133 78
-3.9030001 9.3479996 -0.65100002 118 58 21
-3.9130001 9.3850002 -0.68599999 212 132 79
-3.908 9.3800001 -0.67900002 108 28 0
-3.908 9.3859997 -0.67299998 128 33 0
-3.927 9.3739996 -0.65899998 236 171 105
-3.9170001 9.3959999 -0.65200001 248 197 144
-3.924 9.3699999 -0.64600003 137 70 17
-3.921 9.3599997 -0.639 178 120 70
-3.9059999 9.3540001 -0.65499997 192 117 52
-3.934 9.3330002 -0.63099998 201 166 126
-3.9330001 9.3459997 -0.62400001 134 83 52
-3.9330001 9.3500004 -0.62800002 180 114 64
-3.902 9.323 -0.64499998 187 135 85
-3.924 9.3269997 -0.70200002 188 127 73
-3.9219999 9.3240004 -0.62099999 168 141 124
-3.9649999 9.3059998 -0.60299999 178 132 73
-3.974 9.3120003 -0.60000002 83 64 58
-3.9230001 9.3249998 -0.64099997 167 122 83
-3.9300001 9.3079996 -0.69300002 244 145 60
-3.9430001 9.3179998 -0.71100003 91 50 22
-3.977 9.2910004 -0.71700001 170 108 7
-3.944 9.302 -0.704 155 112 69
-3.902 9.3380003 -1.024 130 126 127
-3.9230001 9.3129997 -1.024 222 150 40
-3.918 9.3170004 -1.008 161 132 126
-3.908 9.3070002 -1.011 164 92 52
-3.8989999 9.302 -1.01 138 82 35
-3.9030001 9.3009996 -0.99599999 127 73 29
-3.885 9.2969999 -0.89999998 255 197 111
-3.895 9.3140001 -0.89499998 153 88 56
-3.885 9.3000002 -0.88200003 167 79 16
-3.891 9.3039999 -0.88200003 255 191 121
-3.8840001 9.3000002 -0.88700002 155 69 10
-3.885 9.316 -0.91600001 194 121 66
-3.8900001 9.3219995 -0.91799998 144 94 61
-3.931 9.3009996 -0.85000002 248 218 132
-3.8940001 9.3079996 -0.87800002 181 100 34
-3.8940001 9.316 -0.90600002 147 127 116
-3.951 9.2969999 -0.85600001 230 121 64
-3.8989999 9.2969999 -0.99599999 133 76 33
-3.8929999 9.3059998 -0.921 156 61 3
-3.9030001 9.309 -0.92400002 186 92 18
-3.9170001 9.3380003 -0.91100001 181 131 78
-3.904 9.4090004 -0.81400001 124 56 9
-3.9170001 9.3360004 -0.83700001 165 98 46
-3.9170001 9.3369999 -0.82999998 165 95 44
-3.8900001 9.3199997 -0.866 139 91 53
-3.9300001 9.309 -0.90100002 112 78 50
-3.9360001 9.3129997 -0.89600003 215 122 44
-3.937 9.3179998 -0.884 60 21 4
-3.9260001 9.3059998 -0.90399998 170 78 11
-3.9170001 9.309 -0.91000003 201 110 53
-3.9260001 9.3120003 -0.921 108 64 35
-3.9230001 9.3400002 -0.87099999 251 153 66
-3.9089999 9.3999996 -0.85000002 241 169 97
-3.9089999 9.3999996 -0.85500002 190 117 49
-3.9059999 9.3339996 -0.70999998 54 36 14
-3.9189999 9.3400002 -0.64999998 205 164 112
-3.925 9.3500004 -0.65100002 90 30 0
-3.9089999 9.3920002 -0.77999997 167 117 84
-3.928 9.3990002 -0.676 171 104 49
-3.9189999 9.3970003 -0.68099999 53 13 1
-3.931 9.323 -0.70700002 84 53 35
-3.9289999 9.3240004 -0.70999998 81 58 50
-3.9059999 9.3629999 -0.77700001 192 136 103
-3.9070001 9.342 -0.78299999 240 203 177
