ply
format ascii 1.0
comment PCL generated
element vertex 128
property float x
property float y
property float z
property uchar red
property uchar green
property uchar blue
element camera 1
property float view_px
property float view_py
property float view_pz
property float x_axisx
property float x_axisy
property float x_axisz
property float y_axisx
property float y_axisy
property float y_axisz
property float z_axisx
property float z_axisy
property float z_axisz
property float focal
property float scalex
property float scaley
property float centerx
property float centery
property int viewportx
property int viewporty
property float k1
property float k2
end_header
-9.4130001 7.3979998 -1.122 213 165 119
-9.4130001 7.3959999 -1.118 135 98 71
-9.4130001 7.3940001 -1.1210001 172 112 58
-9.3990002 7.4450002 -1.133 237 173 111
-9.4060001 7.4499998 -1.135 183 115 50
-9.4110003 7.4499998 -1.135 184 116 53
-9.3920002 7.4419999 -1.064 157 94 40
-9.401 7.447 -1.062 155 109 73
-9.3929996 7.4510002 -1.061 163 129 94
-9.3940001 7.4450002 -1.063 215 181 143
-9.4049997 7.4419999 -1.069 133 82 29
-9.3859997 7.4499998 -1.109 104 62 38
-9.3879995 7.4419999 -1.105 127 69 21
-9.3839998 7.4320002 -1.123 184 126 76
-9.3850002 7.4419999 -1.1289999 151 93 53
-9.3929996 7.4400001 -1.131 169 106 52
-9.3319998 7.461 -1.132 203 130 77
-9.3330002 7.4679999 -1.1339999 100 51 11
-9.3299999 7.4660001 -1.1289999 94 37 7
-9.3380003 7.4640002 -1.133 135 59 7
-9.3430004 7.461 -1.1339999 154 119 91
-9.3409996 7.4689999 -1.135 97 54 20
-9.3450003 7.467 -1.118 104 91 83
-9.3500004 7.4679999 -1.12 126 81 39
-9.3509998 7.4689999 -1.103 185 130 74
-9.3900003 7.434 -1.124 192 127 71
-9.3990002 7.4299998 -1.108 178 115 62
-9.4040003 7.4400001 -1.104 141 108 75
-9.3999996 7.4390001 -1.098 213 148 94
-9.3950005 7.4359999 -1.099 99 45 9
-9.3959999 7.4590001 -1.0700001 162 122 86
-9.3909998 7.4489999 -1.074 227 143 79
-9.3970003 7.46 -1.081 144 116 94
-9.4139996 7.4650002 -1.082 177 121 74
-9.4040003 7.467 -1.082 102 62 37
-9.4169998 7.467 -1.085 146 94 55
-9.415 7.4660001 -1.0880001 214 158 111
-9.3559999 7.473 -1.11 181 117 56
-9.3970003 7.4460001 -1.063 172 95 25
-9.401 7.4530001 -1.064 110 80 44
-9.3879995 7.4460001 -1.068 164 120 73
-9.3959999 7.4439998 -1.0779999 176 114 65
-9.4069996 7.4499998 -1.084 238 155 79
-9.3900003 7.4489999 -1.103 82 27 0
-9.3889999 7.4520001 -1.107 140 98 74
-9.4110003 7.4510002 -1.091 119 80 51
-9.408 7.4499998 -1.068 201 115 38
-9.3879995 7.4510002 -1.113 120 82 63
-9.3479996 7.48 -1.1109999 144 85 29
-9.3470001 7.48 -1.115 132 80 41
-9.3470001 7.4860001 -1.108 224 178 93
-9.4060001 7.4369998 -1.112 183 91 18
-9.4069996 7.4489999 -1.114 138 105 74
-9.3889999 7.4380002 -1.109 214 177 135
-9.3959999 7.4559999 -1.066 173 138 98
-9.4040003 7.461 -1.101 57 28 12
-9.4029999 7.4499998 -1.1109999 170 109 54
-9.3990002 7.4510002 -1.114 215 176 133
-9.3929996 7.454 -1.108 228 176 116
-9.4020004 7.454 -1.099 150 78 6
-9.3520002 7.4710002 -1.107 221 185 149
-9.3990002 7.461 -1.089 59 36 22
-9.3990002 7.4619999 -1.086 54 28 11
-9.3990002 7.4590001 -1.092 151 107 70
-9.408 7.4549999 -1.073 176 111 47
-9.3920002 7.447 -1.076 158 120 84
-9.3549995 7.4679999 -1.125 244 177 124
-9.349 7.4660001 -1.1339999 182 109 56
-9.3879995 7.4450002 -1.1210001 187 138 105
-9.4029999 7.4510002 -1.122 139 78 24
-9.4020004 7.4359999 -1.1109999 133 82 27
-9.3990002 7.4390001 -1.1160001 129 74 35
-9.4040003 7.4429998 -1.128 191 121 61
-9.4040003 7.4450002 -1.12 121 64 21
-9.3920002 7.4330001 -1.114 137 87 36
-9.4040003 7.4629998 -1.081 173 116 61
-9.3520002 7.4759998 -1.105 232 171 116
-9.3559999 7.4879999 -1.118 221 144 72
-9.368 7.4949999 -1.119 215 167 101
-9.3649998 7.4959998 -1.124 117 56 2
-9.4029999 7.461 -1.094 40 11 0
-9.4049997 7.4619999 -1.0880001 148 110 87
-9.4049997 7.4489999 -1.076 186 104 30
-9.3920002 7.4429998 -1.067 237 172 114
-9.3950005 7.4359999 -1.105 172 112 62
-9.3950005 7.4450002 -1.097 169 109 73
-9.3979998 7.454 -1.1 166 121 98
-9.3940001 7.4510002 -1.102 127 77 50
-9.4020004 7.447 -1.092 195 105 29
-9.3620005 7.4770002 -1.125 252 197 143
-9.3450003 7.4780002 -1.1210001 130 76 42
-9.3450003 7.4689999 -1.135 168 92 40
-9.4069996 7.4489999 -1.122 153 119 92
-9.3889999 7.4369998 -1.118 143 88 47
-9.349 7.4809999 -1.107 128 105 97
-9.3549995 7.4770002 -1.112 146 92 45
-9.3549995 7.48 -1.114 233 186 106
-9.401 7.4590001 -1.096 47 18 4
-9.3970003 7.447 -1.095 219 160 128
-9.4029999 7.4460001 -1.1 152 92 38
-9.3900003 7.448 -1.133 138 82 35
-9.3970003 7.4460001 -1.13 144 99 57
-9.3900003 7.4460001 -1.118 125 67 27
-9.3409996 7.4720001 -1.13 130 58 8
-9.3909998 7.4349999 -1.12 154 92 43
-9.3889999 7.4380002 -1.127 110 55 16
-9.3879995 7.4429998 -1.11 172 112 62
-9.3909998 7.4369998 -1.109 193 130 77
-9.3999996 7.4520001 -1.091 161 115 65
-9.3500004 7.4780002 -1.107 223 145 83
-9.3950005 7.4320002 -1.1109999 255 210 166
-9.3929996 7.4419999 -1.1 161 103 53
-9.3920002 7.447 -1.1 161 105 70
-9.3669996 7.4920001 -1.127 182 133 66
-9.349 7.4829998 -1.118 116 55 0
-9.3970003 7.4499998 -1.115 167 139 127
-9.4099998 7.4619999 -1.0930001 152 95 50
-9.3959999 7.4369998 -1.115 144 77 24
-9.3909998 7.4489999 -1.101 176 106 54
-9.3950005 7.4489999 -1.098 125 72 41
-9.3559999 7.4829998 -1.117 195 145 84
-9.3450003 7.4770002 -1.133 198 140 77
-9.3570004 7.473 -1.132 183 116 64
-9.3549995 7.4809999 -1.125 124 70 8
-9.3459997 7.4790001 -1.127 120 66 32
-9.3529997 7.474 -1.132 135 76 16
-9.349 7.4809999 -1.128 183 116 63
-9.3500004 7.4840002 -1.123 147 82 28
0 0 0 1 0 0 0 1 0 0 0 1 0 0 0 0 0 128 1 0 0
