ply
format ascii 1.0
comment PCL generated
element vertex 643
property float x
property float y
property float z
property uchar red
property uchar green
property uchar blue
element camera 1
property float view_px
property float view_py
property float view_pz
property float x_axisx
property float x_axisy
property float x_axisz
property float y_axisx
property float y_axisy
property float y_axisz
property float z_axisx
property float z_axisy
property float z_axisz
property float focal
property float scalex
property float scaley
property float centerx
property float centery
property int viewportx
property int viewporty
property float k1
property float k2
end_header
-5.8990002 14.972 -1.038 79 57 43
-5.8979998 14.973 -1.049 76 50 25
-5.8969998 14.964 -1.034 152 86 25
-5.8969998 14.972 -1.0420001 252 171 92
-5.8909998 14.987 -1.045 152 103 62
-5.881 14.986 -1.059 234 176 126
-5.8839998 14.979 -1.057 247 166 87
-5.8800001 14.979 -1.052 154 87 34
-5.895 14.97 -1.04 189 129 79
-5.8130002 14.979 -0.72899997 173 117 80
-5.8130002 14.96 -0.72899997 132 92 57
-5.8099999 14.964 -0.73400003 255 185 101
-5.822 14.979 -0.71399999 177 91 4
-5.8920002 14.974 -1.044 235 166 111
-5.8520002 15.064 -0.713 174 119 78
-5.8579998 15.065 -0.71200001 231 129 47
-5.8559999 15.079 -0.71200001 202 99 20
-5.8509998 15.074 -0.722 208 156 108
-5.8439999 15.006 -0.708 107 58 26
-5.8520002 15.026 -0.69800001 252 173 80
-5.8530002 15.013 -0.68699998 207 125 43
-5.8400002 14.975 -0.71200001 211 136 53
-5.835 14.961 -0.71399999 217 123 33
-5.8779998 15.04 -0.80000001 92 62 34
-5.8709998 15.045 -0.80000001 140 98 84
-5.8720002 15.04 -0.80500001 88 57 28
-5.8429999 14.943 -0.76999998 148 88 52
-5.849 14.942 -0.76300001 210 147 93
-5.8540001 14.938 -0.76899999 152 88 40
-5.961 15.008 -0.88300002 131 80 37
-5.9629998 15 -0.87300003 235 169 109
-5.9660001 14.992 -0.87800002 129 75 28
-5.9629998 14.996 -0.884 156 94 35
-5.9640002 14.998 -0.89300001 201 108 47
-5.8759999 14.993 -1.0369999 188 121 50
-5.8559999 15.079 -0.72299999 255 154 84
-5.8610001 15.074 -0.72100002 209 137 89
-5.9650002 14.989 -0.88700002 198 117 51
-5.9590001 14.992 -0.875 234 176 130
-5.9640002 14.983 -0.88800001 105 83 60
-5.9549999 15.002 -0.903 158 102 53
-5.9429998 15.021 -0.884 92 56 42
-5.9429998 15.023 -0.88 123 70 36
-5.8629999 15.051 -0.71499997 255 213 147
-5.8660002 15.066 -0.71899998 185 93 20
-5.8189998 14.986 -0.727 136 75 12
-5.8590002 15.067 -0.73299998 229 132 63
-5.868 15.065 -0.727 192 114 65
-5.816 14.961 -0.72500002 145 96 56
-5.8239999 14.96 -0.722 214 130 44
-5.848 15.022 -0.71899998 186 96 10
-5.8439999 15.009 -0.71600002 222 187 168
-5.8260002 14.99 -0.82200003 164 121 89
-5.8319998 14.984 -0.81300002 137 81 44
-5.8179998 14.971 -0.81999999 206 113 52
-5.8119998 14.974 -0.73100001 107 59 19
-5.8189998 14.981 -0.736 103 67 35
-5.8829999 15.012 -0.838 133 66 23
-5.8829999 15.01 -0.85500002 139 72 27
-5.8800001 15.01 -0.83700001 131 56 14
-5.8800001 15.012 -0.85000002 108 61 33
-5.8790002 15.016 -0.852 152 86 36
-5.8759999 15.011 -0.83499998 141 92 59
-5.8800001 15.023 -0.84600002 99 62 36
-5.8790002 15.014 -0.86900002 152 84 35
-5.8449998 14.967 -0.83999997 98 47 0
-5.8590002 14.982 -0.85100001 107 67 32
-5.8460002 14.971 -0.85500002 160 106 60
-5.8559999 14.977 -0.86400002 136 100 64
-5.8639998 14.952 -0.78100002 184 114 55
-5.8600001 14.943 -0.77100003 158 102 51
-5.8699999 14.957 -0.773 86 46 20
-5.8649998 14.95 -0.76999998 147 79 68
-5.8600001 14.946 -0.77700001 202 142 82
-5.8790002 14.975 -1.03 87 50 31
-5.881 14.981 -1.0190001 89 40 0
-5.875 14.987 -1.022 168 117 70
-5.8740001 14.987 -1.028 190 106 34
-5.8839998 14.984 -1.043 188 106 33
-5.868 15.022 -1.03 98 61 34
-5.8670001 15.023 -1.029 136 90 57
-5.8699999 15.023 -1.027 110 78 57
-5.8790002 14.997 -1.02 160 98 47
-5.8860002 14.994 -1.03 187 105 31
-5.842 14.977 -0.88999999 174 143 122
-5.8400002 14.974 -0.87300003 134 76 30
-5.8470001 14.972 -0.88599998 128 69 29
-5.8610001 15.004 -0.96399999 213 137 59
-5.8600001 15.009 -0.96200001 144 78 26
-5.8699999 15.018 -0.98100001 203 149 105
-5.8660002 15.006 -0.96399999 105 59 23
-5.9530001 15.003 -0.86199999 130 97 78
-5.9499998 14.999 -0.861 196 143 93
-5.9499998 15.007 -0.85399997 255 182 129
-5.9029999 15.013 -0.98199999 129 73 36
-5.8850002 15.014 -0.98699999 81 41 16
-5.9000001 15.009 -0.99699998 134 63 11
-5.881 15.02 -0.98299998 111 59 22
-5.9029999 15.014 -0.97399998 157 77 16
-5.8579998 15.074 -0.71799999 206 103 24
-5.947 14.992 -0.87099999 92 41 0
-5.9000001 15.012 -0.97399998 151 83 36
-5.9000001 15.028 -0.70200002 154 83 29
-5.881 15.037 -0.71399999 244 189 124
-5.8959999 15.026 -0.70099998 143 88 34
-5.902 15.027 -0.699 104 54 21
-5.9000001 15.013 -0.69800001 196 131 73
-5.9590001 15.005 -0.87 133 59 22
-5.8930001 15.011 -0.69800001 177 131 98
-5.8899999 15.002 -0.69800001 94 41 0
-5.8990002 15.011 -0.69199997 144 65 0
-5.8499999 14.943 -0.76099998 148 105 73
-5.8260002 14.989 -0.72299999 153 99 61
-5.8390002 14.997 -0.70599997 225 154 62
-5.8509998 15.069 -0.73500001 201 151 98
-5.8509998 14.996 -0.71200001 252 184 83
-5.8410001 14.993 -0.70999998 180 131 90
-5.8889999 15.02 -0.71499997 92 50 12
-5.8670001 15.034 -0.71100003 255 221 183
-5.8790002 15.04 -0.71600002 255 210 154
-5.8530002 15.046 -0.71200001 255 224 186
-5.8520002 15.037 -0.71499997 144 81 2
-5.8499999 15.041 -0.72000003 203 144 86
-5.8520002 15.037 -0.71200001 116 63 21
-5.8130002 14.978 -0.73000002 184 146 107
-5.8270001 14.995 -0.83899999 121 80 48
-5.8270001 15.003 -0.83600003 150 104 70
-5.8249998 14.982 -0.83099997 161 92 51
-5.829 14.981 -0.83399999 169 99 48
-5.8390002 14.988 -0.81400001 93 47 31
-5.8449998 14.992 -0.83099997 113 54 0
-5.8390002 14.987 -0.829 153 102 59
-5.8660002 14.956 -0.77999997 227 151 76
-5.9369998 15.004 -0.85500002 94 52 36
-5.9330001 15.012 -0.85900003 138 106 81
-5.9310002 15.009 -0.86000001 158 90 51
-5.882 15.012 -0.833 115 77 54
-5.9349999 15.019 -0.88 89 57 34
-5.9349999 15.026 -0.866 231 164 93
-5.8629999 15.018 -0.98699999 136 74 25
-5.881 15.023 -0.83999997 117 65 26
-5.881 15.019 -0.82300001 118 77 59
-5.8600001 14.988 -0.85600001 235 158 104
-5.8720002 14.991 -0.87400001 112 50 3
-5.869 14.998 -0.87599999 183 97 20
-5.8460002 14.992 -0.83399999 149 86 33
-5.8449998 15.002 -0.83700001 82 52 28
-5.8439999 14.984 -0.83499998 218 141 85
-5.882 15.006 -0.87199998 128 65 21
-5.934 14.999 -0.87300003 171 106 52
-5.9320002 14.997 -0.88800001 220 163 110
-5.947 14.985 -0.88300002 120 59 28
-5.8429999 14.982 -0.89700001 148 89 47
-5.8590002 14.979 -0.898 87 57 46
-5.8559999 14.989 -0.92199999 191 129 90
-5.8460002 14.991 -0.90200001 122 62 25
-5.8610001 15.006 -0.912 82 45 26
-5.9530001 15.007 -0.86000001 93 63 39
-5.941 15.021 -0.87 163 88 49
-5.9520001 15.008 -0.86400002 153 66 12
-5.927 15.017 -0.87099999 190 163 154
-5.9359999 15.021 -0.87199998 99 60 55
-5.8189998 14.955 -0.74599999 228 147 68
-5.823 14.961 -0.74699998 227 169 121
-5.8390002 14.955 -0.75300002 158 99 65
-5.8239999 14.95 -0.74199998 190 130 76
-5.8410001 14.964 -0.76999998 131 54 0
-5.8449998 14.946 -0.77200001 255 163 98
-5.8449998 14.973 -0.85900003 183 95 24
-5.8590002 14.945 -0.78200001 204 136 89
-5.9400001 14.988 -0.89499998 100 65 61
-5.8800001 14.984 -1.04 153 95 45
-5.8899999 14.989 -1.04 244 162 88
-5.8769999 14.99 -1.017 207 124 56
-5.9190001 14.997 -1.011 110 60 27
-5.9039998 15.008 -1.002 119 64 25
-5.9200001 14.999 -1.016 87 54 45
-5.8429999 14.982 -0.88800001 101 72 54
-5.8379998 15 -0.84100002 153 84 27
-5.8629999 15.002 -0.87900001 91 59 48
-5.875 15.01 -0.96200001 157 91 33
-5.868 15.012 -0.954 141 67 2
-5.8829999 15.016 -0.84299999 190 124 63
-5.8590002 14.988 -0.97299999 206 138 91
-5.8579998 14.985 -0.96100003 170 111 67
-5.8610001 14.991 -0.97500002 136 70 10
-5.948 15.011 -0.88200003 109 73 47
-5.9450002 15.012 -0.88300002 149 80 38
-5.948 14.988 -0.88099998 156 106 57
-5.9590001 15.001 -0.889 128 53 11
-5.9530001 14.991 -0.898 205 131 58
-5.947 14.991 -0.90100002 162 95 43
-5.9429998 14.995 -0.90899998 226 162 91
-5.881 15.041 -0.72299999 251 182 123
-5.8670001 15.059 -0.722 195 96 15
-5.8930001 15.012 -0.69099998 166 111 72
-5.8870001 15.009 -0.68599999 195 118 64
-5.8759999 15.02 -0.68800002 225 165 95
-5.8439999 14.952 -0.73400003 193 142 79
-5.8470001 14.96 -0.71799999 116 73 38
-5.8369999 14.951 -0.72799999 169 129 94
-5.8429999 14.956 -0.73100001 165 95 33
-5.8509998 15.069 -0.73000002 220 121 56
-5.8530002 15.066 -0.73100001 184 133 90
-5.8530002 15.046 -0.73500001 177 130 104
-5.8720002 15.054 -0.73000002 195 140 83
-5.882 15.048 -0.74199998 234 160 97
-5.8590002 15.053 -0.71600002 231 137 50
-5.8600001 15.061 -0.73000002 224 125 58
-5.862 15.059 -0.72500002 194 151 117
-5.8569999 15.028 -0.70300001 215 135 50
-5.8530002 15.009 -0.69300002 150 97 55
-5.8579998 15.009 -0.69 200 127 33
-5.848 15.012 -0.71200001 154 111 69
-5.8499999 15.009 -0.71700001 158 102 43
-5.8829999 15.008 -0.68699998 199 156 124
-5.8699999 15.015 -0.68800002 202 118 32
-5.8610001 15.013 -0.69099998 218 147 55
-5.8660002 15.011 -0.69099998 134 85 44
-5.8260002 14.976 -0.82999998 148 86 45
-5.8260002 14.973 -0.82300001 184 142 117
-5.8239999 14.975 -0.82599998 66 36 10
-5.842 14.985 -0.829 104 46 44
-5.8400002 15 -0.83600003 148 104 75
-5.8169999 14.963 -0.72500002 166 100 48
-5.8179998 14.954 -0.73400003 249 173 85
-5.8179998 14.958 -0.73900002 191 128 74
-5.816 14.966 -0.73400003 162 129 114
-5.829 14.974 -0.71799999 187 136 83
-5.822 14.975 -0.74000001 142 92 55
-5.8249998 14.978 -0.74199998 107 65 25
-5.8670001 14.964 -0.75400001 152 89 35
-5.8660002 14.956 -0.764 157 77 8
-5.868 14.963 -0.76200002 110 73 46
-5.8829999 15.012 -0.82099998 134 70 26
-5.934 15.004 -0.85900003 177 111 59
-5.9330001 15.004 -0.861 147 97 48
-5.9439998 14.997 -0.85799998 157 98 64
-5.9530001 14.99 -0.87599999 168 125 106
-5.9390001 15 -0.86699998 201 105 19
-5.8790002 15.014 -0.83499998 212 149 98
-5.8569999 14.98 -0.86799997 164 117 75
-5.8400002 14.988 -0.85799998 87 55 44
-5.8460002 14.986 -0.87099999 140 67 16
-5.855 14.987 -0.86000001 146 74 16
-5.8410001 14.983 -0.85399997 151 78 37
-5.835 14.978 -0.83700001 106 46 9
-5.8460002 14.987 -0.838 105 45 8
-5.882 15.014 -0.87900001 124 80 55
-5.9289999 15.007 -0.86699998 243 143 57
-5.9380002 15 -0.88099998 255 207 161
-5.8590002 14.945 -0.76499999 225 154 90
-5.8520002 14.949 -0.75300002 158 100 62
-5.8509998 14.962 -0.72500002 97 36 0
-5.862 14.957 -0.75599998 145 97 51
-5.8319998 14.954 -0.72500002 160 100 63
-5.8260002 14.958 -0.727 129 71 33
-5.8449998 14.95 -0.78399998 133 73 23
-5.855 14.981 -0.85799998 160 73 4
-5.848 14.975 -0.87099999 157 120 94
-5.8649998 14.957 -0.78399998 254 166 103
-5.8790002 14.977 -1.045 219 153 101
-5.914 14.995 -1.0190001 248 182 121
-5.9130001 14.991 -1.002 165 113 73
-5.888 14.979 -1.033 204 143 99
-5.8629999 14.993 -0.96399999 126 69 24
-5.9299998 15.002 -0.94499999 204 132 82
-5.9289999 14.991 -0.93000001 142 93 52
-5.9239998 14.986 -0.93000001 226 144 62
-5.9289999 14.997 -0.93400002 121 85 63
-5.8730001 15.001 -0.89600003 89 48 28
-5.862 15 -0.88800001 77 41 9
-5.8800001 15.009 -0.889 122 63 21
-5.8569999 15 -0.89899999 134 67 15
-5.8790002 15.007 -0.90200001 153 83 31
-5.8649998 15.006 -0.958 141 82 42
-5.8829999 15.011 -0.96200001 101 48 16
-5.9450002 15.009 -0.86000001 141 72 31
-5.9429998 15.011 -0.86299998 136 79 26
-5.915 14.994 -0.95099998 206 117 57
-5.8940001 15.01 -0.95700002 146 101 68
-5.8930001 15.019 -0.94300002 162 101 54
-5.8889999 15.017 -0.94800001 183 114 57
-5.9050002 15 -0.97600001 194 138 81
-5.902 15.005 -0.97399998 176 129 87
-5.914 14.994 -0.99400002 125 99 82
-5.9060001 14.991 -0.96700001 198 143 102
-5.9039998 14.988 -0.96399999 163 110 66
-5.914 14.984 -0.95899999 212 155 102
-5.9530001 15.011 -0.87900001 208 119 53
-5.9499998 15.004 -0.89300001 211 118 49
-5.9510002 14.987 -0.88 133 80 38
-5.961 14.997 -0.87300003 130 94 68
-5.9159999 15.013 -0.94499999 154 131 117
-5.9219999 15.009 -0.92799997 178 110 65
-5.9239998 15.01 -0.935 110 58 19
-5.9250002 15.009 -0.94099998 97 47 14
-5.914 15.009 -0.94999999 151 110 82
-5.9260001 15.008 -0.94400001 81 46 42
-5.9190001 15.003 -0.95499998 182 129 89
-5.8800001 15.019 -0.73100001 110 54 19
-5.8829999 15.014 -0.73500001 201 139 80
-5.8670001 15.022 -0.73699999 132 91 73
-5.8800001 15.022 -0.73299998 120 71 39
-5.8670001 15.028 -0.73500001 189 121 56
-5.868 15.026 -0.72799999 241 187 140
-5.8790002 15.05 -0.74699998 140 61 2
-5.8769999 15.048 -0.74800003 153 92 61
-5.8410001 14.959 -0.72000003 178 102 8
-5.8369999 14.956 -0.72500002 176 115 60
-5.8870001 15.002 -0.70099998 157 87 18
-5.8769999 14.994 -0.70499998 255 223 183
-5.881 14.996 -0.69800001 234 142 57
-5.8779998 14.998 -0.70700002 204 137 82
-5.8439999 14.95 -0.74199998 243 179 117
-5.8400002 14.996 -0.71799999 101 63 44
-5.8319998 14.988 -0.71700001 161 123 74
-5.8660002 15.058 -0.73299998 209 109 34
-5.8509998 15.019 -0.70300001 248 185 90
-5.8579998 15.002 -0.69800001 156 101 45
-5.8720002 14.995 -0.68800002 148 83 19
-5.8660002 14.999 -0.69800001 120 69 14
-5.848 14.975 -0.71600002 206 126 73
-5.8460002 14.989 -0.71600002 169 100 35
-5.875 15.019 -0.68900001 107 56 27
-5.8730001 15 -0.68699998 159 125 87
-5.8889999 15.013 -0.70599997 108 55 11
-5.8709998 15.047 -0.74000001 199 126 47
-5.862 15.047 -0.736 199 151 85
-5.8569999 15.05 -0.741 104 60 33
-5.855 15.048 -0.73799998 221 164 111
-5.8260002 14.983 -0.82099998 173 105 66
-5.829 14.999 -0.83399999 149 85 41
-5.8509998 14.966 -0.71600002 140 107 62
-5.8189998 14.975 -0.72500002 151 104 62
-5.8530002 14.978 -0.764 108 69 38
-5.849 14.976 -0.77899998 121 80 50
-5.8470001 14.965 -0.76599997 89 88 70
-5.8530002 14.981 -0.76499999 206 145 90
-5.8530002 14.981 -0.76300001 172 106 46
-5.8800001 15.013 -0.82300001 193 152 120
-5.8629999 14.99 -0.87300003 64 26 7
-5.842 14.983 -0.86299998 83 32 3
-5.8590002 14.998 -0.88700002 107 66 44
-5.8520002 14.998 -0.89399999 191 112 56
-5.8439999 14.977 -0.85299999 98 61 42
-5.8800001 15.008 -0.87599999 118 63 24
-5.9310002 15.009 -0.88 246 147 54
-5.888 15.007 -0.88800001 170 95 53
-5.8920002 14.991 -0.90100002 153 92 48
-5.8909998 14.988 -0.89700001 78 37 17
-5.8899999 15.005 -0.903 104 41 0
-5.8740001 14.985 -0.958 177 111 53
-5.8590002 14.988 -0.93800002 103 38 0
-5.868 14.981 -0.90399998 233 144 64
-5.8720002 14.987 -0.88200003 191 99 22
-5.8600001 14.984 -0.89099997 118 84 57
-5.8559999 14.983 -0.90399998 134 47 0
-5.8590002 14.987 -0.90899998 145 83 36
-5.8829999 15.009 -0.88999999 132 73 31
-5.8600001 14.998 -0.917 104 42 3
-5.8629999 14.994 -0.93300003 114 78 56
-5.868 14.98 -0.92000002 180 126 82
-5.8740001 14.979 -0.926 76 56 21
-5.9330001 15.003 -0.875 235 179 128
-5.829 14.974 -0.74699998 89 48 28
-5.8270001 14.976 -0.74299997 238 204 169
-5.8540001 14.98 -0.745 185 102 34
-5.8460002 14.97 -0.74800003 191 135 76
-5.8460002 14.978 -0.73100001 125 77 31
-5.8460002 14.985 -0.884 130 69 25
-5.8509998 14.946 -0.77899998 205 144 89
-5.8979998 14.997 -0.99800003 214 147 77
-5.908 14.996 -1 147 89 49
-5.8920002 14.987 -1.0319999 222 157 101
-5.8909998 14.973 -1.036 221 157 83
-5.882 14.978 -1.036 124 73 30
-5.8790002 14.995 -1.007 135 74 27
-5.8720002 15.005 -1.002 136 79 36
-5.8590002 14.987 -0.98400003 255 185 89
-5.8600001 14.988 -0.97299999 255 190 95
-5.8629999 14.993 -0.97799999 238 190 150
-5.9439998 15 -0.91600001 179 105 56
-5.9219999 15 -0.95099998 152 81 37
-5.8559999 14.978 -0.88700002 126 77 34
-5.8579998 14.983 -0.88200003 177 112 70
-5.8800001 15.012 -0.95499998 151 93 47
-5.9299998 15.015 -0.87400001 171 124 96
-5.8839998 14.992 -0.98400003 161 105 56
-5.8850002 14.995 -1.001 181 118 74
-5.8839998 14.992 -1.003 185 127 77
-5.9060001 14.986 -0.95999998 165 106 48
-5.901 14.982 -0.94999999 161 90 44
-5.8860002 15.009 -0.93099999 197 157 132
-5.8889999 15.009 -0.93599999 204 113 40
-5.8850002 14.993 -0.958 128 107 86
-5.8829999 14.99 -0.96499997 142 86 37
-5.9050002 14.996 -0.98299998 111 85 62
-5.9029999 14.996 -0.97500002 211 160 117
-5.8959999 14.999 -0.97799999 140 85 46
-5.888 14.999 -0.98799998 153 102 59
-5.9109998 14.99 -0.96399999 183 113 62
-5.9520001 14.988 -0.884 171 112 70
-5.954 15.002 -0.89499998 57 27 1
-5.9450002 14.999 -0.90100002 153 89 41
-5.934 15.001 -0.88800001 179 113 61
-5.888 15.01 -0.71600002 255 188 117
-5.8579998 15.007 -0.72100002 131 61 2
-5.8509998 14.953 -0.74900001 214 139 71
-5.8610001 14.961 -0.75300002 146 95 42
-5.8309999 14.992 -0.722 241 200 156
-5.8610001 15.063 -0.736 113 66 38
-5.855 15.031 -0.70899999 209 128 36
-5.8660002 15.026 -0.70700002 116 79 60
-5.8509998 15.022 -0.708 139 87 50
-5.8369999 14.993 -0.72399998 242 206 144
-5.8449998 14.997 -0.722 137 79 42
-5.875 14.999 -0.685 150 98 38
-5.8889999 15.017 -0.713 140 87 35
-5.8930001 15.018 -0.69800001 136 102 67
-5.8790002 15.017 -0.70200002 140 69 15
-5.862 15.054 -0.73000002 211 157 95
-5.8390002 14.975 -0.80699998 166 130 98
-5.835 14.976 -0.83200002 129 56 15
-5.8449998 14.968 -0.82200003 90 41 0
-5.822 14.96 -0.72500002 160 99 44
-5.8239999 14.958 -0.72899997 199 159 124
-5.8260002 14.982 -0.71600002 160 107 63
-5.835 14.981 -0.71700001 226 164 103
-5.8429999 14.961 -0.71700001 161 112 53
-5.8470001 14.96 -0.72899997 120 77 43
-5.849 14.961 -0.72899997 168 131 87
-5.8610001 15.028 -0.73199999 243 162 97
-5.829 14.978 -0.73500001 106 63 29
-5.836 14.983 -0.72600001 103 65 44
-5.8309999 14.972 -0.73699999 165 84 41
-5.8579998 14.987 -0.79100001 160 103 60
-5.8610001 14.989 -0.792 150 103 73
-5.8600001 14.996 -0.79000002 171 98 45
-5.862 14.993 -0.79799998 150 106 77
-5.8649998 14.995 -0.79100001 202 153 120
-5.862 15 -0.796 79 36 30
-5.8590002 14.964 -0.77100003 184 103 48
-5.862 14.957 -0.78200001 180 117 63
-5.8670001 14.955 -0.76800001 196 128 83
-5.8769999 15.015 -0.82099998 129 76 42
-5.8499999 14.963 -0.82599998 112 63 30
-5.8449998 14.976 -0.83600003 156 85 39
-5.848 14.96 -0.77899998 146 92 48
-5.8470001 14.967 -0.79799998 114 72 47
-5.869 14.998 -0.92000002 191 104 33
-5.8790002 15.014 -0.91900003 160 89 37
-5.8779998 15.007 -0.917 115 61 23
-5.8699999 14.988 -0.87900001 151 89 40
-5.8429999 14.98 -0.86400002 118 83 53
-5.934 15.002 -0.89300001 225 131 57
-5.934 14.998 -0.90200001 148 82 30
-5.9369998 15.007 -0.88700002 223 151 66
-5.8860002 15.011 -0.91600001 175 134 112
-5.8899999 15.005 -0.90799999 138 84 40
-5.8790002 15.012 -0.88499999 150 80 29
-5.882 15.004 -0.88 192 153 120
-5.8829999 15.005 -0.89300001 179 143 111
-5.869 14.997 -0.889 222 149 98
-5.8779998 14.992 -0.94300002 143 79 31
-5.8699999 14.99 -0.92900002 142 68 23
-5.8740001 14.987 -0.963 183 112 34
-5.9120002 14.983 -0.935 239 147 82
-5.8850002 14.999 -0.89999998 166 108 62
-5.8610001 14.989 -0.93099999 105 42 0
-5.8639998 14.986 -0.921 105 70 50
-5.8579998 14.982 -0.90600002 156 104 57
-5.8660002 14.979 -0.91500002 199 118 39
-5.8769999 14.982 -0.91399997 92 51 31
-5.8740001 14.984 -0.91000003 148 98 65
-5.8790002 14.989 -0.91500002 86 57 27
-5.8610001 14.998 -0.917 95 52 43
-5.8829999 15.006 -0.93400002 100 56 29
-5.8800001 15.003 -0.926 192 141 94
-5.8330002 14.952 -0.73900002 181 119 62
-5.8569999 14.948 -0.78399998 86 53 22
-5.8860002 14.99 -1.023 195 134 87
-5.8800001 14.979 -1.035 158 89 32
-5.8899999 14.991 -1.031 169 117 80
-5.8699999 15.015 -0.99000001 173 122 77
-5.8790002 15.013 -0.98699999 170 102 53
-5.869 15.013 -0.98699999 215 143 58
-5.868 14.996 -0.94099998 79 37 15
-5.8660002 14.999 -0.95099998 182 123 83
-5.869 15.007 -0.94999999 137 96 68
-5.9390001 14.998 -0.921 186 132 88
-5.9299998 15.001 -0.93099999 185 114 68
-5.9190001 14.998 -0.96100003 171 114 61
-5.8699999 14.989 -0.903 178 120 74
-5.8740001 14.986 -0.97799999 182 116 55
-5.862 14.989 -0.98299998 119 65 21
-5.888 14.999 -1.003 122 66 29
-5.914 14.994 -0.94700003 119 75 48
-5.9039998 14.989 -0.96499997 186 128 82
-5.8850002 14.997 -0.98900002 186 125 80
-5.914 14.99 -0.958 168 90 41
-5.9510002 15.001 -0.89899999 61 34 15
-5.9439998 15.003 -0.89300001 105 76 70
-5.9429998 15.007 -0.88999999 134 80 78
-5.934 14.992 -0.91600001 160 94 42
-5.9260001 14.989 -0.90600002 138 84 46
-5.934 15.002 -0.90100002 120 68 29
-5.882 15.013 -0.68800002 210 118 31
-5.881 15.002 -0.70700002 200 153 109
-5.8839998 15.003 -0.704 127 91 41
-5.862 15 -0.727 147 104 62
-5.8629999 14.982 -0.74199998 165 84 18
-5.868 14.995 -0.75199997 202 123 54
-5.8699999 14.99 -0.75800002 158 74 14
-5.8590002 14.978 -0.74800003 83 48 28
-5.8559999 14.973 -0.73299998 120 50 38
-5.8670001 15.022 -0.71700001 235 197 178
-5.8579998 15.018 -0.69800001 255 197 103
-5.8460002 14.964 -0.75999999 118 80 67
-5.8509998 14.974 -0.75700003 94 55 24
-5.8600001 14.984 -0.75599998 120 78 62
-5.8629999 14.97 -0.75800002 225 160 96
-5.8520002 14.964 -0.73500001 201 129 53
-5.8470001 14.97 -0.74000001 177 112 54
-5.8699999 15.027 -0.708 213 149 77
-5.8530002 15.026 -0.70499998 255 215 167
-5.8829999 15.001 -0.69199997 136 65 0
-5.8670001 15.051 -0.72000003 231 184 140
-5.8800001 15.042 -0.72899997 170 111 51
-5.8720002 15.055 -0.745 138 73 19
-5.8319998 14.976 -0.81999999 118 73 54
-5.8470001 14.974 -0.815 142 79 38
-5.842 14.98 -0.824 161 84 32
-5.855 14.974 -0.71799999 109 66 32
-5.8660002 14.995 -0.75599998 105 50 9
-5.8410001 14.975 -0.83899999 88 37 8
-5.8509998 14.958 -0.78299999 214 149 107
-5.862 14.99 -0.87699997 163 86 32
-5.8439999 14.976 -0.86400002 122 87 67
-5.8460002 14.986 -0.84200001 115 71 42
-5.9310002 14.996 -0.90700001 217 118 50
-5.8850002 15.006 -0.88700002 74 45 15
-5.8790002 14.997 -0.94599998 142 98 59
-5.881 14.994 -0.986 255 186 91
-5.8769999 14.99 -0.97500002 254 184 89
-5.881 14.994 -0.972 183 133 98
-5.8899999 14.988 -0.90600002 156 117 84
-5.888 15.005 -0.90200001 137 63 18
-5.8369999 14.952 -0.73900002 189 150 117
-5.8369999 14.962 -0.75 255 186 135
-5.8439999 14.962 -0.77100003 144 103 75
-5.8850002 14.994 -1.012 136 74 27
-5.8860002 14.994 -1.015 160 80 7
-5.8889999 14.995 -1.017 186 132 96
-5.9050002 14.996 -1.006 100 74 51
-5.9060001 15.003 -0.99400002 228 174 130
-5.881 15.007 -0.97500002 159 106 64
-5.8720002 15.007 -0.991 166 112 68
-5.8759999 14.992 -0.99800003 248 177 111
-5.8600001 14.989 -0.98400003 225 149 99
-5.8660002 14.99 -0.96600002 155 87 42
-5.875 15.01 -0.94700003 138 68 16
-5.9310002 15.006 -0.92699999 175 118 63
-5.9169998 15.003 -0.958 102 51 8
-5.8759999 15.001 -0.898 119 58 11
-5.8800001 15 -1.003 155 86 29
-5.8959999 14.992 -0.963 208 129 73
-5.8930001 15.014 -0.94599998 111 67 38
-5.9200001 15.008 -0.92900002 224 165 121
-5.8990002 14.993 -0.958 129 73 36
-5.941 15.011 -0.889 127 73 45
-5.8720002 15.008 -0.71399999 255 188 110
-5.8660002 15.001 -0.71700001 202 147 90
-5.8530002 15.003 -0.72399998 127 50 0
-5.8590002 14.984 -0.74000001 168 119 78
-5.8639998 14.996 -0.70499998 255 226 181
-5.8649998 14.996 -0.71700001 152 117 79
-5.8629999 14.969 -0.76800001 113 52 21
-5.8520002 14.962 -0.741 141 92 52
-5.8660002 15.022 -0.70499998 255 217 171
-5.882 15.003 -0.69 152 105 63
-5.842 14.976 -0.82300001 129 83 57
-5.8460002 14.962 -0.81800002 94 46 24
-5.8439999 14.97 -0.80199999 143 93 58
-5.8460002 14.986 -0.81599998 255 193 139
-5.8520002 14.979 -0.72100002 250 182 109
-5.8540001 14.981 -0.78500003 209 129 76
-5.8509998 14.973 -0.77999997 73 38 10
-5.855 14.96 -0.78500003 224 143 78
-5.8509998 14.972 -0.78200001 70 36 24
-5.9349999 14.994 -0.90799999 119 82 53
-5.9289999 14.993 -0.91299999 121 72 32
-5.8730001 14.998 -0.92500001 79 38 20
-5.8839998 14.995 -0.92000002 174 82 5
-5.8340001 14.952 -0.73500001 218 123 39
-5.8410001 14.961 -0.75400001 210 148 89
-5.8959999 14.998 -1.001 255 195 150
-5.8600001 14.991 -0.98400003 154 130 118
-5.8759999 14.999 -1 177 106 60
-5.8720002 15.001 -0.94300002 154 84 32
-5.9299998 15.003 -0.93900001 71 49 28
-5.9380002 14.999 -0.90899998 110 51 47
-5.9070001 15.007 -0.95200002 114 66 28
-5.9050002 14.988 -0.94400001 171 130 100
-5.888 15.005 -0.94499999 182 99 49
-5.9229999 14.985 -0.92400002 212 157 118
-5.9130001 14.991 -0.93300003 125 81 52
-5.9289999 14.999 -0.91900003 55 30 8
-5.9289999 14.995 -0.92000002 252 177 94
-5.869 14.996 -0.71499997 196 124 109
-5.8590002 14.995 -0.72399998 138 100 37
-5.8629999 14.982 -0.75700003 189 105 41
-5.8800001 15.021 -0.70999998 195 150 117
-5.8850002 15.025 -0.72299999 253 185 114
-5.8530002 14.971 -0.79900002 188 107 52
-5.8449998 14.972 -0.80800003 92 40 16
-5.8439999 14.983 -0.81 135 91 66
-5.8590002 14.953 -0.78399998 208 159 127
-5.8740001 14.995 -0.94700003 141 104 77
-5.882 14.995 -0.926 149 100 68
-5.8860002 14.997 -0.91500002 153 76 32
-5.8330002 14.963 -0.74699998 236 189 147
-5.8800001 15.005 -0.99400002 186 127 85
-5.9070001 14.999 -0.96700001 184 143 115
-5.914 14.991 -0.95899999 106 55 26
-5.9089999 14.999 -0.94400001 159 106 62
-5.9169998 15.007 -0.94099998 146 100 66
-5.914 15.004 -0.93000001 142 96 60
-5.9050002 14.999 -0.94599998 161 96 40
-5.927 14.988 -0.92199999 138 88 51
-5.862 14.994 -0.72399998 203 152 109
-5.8530002 14.976 -0.72500002 124 85 46
-5.848 14.974 -0.79699999 224 161 120
-5.8439999 14.97 -0.81800002 125 60 20
-5.8870001 15.002 -0.93000001 172 91 44
-5.8319998 14.961 -0.74699998 228 157 105
-5.881 15.003 -0.99800003 174 92 36
-5.875 15.004 -0.90700001 163 129 94
-5.8930001 14.993 -0.96499997 146 73 5
-5.855 14.974 -0.72100002 67 64 45
-5.8660002 15.016 -0.69599998 144 97 55
-5.8829999 15.001 -0.93800002 75 46 16
-5.9109998 14.991 -0.93900001 203 132 88
0 0 0 1 0 0 0 1 0 0 0 1 0 0 0 0 0 643 1 0 0
