ply
format ascii 1.0
comment PCL generated
element vertex 84
property float x
property float y
property float z
property uchar red
property uchar green
property uchar blue
element camera 1
property float view_px
property float view_py
property float view_pz
property float x_axisx
property float x_axisy
property float x_axisz
property float y_axisx
property float y_axisy
property float y_axisz
property float z_axisx
property float z_axisy
property float z_axisz
property float focal
property float scalex
property float scaley
property float centerx
property float centery
property int viewportx
property int viewporty
property float k1
property float k2
end_header
-7.2220001 12.741 -0.773 146 99 81
-7.2119999 12.732 -0.773 155 120 101
-7.2080002 12.736 -0.78500003 134 86 66
-7.2189999 12.727 -0.76599997 181 125 90
-7.1750002 12.757 -0.83700001 95 72 64
-7.1729999 12.759 -0.84500003 103 67 43
-7.1669998 12.76 -0.83499998 174 112 73
-7.2020001 12.731 -0.77399999 160 105 64
-7.2020001 12.723 -0.75800002 136 101 81
-7.1999998 12.736 -0.764 163 76 23
-7.1929998 12.746 -0.764 168 83 28
-7.1989999 12.74 -0.773 143 111 96
-7.2119999 12.743 -0.77899998 144 76 41
-7.2189999 12.75 -0.78399998 94 69 62
-7.2179999 12.754 -0.77899998 101 27 0
-7.2179999 12.748 -0.76700002 122 100 87
-7.2249999 12.747 -0.76499999 157 94 53
-7.2220001 12.747 -0.77100003 158 100 60
-7.204 12.736 -0.75599998 124 86 65
-7.2080002 12.741 -0.75300002 185 108 64
-7.1939998 12.752 -0.75999999 110 64 31
-7.1880002 12.774 -0.83600003 103 54 22
-7.1739998 12.778 -0.84299999 191 120 74
-7.1939998 12.767 -0.84799999 110 50 14
-7.1760001 12.775 -0.82800001 165 95 44
-7.198 12.754 -0.83600003 109 54 23
-7.1919999 12.758 -0.82700002 124 92 71
-7.1789999 12.761 -0.838 123 92 74
-7.2220001 12.728 -0.759 102 56 32
-7.2210002 12.744 -0.76300001 176 121 90
-7.1760001 12.762 -0.82999998 187 147 122
-7.2020001 12.728 -0.75999999 135 78 48
-7.2010002 12.745 -0.787 197 154 119
-7.2020001 12.757 -0.764 176 117 75
-7.1999998 12.77 -0.77899998 109 43 9
-7.2030001 12.757 -0.76999998 132 73 33
-7.1939998 12.769 -0.83099997 131 68 33
-7.2150002 12.763 -0.84200001 117 98 91
-7.2030001 12.755 -0.829 112 63 31
-7.21 12.764 -0.83099997 99 43 10
-7.2059999 12.757 -0.787 175 123 84
-7.1989999 12.756 -0.824 77 43 18
-7.2210002 12.764 -0.83600003 83 67 54
-7.2189999 12.769 -0.83999997 107 45 6
-7.2189999 12.729 -0.75999999 216 174 160
-7.1989999 12.74 -0.759 168 137 119
-7.2069998 12.727 -0.76499999 146 63 13
-7.2129998 12.737 -0.77499998 152 85 43
-7.1820002 12.765 -0.82700002 96 63 44
-7.197 12.764 -0.84600002 129 83 57
-7.2069998 12.748 -0.78399998 128 94 66
-7.2150002 12.754 -0.78200001 108 43 3
-7.2059999 12.758 -0.778 85 13 0
-7.1900001 12.749 -0.778 128 65 32
-7.1960001 12.761 -0.81599998 114 63 34
-7.2080002 12.768 -0.829 158 96 57
-7.1880002 12.766 -0.82499999 118 51 9
-7.2090001 12.749 -0.759 99 50 17
-7.1890001 12.768 -0.82999998 154 100 56
-7.1810002 12.769 -0.84500003 98 65 48
-7.2129998 12.736 -0.75300002 116 54 15
-7.1989999 12.742 -0.77899998 124 52 14
-7.1960001 12.764 -0.84200001 94 41 0
-7.2030001 12.762 -0.78500003 126 93 76
-7.177 12.771 -0.82599998 129 102 91
-7.211 12.765 -0.82800001 168 136 115
-7.1739998 12.77 -0.84399998 139 89 52
-7.1729999 12.773 -0.83200002 71 41 17
-7.1729999 12.776 -0.83099997 188 137 94
-7.2140002 12.742 -0.75999999 169 127 102
-7.1939998 12.747 -0.77600002 191 98 39
-7.1960001 12.76 -0.78299999 179 104 47
-7.1929998 12.754 -0.76800001 73 34 19
-7.197 12.769 -0.83600003 83 37 4
-7.1999998 12.76 -0.824 107 48 16
-7.1729999 12.768 -0.82999998 113 81 58
-7.1929998 12.754 -0.773 146 115 97
-7.1929998 12.755 -0.77399999 113 60 26
-7.2140002 12.748 -0.76700002 99 35 0
-7.1989999 12.762 -0.78799999 76 38 25
-7.198 12.765 -0.78399998 218 175 143
-7.1729999 12.773 -0.83099997 117 46 4
-7.197 12.764 -0.77700001 142 107 85
-7.2080002 12.752 -0.773 118 68 33
0 0 0 1 0 0 0 1 0 0 0 1 0 0 0 0 0 84 1 0 0
