ply
format ascii 1.0
comment PCL generated
element vertex 73
property float x
property float y
property float z
property uchar red
property uchar green
property uchar blue
element camera 1
property float view_px
property float view_py
property float view_pz
property float x_axisx
property float x_axisy
property float x_axisz
property float y_axisx
property float y_axisy
property float y_axisz
property float z_axisx
property float z_axisy
property float z_axisz
property float focal
property float scalex
property float scaley
property float centerx
property float centery
property int viewportx
property int viewporty
property float k1
property float k2
end_header
-12.827 -5.4499998 -0.685 127 80 50
-12.84 -5.4400001 -0.68900001 182 116 66
-12.842 -5.4429998 -0.68400002 154 83 19
-12.817 -5.4429998 -0.69800001 138 83 18
-12.816 -5.4549999 -0.69800001 127 56 2
-12.828 -5.4510002 -0.68000001 169 81 9
-12.823 -5.4429998 -0.67000002 189 150 107
-12.819 -5.4569998 -0.67799997 107 66 12
-12.84 -5.4390001 -0.68599999 126 84 59
-12.842 -5.4349999 -0.67900002 102 50 0
-12.84 -5.4299998 -0.69 153 116 64
-12.812 -5.4590001 -0.69 161 62 0
-12.82 -5.4569998 -0.68300003 207 125 69
-12.794 -5.4380002 -0.69400001 111 61 10
-12.806 -5.427 -0.69199997 193 101 28
-12.8 -5.441 -0.68000001 146 105 53
-12.797 -5.4289999 -0.69800001 236 140 80
-12.798 -5.4349999 -0.70300001 101 45 12
-12.811 -5.434 -0.71100003 132 65 20
-12.807 -5.4400001 -0.704 95 22 0
-12.797 -5.4499998 -0.69999999 138 59 0
-12.793 -5.4390001 -0.70099998 154 96 46
-12.803 -5.4510002 -0.69700003 161 106 67
-12.8 -5.4549999 -0.68800002 163 89 28
-12.802 -5.4530001 -0.69099998 190 103 32
-12.821 -5.4429998 -0.71100003 240 181 141
-12.835 -5.4320002 -0.69800001 211 172 133
-12.83 -5.4190001 -0.70200002 144 83 36
-12.831 -5.4239998 -0.69599998 113 79 34
-12.809 -5.434 -0.685 170 131 90
-12.809 -5.428 -0.68900001 136 98 53
-12.819 -5.421 -0.685 197 160 118
-12.82 -5.4320002 -0.67799997 111 67 18
-12.836 -5.4320002 -0.68300003 187 134 90
-12.807 -5.4510002 -0.68000001 176 119 52
-12.808 -5.4530001 -0.671 167 113 67
-12.81 -5.4580002 -0.67799997 199 101 10
-12.826 -5.454 -0.68099999 169 130 71
-12.836 -5.4359999 -0.69300002 168 120 74
-12.805 -5.4180002 -0.699 94 78 63
-12.802 -5.4239998 -0.70999998 155 104 49
-12.798 -5.4510002 -0.69300002 171 129 104
-12.797 -5.4320002 -0.699 113 71 23
-12.806 -5.4369998 -0.68599999 174 127 73
-12.827 -5.4250002 -0.68599999 192 126 76
-12.808 -5.4569998 -0.68300003 145 91 47
-12.81 -5.441 -0.67699999 91 50 0
-12.823 -5.441 -0.67400002 164 92 33
-12.8 -5.4229999 -0.70700002 99 42 12
-12.805 -5.415 -0.708 187 129 79
-12.809 -5.447 -0.70499998 219 147 99
-12.814 -5.4400001 -0.708 116 88 64
-12.801 -5.447 -0.685 123 94 78
-12.806 -5.4250002 -0.69499999 130 83 37
-12.804 -5.4380002 -0.68900001 139 101 54
-12.828 -5.4419999 -0.67400002 187 90 22
-12.814 -5.4590001 -0.68400002 179 80 0
-12.814 -5.428 -0.68800002 211 108 41
-12.808 -5.4530001 -0.69400001 107 67 15
-12.826 -5.4380002 -0.69099998 224 140 70
-12.827 -5.4219999 -0.69 108 71 29
-12.819 -5.421 -0.68900001 188 120 37
-12.82 -5.4169998 -0.69700003 117 71 37
-12.818 -5.4219999 -0.70999998 103 67 33
-12.829 -5.4349999 -0.699 178 118 68
-12.831 -5.4369998 -0.68099999 193 133 70
-12.814 -5.4190001 -0.69599998 93 80 28
-12.816 -5.434 -0.71100003 158 117 87
-12.82 -5.4369998 -0.71100003 194 159 117
-12.827 -5.4390001 -0.67699999 205 113 38
-12.824 -5.4369998 -0.70300001 199 147 110
-12.822 -5.428 -0.704 138 94 55
-12.83 -5.4330001 -0.69999999 187 153 105
0 0 0 1 0 0 0 1 0 0 0 1 0 0 0 0 0 73 1 0 0
