ply
format ascii 1.0
comment PCL generated
element vertex 173
property float x
property float y
property float z
property uchar red
property uchar green
property uchar blue
element camera 1
property float view_px
property float view_py
property float view_pz
property float x_axisx
property float x_axisy
property float x_axisz
property float y_axisx
property float y_axisy
property float y_axisz
property float z_axisx
property float z_axisy
property float z_axisz
property float focal
property float scalex
property float scaley
property float centerx
property float centery
property int viewportx
property int viewporty
property float k1
property float k2
end_header
-10.163 11.929 -0.078000002 146 105 73
-10.162 11.931 -0.079000004 134 93 61
-10.167 11.93 -0.077 248 187 133
-10.183 11.874 -0.15099999 166 94 36
-10.191 11.878 -0.15099999 180 102 28
-10.184 11.874 -0.153 159 111 62
-10.184 11.876 -0.145 227 153 78
-10.177 11.954 -0.096000001 180 95 28
-10.174 11.945 -0.083999999 137 70 18
-10.178 11.96 -0.093999997 155 119 85
-10.169 11.942 -0.086000003 148 109 76
-10.165 11.928 -0.090000004 250 176 113
-10.171 11.947 -0.079999998 101 57 8
-10.143 11.949 -0.079999998 154 94 42
-10.137 11.95 -0.081 206 141 87
-10.141 11.942 -0.077 232 158 53
-10.134 11.928 -0.153 223 185 140
-10.133 11.932 -0.156 157 97 45
-10.139 11.933 -0.154 138 100 55
-10.151 11.905 -0.108 168 87 8
-10.15 11.913 -0.113 175 120 64
-10.149 11.914 -0.12 165 114 59
-10.159 11.938 -0.079999998 103 58 16
-10.159 11.947 -0.093000002 102 57 15
-10.134 11.943 -0.093000002 126 83 40
-10.125 11.953 -0.097999997 248 203 122
-10.142 11.94 -0.079000004 132 87 54
-10.179 11.892 -0.133 79 67 41
-10.187 11.893 -0.148 136 79 12
-10.192 11.88 -0.15000001 158 90 27
-10.147 11.962 -0.124 94 67 48
-10.159 11.947 -0.117 172 128 81
-10.144 11.957 -0.12800001 96 62 50
-10.151 11.951 -0.118 181 122 64
-10.134 11.965 -0.121 79 45 43
-10.13 11.969 -0.114 109 62 34
-10.137 11.974 -0.112 228 188 153
-10.121 11.959 -0.132 238 152 75
-10.128 11.963 -0.12 249 158 79
-10.165 11.888 -0.15800001 248 182 121
-10.166 11.9 -0.16 68 53 50
-10.153 11.891 -0.152 192 135 80
-10.149 11.882 -0.152 214 160 114
-10.136 11.909 -0.122 115 66 33
-10.133 11.918 -0.109 134 90 53
-10.116 11.918 -0.122 152 98 64
-10.166 11.94 -0.102 193 129 68
-10.13 11.953 -0.148 163 112 57
-10.127 11.943 -0.148 76 36 10
-10.134 11.952 -0.145 163 84 17
-10.138 11.956 -0.12800001 67 22 0
-10.145 11.942 -0.133 87 80 51
-10.119 11.925 -0.12 207 155 105
-10.114 11.92 -0.124 177 152 147
-10.175 11.885 -0.124 155 91 27
-10.158 11.893 -0.131 199 163 131
-10.173 11.895 -0.134 155 88 33
-10.177 11.88 -0.127 198 127 75
-10.14 11.927 -0.097999997 245 194 105
-10.153 11.926 -0.101 172 133 102
-10.149 11.921 -0.113 180 125 69
-10.176 11.881 -0.12899999 168 112 55
-10.174 11.88 -0.134 169 100 31
-10.142 11.97 -0.113 218 129 61
-10.142 11.971 -0.107 217 123 53
-10.124 11.958 -0.13500001 123 77 53
-10.118 11.951 -0.13699999 249 195 133
-10.183 11.883 -0.152 200 170 142
-10.172 11.891 -0.16 214 154 100
-10.185 11.898 -0.15000001 255 209 160
-10.171 11.9 -0.15700001 220 164 90
-10.172 11.903 -0.156 167 89 17
-10.171 11.898 -0.141 194 147 93
-10.168 11.894 -0.155 240 190 119
-10.171 11.96 -0.093000002 116 69 23
-10.156 11.955 -0.093999997 53 46 30
-10.138 11.957 -0.092 244 170 85
-10.127 11.953 -0.145 255 206 149
-10.122 11.934 -0.142 99 75 71
-10.107 11.941 -0.145 169 139 113
-10.149 11.937 -0.134 184 128 69
-10.147 11.942 -0.12899999 180 138 90
-10.163 11.933 -0.133 103 95 59
-10.122 11.952 -0.12800001 167 137 103
-10.151 11.92 -0.134 178 129 71
-10.146 11.909 -0.124 218 143 86
-10.143 11.934 -0.086999997 103 76 69
-10.152 11.936 -0.079000004 150 110 74
-10.134 11.917 -0.12899999 136 84 26
-10.161 11.924 -0.096000001 192 113 38
-10.156 11.955 -0.109 216 166 103
-10.149 11.955 -0.103 218 156 105
-10.182 11.882 -0.138 174 143 112
-10.159 11.888 -0.153 141 97 50
-10.16 11.883 -0.15000001 179 123 62
-10.161 11.929 -0.1 153 103 68
-10.141 11.955 -0.086000003 128 88 52
-10.134 11.956 -0.096000001 104 55 22
-10.131 11.954 -0.097999997 96 68 47
-10.17 11.957 -0.093000002 106 44 7
-10.112 11.937 -0.139 110 70 34
-10.113 11.945 -0.14399999 145 118 91
-10.134 11.947 -0.141 156 115 69
-10.139 11.931 -0.141 201 161 135
-10.141 11.921 -0.134 211 151 91
-10.142 11.919 -0.133 198 148 115
-10.134 11.923 -0.13600001 158 75 7
-10.159 11.932 -0.12899999 189 146 95
-10.156 11.945 -0.116 188 108 37
-10.166 11.893 -0.138 229 196 163
-10.159 11.893 -0.139 152 86 28
-10.151 11.92 -0.081 182 121 66
-10.134 11.927 -0.111 186 134 97
-10.132 11.915 -0.124 221 151 99
-10.126 11.917 -0.124 78 52 37
-10.184 11.88 -0.14 131 109 88
-10.164 11.921 -0.134 255 198 138
-10.166 11.922 -0.134 139 85 25
-10.171 11.928 -0.12899999 212 165 113
-10.179 11.892 -0.153 80 69 39
-10.167 11.879 -0.14 95 69 52
-10.152 11.878 -0.134 196 135 70
-10.175 11.878 -0.14 155 132 114
-10.142 11.96 -0.093999997 224 196 148
-10.138 11.954 -0.090000004 168 118 81
-10.147 11.948 -0.086000003 168 125 90
-10.159 11.943 -0.105 135 91 46
-10.141 11.94 -0.134 159 109 56
-10.126 11.94 -0.108 247 222 182
-10.128 11.95 -0.112 205 164 132
-10.127 11.957 -0.112 163 99 37
-10.154 11.892 -0.14399999 203 174 142
-10.158 11.879 -0.139 177 112 58
-10.115 11.921 -0.134 166 105 48
-10.119 11.926 -0.134 216 147 88
-10.113 11.933 -0.13500001 197 132 68
-10.135 11.898 -0.145 230 170 110
-10.132 11.896 -0.14399999 71 41 5
-10.136 11.894 -0.145 134 107 80
-10.163 11.89 -0.132 173 124 92
-10.146 11.928 -0.089000002 231 180 115
-10.16 11.922 -0.082999997 151 76 11
-10.149 11.909 -0.105 132 105 98
-10.139 11.914 -0.115 236 195 139
-10.163 11.926 -0.12800001 193 126 71
-10.164 11.881 -0.15000001 155 112 67
-10.173 11.877 -0.145 250 180 108
-10.148 11.95 -0.090000004 149 99 62
-10.158 11.931 -0.079000004 118 60 20
-10.152 11.939 -0.113 236 185 102
-10.12 11.948 -0.141 253 219 158
-10.125 11.942 -0.125 196 161 129
-10.129 11.939 -0.107 201 122 43
-10.13 11.929 -0.115 201 162 103
-10.114 11.943 -0.13500001 129 76 22
-10.113 11.923 -0.132 70 59 57
-10.142 11.893 -0.146 255 204 156
-10.169 11.893 -0.13600001 179 98 32
-10.145 11.92 -0.097999997 213 176 108
-10.148 11.933 -0.078000002 198 158 123
-10.178 11.894 -0.14300001 215 176 145
-10.151 11.954 -0.102 185 123 66
-10.147 11.956 -0.093000002 143 100 57
-10.129 11.922 -0.115 215 143 71
-10.118 11.935 -0.122 183 114 45
-10.122 11.949 -0.12899999 106 64 22
-10.152 11.924 -0.078000002 109 71 35
-10.151 11.927 -0.081 237 202 144
-10.146 11.955 -0.092 194 141 91
-10.134 11.926 -0.14300001 185 131 93
-10.128 11.917 -0.121 180 97 27
-10.125 11.938 -0.113 113 69 40
-10.118 11.946 -0.131 175 148 131
0 0 0 1 0 0 0 1 0 0 0 1 0 0 0 0 0 173 1 0 0
