ply
format ascii 1.0
comment PCL generated
element vertex 788
property float x
property float y
property float z
property uchar red
property uchar green
property uchar blue
element camera 1
property float view_px
property float view_py
property float view_pz
property float x_axisx
property float x_axisy
property float x_axisz
property float y_axisx
property float y_axisy
property float y_axisz
property float z_axisx
property float z_axisy
property float z_axisz
property float focal
property float scalex
property float scaley
property float centerx
property float centery
property int viewportx
property int viewporty
property float k1
property float k2
end_header
-9.573 6.3460002 -0.486 186 138 98
-9.5710001 6.3309999 -0.48500001 227 162 96
-9.5749998 6.3439999 -0.486 191 146 107
-9.5699997 6.3379998 -0.48800001 165 119 85
-9.5710001 6.3379998 -0.491 108 63 30
-9.1490002 6.0300002 -1.107 250 234 175
-9.1560001 6.0310001 -1.108 248 227 164
-9.1459999 6.0300002 -1.114 255 237 176
-9.151 6.0339999 -1.101 232 215 163
-9.1549997 6.0279999 -1.103 255 244 183
-9.151 6.0279999 -1.114 246 223 145
-9.1479998 6.027 -1.113 255 238 166
-9.5710001 6.3410001 -0.48800001 168 125 90
-9.1490002 6.0310001 -1.104 245 230 175
-9.1450005 6.0240002 -1.102 221 167 71
-9.151 6.027 -1.1059999 255 242 179
-9.151 6.0320001 -1.082 221 182 139
-9.1490002 6.0339999 -1.085 226 159 80
-9.1549997 6.033 -1.066 251 217 190
-9.1529999 6.0419998 -1.069 189 135 75
-9.1529999 6.0370002 -1.085 151 127 89
-9.1619997 6.0479999 -1.082 243 222 129
-9.5690002 6.336 -0.49000001 131 86 53
-9.4130001 6.2119999 -0.64399999 213 201 179
-9.401 6.2030001 -0.65100002 255 248 233
-9.3999996 6.2030001 -0.65799999 147 138 121
-9.1479998 6.0320001 -1.0930001 255 235 140
-9.5600004 6.3249998 -0.48899999 152 102 75
-9.5270004 6.3150001 -0.54400003 255 235 191
-9.5229998 6.3070002 -0.55400002 255 243 205
-9.5179996 6.309 -0.55400002 255 233 196
-9.5139999 6.3010001 -0.53100002 166 76 13
-9.493 6.2600002 -0.59399998 133 107 58
-9.4860001 6.244 -0.59899998 255 238 182
-9.4879999 6.2540002 -0.60600001 255 206 147
-9.4899998 6.263 -0.60100001 179 161 115
-9.5509996 6.3249998 -0.50300002 153 132 103
-9.5600004 6.3270001 -0.491 159 117 93
-9.1549997 6.0279999 -1.1 255 250 190
-9.1599998 6.026 -1.087 193 118 51
-9.1689997 6.0339999 -1.086 255 214 151
-9.151 6.0279999 -1.11 255 239 167
-9.1709995 6.0339999 -1.074 255 210 145
-9.1630001 6.027 -1.062 182 131 66
-9.4799995 6.2550001 -0.61000001 253 241 191
-9.4750004 6.2610002 -0.611 255 245 196
-9.4779997 6.256 -0.611 255 224 153
-9.1990004 6.0619998 -0.96799999 67 41 16
-9.1920004 6.0630002 -0.96700001 66 41 21
-9.191 6.0609999 -0.97500002 68 48 24
-9.198 6.0580001 -0.98699999 77 55 32
-9.1990004 6.053 -0.99299997 233 187 125
-9.1940002 6.0539999 -1.002 159 142 122
-9.4799995 6.2399998 -0.60500002 255 243 199
-9.3409996 6.1469998 -0.74299997 255 246 190
-9.3290005 6.1360002 -0.75700003 255 247 195
-9.3299999 6.1469998 -0.75999999 238 209 153
-9.3260002 6.1430001 -0.76499999 255 231 172
-9.3219995 6.1430001 -0.76599997 249 218 164
-9.3210001 6.1389999 -0.76999998 246 217 159
-9.3120003 6.1350002 -0.77999997 255 230 173
-9.3030005 6.1290002 -0.79500002 255 236 175
-9.2989998 6.131 -0.796 191 157 93
-9.5220003 6.3109999 -0.54900002 255 236 194
-9.5410004 6.3169999 -0.514 255 235 206
-9.5410004 6.3169999 -0.51700002 190 171 139
-9.4139996 6.2140002 -0.639 237 225 201
-9.4130001 6.217 -0.63599998 255 244 224
-9.4650002 6.2480001 -0.58999997 189 146 101
-9.4689999 6.2579999 -0.58999997 243 154 74
-9.4729996 6.257 -0.58399999 254 238 213
-9.3039999 6.131 -0.79100001 240 206 143
-9.2959995 6.131 -0.78100002 81 73 54
-9.2939997 6.1290002 -0.78600001 98 86 70
-9.1549997 6.0370002 -1.091 253 193 107
-9.1569996 6.039 -1.084 78 59 29
-9.165 6.04 -1.0829999 69 53 30
-9.1569996 6.0289998 -1.096 255 225 151
-9.1719999 6.033 -1.05 208 156 98
-9.1560001 6.039 -1.081 123 102 71
-9.2950001 6.125 -0.80599999 201 170 113
-9.2849998 6.1240001 -0.82099998 255 231 165
-9.2889996 6.1230001 -0.81 242 213 145
-9.29 6.1209998 -0.81400001 255 242 177
-9.2819996 6.1100001 -0.82499999 255 254 203
-9.2729998 6.1090002 -0.83999997 254 224 152
-9.2810001 6.1170001 -0.82499999 238 211 140
-9.4879999 6.2680001 -0.597 255 245 195
-9.467 6.257 -0.59799999 89 63 46
-9.4659996 6.2550001 -0.60299999 249 230 215
-9.4619999 6.2550001 -0.60100001 228 157 93
-9.1940002 6.0650001 -0.95999998 64 40 14
-9.191 6.0560002 -0.99199998 76 55 36
-9.1789999 6.0489998 -1.003 166 146 121
-9.184 6.0510001 -1.005 113 92 71
-9.1949997 6.0580001 -0.98799998 73 52 33
-9.1969995 6.046 -1.002 255 202 122
-9.1990004 6.0479999 -0.99199998 255 233 168
-9.1820002 6.0359998 -0.991 252 238 167
-9.2849998 6.118 -0.81900001 255 231 165
-9.2880001 6.1139998 -0.81599998 255 254 208
-9.2989998 6.1259999 -0.79900002 233 202 145
-9.3129997 6.1370001 -0.76899999 212 190 143
-9.3179998 6.138 -0.77100003 218 188 134
-9.2609997 6.0999999 -0.852 140 132 113
-9.2700005 6.1009998 -0.85299999 124 112 96
-9.276 6.105 -0.83399999 255 245 203
-9.2959995 6.1240001 -0.78600001 254 245 228
-9.2889996 6.1199999 -0.79699999 255 248 229
-9.3179998 6.1360002 -0.75999999 255 251 229
-9.3210001 6.138 -0.75599998 255 241 221
-9.3120003 6.1389999 -0.76300001 159 148 128
-9.3219995 6.138 -0.75400001 165 143 120
-9.3059998 6.1300001 -0.77200001 254 246 227
-9.3149996 6.1339998 -0.764 252 245 217
-9.309 6.1370001 -0.76700002 163 151 129
-9.3260002 6.145 -0.76099998 193 160 107
-9.335 6.1420002 -0.74800003 255 249 194
-9.342 6.1479998 -0.73900002 255 252 203
-9.3179998 6.1290002 -0.77200001 250 237 192
-9.3190002 6.131 -0.76899999 255 252 206
-9.5640001 6.335 -0.49200001 82 37 4
-9.5620003 6.3330002 -0.49399999 95 54 22
-9.559 6.3249998 -0.49900001 255 210 142
-9.5480003 6.3189998 -0.51300001 165 145 118
-9.5480003 6.322 -0.50800002 183 163 136
-9.526 6.3080001 -0.546 194 149 108
-9.5480003 6.322 -0.505 255 240 210
-9.5369997 6.3140001 -0.51899999 254 233 202
-9.54 6.3140001 -0.51700002 255 234 204
-9.5380001 6.3099999 -0.52200001 255 230 165
-9.4110003 6.2069998 -0.65100002 253 244 229
-9.4110003 6.2069998 -0.64899999 255 248 232
-9.4119997 6.2090001 -0.64600003 253 245 224
-9.415 6.2119999 -0.639 253 240 221
-9.4209995 6.2160001 -0.63300002 250 243 225
-9.4169998 6.217 -0.634 247 239 220
-9.4160004 6.2140002 -0.63700002 255 245 223
-9.4870005 6.2519999 -0.59600002 255 247 196
-9.4809999 6.2670002 -0.57999998 90 65 35
-9.4700003 6.2410002 -0.59500003 181 159 120
-9.4770002 6.25 -0.59100002 253 228 188
-9.1549997 6.0250001 -1.089 224 177 95
-9.1590004 6.0300002 -1.066 250 189 108
-9.2469997 6.0840001 -0.86900002 255 233 201
-9.2489996 6.079 -0.87800002 253 246 200
-9.2349997 6.0799999 -0.884 255 249 230
-9.2609997 6.0869999 -0.86299998 255 244 194
-9.2539997 6.0819998 -0.87900001 254 233 204
-9.2550001 6.0890002 -0.87900001 100 80 55
-9.2510004 6.0819998 -0.875 245 242 201
-9.1820002 6.0359998 -0.99599999 255 252 179
-9.1800003 6.0440001 -0.99299997 255 233 188
-9.1590004 6.0370002 -1.064 212 168 129
-9.1610003 6.033 -1.059 155 142 136
-9.1689997 6.0370002 -1.051 255 229 140
-9.1689997 6.0419998 -1.043 253 215 170
-9.1719999 6.039 -1.028 255 230 163
-9.1590004 6.0300002 -1.072 255 214 157
-9.335 6.1529999 -0.75199997 210 176 128
-9.4700003 6.2509999 -0.611 255 236 168
-9.46 6.243 -0.60900003 132 105 76
-9.4779997 6.243 -0.60500002 255 249 208
-9.4379997 6.2210002 -0.63099998 252 238 191
-9.4379997 6.2270002 -0.634 244 205 136
-9.4429998 6.224 -0.62900001 255 239 188
-9.4309998 6.2160001 -0.63700002 255 244 192
-9.1960001 6.0599999 -0.97500002 96 76 49
-9.2049999 6.0609999 -0.96799999 253 244 185
-9.217 6.0560002 -0.97100002 255 221 172
-9.2010002 6.0489998 -0.97399998 255 214 119
-9.21 6.053 -0.96200001 255 207 118
-9.2010002 6.052 -0.96399999 252 193 135
-9.3240004 6.1339998 -0.76300001 255 253 197
-9.3190002 6.1329999 -0.76599997 255 249 200
-9.2720003 6.1110001 -0.83499998 224 193 128
-9.2790003 6.118 -0.81400001 87 78 63
-9.2220001 6.0770001 -0.91299999 82 65 37
-9.2189999 6.073 -0.93099999 76 49 22
-9.2279997 6.0739999 -0.92699999 84 65 33
-9.2329998 6.0799999 -0.90499997 84 58 31
-9.2250004 6.079 -0.90600002 69 48 19
-9.224 6.0770001 -0.91100001 95 80 51
-9.2290001 6.0749998 -0.91299999 229 194 128
-9.29 6.1240001 -0.79699999 104 91 75
-9.2790003 6.1139998 -0.81099999 254 247 228
-9.2930002 6.1170001 -0.80299997 253 248 193
-9.2939997 6.1220002 -0.79299998 255 246 229
-9.2980003 6.1199999 -0.80000001 251 245 187
-9.2989998 6.1209998 -0.79699999 255 250 195
-9.3030005 6.1279998 -0.77600002 254 243 223
-9.3009996 6.1259999 -0.78299999 255 249 227
-9.3059998 6.1350002 -0.77200001 181 168 149
-9.4799995 6.2399998 -0.60100001 252 245 201
-9.4779997 6.2389998 -0.60100001 255 237 210
-9.4169998 6.2049999 -0.653 251 247 202
-9.4110003 6.1999998 -0.65799999 251 240 195
-9.4119997 6.1999998 -0.662 240 217 175
-9.4040003 6.1929998 -0.667 254 245 190
-9.3789997 6.1760001 -0.69800001 252 247 205
-9.3900003 6.1820002 -0.68199998 255 242 200
-9.3839998 6.184 -0.69700003 249 226 174
-9.3909998 6.184 -0.67900002 255 249 206
-9.3859997 6.1859999 -0.67799997 255 246 230
-9.4399996 6.2259998 -0.62300003 247 230 210
-9.4440002 6.2259998 -0.625 246 225 178
-9.3369999 6.1459999 -0.74199998 255 247 198
-9.3360004 6.1440001 -0.745 255 253 201
-9.3299999 6.1389999 -0.75099999 255 248 197
-9.3479996 6.1529999 -0.73400003 255 246 192
-9.3430004 6.1570001 -0.741 167 130 85
-9.3479996 6.1570001 -0.73400003 237 226 206
-9.257 6.086 -0.86199999 255 240 186
-9.5570002 6.3270001 -0.49599999 202 168 140
-9.5629997 6.3330002 -0.49200001 102 58 29
-9.5450001 6.3189998 -0.50999999 255 236 206
-9.5179996 6.303 -0.54100001 216 191 160
-9.5270004 6.3060002 -0.52999997 255 233 201
-9.5240002 6.2989998 -0.53500003 255 231 157
-9.5279999 6.3060002 -0.53500003 208 187 158
-9.5349998 6.3109999 -0.52600002 219 204 165
-9.5249996 6.3010001 -0.53899997 255 235 161
-9.5159998 6.2909999 -0.55199999 255 241 173
-9.467 6.2379999 -0.60699999 254 244 209
-9.4619999 6.237 -0.61000001 248 233 194
-9.4610004 6.2449999 -0.60399997 166 150 124
-9.4200001 6.211 -0.653 255 240 199
-9.4180002 6.2069998 -0.64899999 255 250 208
-9.4239998 6.211 -0.64300001 255 244 192
-9.4130001 6.2090001 -0.64399999 254 246 227
-9.4189997 6.2080002 -0.64399999 255 235 198
-9.4280005 6.2189999 -0.63 255 244 225
-9.4350004 6.223 -0.62599999 255 241 218
-9.4860001 6.2589998 -0.58600003 255 242 193
-9.4829998 6.2529998 -0.58999997 222 193 153
-9.4940004 6.2659998 -0.57999998 255 237 181
-9.4870005 6.2610002 -0.583 255 242 197
-9.4779997 6.2600002 -0.58200002 255 241 215
-9.4779997 6.2649999 -0.59299999 133 106 85
-9.4790001 6.2420001 -0.59600002 254 231 215
-9.1540003 6.0279999 -1.096 255 227 127
-9.1560001 6.0310001 -1.0829999 255 237 161
-9.2370005 6.0760002 -0.89300001 253 245 209
-9.224 6.072 -0.90899998 250 236 209
-9.2180004 6.0749998 -0.917 219 204 175
-9.217 6.0710001 -0.92500001 231 212 179
-9.2139997 6.0619998 -0.92699999 255 203 118
-9.2469997 6.085 -0.88300002 222 182 120
-9.2460003 6.0879998 -0.88099998 107 87 63
-9.2919998 6.1160002 -0.80900002 255 247 194
-9.2849998 6.1220002 -0.80800003 77 60 40
-9.283 6.1199999 -0.81 126 110 94
-9.1739998 6.039 -1.063 237 187 116
-9.1750002 6.04 -1.0650001 244 191 123
-9.1719999 6.0409999 -1.03 141 115 80
-9.1730003 6.0430002 -1.033 233 200 157
-9.177 6.0450001 -1.024 237 213 167
-9.1750002 6.0469999 -1.029 70 41 9
-9.1759996 6.0359998 -1.043 242 206 146
-9.1780005 6.0370002 -1.0420001 255 195 124
-9.3389997 6.158 -0.74699998 255 223 180
-9.3299999 6.1490002 -0.74599999 139 128 106
-9.3439999 6.1599998 -0.73699999 131 93 54
-9.335 6.151 -0.74199998 186 173 156
-9.2770004 6.1129999 -0.82999998 241 212 144
-9.4189997 6.2189999 -0.63200003 246 237 220
-9.4219999 6.2210002 -0.63099998 187 174 158
-9.4709997 6.2529998 -0.61000001 169 145 99
-9.474 6.256 -0.611 253 242 176
-9.4799995 6.2490001 -0.60600001 255 244 194
-9.4560003 6.2319999 -0.616 255 235 191
-9.4569998 6.2340002 -0.61299998 255 232 194
-9.4499998 6.2290001 -0.62300003 254 236 190
-9.2030001 6.066 -0.95099998 85 64 37
-9.1969995 6.0689998 -0.94199997 54 34 9
-9.1969995 6.066 -0.94999999 48 26 3
-9.1809998 6.0489998 -1.001 206 186 159
-9.1920004 6.0450001 -0.98900002 255 239 167
-9.1730003 6.046 -1.036 95 62 21
-9.1700001 6.0440001 -1.043 194 157 113
-9.1680002 6.0419998 -1.0470001 187 152 114
-9.1669998 6.0419998 -1.05 207 171 135
-9.165 6.0440001 -1.057 87 60 33
-9.1700001 6.046 -1.0599999 56 37 20
-9.1719999 6.046 -1.046 81 51 17
-9.2040005 6.0549998 -0.98199999 234 174 101
-9.2040005 6.0539999 -0.98299998 236 182 118
-9.2200003 6.0700002 -0.93699998 79 59 32
-9.1899996 6.0560002 -0.98900002 76 55 34
-9.1969995 6.0580001 -0.98400003 90 68 44
-9.3249998 6.1360002 -0.75999999 255 251 197
-9.2609997 6.0970001 -0.85799998 126 113 94
-9.2580004 6.0949998 -0.86199999 124 116 97
-9.2559996 6.0960002 -0.85799998 165 158 139
-9.2480001 6.092 -0.87099999 84 66 44
-9.2539997 6.0939999 -0.86000001 241 233 214
-9.2550001 6.0939999 -0.85799998 255 249 230
-9.2469997 6.0900002 -0.87099999 193 177 151
-9.2370005 6.0819998 -0.89899999 113 97 74
-9.2189999 6.0749998 -0.92000002 104 87 59
-9.2729998 6.1069999 -0.83899999 93 80 63
-9.2690001 6.1040001 -0.84399998 239 207 134
-9.2390003 6.0840001 -0.88599998 220 210 183
-9.2629995 6.1020002 -0.84200001 248 242 218
-9.2600002 6.0999999 -0.84899998 209 201 182
-9.2620001 6.1020002 -0.84500003 211 205 183
-9.2939997 6.1240001 -0.80400002 180 150 90
-9.3070002 6.132 -0.78500003 219 191 126
-9.3120003 6.132 -0.76800001 253 247 225
-9.3430004 6.1550002 -0.73199999 255 247 228
-9.3400002 6.1529999 -0.736 255 251 228
-9.3389997 6.1529999 -0.73900002 226 215 195
-9.3249998 6.1430001 -0.75199997 247 233 207
-9.3240004 6.1430001 -0.75400001 220 206 180
-9.323 6.1430001 -0.75599998 135 118 98
-9.3360004 6.1490002 -0.74000001 255 241 221
-9.3669996 6.1669998 -0.713 251 244 190
-9.3599997 6.1609998 -0.71899998 255 247 194
-9.3669996 6.1680002 -0.71600002 184 161 117
-9.3620005 6.1680002 -0.72100002 228 204 158
-9.3540001 6.1570001 -0.72799999 255 245 190
-9.349 6.1550002 -0.73100001 255 246 193
-9.3290005 6.1370001 -0.75400001 252 245 193
-9.3269997 6.1399999 -0.75 201 177 153
-9.4049997 6.1960001 -0.66399997 253 243 194
-9.3730001 6.171 -0.704 253 245 198
-9.3850002 6.1799998 -0.68900001 255 247 212
-9.4560003 6.2389998 -0.62 255 222 158
-9.4490004 6.2329998 -0.61699998 251 242 227
-9.4540005 6.2379999 -0.61299998 128 112 87
-9.4289999 6.2210002 -0.63 255 246 228
-9.4329996 6.2259998 -0.62599999 187 168 153
-9.3280001 6.1420002 -0.74800003 255 240 219
-9.3319998 6.1469998 -0.74400002 255 249 230
-9.3479996 6.1550002 -0.72799999 255 241 221
-9.3439999 6.1529999 -0.73299998 254 239 218
-9.3450003 6.1550002 -0.73000002 255 247 227
-9.349 6.1570001 -0.72600001 255 246 227
-9.3769999 6.177 -0.69300002 253 238 215
-9.3260002 6.145 -0.75199997 167 155 129
-9.3269997 6.1459999 -0.75599998 183 169 124
-9.3439999 6.151 -0.73699999 255 250 203
-9.3030005 6.1220002 -0.79400003 254 250 189
-9.3070002 6.1230001 -0.78799999 253 243 192
-9.3170004 6.1350002 -0.77499998 227 201 144
-9.309 6.131 -0.78500003 250 220 158
-9.3079996 6.125 -0.78100002 254 250 203
-9.2559996 6.085 -0.86900002 253 248 206
-9.559 6.3299999 -0.49599999 103 67 35
-9.5600004 6.3270001 -0.49399999 116 79 53
-9.552 6.322 -0.50300002 254 233 202
-9.5629997 6.3299999 -0.49200001 168 129 100
-9.5209999 6.3060002 -0.542 136 103 68
-9.5369997 6.3140001 -0.52100003 255 238 206
-9.5279999 6.309 -0.52999997 255 234 203
-9.4659996 6.2389998 -0.59899998 220 201 169
-9.4849997 6.2579999 -0.60399997 255 215 146
-9.4829998 6.2480001 -0.60399997 211 183 162
-9.4250002 6.2189999 -0.634 255 228 196
-9.4239998 6.2160001 -0.63499999 255 237 204
-9.4060001 6.2049999 -0.65499997 250 238 222
-9.4239998 6.2189999 -0.64399999 239 222 170
-9.4090004 6.2049999 -0.64999998 249 239 227
-9.4060001 6.2020001 -0.65499997 255 250 233
-9.5080004 6.2849998 -0.55800003 255 239 193
-9.5050001 6.2880001 -0.55699998 221 204 178
-9.5050001 6.2789998 -0.56400001 255 245 203
-9.4949999 6.2779999 -0.56800002 182 163 133
-9.5 6.2800002 -0.56400001 255 242 214
-9.4980001 6.2729998 -0.57099998 254 237 194
-9.5019999 6.2800002 -0.56199998 255 240 211
-9.1610003 6.0320001 -1.091 251 171 74
-9.151 6.026 -1.092 240 209 191
-9.1540003 6.0370002 -1.0829999 205 177 140
-9.2419996 6.079 -0.884 250 245 207
-9.2410002 6.0760002 -0.89399999 255 251 203
-9.2419996 6.0840001 -0.89399999 253 219 156
-9.2329998 6.0780001 -0.90799999 250 215 149
-9.2370005 6.073 -0.90399998 217 197 162
-9.2259998 6.0739999 -0.90700001 249 238 206
-9.2279997 6.0739999 -0.90499997 255 243 210
-9.2220001 6.0700002 -0.91299999 228 208 181
-9.2229996 6.0679998 -0.91600001 255 241 169
-9.2189999 6.0679998 -0.92000002 194 167 137
-9.2449999 6.0830002 -0.87400001 255 238 204
-9.2880001 6.1149998 -0.81199998 253 249 204
-9.2869997 6.1220002 -0.80599999 88 71 53
-9.283 6.1160002 -0.80800003 253 246 230
-9.1680002 6.0339999 -1.0599999 255 192 118
-9.1730003 6.046 -1.05 64 37 8
-9.1780005 6.0469999 -1.039 68 43 12
-9.1820002 6.0440001 -1.01 223 201 177
-9.1789999 6.0450001 -1.006 161 140 119
-9.1829996 6.0440001 -1.008 253 232 165
-9.1800003 6.0469999 -1.017 243 212 184
-9.1789999 6.0469999 -1.022 211 183 146
-9.1940002 6.0510001 -1.0039999 240 199 133
-9.1890001 6.052 -1.002 94 76 52
-9.1920004 6.052 -1.007 85 68 50
-9.1780005 6.0430002 -1.016 226 207 175
-9.1800003 6.0409999 -1.022 246 229 141
-9.1780005 6.0380001 -1.0319999 255 232 142
-9.1739998 6.039 -1.036 233 198 140
-9.1750002 6.046 -1.068 229 170 90
-9.3299999 6.1500001 -0.75700003 246 213 162
-9.3190002 6.1409998 -0.76099998 175 163 139
-9.3339996 6.1529999 -0.75099999 218 181 126
-9.3850002 6.1890001 -0.68000001 139 127 111
-9.3769999 6.1820002 -0.69099998 247 240 221
-9.3780003 6.1890001 -0.69800001 151 120 73
-9.3920002 6.1929998 -0.68300003 142 103 48
-9.2150002 6.0689998 -0.94 88 67 40
-9.2010002 6.0619998 -0.96600002 97 72 42
-9.2019997 6.0640001 -0.95899999 76 53 22
-9.2060003 6.0679998 -0.94400001 63 42 13
-9.1709995 6.0440001 -1.041 190 153 108
-9.1610003 6.0430002 -1.066 87 61 38
-9.165 6.0440001 -1.0599999 77 49 27
-9.1619997 6.0430002 -1.0700001 87 62 42
-9.165 6.0419998 -1.054 183 147 111
-9.2089996 6.0619998 -0.935 255 232 189
-9.2030001 6.0630002 -0.94099998 218 149 80
-9.1990004 6.0599999 -0.95200002 255 251 216
-9.1859999 6.0469999 -0.97799999 110 81 49
-9.1990004 6.0479999 -0.98100001 255 217 119
-9.2589998 6.098 -0.85399997 150 139 119
-9.2460003 6.0879998 -0.87300003 234 217 189
-9.2449999 6.086 -0.875 255 243 217
-9.2539997 6.0939999 -0.86299998 208 200 181
-9.2620001 6.1020002 -0.847 158 150 131
-9.2659998 6.1040001 -0.84299999 149 139 114
-9.2340002 6.0780001 -0.89399999 248 235 200
-9.2180004 6.073 -0.92799997 88 65 34
-9.2419996 6.086 -0.88700002 71 54 26
-9.2390003 6.0840001 -0.88800001 116 105 77
-9.2419996 6.0840001 -0.89200002 95 81 54
-9.2440004 6.086 -0.87699997 248 232 207
-9.2530003 6.0910001 -0.86000001 255 248 230
-9.2510004 6.0890002 -0.86400002 253 245 222
-9.2650003 6.1040001 -0.83999997 255 247 224
-9.2720003 6.1079998 -0.82499999 254 243 223
-9.2740002 6.1040001 -0.824 176 125 82
-9.276 6.105 -0.82999998 243 235 199
-9.283 6.1110001 -0.82099998 255 253 204
-9.3839998 6.1859999 -0.68000001 255 244 228
-9.3940001 6.1929998 -0.667 251 243 222
-9.3409996 6.1550002 -0.74299997 225 211 164
-9.342 6.1529999 -0.73400003 255 254 235
-9.3360004 6.151 -0.74000001 248 236 214
-9.3380003 6.151 -0.73799998 255 246 220
-9.3479996 6.1620002 -0.736 158 120 81
-9.3979998 6.1950002 -0.66299999 255 243 221
-9.3789997 6.177 -0.69499999 255 250 211
-9.3739996 6.1750002 -0.69800001 255 242 218
-9.3780003 6.1789999 -0.69099998 254 243 223
-9.382 6.184 -0.68400002 255 250 231
-9.3900003 6.1890001 -0.67400002 252 244 223
-9.4519997 6.2350001 -0.61299998 254 239 216
-9.3540001 6.1589999 -0.72299999 255 239 221
-9.3549995 6.158 -0.72500002 255 245 191
-9.3509998 6.1599998 -0.72399998 255 250 234
-9.3549995 6.1620002 -0.72600001 250 241 224
-9.3590002 6.1609998 -0.71899998 255 238 218
-9.3579998 6.164 -0.71600002 254 243 223
-9.335 6.1469998 -0.74199998 255 240 221
-9.3290005 6.1469998 -0.74800003 255 250 225
-9.2919998 6.1160002 -0.80599999 255 249 195
-9.3030005 6.1220002 -0.79100001 255 250 194
-9.3079996 6.1240001 -0.78399998 249 245 197
-9.3140001 6.1300001 -0.77200001 255 245 205
-9.2550001 6.085 -0.86699998 255 246 194
-9.2519999 6.0869999 -0.86500001 246 234 208
-9.5559998 6.3270001 -0.498 185 156 126
-9.5459995 6.3189998 -0.50700003 255 237 206
-9.5190001 6.303 -0.53899997 177 156 125
-9.5290003 6.309 -0.528 255 236 199
-9.4919996 6.2729998 -0.56999999 255 238 205
-9.4949999 6.2750001 -0.56800002 245 231 202
-9.4919996 6.2750001 -0.56999999 251 234 204
-9.4960003 6.2709999 -0.574 255 238 192
-9.4989996 6.2779999 -0.56400001 255 240 210
-9.4879999 6.2670002 -0.574 254 239 208
-9.5150003 6.296 -0.54900002 254 237 209
-9.5179996 6.2969999 -0.54500002 255 234 162
-9.5129995 6.2930002 -0.54799998 255 239 206
-9.5179996 6.296 -0.54400003 254 237 207
-9.4619999 6.2379999 -0.60399997 255 245 223
-9.4309998 6.2210002 -0.62800002 255 242 223
-9.4849997 6.2529998 -0.60600001 253 239 190
-9.4160004 6.2069998 -0.65799999 245 224 181
-9.4420004 6.2329998 -0.63499999 179 136 83
-9.4399996 6.2280002 -0.62199998 255 239 221
-9.427 6.2150002 -0.64099997 255 235 182
-9.3800001 6.1869998 -0.699 182 150 103
-9.375 6.1820002 -0.70300001 208 179 137
-9.3739996 6.1789999 -0.70700002 248 226 179
-9.3789997 6.1820002 -0.70200002 233 209 161
-9.5080004 6.2880001 -0.55199999 247 230 200
-9.5019999 6.283 -0.55900002 255 237 204
-9.4870005 6.2709999 -0.59200001 247 225 178
-9.4849997 6.2670002 -0.579 230 211 179
-9.5039997 6.2849998 -0.55900002 246 227 197
-9.2410002 6.0780001 -0.88999999 247 243 198
-9.224 6.0650001 -0.93099999 215 186 146
-9.217 6.0609999 -0.93699998 221 172 106
-9.2399998 6.0749998 -0.89700001 253 245 196
-9.2460003 6.079 -0.88800001 255 255 200
-9.2360001 6.0749998 -0.898 217 199 159
-9.2270002 6.0710001 -0.912 255 235 166
-9.2209997 6.0749998 -0.91299999 194 183 153
-9.2869997 6.1220002 -0.80400002 134 121 105
-9.2880001 6.1220002 -0.80199999 167 158 141
-9.1689997 6.0440001 -1.048 145 112 79
-9.1719999 6.046 -1.044 78 44 6
-9.1789999 6.04 -1.048 255 229 146
-9.1759996 6.0450001 -1.058 65 44 23
-9.1850004 6.039 -1.023 255 238 162
-9.1940002 6.0380001 -1.022 254 185 94
-9.191 6.046 -1.013 249 202 130
-9.1940002 6.0450001 -1.001 255 250 191
-9.1890001 6.0430002 -1.0039999 254 245 170
-9.1870003 6.0440001 -1.007 255 240 183
-9.1820002 6.0489998 -1.015 209 180 164
-9.1780005 6.0469999 -1.025 103 75 38
-9.1780005 6.0450001 -1.022 237 213 169
-9.1709995 6.0409999 -1.041 254 216 169
-9.1680002 6.0349998 -1.0650001 255 222 116
-9.1689997 6.0359998 -1.064 247 233 145
-9.3459997 6.158 -0.73000002 251 244 225
-9.3590002 6.1659999 -0.71700001 251 240 220
-9.3570004 6.1690001 -0.72299999 207 174 131
-9.3610001 6.1680002 -0.71200001 244 237 211
-9.3559999 6.164 -0.71799999 253 242 224
-9.3710003 6.1729999 -0.70999998 171 164 138
-9.3699999 6.1739998 -0.71200001 217 194 150
-9.3710003 6.1789999 -0.708 192 164 127
-9.3959999 6.198 -0.66500002 224 211 194
-9.4770002 6.2600002 -0.59799999 139 112 93
-9.2159996 6.0710001 -0.93199998 122 101 70
-9.1990004 6.0640001 -0.95999998 72 49 18
-9.1780005 6.0469999 -1.002 254 234 209
-9.1990004 6.0489998 -0.99400002 44 24 0
-9.1899996 6.0539999 -0.99400002 220 203 177
-9.191 6.0539999 -0.99800003 146 128 104
-9.1730003 6.046 -1.039 115 80 40
-9.165 6.0440001 -1.063 69 42 25
-9.1680002 6.0440001 -1.067 70 47 31
-9.1630001 6.0419998 -1.059 153 118 86
-9.1639996 6.04 -1.057 227 189 142
-9.1660004 6.0419998 -1.052 192 156 122
-9.2130003 6.0580001 -0.94700003 252 206 144
-9.2159996 6.0710001 -0.93000001 126 106 73
-9.2080002 6.0650001 -0.94800001 116 93 59
-9.2150002 6.0679998 -0.94199997 254 246 200
-9.1999998 6.0500002 -0.98500001 255 223 164
-9.198 6.0599999 -0.97299999 100 76 48
-9.3219995 6.1399999 -0.75599998 239 224 203
-9.2639999 6.0939999 -0.85500002 253 245 199
-9.257 6.0960002 -0.85600001 255 243 227
-9.2360001 6.0819998 -0.89300001 160 149 121
-9.2329998 6.0799999 -0.903 213 174 105
-9.2270002 6.0689998 -0.926 255 247 197
-9.2220001 6.0640001 -0.93800002 249 216 175
-9.2200003 6.073 -0.926 84 65 32
-9.2460003 6.0879998 -0.87800002 135 118 92
-9.2419996 6.086 -0.88200003 202 186 160
-9.243 6.086 -0.87900001 243 227 202
-9.2519999 6.0890002 -0.86199999 255 245 225
-9.2519999 6.092 -0.86400002 253 245 222
-9.2679996 6.1059999 -0.83899999 123 112 92
-9.2639999 6.1020002 -0.83999997 250 242 219
-9.2700005 6.1079998 -0.83200002 248 242 220
-9.276 6.1139998 -0.829 203 169 108
-9.2700005 6.099 -0.84200001 255 248 204
-9.2770004 6.1069999 -0.82700002 255 251 213
-9.2690001 6.099 -0.84200001 236 218 194
-9.2659998 6.0970001 -0.84600002 252 237 216
-9.3830004 6.1859999 -0.68199998 254 243 225
-9.3409996 6.151 -0.73699999 255 242 215
-9.3610001 6.1659999 -0.71200001 253 241 217
-9.3479996 6.164 -0.73299998 135 97 60
-9.3520002 6.1630001 -0.73100001 204 169 127
-9.4029999 6.1999998 -0.65700001 255 249 230
-9.3739996 6.1729999 -0.70099998 254 249 211
-9.3719997 6.177 -0.69999999 254 246 227
-9.3800001 6.178 -0.69099998 255 245 210
-9.3859997 6.1820002 -0.685 255 248 217
-9.3920002 6.1929998 -0.67199999 254 247 228
-9.4560003 6.2350001 -0.611 252 236 213
-9.4549999 6.2399998 -0.60799998 213 197 171
-9.46 6.243 -0.60399997 246 235 205
-9.448 6.23 -0.61699998 255 240 225
-9.4560003 6.2379999 -0.60799998 255 239 215
-9.4379997 6.2259998 -0.62400001 254 237 219
-9.3280001 6.1469998 -0.75099999 127 117 92
-9.2860003 6.118 -0.80400002 255 252 233
-9.3039999 6.1240001 -0.787 244 237 185
-9.3129997 6.1269999 -0.778 254 250 205
-9.5559998 6.3249998 -0.49900001 255 232 202
-9.533 6.3109999 -0.523 255 247 207
-9.5200005 6.303 -0.53600001 255 236 203
-9.4899998 6.2729998 -0.57200003 239 222 192
-9.4969997 6.2779999 -0.56599998 255 240 209
-9.4820004 6.2620001 -0.58099997 255 245 216
-9.4860001 6.2670002 -0.57599998 253 238 209
-9.5120001 6.2930002 -0.55000001 236 221 188
-9.5139999 6.296 -0.546 255 240 214
-9.4580002 6.2399998 -0.60600001 255 245 218
-9.3970003 6.197 -0.67799997 192 155 103
-9.3900003 6.191 -0.676 237 230 212
-9.5050001 6.2849998 -0.55699998 255 241 209
-9.5120001 6.29 -0.551 255 242 208
-9.5080004 6.29 -0.55199999 255 242 213
-9.4829998 6.2670002 -0.597 245 232 180
-9.4790001 6.2649999 -0.58999997 121 90 69
-9.5 6.283 -0.56099999 255 237 207
-9.1639996 6.033 -1.08 255 201 115
-9.2379999 6.079 -0.88800001 253 249 220
-9.2189999 6.0640001 -0.93000001 255 239 165
-9.2379999 6.0809999 -0.898 237 203 139
-9.2309999 6.0760002 -0.90100002 249 236 202
-9.2329998 6.0799999 -0.89700001 207 195 169
-9.2299995 6.0780001 -0.90100002 234 221 189
-9.2320004 6.073 -0.90899998 255 248 205
-9.2320004 6.073 -0.90600002 255 251 211
-9.2460003 6.0879998 -0.875 182 165 137
-9.2790003 6.112 -0.81699997 255 242 225
-9.1730003 6.0359998 -1.057 185 134 71
-9.1850004 6.04 -1.034 255 181 92
-9.1879997 6.0479999 -1.027 68 40 16
-9.1829996 6.0430002 -1.013 240 214 153
-9.1859999 6.0479999 -1.023 75 44 23
-9.1789999 6.04 -1.027 255 236 147
-9.1899996 6.0500002 -1.017 57 30 23
-9.1709995 6.039 -1.046 248 221 132
-9.1719999 6.0409999 -1.039 237 199 154
-9.3310003 6.1440001 -0.74599999 245 233 217
-9.3629999 6.1680002 -0.70999998 251 241 214
-9.3620005 6.1719999 -0.71799999 143 114 72
-9.3839998 6.1859999 -0.685 178 167 149
-9.2220001 6.0669999 -0.93900001 255 245 183
-9.2159996 6.0640001 -0.94800001 255 211 143
-9.2220001 6.0669999 -0.921 255 247 175
-9.2019997 6.0619998 -0.96399999 107 83 49
-9.2069998 6.0700002 -0.93900001 63 43 19
-9.1999998 6.0500002 -0.98900002 240 227 159
-9.1899996 6.0440001 -0.98400003 255 237 166
-9.1890001 6.052 -0.99900001 245 228 200
-9.1899996 6.0539999 -0.972 235 216 183
-9.1960001 6.0580001 -0.98000002 82 61 34
-9.1730003 6.046 -1.041 109 74 32
-9.1709995 6.046 -1.064 68 49 34
-9.1610003 6.0409999 -1.063 185 153 115
-9.1639996 6.0419998 -1.057 155 121 84
-9.1680002 6.0440001 -1.05 108 77 46
-9.1660004 6.0440001 -1.0549999 76 49 22
-9.1739998 6.0450001 -1.053 72 46 23
-9.2049999 6.0570002 -0.95700002 254 224 151
-9.2200003 6.0619998 -0.94599998 186 152 115
-9.2159996 6.0619998 -0.95099998 252 231 164
-9.2060003 6.0549998 -0.97299999 253 250 173
-9.3260002 6.1370001 -0.75700003 255 250 199
-9.309 6.1339998 -0.78200001 198 166 117
-9.2609997 6.0890002 -0.86000001 255 244 194
-9.2589998 6.0929999 -0.86799997 156 145 125
-9.2519999 6.092 -0.87 169 158 136
-9.2370005 6.0819998 -0.89499998 128 114 88
-9.2309999 6.0710001 -0.91299999 255 250 201
-9.2270002 6.0700002 -0.92199999 251 243 196
-9.2259998 6.0669999 -0.92699999 255 213 150
-9.2419996 6.086 -0.884 138 121 95
-9.2559996 6.0929999 -0.85600001 253 242 224
-9.2539997 6.0890002 -0.86000001 234 217 197
-9.2609997 6.0970001 -0.847 255 247 227
-9.2609997 6.0999999 -0.847 249 242 223
-9.2620001 6.0999999 -0.84399998 255 250 231
-9.2639999 6.099 -0.84299999 255 244 222
-9.2670002 6.1040001 -0.83600003 255 247 227
-9.2700005 6.1079998 -0.83499998 249 243 221
-9.2700005 6.1009998 -0.83700001 254 236 212
-9.2650003 6.0960002 -0.84799999 255 252 212
-9.2620001 6.0949998 -0.85000002 238 220 206
-9.3669996 6.1680002 -0.70899999 255 246 219
-9.3730001 6.177 -0.69700003 255 248 230
-9.3470001 6.158 -0.72799999 249 244 224
-9.3500004 6.1599998 -0.72600001 250 243 225
-9.3529997 6.1659999 -0.72799999 182 147 109
-9.4060001 6.198 -0.66100001 255 243 200
-9.3990002 6.198 -0.66100001 252 245 226
-9.3809996 6.1820002 -0.68699998 255 245 225
-9.3870001 6.1890001 -0.67799997 249 240 223
-9.4499998 6.2329998 -0.61500001 248 235 218
-9.4440002 6.2309999 -0.61799997 255 245 229
-9.5530005 6.3249998 -0.50099999 255 237 206
-9.4840002 6.2649999 -0.57800001 255 240 210
-9.5200005 6.2979999 -0.54000002 175 144 100
-9.4610004 6.244 -0.60100001 178 107 41
-9.4060001 6.2020001 -0.66799998 206 178 130
-9.3879995 6.191 -0.68800002 188 156 99
-9.5170002 6.2930002 -0.54900002 255 239 168
-9.5129995 6.2969999 -0.54299998 250 223 196
-9.1590004 6.0310001 -1.08 252 202 117
-9.2290001 6.0760002 -0.903 255 245 213
-9.2329998 6.0780001 -0.89700001 254 246 210
-9.2340002 6.0799999 -0.89499998 249 240 211
-9.2189999 6.0700002 -0.91799998 255 248 220
-9.2489996 6.0900002 -0.87400001 115 95 68
-9.1739998 6.0450001 -1.0599999 60 42 22
-9.177 6.0380001 -1.0369999 255 233 143
-9.177 6.0469999 -1.035 68 41 12
-9.177 6.0469999 -1.0319999 79 50 20
-9.1809998 6.0380001 -1.033 251 226 159
-9.1890001 6.0419998 -1.0140001 249 227 154
-9.1829996 6.0489998 -1.0190001 179 148 128
-9.1879997 6.0500002 -1.013 74 47 38
-9.177 6.0469999 -1.027 98 69 35
-9.3669996 6.1729999 -0.70300001 255 247 222
-9.3669996 6.1729999 -0.70599997 251 244 218
-9.3660002 6.1739998 -0.713 132 104 65
-9.3839998 6.1820002 -0.69199997 226 199 144
-9.3809996 6.184 -0.68699998 250 242 223
-9.3839998 6.184 -0.68199998 254 245 228
-9.3990002 6.1919999 -0.67000002 255 248 197
-9.2209997 6.066 -0.92500001 255 244 173
-9.191 6.0539999 -0.98400003 247 227 194
-9.2049999 6.0539999 -0.98000002 251 244 163
-9.2049999 6.0539999 -0.97600001 254 249 168
-9.1619997 6.0430002 -1.064 108 81 54
-9.1669998 6.0440001 -1.052 113 83 55
-9.2110004 6.0580001 -0.96399999 255 243 167
-9.2119999 6.0609999 -0.958 235 191 128
-9.2159996 6.0599999 -0.95200002 174 144 106
-9.21 6.0640001 -0.95499998 242 228 179
-9.2060003 6.0650001 -0.94999999 94 73 42
-9.2069998 6.0609999 -0.94999999 244 226 188
-9.2069998 6.052 -0.96799999 255 210 117
-9.2489996 6.0900002 -0.86900002 248 241 212
-9.2270002 6.0700002 -0.91900003 255 250 204
-9.2589998 6.0949998 -0.85100001 255 242 229
-9.2659998 6.1009998 -0.838 254 242 218
-9.2659998 6.1040001 -0.838 255 251 230
-9.276 6.1139998 -0.82099998 197 186 166
-9.2749996 6.1100001 -0.82099998 255 246 226
-9.2749996 6.112 -0.82300001 255 249 231
-9.2709999 6.1009998 -0.83899999 255 254 213
-9.2709999 6.105 -0.82999998 254 243 221
-9.2639999 6.0949998 -0.85100001 255 251 207
-9.3710003 6.1700001 -0.70599997 107 79 29
-9.375 6.177 -0.69499999 255 247 227
-9.3570004 6.1659999 -0.72600001 223 194 150
-9.4440002 6.2280002 -0.62099999 255 242 223
-9.4949999 6.2690001 -0.57700002 254 238 187
-9.4899998 6.27 -0.57200003 255 241 206
-9.4020004 6.1989999 -0.67299998 194 166 116
-9.5179996 6.2979999 -0.54100001 255 243 214
-9.2390003 6.0760002 -0.89399999 255 241 191
-9.2370005 6.0819998 -0.88999999 252 243 212
-9.2309999 6.0739999 -0.90399998 251 230 199
-9.1820002 6.0409999 -1.0369999 246 208 163
-9.1899996 6.0430002 -1.011 255 239 173
-9.1859999 6.0500002 -1.0089999 80 57 43
-9.3669996 6.1700001 -0.70599997 255 250 224
-9.3699999 6.1729999 -0.70200002 249 239 212
-9.3950005 6.1950002 -0.667 251 239 223
-9.3929996 6.1869998 -0.676 255 245 201
-9.3970003 6.1880002 -0.67299998 255 245 193
-9.2030001 6.0549998 -0.97799999 247 193 131
-9.2150002 6.0689998 -0.93199998 229 211 173
-9.2399998 6.0840001 -0.884 255 244 218
-9.2550001 6.0910001 -0.85799998 253 240 223
-9.2600002 6.0970001 -0.84899998 255 251 230
-9.2600002 6.0929999 -0.85399997 255 252 217
-9.2679996 6.1059999 -0.83600003 248 240 221
-9.2770004 6.1139998 -0.81900001 255 248 228
-9.2700005 6.1059999 -0.83200002 255 247 224
-9.2690001 6.1030002 -0.83399999 255 239 216
-9.1829996 6.0489998 -1.013 104 76 62
-9.1829996 6.0489998 -1.01 103 77 60
-9.3649998 6.171 -0.708 249 243 217
-9.2589998 6.098 -0.85100001 255 251 230
-9.2580004 6.0929999 -0.85399997 254 241 222
-9.2720003 6.1100001 -0.82999998 182 174 155
-9.2729998 6.1100001 -0.82800001 248 241 222
-9.2749996 6.112 -0.82599998 170 163 145
-9.2309999 6.0799999 -0.90100002 105 83 60
-9.3920002 6.191 -0.67199999 255 249 227
-9.276 6.1139998 -0.82300001 105 92 75
-9.2320004 6.0799999 -0.89899999 192 176 153
0 0 0 1 0 0 0 1 0 0 0 1 0 0 0 0 0 788 1 0 0
