ply
format ascii 1.0
comment PCL generated
element vertex 865
property float x
property float y
property float z
property uchar red
property uchar green
property uchar blue
element camera 1
property float view_px
property float view_py
property float view_pz
property float x_axisx
property float x_axisy
property float x_axisz
property float y_axisx
property float y_axisy
property float y_axisz
property float z_axisx
property float z_axisy
property float z_axisz
property float focal
property float scalex
property float scaley
property float centerx
property float centery
property int viewportx
property int viewporty
property float k1
property float k2
end_header
-8.71 2.2149999 -1.0700001 66 49 41
-8.6969995 2.2219999 -1.0779999 33 15 13
-8.6999998 2.2179999 -1.067 62 33 19
-8.7250004 2.165 -1.089 146 100 74
-8.724 2.1689999 -1.087 141 92 59
-8.7390003 2.1630001 -1.084 137 109 97
-8.7360001 2.1659999 -1.081 165 119 86
-8.6719999 2.1270001 -0.87199998 65 31 3
-8.677 2.1429999 -0.87800002 40 18 7
-8.6759996 2.1300001 -0.87699997 76 44 19
-8.6700001 2.142 -0.86400002 100 81 51
-8.7309999 2.1849999 -0.86199999 113 93 84
-8.7259998 2.1830001 -0.85100001 127 96 78
-8.7229996 2.184 -0.85900003 46 21 14
-8.6540003 2.1819999 -0.93800002 186 114 76
-8.6719999 2.1830001 -0.92900002 50 24 11
-8.6520004 2.174 -0.93099999 71 47 37
-8.6529999 2.184 -0.93900001 133 68 36
-8.6529999 2.1889999 -0.94700003 62 19 2
-8.6549997 2.191 -0.94700003 64 15 0
-8.6990004 2.1129999 -0.852 171 91 28
-8.7040005 2.122 -0.85600001 152 110 88
-8.6879997 2.109 -0.86199999 176 129 99
-8.7089996 2.118 -0.852 86 47 8
-8.7049999 2.187 -0.95300001 99 55 18
-8.7159996 2.175 -0.95300001 99 84 81
-8.7119999 2.1800001 -0.94400001 95 58 31
-8.6820002 2.1559999 -0.83399999 80 35 6
-8.6789999 2.1589999 -0.84799999 166 122 87
-8.6680002 2.1470001 -0.829 123 91 70
-8.6820002 2.164 -0.85000002 145 101 66
-8.6870003 2.1589999 -0.833 29 9 2
-8.7189999 2.165 -1.0930001 43 10 1
-8.7229996 2.1570001 -1.094 72 36 22
-8.7010002 2.1619999 -1.103 77 45 32
-8.7119999 2.161 -1.096 25 4 0
-8.7110004 2.158 -1.096 30 6 2
-8.7080002 2.1559999 -1.09 75 30 0
-8.7030001 2.1489999 -1.097 55 13 1
-8.7159996 2.155 -1.071 136 108 94
-8.6969995 2.1659999 -0.85600001 88 50 41
-8.7030001 2.168 -0.85100001 154 100 56
-8.6859999 2.1630001 -0.84399998 110 39 0
-8.6739998 2.1289999 -0.87099999 65 32 0
-8.6949997 2.118 -0.85699999 166 110 59
-8.6879997 2.109 -0.86000001 125 75 42
-8.6929998 2.1300001 -0.86500001 165 133 112
-8.6870003 2.1370001 -0.884 61 29 8
-8.7089996 2.131 -0.87300003 150 100 63
-8.677 2.1400001 -0.98500001 31 13 3
-8.6789999 2.135 -0.96799999 15 3 3
-8.6660004 2.152 -0.96600002 117 110 94
-8.6549997 2.1789999 -0.94800001 63 16 0
-8.7209997 2.1170001 -0.84399998 150 108 86
-8.71 2.118 -0.83600003 139 69 0
-8.7080002 2.115 -0.84399998 248 187 107
-8.7139997 2.1199999 -0.85399997 133 97 63
-8.7150002 2.1199999 -0.852 84 41 6
-8.724 2.1329999 -0.86400002 156 88 27
-8.6879997 2.152 -0.91399997 40 13 6
-8.6870003 2.1489999 -0.91299999 37 7 0
-8.6870003 2.1530001 -0.91900003 41 17 13
-8.6859999 2.112 -0.83899999 174 92 16
-8.6870003 2.1170001 -0.83099997 178 138 102
-8.6750002 2.1140001 -0.838 151 100 55
-8.6789999 2.102 -0.84799999 112 67 46
-8.7189999 2.198 -1.102 50 12 1
-8.71 2.191 -1.0930001 51 17 8
-8.7060003 2.2019999 -1.1059999 34 5 0
-8.6969995 2.2079999 -1.105 23 3 2
-8.6990004 2.2030001 -1.105 24 0 0
-8.6949997 2.21 -1.058 42 22 11
-8.6940002 2.2060001 -1.049 14 0 0
-8.6820002 2.207 -1.0470001 116 104 106
-8.6660004 2.1289999 -0.85699999 63 28 8
-8.6599998 2.132 -0.84899998 33 4 0
-8.6660004 2.1199999 -0.86000001 164 133 112
-8.6660004 2.1229999 -0.85600001 101 65 39
-8.6669998 2.1229999 -0.84899998 209 138 82
-8.677 2.109 -0.84600002 118 67 38
-8.6739998 2.21 -1.095 42 8 0
-8.665 2.2090001 -1.103 34 7 0
-8.6619997 2.211 -1.097 86 57 43
-8.6879997 2.145 -1.091 34 1 0
-8.6890001 2.1400001 -1.092 179 127 70
-8.677 2.1500001 -1.09 123 108 103
-8.6859999 2.145 -1.09 131 79 32
-8.7220001 2.2019999 -1.043 14 0 0
-8.7089996 2.2019999 -1.038 92 57 38
-8.7290001 2.201 -1.035 83 69 66
-8.6949997 2.145 -1.091 95 55 30
-8.6920004 2.1459999 -1.09 108 71 52
-8.6960001 2.1559999 -0.82800001 26 0 0
-8.6990004 2.151 -0.82800001 168 113 57
-8.691 2.1500001 -0.824 125 76 46
-8.6879997 2.1270001 -0.935 120 92 81
-8.684 2.112 -0.95099998 106 74 53
-8.6920004 2.1199999 -0.93000001 69 34 15
-8.691 2.1199999 -0.93699998 42 8 0
-8.6949997 2.1400001 -0.88800001 64 31 14
-8.7259998 2.1389999 -0.86699998 255 175 102
-8.71 2.1440001 -0.87699997 71 34 15
-8.7010002 2.145 -0.89399999 58 26 13
-8.6820002 2.138 -0.88499999 47 18 2
-8.6829996 2.148 -0.90100002 35 7 0
-8.6859999 2.138 -0.88599998 53 24 6
-8.6890001 2.1329999 -1.0319999 101 68 53
-8.7030001 2.1329999 -1.0369999 56 23 8
-8.6899996 2.1470001 -1.048 93 79 66
-8.6809998 2.141 -0.97500002 131 96 76
-8.6549997 2.174 -0.94099998 84 46 23
-8.6599998 2.1689999 -0.96100003 78 43 21
-8.6549997 2.1849999 -0.94199997 103 34 3
-8.6689997 2.151 -0.94700003 66 35 17
-8.6730003 2.1459999 -0.94099998 86 54 16
-8.6719999 2.135 -0.94700003 71 65 67
-8.6660004 2.1600001 -0.94199997 88 42 19
-8.7089996 2.1210001 -0.85399997 112 45 0
-8.71 2.178 -0.85600001 113 56 11
-8.7270002 2.1789999 -0.84399998 98 60 37
-8.7290001 2.2019999 -1.041 106 92 91
-8.7139997 2.1830001 -1.012 47 11 0
-8.7290001 2.1789999 -1.01 111 86 64
-8.7200003 2.1789999 -1.0039999 72 45 34
-8.7069998 2.1960001 -1.029 29 2 0
-8.6940002 2.204 -1.0319999 19 5 5
-8.6569996 2.191 -0.94999999 73 31 15
-8.6719999 2.1919999 -0.95099998 39 8 0
-8.6829996 2.1070001 -0.84500003 121 99 88
-8.7010002 2.115 -0.84500003 172 115 62
-8.6890001 2.1329999 -0.82800001 204 164 103
-8.6789999 2.1210001 -0.82999998 218 180 144
-8.6750002 2.1289999 -0.829 176 112 51
-8.7349997 2.178 -0.85100001 86 33 1
-8.7220001 2.1289999 -0.852 176 122 75
-8.6719999 2.1659999 -1.0089999 125 108 98
-8.665 2.1719999 -1.013 107 75 54
-8.6689997 2.1659999 -0.99699998 48 20 8
-8.6960001 2.1989999 -1.101 5 0 1
-8.7019997 2.1989999 -1.099 37 9 6
-8.6990004 2.1989999 -1.099 191 170 165
-8.6960001 2.1800001 -1.094 10 2 0
-8.7309999 2.1889999 -1.08 91 42 10
-8.7379999 2.191 -1.0779999 56 19 3
-8.7130003 2.1930001 -1.0880001 31 4 0
-8.724 2.1989999 -1.089 142 133 134
-8.7040005 2.2279999 -1.1 9 0 0
-8.6940002 2.2249999 -1.095 5 1 0
-8.6929998 2.175 -1.098 28 3 0
-8.6870003 2.1670001 -1.09 55 28 17
-8.6879997 2.1830001 -1.098 52 20 5
-8.6809998 2.1070001 -0.85600001 104 52 13
-8.6680002 2.1300001 -0.84100002 67 46 27
-8.7080002 2.2160001 -1.081 28 14 11
-8.7110004 2.2160001 -1.086 23 5 1
-8.7379999 2.1670001 -1.0779999 78 45 28
-8.7370005 2.1600001 -1.08 63 30 11
-8.7279997 2.158 -1.075 100 50 25
-8.7189999 2.152 -1.062 218 162 115
-8.7279997 2.1530001 -1.0599999 91 45 19
-8.6949997 2.151 -1.056 37 7 0
-8.684 2.152 -1.074 155 125 117
-8.7010002 2.151 -1.061 110 64 15
-8.6850004 2.1459999 -1.086 215 159 108
-8.6929998 2.152 -1.084 128 81 51
-8.724 2.158 -1.0700001 161 112 80
-8.6899996 2.158 -0.83099997 27 4 0
-8.677 2.1440001 -0.86799997 97 61 35
-8.6789999 2.152 -0.884 77 44 37
-8.6809998 2.131 -0.87199998 138 102 68
-8.6920004 2.1199999 -0.93400002 50 17 2
-8.6809998 2.1370001 -0.88099998 62 32 8
-8.7040005 2.128 -0.86500001 138 68 19
-8.6780005 2.142 -0.93699998 97 65 44
-8.6859999 2.132 -0.926 94 61 46
-8.6809998 2.1429999 -0.93199998 55 26 8
-8.7150002 2.115 -0.84799999 72 25 0
-8.7189999 2.1500001 -0.87900001 49 13 1
-8.6870003 2.154 -0.90799999 31 7 7
-8.6739998 2.161 -0.926 115 79 55
-8.6709995 2.1559999 -0.93599999 113 73 47
-8.6660004 2.168 -0.92799997 78 56 45
-8.6719999 2.161 -0.93099999 81 40 18
-8.6809998 2.1370001 -0.972 12 0 0
-8.6590004 2.171 -0.95599997 76 35 17
-8.7159996 2.1389999 -0.97399998 96 68 54
-8.7069998 2.138 -0.98699999 69 40 24
-8.7180004 2.145 -0.97500002 36 8 0
-8.6809998 2.1459999 -0.88499999 29 0 0
-8.684 2.1470001 -0.898 49 23 6
-8.6890001 2.145 -0.92299998 55 24 4
-8.7119999 2.1659999 -0.84299999 186 125 60
-8.698 2.1600001 -0.83700001 129 68 13
-8.6999998 2.1589999 -0.83399999 127 66 21
-8.7030001 2.1730001 -0.86799997 112 95 75
-8.7010002 2.1819999 -0.94400001 25 4 0
-8.7200003 2.1700001 -0.847 181 116 50
-8.7279997 2.151 -0.85100001 66 15 0
-8.7250004 2.1489999 -0.84399998 99 64 42
-8.7250004 2.184 -1.036 93 80 74
-8.7150002 2.197 -1.034 80 61 54
-8.7150002 2.164 -0.95599997 34 6 0
-8.7119999 2.1730001 -0.94599998 82 56 41
-8.7200003 2.152 -0.93900001 99 83 83
-8.7119999 2.164 -0.95300001 50 23 4
-8.6689997 2.1830001 -0.93300003 25 1 0
-8.6639996 2.1819999 -0.94400001 61 23 4
-8.6789999 2.1849999 -0.92799997 34 15 9
-8.6739998 2.1830001 -0.93300003 36 13 5
-8.684 2.2049999 -1.0369999 93 55 36
-8.684 2.1919999 -0.96899998 61 38 30
-8.6780005 2.187 -0.97399998 6 0 4
-8.6820002 2.1889999 -0.97100002 34 12 1
-8.6850004 2.194 -0.96899998 32 7 2
-8.6920004 2.184 -0.94999999 120 78 62
-8.6739998 2.1159999 -0.84600002 118 68 35
-8.6920004 2.1199999 -0.85900003 121 58 5
-8.6789999 2.1530001 -0.833 139 108 88
-8.6899996 2.119 -0.83200002 146 100 48
-8.6829996 2.1459999 -0.82599998 89 40 7
-8.6850004 2.1429999 -0.82700002 129 74 33
-8.6890001 2.141 -0.82700002 111 74 55
-8.6990004 2.154 -0.829 54 22 11
-8.7329998 2.151 -0.86000001 67 29 16
-8.7340002 2.155 -0.85799998 119 89 78
-8.7340002 2.177 -0.85500002 100 76 64
-8.7290001 2.214 -1.1 39 25 16
-8.7309999 2.211 -1.095 147 120 111
-8.7309999 2.2119999 -1.1 48 21 12
-8.7159996 2.207 -1.101 21 6 3
-8.7220001 2.1370001 -0.84500003 91 47 22
-8.7220001 2.1370001 -0.84799999 96 56 30
-8.6879997 2.1370001 -1.023 122 74 38
-8.677 2.152 -1.0319999 46 15 10
-8.6940002 2.135 -1.027 82 48 23
-8.684 2.1429999 -1.017 102 58 33
-8.6879997 2.1459999 -1.0089999 120 96 86
-8.6829996 2.1619999 -1.008 74 56 46
-8.6870003 2.145 -1.003 35 5 0
-8.7030001 2.2160001 -1.1 6 1 0
-8.7080002 2.23 -1.103 18 4 1
-8.6969995 2.2090001 -1.1 47 29 27
-8.684 2.1949999 -1.099 116 80 56
-8.6689997 2.187 -1.099 149 122 105
-8.7049999 2.1849999 -1.091 141 114 103
-8.7309999 2.188 -1.076 104 60 35
-8.6949997 2.1670001 -1.096 43 16 5
-8.6870003 2.1559999 -1.092 34 4 0
-8.6639996 2.204 -1.098 61 28 9
-8.6630001 2.198 -1.099 86 51 31
-8.6899996 2.2130001 -1.066 19 4 0
-8.6809998 2.2119999 -1.074 10 0 1
-8.6759996 2.211 -1.08 138 124 123
-8.6899996 2.2160001 -1.079 43 13 5
-8.6890001 2.214 -1.074 10 0 0
-8.6870003 2.1110001 -0.85399997 100 46 0
-8.6800003 2.118 -0.85600001 141 73 28
-8.6739998 2.122 -0.83999997 121 62 22
-8.6680002 2.1429999 -0.847 74 41 26
-8.6700001 2.145 -0.85600001 96 55 35
-8.6709995 2.145 -0.85000002 85 32 1
-8.6789999 2.21 -1.085 34 5 1
-8.6949997 2.221 -1.09 4 0 0
-8.6750002 2.1659999 -1.021 95 61 36
-8.7030001 2.207 -1.054 23 0 0
-8.7110004 2.2079999 -1.064 131 112 106
-8.7040005 2.207 -1.0599999 19 1 0
-8.6990004 2.207 -1.054 6 0 0
-8.7010002 2.221 -1.0880001 140 120 109
-8.7290001 2.1570001 -1.057 89 46 14
-8.7340002 2.155 -1.039 12 1 0
-8.7299995 2.1570001 -1.044 48 7 0
-8.7259998 2.1819999 -1.025 103 75 61
-8.7299995 2.1789999 -1.0420001 30 0 0
-8.7320004 2.1589999 -1.079 224 171 137
-8.7290001 2.1559999 -1.064 96 59 41
-8.7279997 2.161 -1.08 67 19 0
-8.7250004 2.1559999 -1.0650001 87 52 32
-8.7049999 2.1530001 -1.073 55 33 22
-8.6730003 2.1559999 -1.053 255 211 182
-8.677 2.158 -1.046 166 124 100
-8.6820002 2.155 -1.039 120 84 48
-8.7279997 2.1589999 -1.0700001 128 77 46
-8.6969995 2.1500001 -1.091 69 32 6
-8.6829996 2.1570001 -0.85399997 131 79 42
-8.691 2.1370001 -0.875 68 29 0
-8.6859999 2.1340001 -0.93599999 28 0 0
-8.7130003 2.1370001 -0.94800001 35 6 0
-8.7060003 2.1259999 -0.94700003 69 18 0
-8.7139997 2.1240001 -0.94400001 45 13 0
-8.6789999 2.1359999 -0.94300002 120 72 34
-8.6879997 2.1270001 -0.93699998 39 14 10
-8.6789999 2.152 -0.93099999 108 76 61
-8.7110004 2.1600001 -0.949 39 16 8
-8.7089996 2.1429999 -0.92299998 113 95 91
-8.717 2.1500001 -0.92199999 65 32 15
-8.724 2.1489999 -0.92400002 99 80 74
-8.6940002 2.1170001 -0.92400002 99 59 23
-8.6859999 2.145 -0.91000003 60 32 20
-8.7259998 2.152 -0.87300003 48 14 2
-8.724 2.1459999 -0.87 123 61 22
-8.7049999 2.1489999 -0.88999999 53 20 5
-8.684 2.1500001 -0.90399998 74 44 33
-8.6669998 2.1559999 -0.94599998 66 28 7
-8.6590004 2.168 -0.94199997 105 44 13
-8.6859999 2.1159999 -0.96700001 46 17 1
-8.6809998 2.1140001 -0.95599997 38 12 0
-8.6879997 2.1240001 -0.94199997 89 53 19
-8.6689997 2.1630001 -0.93400002 116 69 41
-8.6829996 2.1359999 -0.97799999 28 10 6
-8.6879997 2.1170001 -0.97399998 59 30 12
-8.6820002 2.1370001 -0.98400003 110 78 53
-8.6820002 2.1370001 -0.98799998 93 62 42
-8.6789999 2.1340001 -1 101 65 49
-8.6850004 2.138 -0.99199998 35 8 1
-8.7180004 2.119 -0.83700001 164 104 52
-8.7180004 2.1240001 -0.84299999 72 22 0
-8.7060003 2.141 -0.833 142 87 33
-8.71 2.1270001 -0.83600003 191 129 80
-8.6780005 2.177 -0.92299998 77 54 46
-8.6730003 2.177 -0.92900002 127 103 91
-8.6949997 2.1429999 -0.89200002 38 8 0
-8.6929998 2.1470001 -0.903 33 6 0
-8.7060003 2.1719999 -0.861 176 143 124
-8.7220001 2.1719999 -0.85100001 165 105 53
-8.7349997 2.154 -0.866 66 29 10
-8.7320004 2.1600001 -0.87199998 55 17 4
-8.7360001 2.1630001 -0.87400001 136 66 17
-8.7180004 2.177 -0.85100001 123 75 39
-8.7250004 2.2119999 -1.089 43 20 12
-8.7119999 2.221 -1.096 13 2 0
-8.7320004 2.2049999 -1.092 64 45 31
-8.7220001 2.1789999 -1.017 118 92 69
-8.724 2.2 -1.043 51 25 10
-8.6990004 2.1900001 -1.03 14 0 0
-8.698 2.1819999 -1.012 13 3 2
-8.698 2.1830001 -1.025 33 14 10
-8.7150002 2.145 -0.94 65 27 6
-8.7049999 2.1359999 -0.95499998 73 37 15
-8.7139997 2.142 -0.95300001 120 97 81
-8.7130003 2.1619999 -0.95999998 38 23 16
-8.7130003 2.1619999 -0.96700001 18 0 0
-8.7200003 2.1619999 -1.002 70 38 13
-8.7150002 2.168 -1.003 17 2 0
-8.677 2.1830001 -0.93599999 117 98 92
-8.6809998 2.1830001 -0.93099999 30 10 1
-8.6780005 2.1849999 -0.94300002 157 139 135
-8.6829996 2.1830001 -0.94300002 133 116 108
-8.6929998 2.204 -1.0319999 38 14 4
-8.6969995 2.1830001 -0.94099998 64 19 0
-8.7010002 2.1760001 -0.98199999 95 81 80
-8.698 2.178 -0.98400003 22 8 5
-8.698 2.178 -0.98000002 18 4 3
-8.7139997 2.181 -1.003 33 4 0
-8.6969995 2.1849999 -0.97299999 49 12 0
-8.6859999 2.1960001 -0.97500002 58 35 27
-8.7069998 2.1760001 -0.972 70 33 14
-8.6789999 2.154 -0.97799999 83 46 38
-8.6719999 2.161 -0.98199999 56 37 22
-8.6689997 2.168 -0.99299997 117 78 47
-8.677 2.1140001 -0.852 135 83 43
-8.7320004 2.1619999 -0.86400002 78 49 33
-8.7180004 2.1259999 -0.84299999 89 39 4
-8.6999998 2.132 -0.83200002 141 112 94
-8.7290001 2.1440001 -0.86299998 225 147 83
-8.724 2.1400001 -0.861 167 102 44
-8.6660004 2.1719999 -1.01 16 1 0
-8.6680002 2.174 -1.003 20 1 0
-8.6879997 2.1389999 -1.028 57 25 4
-8.6859999 2.142 -1.003 32 1 0
-8.6750002 2.1600001 -0.995 13 0 0
-8.6820002 2.1930001 -0.97399998 8 0 0
-8.677 2.158 -1.0420001 126 84 60
-8.6879997 2.2079999 -1.087 27 8 2
-8.6960001 2.221 -1.092 9 1 0
-8.6719999 2.201 -1.097 104 72 51
-8.6870003 2.178 -1.092 26 3 0
-8.6750002 2.188 -1.089 43 11 0
-8.6739998 2.1889999 -1.0930001 36 3 0
-8.7010002 2.164 -1.099 78 52 39
-8.7089996 2.1630001 -1.091 44 20 10
-8.7189999 2.168 -1.09 146 94 55
-8.677 2.1530001 -1.082 35 21 20
-8.665 2.197 -1.095 115 80 61
-8.6680002 2.191 -1.084 38 21 13
-8.6890001 2.2130001 -1.069 16 1 0
-8.677 2.1960001 -1.043 13 0 0
-8.677 2.1989999 -1.051 19 1 0
-8.6759996 2.201 -1.066 114 99 96
-8.7040005 2.187 -1.091 57 29 17
-8.6949997 2.2219999 -1.087 17 5 5
-8.6949997 2.2030001 -1.044 31 2 0
-8.6730003 2.125 -0.86199999 125 77 37
-8.6750002 2.1270001 -0.86500001 142 100 60
-8.6730003 2.1459999 -0.852 55 21 9
-8.6730003 2.148 -0.84200001 127 74 32
-8.6759996 2.21 -1.082 183 159 155
-8.6999998 2.2079999 -1.057 24 7 0
-8.7089996 2.221 -1.1 69 31 12
-8.7049999 2.2149999 -1.099 29 1 0
-8.7150002 2.2130001 -1.082 38 14 2
-8.7290001 2.1570001 -1.0599999 65 30 10
-8.7320004 2.174 -1.0420001 52 14 5
-8.7250004 2.1630001 -1.052 40 6 0
-8.724 2.1630001 -1.0599999 15 0 0
-8.7279997 2.1559999 -1.0650001 108 59 27
-8.6800003 2.151 -1.077 62 46 46
-8.6949997 2.155 -1.064 97 71 56
-8.665 2.1949999 -1.0880001 21 3 3
-8.717 2.161 -1.084 156 106 69
-8.7110004 2.158 -1.085 110 75 56
-8.724 2.168 -1.069 29 11 9
-8.717 2.1900001 -1.046 108 89 82
-8.6969995 2.151 -1.096 77 34 17
-8.6780005 2.1459999 -0.86299998 85 53 30
-8.6990004 2.1670001 -0.86400002 123 86 78
-8.6780005 2.152 -0.84299999 151 134 124
-8.6870003 2.1370001 -0.88099998 81 47 20
-8.6879997 2.128 -0.93099999 81 50 30
-8.6700001 2.154 -0.94400001 85 44 26
-8.6960001 2.148 -0.90600002 73 27 11
-8.7019997 2.1470001 -0.91500002 73 51 37
-8.7010002 2.119 -0.95200002 107 73 48
-8.6960001 2.118 -0.92799997 106 70 46
-8.6890001 2.132 -0.91900003 113 82 62
-8.6859999 2.151 -0.90700001 26 3 0
-8.7080002 2.1389999 -1.039 113 77 55
-8.7089996 2.1429999 -1.041 117 76 48
-8.7220001 2.1819999 -1.043 114 95 81
-8.717 2.1800001 -1.049 76 51 31
-8.7030001 2.152 -1.051 96 52 7
-8.6899996 2.1129999 -0.96399999 137 100 73
-8.6590004 2.1719999 -0.95200002 96 38 14
-8.658 2.1760001 -0.95200002 67 19 0
-8.6599998 2.1670001 -0.94599998 94 33 4
-8.6630001 2.1619999 -0.95499998 61 23 12
-8.6619997 2.1760001 -0.935 106 32 0
-8.6599998 2.188 -0.95499998 58 22 6
-8.665 2.181 -0.96100003 44 11 4
-8.6610003 2.1789999 -0.954 74 21 3
-8.6630001 2.165 -0.94 86 30 5
-8.6899996 2.125 -0.97500002 109 84 80
-8.717 2.1389999 -0.83899999 106 59 13
-8.6940002 2.178 -0.903 127 91 67
-8.6870003 2.1670001 -0.89399999 28 4 0
-8.6859999 2.1760001 -0.89200002 43 10 0
-8.6949997 2.1789999 -0.90100002 159 119 84
-8.6890001 2.1459999 -0.90100002 29 8 5
-8.7250004 2.184 -0.87800002 106 42 6
-8.7189999 2.1819999 -0.88099998 34 16 14
-8.7259998 2.1830001 -0.87400001 56 38 36
-8.7189999 2.1630001 -0.85100001 84 34 1
-8.7279997 2.154 -0.87199998 79 26 0
-8.7370005 2.171 -0.87099999 52 18 6
-8.6960001 2.178 -0.93699998 52 30 19
-8.7189999 2.1789999 -0.852 94 45 12
-8.7320004 2.204 -1.082 129 123 125
-8.7139997 2.141 -0.94999999 73 47 34
-8.7130003 2.154 -0.94800001 95 45 8
-8.717 2.164 -0.98000002 32 14 10
-8.6750002 2.188 -0.94599998 71 35 11
-8.7080002 2.181 -0.95899999 23 4 0
-8.7139997 2.175 -0.95599997 23 5 5
-8.6820002 2.1459999 -0.98500001 135 98 71
-8.6870003 2.1570001 -0.85500002 117 45 0
-8.6800003 2.1570001 -0.84500003 95 50 9
-8.6829996 2.148 -0.82800001 127 73 35
-8.6940002 2.115 -0.83999997 148 86 29
-8.6940002 2.1340001 -0.82999998 165 100 32
-8.7069998 2.1370001 -0.83399999 193 130 86
-8.7279997 2.145 -0.86500001 133 90 56
-8.6859999 2.138 -0.99599999 32 2 0
-8.6960001 2.135 -0.99699998 98 75 69
-8.6730003 2.1900001 -1.034 87 52 30
-8.6719999 2.188 -1.028 80 48 23
-8.6780005 2.188 -1.028 31 1 0
-8.6789999 2.1849999 -1.0190001 98 70 49
-8.6829996 2.1889999 -1.029 51 28 14
-8.6700001 2.1689999 -1.031 76 40 16
-8.6719999 2.164 -1.039 59 21 0
-8.6590004 2.175 -1.029 72 36 10
-8.6719999 2.168 -1.027 74 38 14
-8.7150002 2.1849999 -1.0829999 111 76 56
-8.6899996 2.1500001 -1.091 46 12 0
-8.6630001 2.2049999 -1.0930001 91 55 39
-8.6689997 2.1919999 -1.039 151 109 71
-8.6689997 2.1849999 -1.029 65 41 29
-8.6700001 2.187 -1.034 13 0 0
-8.6759996 2.178 -1.069 182 160 147
-8.6759996 2.188 -1.074 62 39 33
-8.6899996 2.2079999 -1.063 17 2 0
-8.6730003 2.2049999 -1.075 87 44 12
-8.677 2.2079999 -1.075 63 43 34
-8.7159996 2.2049999 -1.0779999 81 59 45
-8.6960001 2.2019999 -1.043 15 5 3
-8.6969995 2.2019999 -1.044 18 5 0
-8.6669998 2.131 -0.85600001 78 34 9
-8.6680002 2.1340001 -0.85500002 207 157 124
-8.6689997 2.138 -0.85299999 157 104 64
-8.6630001 2.1400001 -0.847 96 66 55
-8.7019997 2.204 -1.049 25 7 5
-8.6960001 2.207 -1.054 22 9 3
-8.6999998 2.2119999 -1.1 11 0 0
-8.7259998 2.1630001 -1.068 53 24 10
-8.7209997 2.1700001 -1.061 15 1 1
-8.7259998 2.175 -1.046 98 65 46
-8.7180004 2.177 -1.054 14 0 0
-8.6700001 2.1530001 -1.069 127 93 58
-8.6639996 2.1589999 -1.062 38 20 6
-8.6800003 2.1600001 -1.085 36 6 0
-8.6800003 2.178 -1.074 36 16 9
-8.6759996 2.171 -1.071 46 22 12
-8.6850004 2.154 -1.069 35 7 3
-8.6750002 2.188 -1.082 35 6 0
-8.6719999 2.1730001 -1.067 42 14 0
-8.7270002 2.171 -1.075 49 31 27
-8.7279997 2.188 -1.075 51 18 3
-8.7130003 2.191 -1.053 12 0 0
-8.6870003 2.168 -0.89099997 53 27 12
-8.7030001 2.1700001 -0.86400002 135 67 30
-8.6820002 2.1259999 -0.86299998 238 173 119
-8.6669998 2.1559999 -0.94999999 61 24 8
-8.7119999 2.1600001 -0.96200001 37 8 0
-8.71 2.135 -0.94300002 55 27 15
-8.7119999 2.128 -0.92699999 83 60 52
-8.71 2.1240001 -0.91600001 53 29 17
-8.6990004 2.1199999 -0.93599999 59 26 11
-8.698 2.1300001 -0.96600002 62 20 0
-8.6940002 2.115 -0.96399999 124 57 5
-8.7019997 2.132 -0.98199999 44 18 3
-8.6949997 2.1270001 -0.97399998 79 56 50
-8.6850004 2.142 -0.89099997 34 10 0
-8.6890001 2.1440001 -0.89499998 52 25 14
-8.6890001 2.1370001 -0.917 45 17 6
-8.7049999 2.122 -0.92000002 43 17 2
-8.7019997 2.1210001 -0.92799997 106 66 31
-8.7040005 2.125 -0.92199999 61 41 32
-8.7150002 2.148 -0.87699997 41 5 0
-8.6890001 2.1140001 -0.96700001 67 31 9
-8.7130003 2.1229999 -0.93300003 181 123 49
-8.6990004 2.1370001 -0.991 33 12 11
-8.7019997 2.138 -0.99299997 35 12 6
-8.7040005 2.1389999 -0.991 50 27 19
-8.7049999 2.1400001 -1.0039999 71 22 8
-8.6960001 2.135 -1.001 28 4 0
-8.6990004 2.135 -1.03 109 70 41
-8.6809998 2.118 -0.95300001 147 99 53
-8.6829996 2.122 -0.95099998 167 105 54
-8.6590004 2.175 -0.954 38 13 6
-8.6660004 2.1559999 -0.95300001 34 0 0
-8.6689997 2.187 -0.94999999 158 115 81
-8.6850004 2.1240001 -0.949 105 52 20
-8.6829996 2.128 -0.94999999 35 17 3
-8.7209997 2.1489999 -0.84299999 53 29 19
-8.6999998 2.125 -0.83700001 145 96 63
-8.6949997 2.119 -0.83700001 247 204 126
-8.6899996 2.1440001 -0.89499998 41 9 0
-8.6829996 2.154 -0.89200002 52 18 6
-8.7069998 2.184 -0.91299999 89 52 33
-8.7089996 2.184 -0.91000003 84 48 26
-8.7080002 2.1719999 -0.92900002 59 23 7
-8.7130003 2.1689999 -0.92400002 51 18 0
-8.71 2.1240001 -0.91900003 38 12 0
-8.7040005 2.164 -0.84799999 198 181 165
-8.7130003 2.1559999 -0.84100002 200 134 73
-8.6960001 2.158 -0.83099997 52 32 25
-8.7119999 2.177 -0.86799997 80 42 19
-8.7189999 2.171 -0.89999998 72 28 3
-8.7150002 2.1730001 -0.898 104 86 76
-8.7130003 2.174 -0.90799999 68 27 7
-8.7159996 2.1670001 -0.92699999 44 12 1
-8.7309999 2.1630001 -0.88300002 159 112 84
-8.7309999 2.1630001 -0.88499999 175 130 99
-8.7250004 2.161 -0.89499998 99 63 39
-8.7320004 2.165 -0.89899999 92 61 43
-8.7220001 2.158 -0.88200003 130 112 108
-8.7209997 2.1570001 -0.89899999 77 49 27
-8.7279997 2.1619999 -0.91100001 99 79 72
-8.7220001 2.181 -0.85299999 127 91 67
-8.724 2.1789999 -0.84799999 114 69 38
-8.7119999 2.2060001 -1.063 125 106 99
-8.7220001 2.2030001 -1.097 31 6 0
-8.7049999 2.1400001 -1.0140001 56 6 0
-8.7229996 2.155 -1.015 122 97 90
-8.6999998 2.1359999 -1.017 85 31 3
-8.7060003 2.135 -1.024 145 91 55
-8.7130003 2.1459999 -1.035 76 35 13
-8.7189999 2.148 -1.041 112 66 40
-8.7329998 2.1600001 -1.027 76 41 13
-8.6899996 2.1849999 -1.011 126 104 93
-8.6780005 2.1730001 -0.99299997 16 6 7
-8.6780005 2.1730001 -0.98699999 11 0 0
-8.6739998 2.181 -1.0039999 36 18 6
-8.7089996 2.168 -0.97399998 121 103 103
-8.7080002 2.171 -0.97799999 20 0 1
-8.7130003 2.174 -0.95899999 103 77 62
-8.7089996 2.1730001 -0.96600002 18 0 1
-8.7040005 2.1800001 -1.008 19 9 8
-8.7180004 2.155 -1.01 47 36 34
-8.7030001 2.148 -1 62 13 0
-8.7130003 2.158 -1.0039999 49 19 8
-8.7089996 2.1440001 -0.96100003 28 8 0
-8.6780005 2.141 -0.95999998 41 15 14
-8.6619997 2.1659999 -0.94999999 87 33 7
-8.6890001 2.1730001 -0.92299998 50 20 10
-8.6750002 2.177 -0.97399998 70 42 31
-8.6750002 2.181 -0.97100002 29 5 1
-8.6750002 2.1760001 -0.977 30 7 1
-8.684 2.1830001 -0.96399999 33 11 0
-8.6920004 2.1830001 -0.96200001 83 61 50
-8.6899996 2.178 -0.99199998 100 86 85
-8.6859999 2.181 -0.99900001 13 0 0
-8.6890001 2.181 -1.002 75 60 55
-8.7080002 2.1819999 -0.95599997 21 2 0
-8.7110004 2.1659999 -0.97100002 10 2 0
-8.6719999 2.158 -0.96899998 101 84 77
-8.6750002 2.1700001 -0.98299998 23 2 0
-8.6739998 2.1670001 -0.98100001 48 20 9
-8.6660004 2.178 -0.96100003 60 22 11
-8.6739998 2.115 -0.84100002 138 82 33
-8.6949997 2.1619999 -0.84200001 157 99 59
-8.6920004 2.1159999 -0.838 156 111 78
-8.7279997 2.1630001 -0.85799998 108 47 18
-8.7019997 2.141 -0.83200002 181 124 69
-8.7010002 2.1429999 -0.83200002 248 188 126
-8.7060003 2.1800001 -1.021 21 0 0
-8.6730003 2.168 -1.024 73 39 12
-8.6800003 2.175 -0.99199998 9 0 1
-8.6850004 2.1900001 -0.977 14 3 1
-8.684 2.1819999 -0.98400003 5 0 0
-8.6809998 2.1789999 -0.99699998 45 28 21
-8.6940002 2.1359999 -1 32 9 3
-8.6949997 2.1370001 -1.021 55 19 3
-8.698 2.1370001 -1.005 131 103 91
-8.6800003 2.1500001 -0.98400003 29 0 0
-8.6890001 2.1389999 -1.011 95 55 19
-8.6709995 2.1860001 -1.027 109 83 48
-8.6639996 2.1760001 -1.023 58 25 6
-8.6949997 2.2030001 -1.1 20 0 0
-8.7019997 2.223 -1.098 4 0 0
-8.7019997 2.1630001 -1.099 75 32 15
-8.6689997 2.1619999 -1.0470001 60 18 0
-8.6700001 2.1719999 -1.0470001 138 88 51
-8.6669998 2.1670001 -1.053 71 35 19
-8.6680002 2.164 -1.059 255 227 192
-8.6870003 2.211 -1.069 7 1 1
-8.6949997 2.2130001 -1.064 72 35 16
-8.6879997 2.207 -1.066 41 9 0
-8.6709995 2.1989999 -1.073 22 6 7
-8.7250004 2.2049999 -1.081 103 76 57
-8.6680002 2.207 -1.081 59 41 39
-8.6689997 2.1989999 -1.077 158 120 97
-8.6739998 2.1229999 -0.838 155 99 72
-8.6739998 2.1259999 -0.83600003 163 95 34
-8.6750002 2.141 -0.82700002 136 86 51
-8.6780005 2.148 -0.82999998 79 43 21
-8.7010002 2.2049999 -1.051 25 6 2
-8.7229996 2.1659999 -1.0650001 18 4 1
-8.7229996 2.151 -1.056 68 32 10
-8.6730003 2.1600001 -1.075 87 46 26
-8.6669998 2.1630001 -1.0650001 61 16 0
-8.6680002 2.191 -1.046 112 81 63
-8.6689997 2.1800001 -1.05 92 50 25
-8.6689997 2.1860001 -1.052 78 46 33
-8.6809998 2.1470001 -0.87400001 67 35 22
-8.7019997 2.1700001 -0.87 97 39 15
-8.6949997 2.1389999 -0.87599999 36 11 4
-8.6969995 2.138 -0.87300003 30 4 0
-8.6929998 2.119 -0.94199997 45 11 0
-8.6870003 2.142 -0.89099997 42 16 3
-8.691 2.138 -0.91900003 26 1 0
-8.7229996 2.1370001 -0.86500001 146 71 6
-8.7150002 2.141 -0.87 53 21 0
-8.7130003 2.142 -0.87300003 40 7 0
-8.717 2.152 -1.027 104 67 41
-8.7119999 2.148 -1.029 95 55 30
-8.7309999 2.1589999 -1.036 92 57 25
-8.724 2.1860001 -1.029 105 83 72
-8.6969995 2.1359999 -1.027 111 71 45
-8.6829996 2.125 -0.954 56 15 0
-8.6800003 2.135 -0.95599997 25 4 0
-8.6759996 2.135 -0.95200002 133 88 57
-8.6850004 2.1199999 -0.958 83 43 17
-8.6870003 2.119 -0.96700001 93 44 11
-8.6680002 2.171 -1.0190001 200 170 160
-8.6820002 2.125 -0.95200002 125 85 60
-8.6940002 2.1199999 -0.96200001 160 112 48
-8.6870003 2.1170001 -0.97000003 37 8 0
-8.7010002 2.151 -0.90200001 32 2 0
-8.6929998 2.1440001 -0.89399999 44 16 4
-8.6899996 2.145 -0.898 46 19 8
-8.6940002 2.1789999 -0.90499997 54 18 4
-8.6960001 2.1789999 -0.90799999 31 0 0
-8.6999998 2.1789999 -0.90200001 158 121 92
-8.6879997 2.1589999 -0.903 23 2 0
-8.7110004 2.1570001 -0.83899999 83 51 28
-8.7329998 2.1800001 -0.87 139 106 87
-8.7089996 2.1730001 -0.87699997 27 1 0
-8.7060003 2.1700001 -0.87800002 85 37 15
-8.7019997 2.171 -0.89899999 34 8 0
-8.7019997 2.175 -0.92900002 36 6 4
-8.7229996 2.1659999 -0.90899998 168 120 80
-8.7220001 2.154 -0.92199999 47 14 0
-8.7180004 2.1530001 -0.92000002 17 0 0
-8.7110004 2.164 -0.93300003 40 11 0
-8.7220001 2.1689999 -0.90200001 112 63 30
-8.7159996 2.1559999 -0.90899998 41 14 0
-8.7139997 2.1570001 -0.89499998 82 67 60
-8.71 2.2 -1.051 104 88 89
-8.6859999 2.1860001 -1.012 70 36 24
-8.6940002 2.1259999 -0.98000002 47 18 4
-8.7019997 2.1760001 -0.977 136 121 116
-8.7130003 2.1619999 -0.95700002 79 56 42
-8.7089996 2.1800001 -0.95499998 23 2 0
-8.7040005 2.178 -1.003 38 8 6
-8.7080002 2.1760001 -1 19 0 0
-8.6999998 2.178 -1.003 14 0 0
-8.7139997 2.1459999 -0.972 54 27 16
-8.6809998 2.141 -0.972 113 75 52
-8.6899996 2.174 -0.92900002 15 1 0
-8.6610003 2.168 -0.95099998 50 19 0
-8.6759996 2.1789999 -0.97600001 20 0 0
-8.677 2.1819999 -0.96899998 25 1 0
-8.6879997 2.1830001 -0.98400003 15 3 3
-8.71 2.164 -0.98699999 19 1 0
-8.7110004 2.164 -0.99400002 46 23 17
-8.71 2.1670001 -0.99199998 47 17 6
-8.7069998 2.171 -0.986 11 0 0
-8.6739998 2.1619999 -0.97299999 36 2 0
-8.6630001 2.1689999 -0.96100003 77 44 27
-8.6700001 2.1730001 -0.96399999 87 48 33
-8.6890001 2.1140001 -0.84399998 220 144 50
-8.6940002 2.1359999 -1.003 53 29 19
-8.6859999 2.1819999 -1.002 113 93 82
-8.6800003 2.1789999 -1 100 87 81
-8.7049999 2.224 -1.096 10 0 0
-8.6680002 2.2060001 -1.0880001 48 19 13
-8.6630001 2.204 -1.089 26 6 5
-8.6719999 2.1600001 -1.046 28 9 5
-8.6730003 2.1849999 -1.0599999 78 54 44
-8.6719999 2.174 -1.063 45 17 5
-8.6719999 2.1760001 -1.059 146 119 102
-8.6929998 2.2119999 -1.062 38 20 10
-8.7180004 2.178 -1.058 14 0 0
-8.7279997 2.2 -1.0779999 140 121 115
-8.7150002 2.197 -1.075 81 62 48
-8.6680002 2.2 -1.08 111 76 70
-8.6669998 2.197 -1.08 19 3 4
-8.6739998 2.1329999 -0.82999998 201 137 76
-8.6759996 2.1440001 -0.82700002 132 79 45
-8.6800003 2.164 -1.024 34 14 3
-8.6999998 2.204 -1.049 10 1 2
-8.7209997 2.151 -1.0369999 98 43 2
-8.677 2.1630001 -1.0829999 180 166 163
-8.677 2.1570001 -1.085 54 17 0
-8.6759996 2.158 -1.08 74 36 17
-8.684 2.1559999 -1.059 89 81 70
-8.6750002 2.188 -1.084 14 2 2
-8.6759996 2.188 -1.0779999 29 4 0
-8.6700001 2.177 -1.0549999 64 29 7
-8.6689997 2.1689999 -1.057 38 4 2
-8.6700001 2.1719999 -1.058 53 17 0
-8.6680002 2.178 -1.04 187 140 110
-8.6700001 2.1900001 -1.05 39 10 4
-8.7290001 2.174 -1.021 52 26 13
-8.7270002 2.1600001 -1.016 23 12 6
-8.6960001 2.1919999 -1.031 50 23 2
-8.6870003 2.154 -0.87400001 51 19 6
-8.6859999 2.161 -0.89099997 85 50 28
-8.7030001 2.1619999 -0.88200003 98 75 59
-8.6890001 2.161 -0.89999998 33 8 1
-8.6669998 2.1559999 -0.95700002 32 1 0
-8.7060003 2.1470001 -0.92000002 37 17 6
-8.6890001 2.1159999 -0.958 131 62 7
-8.6899996 2.142 -0.89099997 41 5 0
-8.7139997 2.1500001 -1.028 98 61 34
-8.6960001 2.1270001 -0.963 102 61 39
-8.6890001 2.119 -0.972 61 14 0
-8.6829996 2.154 -0.89899999 60 27 18
-8.6920004 2.1760001 -0.91799998 36 12 0
-8.6940002 2.1719999 -0.91900003 41 16 11
-8.7309999 2.1630001 -0.88200003 113 82 64
-8.7180004 2.1570001 -0.884 35 7 0
-8.7089996 2.175 -0.87099999 58 27 9
-8.7299995 2.171 -0.87300003 175 145 121
-8.7259998 2.1700001 -0.87900001 100 53 27
-8.7259998 2.1719999 -0.889 20 0 0
-8.7150002 2.1700001 -0.91000003 37 22 17
-8.7209997 2.1659999 -0.91100001 101 54 24
-8.71 2.1619999 -0.93599999 33 10 4
-8.7060003 2.1530001 -0.91100001 60 36 26
-8.7139997 2.155 -0.912 79 43 27
-8.7150002 2.155 -0.90100002 105 71 43
-8.6870003 2.1830001 -1.0190001 10 0 0
-8.6829996 2.1589999 -0.99699998 28 3 0
-8.6789999 2.184 -0.97899997 6 0 2
-8.7060003 2.1719999 -0.98900002 72 34 25
-8.7080002 2.1700001 -0.98400003 14 0 0
-8.6739998 2.1630001 -1.0369999 88 48 22
-8.71 2.1489999 -1.02 82 49 30
-8.6680002 2.178 -1.013 137 104 87
-8.6689997 2.1800001 -1.012 77 44 27
-8.7049999 2.2260001 -1.098 10 0 0
-8.665 2.197 -1.087 43 22 5
-8.6689997 2.168 -1.0599999 53 17 0
-8.7130003 2.1900001 -1.062 41 3 0
-8.6990004 2.2090001 -1.059 4 0 0
-8.6730003 2.1930001 -1.075 55 38 28
-8.6610003 2.201 -1.089 188 168 157
-8.6700001 2.1889999 -1.053 33 5 1
-8.717 2.1500001 -1.035 69 27 5
-8.7270002 2.155 -1.0319999 138 98 62
-8.7130003 2.1440001 -1.046 99 63 41
-8.6680002 2.1830001 -1.04 75 27 4
-8.7130003 2.1849999 -1.059 9 0 0
-8.6820002 2.158 -0.89499998 43 10 3
-8.7019997 2.1689999 -0.87300003 110 81 75
-8.7069998 2.1719999 -0.92400002 29 4 0
-8.7089996 2.1730001 -0.91799998 15 1 1
-8.6689997 2.1700001 -0.963 54 22 11
-8.6739998 2.141 -0.95099998 37 8 2
-8.6890001 2.1559999 -0.91500002 52 23 9
-8.6829996 2.155 -0.89399999 54 20 10
-8.7139997 2.1789999 -0.85799998 83 36 10
-8.7089996 2.1789999 -0.898 23 5 3
-8.7110004 2.1730001 -0.91600001 55 18 2
-8.7150002 2.1659999 -0.917 46 19 2
-8.7060003 2.152 -0.89700001 74 26 16
-8.6890001 2.1830001 -1.017 51 16 0
-8.71 2.1570001 -1.003 136 110 95
-8.6990004 2.178 -1.001 20 4 4
-8.6800003 2.1860001 -0.97799999 8 0 0
-8.7080002 2.171 -0.98900002 12 1 0
-8.6739998 2.131 -0.82999998 166 126 91
-8.6700001 2.1340001 -0.838 80 45 25
-8.6969995 2.141 -0.83200002 217 154 87
-8.7089996 2.155 -0.83600003 187 130 77
-8.6660004 2.201 -1.084 34 19 12
-8.6689997 2.2060001 -1.086 74 47 40
-8.6730003 2.1949999 -1.074 22 9 1
-8.6680002 2.138 -0.838 99 38 0
-8.6700001 2.155 -1.066 30 16 15
-8.6890001 2.155 -1.057 24 0 0
-8.7180004 2.184 -1.03 108 84 74
-8.7010002 2.164 -0.86900002 81 38 21
-8.7180004 2.1789999 -0.87300003 50 16 6
-8.7119999 2.1719999 -0.91600001 69 42 15
-8.7060003 2.154 -0.98299998 98 76 63
-8.6999998 2.1760001 -0.99800003 93 70 54
-8.6940002 2.1370001 -0.99000001 71 39 14
-8.6780005 2.175 -0.99699998 8 0 0
-8.71 2.1500001 -0.838 168 106 47
-8.6940002 2.138 -1.011 76 22 0
-8.7180004 2.1789999 -1.064 11 0 0
-8.6700001 2.1949999 -1.079 49 14 0
-8.6680002 2.1889999 -1.041 18 4 3
-8.6680002 2.1900001 -1.044 74 38 22
-8.6680002 2.184 -1.0369999 62 20 0
-8.6929998 2.158 -0.85799998 113 40 0
-8.7049999 2.152 -0.99000001 67 36 16
-8.7159996 2.168 -0.912 15 0 0
-8.6730003 2.1689999 -0.96700001 127 88 73
-8.7119999 2.1719999 -0.91399997 43 6 0
-8.71 2.1719999 -0.91900003 35 1 0
-8.7189999 2.1730001 -0.89300001 116 96 87
0 0 0 1 0 0 0 1 0 0 0 1 0 0 0 0 0 865 1 0 0
