ply
format ascii 1.0
comment PCL generated
element vertex 94
property float x
property float y
property float z
property uchar red
property uchar green
property uchar blue
element camera 1
property float view_px
property float view_py
property float view_pz
property float x_axisx
property float x_axisy
property float x_axisz
property float y_axisx
property float y_axisy
property float y_axisz
property float z_axisx
property float z_axisy
property float z_axisz
property float focal
property float scalex
property float scaley
property float centerx
property float centery
property int viewportx
property int viewporty
property float k1
property float k2
end_header
5.4400001 5.0780001 -0.89700001 90 75 72
5.4520001 5.0640001 -0.89399999 185 148 121
5.441 5.059 -0.889 119 81 45
5.448 5.0630002 -0.89399999 70 34 8
5.447 4.9349999 -0.96200001 114 89 69
5.4460001 4.934 -0.96200001 215 193 182
5.4380002 4.934 -0.97000003 101 35 1
5.4109998 5 -0.95499998 72 27 6
5.4089999 5.0079999 -0.95499998 119 102 92
5.408 5.0019999 -0.95999998 23 6 0
5.4050002 5.0009999 -0.93800002 121 106 103
5.4050002 5.0079999 -0.93800002 65 46 40
5.4029999 5.0079999 -0.94700003 28 10 6
5.401 5.007 -0.94199997 115 102 94
5.4439998 5.0749998 -0.903 102 82 75
5.4660001 4.9689999 -0.98299998 31 11 4
5.4679999 4.96 -0.98299998 39 16 8
5.4710002 4.9640002 -0.98699999 66 41 34
5.4029999 5.0770001 -0.89200002 54 51 46
5.4089999 5.079 -0.88999999 115 87 73
5.4000001 5.0689998 -0.89200002 188 169 175
5.4050002 5.0760002 -0.89200002 50 49 45
5.4099998 5.079 -0.89099997 217 213 212
5.4029999 4.994 -0.94499999 93 39 13
5.401 4.9990001 -0.94599998 42 27 20
5.427 5.0669999 -0.90200001 94 73 56
5.441 5.072 -0.90200001 132 73 31
5.4359999 5.0689998 -0.90100002 47 29 19
5.4489999 5.059 -0.89499998 196 170 153
5.4510002 5.066 -0.90499997 122 108 105
5.4419999 4.9780002 -0.94099998 86 64 53
5.4419999 4.9819999 -0.94300002 137 111 98
5.4390001 4.9860001 -0.93900001 157 92 36
5.454 5.0240002 -0.98100001 21 10 8
5.4629998 5.0050001 -0.97299999 28 13 8
5.454 5.026 -0.97600001 33 16 6
5.4489999 5.0229998 -0.98199999 69 23 0
5.4510002 5.0240002 -0.98900002 34 23 19
5.46 5.006 -0.97600001 60 42 32
5.4289999 4.9749999 -0.949 85 28 0
5.4029999 4.9990001 -0.93699998 49 32 25
5.4320002 4.9439998 -0.98699999 69 47 34
5.4330001 4.9419999 -0.97100002 143 117 102
5.4299998 4.9349999 -0.96899998 92 68 58
5.427 5.0669999 -0.89899999 127 108 93
5.4590001 5.0139999 -0.972 60 45 42
5.4419999 5.0450001 -0.93199998 125 110 113
5.4359999 5.0419998 -0.93300003 59 39 38
5.4330001 5.033 -0.92299998 80 61 57
5.427 4.9759998 -0.93099999 99 49 16
5.428 4.974 -0.92900002 135 113 102
5.4219999 4.9710002 -0.93099999 80 62 50
5.4260001 5.0240002 -0.926 211 141 72
5.4190001 5.0250001 -0.921 73 54 50
5.421 5.0279999 -0.93000001 131 119 121
5.4439998 4.9450002 -0.96200001 104 81 63
5.4390001 4.9429998 -0.97000003 87 63 53
5.4439998 4.9699998 -0.95200002 66 48 36
5.4460001 5.0570002 -0.89200002 76 42 15
5.4310002 4.98 -0.94099998 43 26 16
5.4349999 4.9429998 -0.97899997 96 72 60
5.4369998 4.9629998 -0.96899998 75 18 0
5.4229999 5.0669999 -0.89999998 157 136 119
5.4299998 5.0679998 -0.89999998 154 135 121
5.4330001 5.0489998 -0.93800002 58 20 7
5.4320002 5.0419998 -0.92299998 101 80 77
5.4180002 5.0250001 -0.93000001 37 19 17
5.434 4.954 -0.95999998 154 90 55
5.4369998 4.9520001 -0.95999998 136 114 103
5.4239998 4.9679999 -0.94 136 77 43
5.4429998 4.9419999 -0.96200001 110 42 3
5.4380002 4.9439998 -0.98299998 92 65 54
5.4390001 4.9520001 -0.97000003 133 109 99
5.4450002 4.9699998 -0.97000003 34 11 3
5.4429998 4.967 -0.96200001 52 28 16
5.4439998 4.9569998 -0.95099998 91 68 52
5.4400001 5.0689998 -0.903 112 95 87
5.4390001 5.0630002 -0.90200001 129 112 104
5.4439998 5.0679998 -0.90499997 115 98 91
5.447 5.0689998 -0.90600002 121 102 96
5.4390001 5.0599999 -0.903 118 100 88
5.428 5.0380001 -0.926 219 147 89
5.4320002 4.9710002 -0.94099998 119 103 90
5.4419999 4.9510002 -0.95200002 108 45 4
5.4429998 4.9679999 -0.95200002 88 65 51
5.441 4.9559999 -0.96200001 161 135 122
5.4349999 5.0510001 -0.93199998 112 93 89
5.4299998 5.0409999 -0.92000002 138 122 123
5.4289999 4.9749999 -0.94 115 60 29
5.4439998 4.9429998 -0.96100003 100 78 67
5.4400001 4.9520001 -0.95200002 123 105 91
5.4380002 4.961 -0.95099998 136 118 104
5.4419999 4.9699998 -0.96100003 51 31 22
5.4349999 4.9640002 -0.95999998 101 42 12
0 0 0 1 0 0 0 1 0 0 0 1 0 0 0 0 0 94 1 0 0
