ply
format ascii 1.0
comment PCL generated
element vertex 464
property float x
property float y
property float z
property uchar red
property uchar green
property uchar blue
element camera 1
property float view_px
property float view_py
property float view_pz
property float x_axisx
property float x_axisy
property float x_axisz
property float y_axisx
property float y_axisy
property float y_axisz
property float z_axisx
property float z_axisy
property float z_axisz
property float focal
property float scalex
property float scaley
property float centerx
property float centery
property int viewportx
property int viewporty
property float k1
property float k2
end_header
-7.256 -2.721 -0.45300001 181 141 92
-7.257 -2.723 -0.45899999 147 101 68
-7.244 -2.73 -0.449 89 60 18
-7.2490001 -2.724 -0.449 133 104 64
-7.2389998 -2.737 -0.45699999 111 79 28
-7.2680001 -2.7049999 -0.479 144 98 64
-7.2600002 -2.697 -0.48899999 234 209 117
-7.2719998 -2.7090001 -0.48899999 155 113 71
-7.2550001 -2.6860001 -0.48300001 168 126 50
-7.2389998 -2.6819999 -0.47799999 170 108 47
-7.2550001 -2.6919999 -0.479 126 87 56
-7.2519999 -2.717 -0.454 186 127 71
-7.2550001 -2.72 -0.456 179 137 95
-7.2610002 -2.7149999 -0.46599999 150 105 66
-7.2389998 -2.687 -0.53600001 127 80 38
-7.2579999 -2.6830001 -0.52899998 139 115 79
-7.2420001 -2.6800001 -0.52999997 159 118 96
-7.1960001 -2.6240001 -0.49700001 200 129 67
-7.2020001 -2.6270001 -0.509 128 105 63
-7.2049999 -2.6359999 -0.49399999 202 170 95
-7.198 -2.6300001 -0.493 250 215 134
-7.1939998 -2.6229999 -0.495 192 138 52
-7.197 -2.632 -0.48699999 171 131 96
-7.152 -2.6159999 -0.52399999 149 106 72
-7.1360002 -2.6159999 -0.50800002 172 125 71
-7.138 -2.612 -0.50400001 182 130 72
-7.151 -2.6129999 -0.51599997 195 143 95
-7.1799998 -2.664 -0.551 122 104 84
-7.178 -2.6619999 -0.54799998 107 56 25
-7.1820002 -2.6689999 -0.546 237 167 107
-7.171 -2.6760001 -0.45899999 117 85 44
-7.171 -2.6670001 -0.44999999 116 86 48
-7.1599998 -2.6719999 -0.44600001 167 138 108
-7.2659998 -2.7049999 -0.48699999 167 124 73
-7.2670002 -2.72 -0.493 107 72 42
-7.2690001 -2.7119999 -0.47499999 115 76 47
-7.2600002 -2.6849999 -0.51300001 80 56 32
-7.2509999 -2.6900001 -0.50199997 206 139 69
-7.2519999 -2.677 -0.51300001 145 120 66
-7.25 -2.6860001 -0.48899999 249 222 131
-7.1810002 -2.6589999 -0.44999999 201 139 66
-7.177 -2.652 -0.449 220 154 78
-7.177 -2.655 -0.44999999 140 72 25
-7.1900001 -2.6530001 -0.46000001 143 109 97
-7.244 -2.7190001 -0.44999999 217 159 95
-7.2490001 -2.7179999 -0.45500001 119 101 89
-7.244 -2.7249999 -0.44999999 203 151 78
-7.2360001 -2.72 -0.45300001 127 66 22
-7.1680002 -2.6340001 -0.56800002 138 99 70
-7.1729999 -2.6270001 -0.565 110 94 69
-7.165 -2.632 -0.56900001 88 61 40
-7.1750002 -2.6440001 -0.55400002 118 82 48
-7.1859999 -2.6530001 -0.55800003 134 102 81
-7.1859999 -2.6440001 -0.55900002 79 30 0
-7.237 -2.6919999 -0.47099999 140 102 81
-7.1929998 -2.6489999 -0.46200001 151 93 53
-7.1989999 -2.6659999 -0.45899999 130 105 85
-7.1939998 -2.664 -0.456 148 98 63
-7.2119999 -2.6500001 -0.479 159 120 89
-7.1589999 -2.6489999 -0.47099999 120 82 37
-7.145 -2.641 -0.48699999 201 153 79
-7.158 -2.641 -0.47 162 129 86
-7.1739998 -2.6600001 -0.44999999 135 94 66
-7.2680001 -2.714 -0.49599999 139 95 56
-7.263 -2.6949999 -0.50800002 104 73 26
-7.2639999 -2.678 -0.52399999 117 68 35
-7.2459998 -2.6730001 -0.514 137 90 60
-7.2649999 -2.6819999 -0.52399999 89 69 19
-7.23 -2.668 -0.53100002 212 156 97
-7.23 -2.6800001 -0.491 226 211 120
-7.256 -2.691 -0.48500001 245 219 126
-7.2480001 -2.6849999 -0.509 131 93 44
-7.2389998 -2.688 -0.50400001 189 144 89
-7.2090001 -2.642 -0.50599998 100 47 5
-7.1999998 -2.635 -0.491 202 166 132
-7.1669998 -2.6730001 -0.465 152 108 81
-7.1630001 -2.6800001 -0.47400001 250 214 166
-7.1609998 -2.665 -0.45199999 135 106 76
-7.2610002 -2.7249999 -0.477 119 70 27
-7.2579999 -2.74 -0.486 123 72 25
-7.2540002 -2.7349999 -0.48100001 69 40 22
-7.2600002 -2.723 -0.47 122 74 34
-7.2659998 -2.7190001 -0.48800001 88 57 37
-7.2270002 -2.668 -0.54100001 204 151 101
-7.2620001 -2.7379999 -0.51099998 248 238 187
-7.2670002 -2.7379999 -0.51300001 221 191 137
-7.2690001 -2.737 -0.51300001 176 136 75
-7.1750002 -2.632 -0.56400001 79 47 32
-7.191 -2.6429999 -0.54900002 143 83 49
-7.1960001 -2.655 -0.54900002 143 92 47
-7.1890001 -2.654 -0.55699998 69 54 31
-7.1789999 -2.6570001 -0.55400002 137 98 67
-7.151 -2.6389999 -0.55500001 111 51 1
-7.1729999 -2.618 -0.55599999 103 68 48
-7.1659999 -2.6159999 -0.56199998 79 51 30
-7.1750002 -2.605 -0.55199999 82 53 37
-7.1810002 -2.6099999 -0.52700001 97 84 52
-7.1830001 -2.6059999 -0.54000002 171 126 87
-7.1739998 -2.605 -0.54299998 141 97 70
-7.1799998 -2.6110001 -0.51999998 98 69 39
-7.1620002 -2.6129999 -0.52100003 135 91 42
-7.1630001 -2.628 -0.56199998 82 52 28
-7.1500001 -2.6329999 -0.55599999 132 72 38
-7.1659999 -2.635 -0.55299997 73 40 9
-7.165 -2.648 -0.546 133 77 42
-7.1539998 -2.645 -0.54900002 220 167 127
-7.1469998 -2.6400001 -0.54799998 218 165 125
-7.1389999 -2.6300001 -0.542 132 72 36
-7.1370001 -2.632 -0.55199999 126 90 58
-7.1360002 -2.6370001 -0.54699999 213 162 119
-7.1479998 -2.6340001 -0.546 129 62 20
-7.1420002 -2.6259999 -0.514 119 84 44
-7.1420002 -2.632 -0.53799999 113 73 38
-7.1389999 -2.6210001 -0.509 102 59 14
-7.1409998 -2.6210001 -0.48500001 217 153 79
-7.1420002 -2.6210001 -0.505 161 120 74
-7.1430001 -2.6259999 -0.505 133 101 63
-7.1490002 -2.631 -0.48500001 205 165 116
-7.2350001 -2.73 -0.456 255 221 152
-7.2290001 -2.7160001 -0.46799999 153 110 55
-7.2210002 -2.7219999 -0.46700001 121 82 27
-7.2529998 -2.691 -0.479 114 81 64
-7.2420001 -2.6900001 -0.479 153 95 31
-7.1890001 -2.6229999 -0.493 255 209 131
-7.2080002 -2.721 -0.47099999 239 202 150
-7.2049999 -2.7 -0.47099999 202 159 91
-7.198 -2.6989999 -0.479 196 158 111
-7.2030001 -2.6659999 -0.463 155 111 74
-7.197 -2.6900001 -0.52499998 140 81 41
-7.2090001 -2.694 -0.53100002 249 203 144
-7.204 -2.6889999 -0.52999997 183 128 71
-7.1609998 -2.6659999 -0.447 190 138 101
-7.1700001 -2.651 -0.45500001 218 160 87
-7.1789999 -2.648 -0.461 145 97 51
-7.2659998 -2.73 -0.51099998 188 144 105
-7.2620001 -2.7309999 -0.51300001 211 183 118
-7.2600002 -2.7219999 -0.51099998 133 90 39
-7.257 -2.684 -0.52899998 119 103 80
-7.2509999 -2.6900001 -0.52200001 246 187 127
-7.243 -2.7 -0.52200001 208 149 91
-7.23 -2.6800001 -0.50199997 158 123 85
-7.1620002 -2.6129999 -0.514 240 176 102
-7.1560001 -2.6140001 -0.514 216 157 87
-7.1659999 -2.619 -0.49200001 164 107 28
-7.1560001 -2.615 -0.509 231 169 92
-7.1680002 -2.618 -0.49000001 175 123 37
-7.2459998 -2.6789999 -0.51899999 123 70 28
-7.1539998 -2.6689999 -0.47600001 202 176 153
-7.1609998 -2.675 -0.47999999 180 149 105
-7.2659998 -2.717 -0.47499999 97 54 19
-7.2589998 -2.7190001 -0.46599999 132 105 98
-7.2659998 -2.7149999 -0.48300001 189 156 137
-7.2030001 -2.6719999 -0.54799998 121 86 48
-7.2080002 -2.6819999 -0.53500003 144 88 55
-7.2150002 -2.687 -0.53500003 165 134 106
-7.2160001 -2.694 -0.53500003 104 49 19
-7.1859999 -2.6340001 -0.486 224 158 97
-7.1630001 -2.6370001 -0.46700001 214 147 76
-7.1599998 -2.618 -0.49000001 188 126 49
-7.198 -2.6670001 -0.54799998 141 132 101
-7.2020001 -2.6630001 -0.55199999 136 90 56
-7.1919999 -2.6630001 -0.55199999 184 138 102
-7.1820002 -2.6530001 -0.55500001 149 118 90
-7.1929998 -2.6259999 -0.51300001 119 56 12
-7.1939998 -2.6240001 -0.51800001 208 152 101
-7.1900001 -2.6110001 -0.51999998 70 45 23
-7.1719999 -2.6110001 -0.53299999 130 108 85
-7.1789999 -2.608 -0.53799999 92 73 56
-7.1700001 -2.652 -0.53799999 74 46 24
-7.1760001 -2.6630001 -0.537 115 47 2
-7.1700001 -2.6199999 -0.493 207 155 79
-7.1659999 -2.619 -0.509 169 100 35
-7.1719999 -2.631 -0.565 60 30 20
-7.1690001 -2.622 -0.56199998 101 84 64
-7.1420002 -2.635 -0.55400002 226 165 120
-7.1529999 -2.6159999 -0.52499998 200 118 71
-7.1669998 -2.6170001 -0.53799999 97 53 16
-7.1609998 -2.618 -0.50800002 190 123 52
-7.1370001 -2.638 -0.52700001 116 80 32
-7.164 -2.6199999 -0.49399999 174 109 43
-7.1409998 -2.625 -0.50999999 106 72 34
-7.1469998 -2.635 -0.493 115 83 45
-7.1479998 -2.631 -0.48899999 158 121 77
-7.1570001 -2.6429999 -0.479 135 96 57
-7.1440001 -2.635 -0.50599998 104 81 50
-7.1360002 -2.6500001 -0.509 255 237 194
-7.1700001 -2.631 -0.486 139 108 80
-7.2399998 -2.707 -0.46599999 126 77 21
-7.2309999 -2.6949999 -0.465 141 94 42
-7.2080002 -2.6429999 -0.491 109 78 50
-7.2199998 -2.6600001 -0.48699999 85 48 21
-7.2129998 -2.6530001 -0.498 154 108 75
-7.211 -2.6489999 -0.50400001 117 71 38
-7.223 -2.7290001 -0.46399999 166 131 75
-7.223 -2.7279999 -0.46700001 206 165 111
-7.2140002 -2.727 -0.47299999 219 183 125
-7.237 -2.7309999 -0.46200001 202 157 100
-7.223 -2.7079999 -0.47499999 150 116 71
-7.2080002 -2.707 -0.472 209 168 106
-7.2069998 -2.655 -0.47299999 161 126 98
-7.1620002 -2.6659999 -0.465 181 135 102
-7.171 -2.6760001 -0.47400001 190 158 109
-7.1690001 -2.675 -0.46700001 143 112 66
-7.1669998 -2.6530001 -0.46000001 170 95 40
-7.1659999 -2.6559999 -0.46599999 103 75 38
-7.263 -2.723 -0.50700003 175 127 89
-7.2659998 -2.7179999 -0.495 174 116 43
-7.263 -2.7019999 -0.48699999 254 235 140
-7.2340002 -2.7 -0.52499998 172 132 83
-7.237 -2.72 -0.51700002 251 213 150
-7.263 -2.7060001 -0.49200001 163 118 33
-7.263 -2.7090001 -0.49700001 187 135 60
-7.2319999 -2.681 -0.477 169 130 101
-7.237 -2.6849999 -0.48199999 149 94 37
-7.2059999 -2.6459999 -0.51999998 154 104 53
-7.2080002 -2.655 -0.51800001 109 65 2
-7.2080002 -2.648 -0.514 208 143 85
-7.2659998 -2.7119999 -0.47299999 168 135 116
-7.2639999 -2.7130001 -0.49900001 132 82 13
-7.257 -2.727 -0.493 130 91 58
-7.2529998 -2.7309999 -0.50400001 118 92 69
-7.2519999 -2.733 -0.486 126 94 83
-7.243 -2.7290001 -0.49200001 158 115 81
-7.2140002 -2.6589999 -0.537 141 118 87
-7.2150002 -2.6600001 -0.53500003 142 86 37
-7.2189999 -2.6689999 -0.551 106 88 68
-7.2080002 -2.664 -0.54799998 167 132 94
-7.224 -2.681 -0.54299998 95 58 31
-7.2280002 -2.668 -0.55199999 173 124 81
-7.2280002 -2.7019999 -0.53299999 151 99 52
-7.2259998 -2.688 -0.53500003 107 67 41
-7.2220001 -2.678 -0.54100001 151 103 55
-7.257 -2.7279999 -0.51499999 131 92 49
-7.171 -2.6440001 -0.46399999 74 39 11
-7.1719999 -2.6489999 -0.46000001 181 147 109
-7.1490002 -2.6159999 -0.49000001 138 79 13
-7.1529999 -2.6199999 -0.486 184 126 42
-7.1459999 -2.622 -0.484 180 137 82
-7.178 -2.619 -0.55199999 116 84 69
-7.1880002 -2.608 -0.54500002 111 84 63
-7.1820002 -2.638 -0.55500001 70 45 23
-7.2049999 -2.6389999 -0.51599997 100 38 1
-7.198 -2.6300001 -0.51800001 101 41 15
-7.2049999 -2.641 -0.52200001 146 122 96
-7.1789999 -2.6289999 -0.546 59 39 14
-7.1950002 -2.654 -0.54699999 140 105 67
-7.2059999 -2.655 -0.54100001 127 89 70
-7.178 -2.609 -0.53600001 76 63 44
-7.1760001 -2.6199999 -0.514 93 45 5
-7.1830001 -2.6110001 -0.51700002 119 101 65
-7.1799998 -2.622 -0.514 103 76 57
-7.191 -2.6429999 -0.48199999 146 106 71
-7.1880002 -2.6389999 -0.484 133 115 103
-7.1399999 -2.6359999 -0.542 117 64 30
-7.1490002 -2.6400001 -0.54299998 129 79 46
-7.152 -2.645 -0.53799999 142 101 69
-7.1589999 -2.6159999 -0.50999999 177 108 30
-7.1370001 -2.6500001 -0.514 108 85 51
-7.1360002 -2.6500001 -0.51800001 72 41 10
-7.1420002 -2.6559999 -0.51499999 128 103 63
-7.1459999 -2.635 -0.50199997 70 45 15
-7.1469998 -2.6400001 -0.50199997 123 97 62
-7.158 -2.6340001 -0.477 120 94 57
-7.1880002 -2.671 -0.54000002 121 80 48
-7.177 -2.6760001 -0.52100003 140 106 60
-7.165 -2.658 -0.52399999 246 213 168
-7.2519999 -2.6989999 -0.479 192 151 121
-7.2410002 -2.7179999 -0.456 193 141 81
-7.223 -2.697 -0.53200001 255 210 161
-7.1900001 -2.6329999 -0.48699999 168 102 41
-7.191 -2.6270001 -0.49200001 255 220 158
-7.2069998 -2.645 -0.484 135 104 86
-7.204 -2.7060001 -0.47799999 249 217 156
-7.2059999 -2.707 -0.47999999 202 165 121
-7.2119999 -2.72 -0.472 149 112 57
-7.1989999 -2.6630001 -0.463 133 103 95
-7.1989999 -2.684 -0.52999997 187 126 69
-7.1919999 -2.6760001 -0.52600002 72 54 42
-7.1880002 -2.6819999 -0.51800001 109 98 112
-7.1760001 -2.661 -0.45100001 149 119 83
-7.2639999 -2.704 -0.48100001 184 158 145
-7.2350001 -2.698 -0.528 148 122 87
-7.2659998 -2.717 -0.48699999 160 120 85
-7.2189999 -2.694 -0.479 215 194 175
-7.211 -2.684 -0.484 113 76 32
-7.2059999 -2.694 -0.47799999 255 232 167
-7.2160001 -2.6830001 -0.48899999 156 112 73
-7.2550001 -2.6930001 -0.51899999 107 80 37
-7.224 -2.661 -0.52200001 138 71 29
-7.2220001 -2.6659999 -0.50599998 253 206 126
-7.2340002 -2.6760001 -0.52100003 251 210 131
-7.2309999 -2.678 -0.50999999 179 113 61
-7.2049999 -2.655 -0.54000002 175 140 98
-7.1939998 -2.638 -0.53299999 237 182 126
-7.263 -2.71 -0.49900001 140 98 56
-7.2600002 -2.7 -0.50700003 255 230 151
-7.2509999 -2.73 -0.46799999 154 96 58
-7.2519999 -2.7320001 -0.47799999 156 102 64
-7.2399998 -2.7309999 -0.46399999 195 153 111
-7.2389998 -2.7260001 -0.49700001 93 65 43
-7.2350001 -2.723 -0.49200001 154 110 75
-7.2509999 -2.7279999 -0.49900001 138 103 65
-7.2179999 -2.71 -0.51499999 190 134 77
-7.2069998 -2.7090001 -0.50300002 245 237 234
-7.2270002 -2.724 -0.50599998 20 5 0
-7.2199998 -2.6670001 -0.54900002 116 95 78
-7.2220001 -2.6719999 -0.54799998 131 107 79
-7.2210002 -2.688 -0.53500003 138 86 47
-7.2290001 -2.6730001 -0.53500003 142 90 50
-7.243 -2.721 -0.51700002 254 220 159
-7.1739998 -2.6470001 -0.472 129 87 39
-7.1729999 -2.6400001 -0.48199999 141 99 75
-7.1490002 -2.618 -0.50199997 181 134 82
-7.1799998 -2.619 -0.546 61 44 18
-7.1869998 -2.6289999 -0.53399998 79 55 27
-7.178 -2.6289999 -0.55599999 87 66 39
-7.1810002 -2.609 -0.546 129 112 96
-7.1729999 -2.615 -0.55400002 117 100 80
-7.1890001 -2.6340001 -0.53799999 149 101 53
-7.2080002 -2.6570001 -0.54699999 134 110 84
-7.2129998 -2.671 -0.542 126 91 71
-7.1700001 -2.6229999 -0.54699999 150 108 70
-7.1659999 -2.6289999 -0.55000001 122 81 49
-7.1669998 -2.628 -0.551 105 84 63
-7.1929998 -2.6240001 -0.528 139 88 41
-7.1960001 -2.635 -0.52200001 60 34 21
-7.204 -2.6489999 -0.52700001 90 56 31
-7.1880002 -2.6240001 -0.49599999 205 134 78
-7.191 -2.6270001 -0.5 255 184 121
-7.1529999 -2.6300001 -0.53500003 159 85 38
-7.1630001 -2.6170001 -0.51099998 179 110 33
-7.1609998 -2.677 -0.49399999 246 211 171
-7.158 -2.664 -0.50599998 210 176 128
-7.1630001 -2.6659999 -0.50800002 235 232 241
-7.1469998 -2.661 -0.51999998 120 85 43
-7.1700001 -2.6760001 -0.5 188 149 108
-7.1500001 -2.6600001 -0.51800001 103 95 108
-7.1599998 -2.652 -0.528 79 43 9
-7.152 -2.6359999 -0.48500001 161 117 70
-7.1440001 -2.635 -0.50999999 77 54 23
-7.138 -2.642 -0.523 141 109 70
-7.1399999 -2.6470001 -0.523 79 47 8
-7.138 -2.6459999 -0.51800001 61 33 0
-7.1630001 -2.635 -0.479 143 105 68
-7.2529998 -2.6949999 -0.49599999 176 130 44
-7.2579999 -2.6960001 -0.486 255 243 148
-7.2550001 -2.704 -0.47400001 125 86 57
-7.2379999 -2.704 -0.46900001 75 42 11
-7.2410002 -2.7260001 -0.48500001 147 113 103
-7.2459998 -2.7149999 -0.465 186 130 73
-7.2030001 -2.6440001 -0.479 132 103 85
-7.2030001 -2.7 -0.509 222 154 79
-7.2160001 -2.724 -0.47999999 156 121 81
-7.224 -2.7160001 -0.498 198 166 117
-7.2140002 -2.6600001 -0.48300001 214 149 85
-7.2080002 -2.668 -0.479 163 104 48
-7.211 -2.6659999 -0.48699999 139 79 27
-7.1609998 -2.6500001 -0.47799999 97 62 20
-7.1729999 -2.668 -0.45899999 162 133 91
-7.2610002 -2.7249999 -0.493 100 68 47
-7.2290001 -2.691 -0.47600001 141 98 53
-7.2280002 -2.6989999 -0.53200001 102 86 61
-7.223 -2.6670001 -0.50800002 205 148 79
-7.2340002 -2.6760001 -0.52399999 148 101 33
-7.2249999 -2.664 -0.52200001 96 71 49
-7.1989999 -2.631 -0.51499999 82 25 8
-7.244 -2.7279999 -0.49599999 119 88 67
-7.2280002 -2.72 -0.50099999 202 153 60
-7.1609998 -2.668 -0.486 143 104 61
-7.1669998 -2.6570001 -0.52700001 230 195 153
-7.2280002 -2.717 -0.51200002 255 233 155
-7.2600002 -2.733 -0.51300001 255 241 181
-7.171 -2.6340001 -0.484 123 81 33
-7.1820002 -2.6500001 -0.47099999 134 92 54
-7.1869998 -2.651 -0.47400001 165 129 105
-7.178 -2.6329999 -0.55800003 110 66 31
-7.1849999 -2.6140001 -0.528 129 84 43
-7.1999998 -2.6470001 -0.52999997 104 67 38
-7.1849999 -2.6140001 -0.51800001 168 120 74
-7.1539998 -2.645 -0.54299998 200 148 111
-7.1409998 -2.6429999 -0.528 88 54 9
-7.145 -2.645 -0.523 45 33 47
-7.151 -2.6270001 -0.48500001 158 118 67
-7.1560001 -2.6630001 -0.498 248 216 167
-7.1960001 -2.6989999 -0.49000001 183 140 85
-7.1820002 -2.684 -0.48699999 143 106 61
-7.1919999 -2.694 -0.493 140 114 97
-7.263 -2.704 -0.47600001 45 19 4
-7.2410002 -2.7060001 -0.47 176 123 79
-7.1880002 -2.6849999 -0.48199999 255 234 182
-7.198 -2.6459999 -0.479 127 98 82
-7.1859999 -2.6900001 -0.5 173 140 99
-7.2069998 -2.707 -0.48899999 181 142 101
-7.2220001 -2.72 -0.47600001 181 130 75
-7.2179999 -2.7149999 -0.50199997 255 232 183
-7.211 -2.7119999 -0.49700001 119 86 79
-7.2210002 -2.7190001 -0.50199997 188 159 79
-7.2129998 -2.717 -0.491 133 98 56
-7.2160001 -2.6570001 -0.486 125 85 49
-7.1570001 -2.654 -0.48899999 174 135 94
-7.151 -2.6500001 -0.498 247 210 168
-7.1539998 -2.654 -0.498 169 138 94
-7.1810002 -2.6719999 -0.472 194 157 105
-7.244 -2.73 -0.486 124 90 81
-7.23 -2.694 -0.472 154 111 60
-7.257 -2.701 -0.51200002 157 96 31
-7.2199998 -2.6619999 -0.52100003 235 199 123
-7.2610002 -2.711 -0.50300002 104 54 0
-7.243 -2.73 -0.50599998 198 157 103
-7.1880002 -2.6819999 -0.51200002 142 135 143
-7.1830001 -2.677 -0.51499999 143 106 64
-7.2329998 -2.714 -0.514 184 142 100
-7.2220001 -2.711 -0.51300001 138 85 15
-7.2490001 -2.7279999 -0.51300001 191 152 97
-7.25 -2.723 -0.514 232 193 128
-7.2509999 -2.721 -0.514 152 107 66
-7.2540002 -2.7119999 -0.50999999 135 102 71
-7.2459998 -2.7160001 -0.51499999 255 230 166
-7.1729999 -2.6110001 -0.551 114 93 72
-7.177 -2.6389999 -0.55599999 76 59 33
-7.1550002 -2.6300001 -0.52399999 137 94 62
-7.164 -2.655 -0.52600002 134 98 50
-7.1409998 -2.655 -0.51899999 104 70 33
-7.1469998 -2.6589999 -0.51200002 130 124 136
-7.1609998 -2.6689999 -0.495 222 184 145
-7.158 -2.641 -0.477 133 101 62
-7.178 -2.6719999 -0.50999999 178 146 108
-7.211 -2.6760001 -0.48800001 222 167 113
-7.198 -2.6930001 -0.50300002 254 218 170
-7.198 -2.698 -0.50300002 246 213 168
-7.2090001 -2.7019999 -0.50999999 130 91 32
-7.1859999 -2.691 -0.50199997 179 149 79
-7.2080002 -2.7090001 -0.49700001 47 29 25
-7.211 -2.7149999 -0.49200001 164 117 65
-7.1570001 -2.6619999 -0.49700001 183 151 112
-7.165 -2.6760001 -0.486 190 153 109
-7.2589998 -2.7130001 -0.50700003 162 108 48
-7.2189999 -2.6600001 -0.50999999 183 123 60
-7.1469998 -2.6440001 -0.50199997 133 104 64
-7.1469998 -2.648 -0.50199997 224 188 140
-7.1659999 -2.655 -0.52899998 77 40 0
-7.2210002 -2.714 -0.51200002 138 90 18
-7.2519999 -2.7290001 -0.51200002 252 248 200
-7.2090001 -2.6559999 -0.54100001 158 105 61
-7.1620002 -2.625 -0.49000001 247 203 128
-7.1469998 -2.6259999 -0.48899999 130 92 47
-7.2030001 -2.7030001 -0.495 212 183 141
-7.1869998 -2.687 -0.50199997 255 225 173
-7.2020001 -2.671 -0.47600001 131 114 96
-7.1859999 -2.677 -0.48199999 172 130 90
-7.1719999 -2.6760001 -0.47799999 192 155 110
-7.204 -2.655 -0.47099999 138 89 46
-7.2010002 -2.7030001 -0.49900001 230 206 160
-7.2020001 -2.701 -0.50199997 250 242 240
-7.1440001 -2.652 -0.50599998 197 164 113
-7.1989999 -2.701 -0.49700001 255 222 169
-7.1589999 -2.6489999 -0.48500001 120 88 49
-7.1389999 -2.6459999 -0.50999999 162 134 94
-7.2140002 -2.7060001 -0.51099998 148 100 36
-7.198 -2.698 -0.498 232 203 159
-7.1490002 -2.6530001 -0.50300002 184 141 86
-7.217 -2.7079999 -0.514 199 147 90
-7.2589998 -2.7030001 -0.50700003 255 228 152
-7.2129998 -2.7030001 -0.51099998 129 88 26
0 0 0 1 0 0 0 1 0 0 0 1 0 0 0 0 0 464 1 0 0
