ply
format ascii 1.0
comment PCL generated
element vertex 298
property float x
property float y
property float z
property uchar red
property uchar green
property uchar blue
element camera 1
property float view_px
property float view_py
property float view_pz
property float x_axisx
property float x_axisy
property float x_axisz
property float y_axisx
property float y_axisy
property float y_axisz
property float z_axisx
property float z_axisy
property float z_axisz
property float focal
property float scalex
property float scaley
property float centerx
property float centery
property int viewportx
property int viewporty
property float k1
property float k2
end_header
1.883 14.676 -0.917 154 74 15
1.8890001 14.676 -0.91299999 95 53 29
1.882 14.662 -0.92299998 125 49 0
1.8890001 14.655 -0.92199999 197 109 46
1.8890001 14.653 -0.93000001 177 96 40
1.892 14.658 -0.90399998 121 68 34
1.896 14.66 -0.89899999 140 88 48
1.8890001 14.652 -0.90499997 188 91 10
1.8940001 14.66 -0.88800001 195 142 111
1.8890001 14.656 -0.898 173 77 3
1.887 14.654 -0.90100002 111 49 10
1.8710001 14.692 -0.87599999 138 70 31
1.869 14.693 -0.87099999 121 38 0
1.855 14.693 -0.88200003 63 41 28
1.911 14.714 -0.88300002 161 66 2
1.914 14.719 -0.88499999 105 64 42
1.919 14.711 -0.88200003 170 88 30
1.886 14.654 -0.92400002 181 141 106
1.898 14.666 -0.88300002 181 82 14
1.89 14.664 -0.88300002 191 93 22
1.874 14.664 -0.87400001 170 81 25
1.874 14.667 -0.86699998 77 59 35
1.902 14.634 -0.78299999 137 102 72
1.903 14.632 -0.78200001 224 129 61
1.903 14.633 -0.77399999 196 95 27
1.8609999 14.689 -0.87800002 136 54 7
1.883 14.673 -0.90799999 180 93 24
1.874 14.662 -0.88999999 173 90 46
1.863 14.69 -0.86699998 108 49 17
1.857 14.686 -0.86799997 60 43 27
1.865 14.647 -0.847 108 33 1
1.8609999 14.645 -0.84200001 147 133 124
1.863 14.651 -0.852 154 139 132
1.863 14.651 -0.85100001 78 52 37
1.862 14.653 -0.84200001 141 99 75
1.8710001 14.694 -0.86699998 120 111 106
1.877 14.69 -0.87 156 66 14
1.878 14.688 -0.86699998 155 90 50
1.872 14.692 -0.86799997 135 71 35
1.898 14.683 -0.87800002 142 65 19
1.895 14.712 -0.73500001 188 110 64
1.895 14.706 -0.73500001 172 90 42
1.904 14.716 -0.72000003 200 114 55
1.903 14.708 -0.75099999 164 78 17
1.8789999 14.663 -0.88499999 169 146 128
1.874 14.665 -0.88499999 58 43 20
1.873 14.648 -0.84799999 150 71 32
1.9 14.725 -0.70200002 70 40 12
1.904 14.716 -0.704 199 101 28
1.902 14.734 -0.72100002 52 25 0
1.902 14.714 -0.69400001 159 100 66
1.8609999 14.685 -0.86900002 140 56 9
1.869 14.665 -0.87400001 171 158 152
1.867 14.661 -0.86400002 149 134 127
1.877 14.687 -0.66799998 155 109 86
1.881 14.684 -0.69199997 153 112 80
1.8839999 14.681 -0.667 142 74 25
1.881 14.615 -0.80900002 118 59 15
1.881 14.619 -0.79500002 215 137 89
1.888 14.634 -0.81 105 69 45
1.898 14.684 -0.88200003 110 72 51
1.906 14.668 -0.86699998 182 85 16
1.906 14.675 -0.85699999 172 109 66
1.9170001 14.707 -0.86900002 47 31 18
1.911 14.704 -0.87 58 30 18
1.901 14.688 -0.87800002 227 126 56
1.899 14.676 -0.85699999 117 85 72
1.903 14.641 -0.76999998 105 66 35
1.895 14.653 -0.792 147 64 12
1.8940001 14.66 -0.77700001 148 98 65
1.8940001 14.667 -0.792 138 86 47
1.903 14.639 -0.76700002 89 19 0
1.893 14.709 -0.75599998 111 67 32
1.88 14.707 -0.77600002 76 52 14
1.886 14.702 -0.77499998 143 118 113
1.885 14.703 -0.77899998 123 45 0
1.881 14.685 -0.78899997 122 79 44
1.885 14.687 -0.787 156 110 76
1.868 14.67 -0.80900002 177 141 115
1.874 14.685 -0.80900002 103 53 26
1.869 14.672 -0.796 161 121 95
1.867 14.683 -0.86799997 60 34 21
1.8839999 14.65 -0.866 145 83 44
1.904 14.719 -0.71200001 217 124 57
1.906 14.708 -0.71100003 235 172 129
1.901 14.69 -0.68400002 210 111 30
1.898 14.684 -0.67799997 152 94 46
1.9 14.688 -0.66799998 138 85 54
1.883 14.632 -0.773 161 93 56
1.886 14.627 -0.75999999 224 155 96
1.8890001 14.635 -0.76800001 144 100 71
1.881 14.624 -0.764 198 129 87
1.878 14.614 -0.77899998 187 105 55
1.8940001 14.704 -0.72600001 180 99 46
1.883 14.709 -0.72299999 77 34 2
1.895 14.631 -0.773 221 118 43
1.857 14.688 -0.87599999 129 120 111
1.874 14.701 -0.67500001 143 128 123
1.877 14.692 -0.68000001 128 84 59
1.875 14.692 -0.66500002 84 52 29
1.873 14.702 -0.67400002 167 88 31
1.872 14.704 -0.67500001 157 103 69
1.8789999 14.704 -0.66399997 131 101 65
1.877 14.607 -0.79799998 116 52 6
1.8839999 14.603 -0.801 147 74 31
1.883 14.599 -0.80900002 127 63 27
1.88 14.603 -0.80599999 56 46 45
1.893 14.632 -0.759 133 82 51
1.895 14.636 -0.76599997 175 73 1
1.898 14.692 -0.69400001 186 122 78
1.881 14.617 -0.76899999 215 140 83
1.885 14.616 -0.787 198 104 40
1.888 14.622 -0.77200001 95 29 3
1.901 14.695 -0.85500002 196 97 38
1.915 14.696 -0.87 164 99 61
1.881 14.669 -0.85600001 102 52 25
1.918 14.704 -0.87300003 169 81 18
1.8890001 14.71 -0.778 161 142 125
1.895 14.714 -0.77899998 105 54 23
1.898 14.724 -0.77600002 116 54 15
1.897 14.644 -0.77100003 144 99 76
1.893 14.74 -0.71100003 185 125 89
1.896 14.733 -0.71600002 151 97 53
1.896 14.715 -0.74299997 144 65 22
1.897 14.723 -0.741 102 52 15
1.875 14.686 -0.801 99 54 25
1.882 14.691 -0.81800002 100 58 33
1.882 14.685 -0.81400001 124 76 40
1.8940001 14.658 -0.79900002 118 66 27
1.892 14.647 -0.81800002 139 57 9
1.8789999 14.647 -0.79699999 149 72 26
1.8890001 14.645 -0.79699999 126 89 60
1.8710001 14.66 -0.87 108 79 61
1.898 14.663 -0.86699998 206 106 31
1.905 14.662 -0.861 136 71 29
1.888 14.642 -0.86299998 204 103 35
1.8660001 14.664 -0.85799998 112 32 0
1.865 14.656 -0.84399998 81 17 0
1.872 14.644 -0.83099997 90 26 1
1.8839999 14.617 -0.81599998 150 132 130
1.898 14.715 -0.69199997 165 101 53
1.902 14.704 -0.69400001 195 94 16
1.8839999 14.708 -0.66500002 98 56 32
1.901 14.692 -0.676 198 102 26
1.893 14.689 -0.66799998 237 141 65
1.882 14.696 -0.667 109 37 0
1.888 14.652 -0.78600001 108 44 6
1.89 14.656 -0.78200001 120 66 30
1.881 14.655 -0.792 177 91 34
1.883 14.647 -0.792 128 70 33
1.8839999 14.635 -0.778 143 89 53
1.9 14.721 -0.72100002 127 90 61
1.888 14.709 -0.727 161 144 118
1.893 14.63 -0.76700002 115 52 17
1.8839999 14.618 -0.80400002 163 139 135
1.89 14.626 -0.787 223 141 83
1.883 14.614 -0.81199998 232 161 109
1.896 14.633 -0.78600001 175 110 72
1.897 14.688 -0.685 112 33 0
1.888 14.625 -0.75999999 127 69 31
1.887 14.662 -0.82999998 141 91 92
1.893 14.658 -0.83200002 194 136 98
1.89 14.654 -0.824 99 39 5
1.901 14.696 -0.847 94 70 60
1.902 14.699 -0.84799999 158 72 21
1.904 14.694 -0.847 82 20 0
1.91 14.672 -0.84600002 102 38 10
1.904 14.669 -0.84600002 150 86 42
1.911 14.668 -0.84500003 113 87 74
1.901 14.715 -0.759 177 144 111
1.902 14.704 -0.759 200 108 45
1.9 14.722 -0.75199997 110 50 14
1.8940001 14.709 -0.77499998 147 84 43
1.893 14.67 -0.78500003 132 70 29
1.888 14.668 -0.79100001 121 52 10
1.89 14.658 -0.76899999 201 103 28
1.901 14.644 -0.76899999 125 74 31
1.891 14.654 -0.76999998 142 102 67
1.901 14.702 -0.75300002 141 104 86
1.895 14.707 -0.75099999 151 64 10
1.913 14.706 -0.87199998 118 80 59
1.8940001 14.73 -0.75199997 82 39 7
1.9 14.723 -0.74800003 122 79 47
1.8890001 14.644 -0.78299999 148 109 76
1.887 14.731 -0.708 139 127 113
1.8940001 14.735 -0.71100003 64 31 16
1.8839999 14.73 -0.704 197 141 108
1.895 14.713 -0.74000001 142 97 64
1.882 14.687 -0.79500002 205 177 173
1.873 14.679 -0.796 165 88 36
1.874 14.676 -0.79500002 186 167 153
1.873 14.678 -0.815 158 81 27
1.8710001 14.673 -0.833 149 73 23
1.869 14.661 -0.83099997 95 34 6
1.8660001 14.653 -0.838 116 57 23
1.888 14.627 -0.80900002 59 33 10
1.8839999 14.65 -0.86299998 197 153 124
1.873 14.66 -0.84799999 63 40 8
1.9069999 14.651 -0.84799999 178 113 71
1.881 14.647 -0.83999997 122 42 5
1.885 14.726 -0.70999998 158 100 63
1.886 14.726 -0.70700002 221 142 86
1.886 14.717 -0.71100003 92 48 19
1.902 14.711 -0.71799999 175 129 105
1.891 14.724 -0.704 122 39 0
1.898 14.697 -0.69400001 146 93 59
1.895 14.705 -0.70200002 201 101 26
1.901 14.697 -0.68099999 144 85 51
1.896 14.701 -0.68400002 164 112 64
1.881 14.705 -0.67199999 149 113 89
1.886 14.685 -0.676 191 114 60
1.873 14.699 -0.685 156 141 136
1.883 14.693 -0.69499999 217 160 115
1.882 14.697 -0.69199997 130 93 66
1.8839999 14.716 -0.68900001 82 56 41
1.885 14.714 -0.68599999 124 47 3
1.89 14.645 -0.78899997 151 92 52
1.8890001 14.634 -0.79100001 45 18 0
1.89 14.644 -0.773 94 70 32
1.887 14.641 -0.77200001 154 92 51
1.885 14.629 -0.79299998 165 137 126
1.8839999 14.62 -0.77700001 143 84 40
1.8940001 14.715 -0.73299998 87 24 0
1.883 14.611 -0.80599999 177 116 69
1.882 14.659 -0.81699997 82 20 0
1.887 14.651 -0.824 76 27 0
1.881 14.655 -0.82499999 87 25 0
1.881 14.684 -0.815 120 52 15
1.906 14.671 -0.85799998 187 119 74
1.897 14.669 -0.866 223 159 123
1.888 14.667 -0.852 101 32 0
1.898 14.672 -0.85000002 161 97 53
1.891 14.704 -0.77200001 113 69 34
1.875 14.667 -0.792 103 73 45
1.874 14.664 -0.81099999 72 40 15
1.893 14.658 -0.77399999 119 58 14
1.897 14.725 -0.74599999 121 61 24
1.883 14.668 -0.80199999 170 91 48
1.8789999 14.674 -0.79900002 129 87 62
1.878 14.674 -0.80800003 151 107 68
1.87 14.659 -0.81599998 110 68 43
1.8789999 14.668 -0.84899998 86 51 29
1.883 14.608 -0.81699997 185 129 92
1.905 14.652 -0.84899998 193 95 34
1.885 14.645 -0.83099997 100 44 9
1.892 14.656 -0.85600001 228 161 119
1.893 14.72 -0.74299997 114 37 0
1.893 14.724 -0.75199997 100 66 39
1.892 14.718 -0.74800003 163 146 126
1.8940001 14.703 -0.71799999 152 63 7
1.886 14.685 -0.68400002 167 85 27
1.878 14.709 -0.69800001 158 102 67
1.878 14.71 -0.69599998 159 146 138
1.902 14.722 -0.70700002 190 109 53
1.902 14.697 -0.68300003 145 96 66
1.878 14.713 -0.68599999 139 86 55
1.8839999 14.715 -0.69400001 114 57 14
1.897 14.693 -0.66900003 126 62 16
1.883 14.621 -0.79000002 170 93 47
1.8890001 14.712 -0.73699999 178 162 139
1.897 14.7 -0.75999999 109 66 32
1.891 14.72 -0.77100003 79 34 3
1.896 14.717 -0.76999998 116 54 13
1.895 14.711 -0.76700002 136 68 29
1.875 14.673 -0.81900001 128 47 0
1.872 14.648 -0.829 100 71 39
1.886 14.654 -0.833 156 105 74
1.893 14.628 -0.81099999 250 179 137
1.893 14.659 -0.84899998 76 40 18
1.8890001 14.702 -0.70499998 173 122 93
1.8890001 14.692 -0.66900003 210 162 139
1.885 14.69 -0.69199997 179 78 0
1.89 14.706 -0.67500001 137 79 42
1.885 14.689 -0.66799998 206 114 31
1.878 14.71 -0.69 207 127 66
1.878 14.71 -0.68699998 184 126 89
1.885 14.629 -0.78399998 173 112 65
1.881 14.614 -0.78500003 159 115 76
1.8839999 14.716 -0.73299998 102 76 63
1.887 14.716 -0.72899997 137 60 16
1.89 14.72 -0.72399998 82 36 10
1.8789999 14.67 -0.81199998 72 36 14
1.876 14.681 -0.81999999 62 3 0
1.892 14.719 -0.76899999 154 137 119
1.886 14.664 -0.83399999 141 66 24
1.905 14.658 -0.852 109 80 64
1.893 14.693 -0.69300002 221 114 34
1.887 14.704 -0.667 114 61 30
1.887 14.707 -0.66600001 159 136 122
1.899 14.728 -0.72000003 127 79 41
1.883 14.667 -0.81 107 38 7
1.892 14.718 -0.76099998 120 43 0
1.87 14.664 -0.829 93 28 0
1.887 14.706 -0.71200001 138 97 67
1.888 14.621 -0.77999997 90 26 1
1.883 14.62 -0.77999997 210 130 79
1.893 14.697 -0.69499999 150 85 29
1.886 14.702 -0.69800001 179 124 94
0 0 0 1 0 0 0 1 0 0 0 1 0 0 0 0 0 298 1 0 0
