ply
format ascii 1.0
comment PCL generated
element vertex 177
property float x
property float y
property float z
property uchar red
property uchar green
property uchar blue
element camera 1
property float view_px
property float view_py
property float view_pz
property float x_axisx
property float x_axisy
property float x_axisz
property float y_axisx
property float y_axisy
property float y_axisz
property float z_axisx
property float z_axisy
property float z_axisz
property float focal
property float scalex
property float scaley
property float centerx
property float centery
property int viewportx
property int viewporty
property float k1
property float k2
end_header
-2.691 7.7789998 -1.023 213 195 175
-2.6919999 7.7820001 -1.021 205 185 161
-2.6900001 7.783 -1.02 255 188 107
-2.698 7.7789998 -1.059 192 183 168
-2.6960001 7.783 -1.0549999 212 194 170
-2.701 7.7779999 -1.063 200 194 182
-2.6989999 7.7839999 -1.058 150 112 50
-2.711 7.777 -1.02 171 139 114
-2.6960001 7.777 -1.057 251 233 149
-2.698 7.7719998 -1.054 253 230 154
-2.6989999 7.7740002 -1.057 244 193 138
-2.711 7.7610002 -1.054 226 195 166
-2.6989999 7.809 -1.039 226 162 101
-2.7079999 7.8080001 -1.02 178 149 117
-2.698 7.8070002 -1.024 155 86 17
-2.704 7.8049998 -1.034 163 110 56
-2.7880001 7.783 -1.058 133 104 72
-2.7809999 7.789 -1.052 148 99 67
-2.7820001 7.789 -1.058 171 121 88
-2.789 7.7709999 -1.052 146 84 35
-2.79 7.77 -1.073 227 205 184
-2.7880001 7.7779999 -1.054 114 76 40
-2.777 7.7909999 -1.063 62 36 19
-2.766 7.7909999 -1.056 146 94 44
-2.7750001 7.7880001 -1.053 143 97 73
-2.694 7.7789998 -1.024 182 167 148
-2.6889999 7.777 -1.024 212 146 72
-2.688 7.7810001 -1.024 221 203 183
-2.694 7.7789998 -1.031 185 161 133
-2.7079999 7.7729998 -1.0319999 124 99 68
-2.737 7.763 -1.035 160 116 69
-2.7320001 7.7600002 -1.0369999 167 148 154
-2.733 7.7649999 -1.05 255 239 172
-2.711 7.7839999 -1.016 228 147 65
-2.7320001 7.7729998 -1.017 68 49 68
-2.7 7.7870002 -1.018 143 117 68
-2.7130001 7.79 -1.013 204 146 72
-2.6949999 7.777 -1.054 230 185 84
-2.773 7.7859998 -1.056 209 180 138
-2.7869999 7.7820001 -1.061 146 117 87
-2.7909999 7.7719998 -1.0779999 255 235 221
-2.7260001 7.8000002 -1.029 161 135 120
-2.7320001 7.7909999 -1.023 183 137 75
-2.7149999 7.8070002 -1.02 190 160 126
-2.717 7.7610002 -1.049 143 108 52
-2.7320001 7.7579999 -1.062 177 98 21
-2.7119999 7.8060002 -1.025 158 117 61
-2.7060001 7.7680001 -1.053 207 162 94
-2.783 7.7709999 -1.054 180 136 111
-2.78 7.7649999 -1.057 149 80 23
-2.7030001 7.796 -1.018 148 73 5
-2.7 7.8000002 -1.022 252 226 139
-2.697 7.7930002 -1.0190001 202 146 71
-2.6989999 7.802 -1.024 205 172 95
-2.7030001 7.7979999 -1.02 254 196 123
-2.733 7.7639999 -1.0420001 205 170 104
-2.7079999 7.7729998 -1.0599999 219 203 126
-2.697 7.803 -1.0319999 94 42 0
-2.783 7.7789998 -1.079 255 250 242
-2.7130001 7.7940001 -1.058 255 240 188
-2.723 7.8010001 -1.052 247 224 156
-2.7160001 7.8119998 -1.0470001 50 26 0
-2.717 7.79 -1.069 194 187 171
-2.717 7.8109999 -1.0470001 120 76 37
-2.7390001 7.7940001 -1.041 176 126 63
-2.714 7.809 -1.039 111 62 6
-2.7060001 7.8080001 -1.0420001 87 48 15
-2.71 7.7620001 -1.048 142 107 75
-2.7179999 7.7639999 -1.0549999 154 131 90
-2.697 7.7919998 -1.023 204 137 56
-2.704 7.7940001 -1.017 186 130 55
-2.7060001 7.7969999 -1.017 237 181 106
-2.7119999 7.7940001 -1.016 227 175 102
-2.7019999 7.776 -1.061 255 210 118
-2.7260001 7.763 -1.057 194 142 94
-2.694 7.8000002 -1.029 205 148 93
-2.7720001 7.789 -1.069 203 191 179
-2.7820001 7.7789998 -1.068 192 115 35
-2.721 7.802 -1.046 233 200 167
-2.7379999 7.7690001 -1.056 132 96 38
-2.7119999 7.7859998 -1.067 139 136 119
-2.7739999 7.7659998 -1.066 206 127 34
-2.7609999 7.7719998 -1.081 254 251 242
-2.78 7.7649999 -1.0700001 235 221 208
-2.7850001 7.7620001 -1.067 255 234 138
-2.7809999 7.7680001 -1.075 255 245 236
-2.7079999 7.7849998 -1.063 109 61 0
-2.737 7.7800002 -1.022 213 170 102
-2.743 7.776 -1.039 98 78 87
-2.7409999 7.7839999 -1.04 165 129 93
-2.7219999 7.802 -1.031 199 149 148
-2.7179999 7.7649999 -1.0420001 83 59 25
-2.73 7.7610002 -1.0369999 214 153 99
-2.714 7.783 -1.016 237 208 174
-2.707 7.7639999 -1.048 134 101 66
-2.711 7.7670002 -1.0420001 189 154 122
-2.777 7.7820001 -1.056 232 163 94
-2.779 7.7789998 -1.0549999 238 211 168
-2.78 7.7690001 -1.059 184 103 22
-2.779 7.7680001 -1.061 222 158 94
-2.7090001 7.7989998 -1.018 255 211 139
-2.7 7.802 -1.023 255 229 154
-2.717 7.7680001 -1.063 243 219 155
-2.7019999 7.7820001 -1.0599999 250 244 230
-2.697 7.7810001 -1.053 226 192 118
-2.723 7.7649999 -1.052 212 190 167
-2.697 7.7919998 -1.028 209 141 68
-2.697 7.7859998 -1.03 229 216 200
-2.6949999 7.7800002 -1.038 136 114 91
-2.7320001 7.796 -1.053 255 234 140
-2.7869999 7.7729998 -1.0700001 243 221 198
-2.73 7.7979999 -1.0420001 145 96 40
-2.7650001 7.7839999 -1.0599999 147 104 53
-2.747 7.7789998 -1.0470001 239 159 72
-2.7420001 7.79 -1.05 227 165 82
-2.743 7.7740002 -1.044 239 199 129
-2.724 7.7729998 -1.0369999 132 92 93
-2.7179999 7.7750001 -1.023 222 177 136
-2.7219999 7.777 -1.022 250 187 134
-2.7049999 7.7870002 -1.018 150 75 20
-2.7190001 7.8000002 -1.023 238 189 148
-2.7060001 7.7750001 -1.046 202 134 33
-2.783 7.777 -1.054 253 176 120
-2.707 7.7800002 -1.063 173 125 43
-2.721 7.7649999 -1.057 244 224 197
-2.704 7.7789998 -1.04 144 124 113
-2.7449999 7.79 -1.057 252 197 106
-2.7449999 7.79 -1.062 205 155 68
-2.7869999 7.7719998 -1.066 232 208 182
-2.7219999 7.7909999 -1.0549999 52 31 2
-2.7690001 7.7800002 -1.0599999 160 122 83
-2.7690001 7.777 -1.0650001 171 136 106
-2.72 7.7950001 -1.023 91 68 50
-2.724 7.789 -1.023 197 151 92
-2.7130001 7.7750001 -1.061 250 227 196
-2.707 7.7820001 -1.063 129 87 37
-2.7060001 7.79 -1.058 89 48 2
-2.7019999 7.79 -1.043 213 189 161
-2.7 7.802 -1.036 197 149 103
-2.7049999 7.79 -1.051 254 227 160
-2.704 7.789 -1.048 195 172 96
-2.7639999 7.7779999 -1.0650001 177 147 123
-2.7449999 7.7849998 -1.057 246 213 136
-2.763 7.777 -1.076 255 255 243
-2.7650001 7.7729998 -1.082 255 255 247
-2.767 7.7779999 -1.077 246 243 234
-2.7690001 7.7729998 -1.0829999 217 217 205
-2.7650001 7.7880001 -1.059 106 58 12
-2.727 7.7649999 -1.062 104 85 52
-2.7349999 7.7659998 -1.061 84 56 32
-2.7309999 7.7870002 -1.059 193 160 83
-2.727 7.7729998 -1.063 132 90 42
-2.7179999 7.7709999 -1.063 108 89 59
-2.779 7.7789998 -1.075 254 249 245
-2.7179999 7.802 -1.024 174 152 139
-2.7 7.777 -1.049 185 139 77
-2.6989999 7.7820001 -1.05 255 215 117
-2.7030001 7.7870002 -1.058 96 56 4
-2.7049999 7.79 -1.0549999 241 206 148
-2.7030001 7.7870002 -1.053 243 210 141
-2.7030001 7.7870002 -1.05 174 144 72
-2.7 7.803 -1.0369999 222 149 72
-2.7690001 7.7729998 -1.079 248 248 240
-2.7650001 7.7729998 -1.0779999 255 255 247
-2.7639999 7.7800002 -1.073 248 240 227
-2.7260001 7.7690001 -1.064 153 143 134
-2.7349999 7.7800002 -1.057 149 128 85
-2.734 7.7659998 -1.058 255 237 170
-2.714 7.7779999 -1.062 255 244 162
-2.7780001 7.7779999 -1.0779999 247 242 238
-2.7739999 7.777 -1.077 248 245 240
-2.7090001 7.7979999 -1.048 251 246 243
-2.7620001 7.7740002 -1.0779999 253 251 239
-2.7360001 7.7750001 -1.058 133 93 94
-2.73 7.7849998 -1.021 228 178 115
-2.6989999 7.7810001 -1.048 255 231 162
-2.721 7.7870002 -1.063 70 32 0
0 0 0 1 0 0 0 1 0 0 0 1 0 0 0 0 0 177 1 0 0
