ply
format ascii 1.0
comment PCL generated
element vertex 824
property float x
property float y
property float z
property uchar red
property uchar green
property uchar blue
element camera 1
property float view_px
property float view_py
property float view_pz
property float x_axisx
property float x_axisy
property float x_axisz
property float y_axisx
property float y_axisy
property float y_axisz
property float z_axisx
property float z_axisy
property float z_axisz
property float focal
property float scalex
property float scaley
property float centerx
property float centery
property int viewportx
property int viewporty
property float k1
property float k2
end_header
-12.267 6.6799998 -1.132 134 81 29
-12.279 6.691 -1.1289999 251 204 162
-12.281 6.6820002 -1.1339999 121 70 17
-12.265 6.7420001 -1.0549999 212 149 80
-12.261 6.7259998 -1.05 208 120 57
-12.25 6.7329998 -1.0599999 195 102 43
-12.269 6.7729998 -0.96700001 112 64 18
-12.27 6.776 -0.96100003 159 115 68
-12.274 6.776 -0.96799999 110 69 37
-12.261 6.7610002 -0.95700002 121 68 16
-12.223 6.7420001 -0.81900001 183 120 69
-12.22 6.7540002 -0.824 140 86 48
-12.22 6.7410002 -0.83499998 129 55 10
-12.261 6.7719998 -0.77600002 121 89 68
-12.28 6.7639999 -0.77200001 74 58 33
-12.273 6.7649999 -0.76800001 141 80 36
-12.275 6.7649999 -0.77600002 130 77 45
-12.267 6.7659998 -0.773 149 88 44
-12.233 6.6630001 -1.023 172 129 84
-12.252 6.6539998 -1.024 171 75 0
-12.234 6.6599998 -1.017 158 108 71
-12.254 6.6599998 -1.0369999 91 60 40
-12.308 6.7090001 -1.141 152 100 42
-12.32 6.7059999 -1.142 207 164 85
-12.316 6.711 -1.142 203 154 87
-12.31 6.7199998 -1.1339999 177 130 100
-12.26 6.7270002 -1.053 193 122 58
-12.262 6.7360001 -1.0599999 159 96 52
-12.285 6.7750001 -0.96799999 193 127 67
-12.288 6.777 -0.958 247 175 116
-12.291 6.7750001 -0.95700002 104 70 42
-12.29 6.7649999 -0.97600001 179 151 111
-12.249 6.744 -1.126 241 148 79
-12.245 6.7389998 -1.133 186 140 107
-12.251 6.7449999 -1.1339999 218 179 148
-12.25 6.7399998 -1.128 223 180 148
-12.274 6.7360001 -0.99599999 216 179 152
-12.273 6.73 -0.99900001 193 129 81
-12.284 6.7399998 -0.99599999 152 96 49
-12.264 6.763 -0.98199999 141 87 51
-12.265 6.7639999 -0.97799999 93 44 14
-12.244 6.7509999 -0.97100002 122 79 45
-12.274 6.7639999 -0.977 96 57 28
-12.241 6.7639999 -0.83399999 149 102 72
-12.238 6.763 -0.82800001 182 133 101
-12.232 6.763 -0.83099997 193 124 82
-12.286 6.678 -1.133 121 70 15
-12.274 6.684 -1.126 196 101 33
-12.219 6.6919999 -1.084 97 32 0
-12.217 6.6869998 -1.076 236 136 58
-12.22 6.6799998 -1.073 123 65 17
-12.211 6.6960001 -1.098 245 153 80
-12.211 6.6960001 -1.087 251 159 76
-12.216 6.6989999 -1.084 187 117 68
-12.253 6.7340002 -1.135 195 150 119
-12.299 6.7199998 -1.1289999 136 92 53
-12.307 6.7220001 -1.131 95 51 4
-12.242 6.7379999 -1.125 202 160 122
-12.196 6.7119999 -1.099 135 61 12
-12.197 6.7049999 -1.1 255 208 153
-12.194 6.6989999 -1.09 72 34 13
-12.199 6.7059999 -1.087 175 105 33
-12.198 6.7020001 -1.099 230 178 138
-12.199 6.698 -1.095 208 137 85
-12.228 6.7600002 -0.83200002 156 119 90
-12.23 6.7600002 -0.82599998 161 117 82
-12.226 6.756 -0.82599998 147 102 47
-12.287 6.6279998 -1.058 194 146 110
-12.287 6.6329999 -1.056 145 82 31
-12.287 6.625 -1.056 186 136 99
-12.288 6.6279998 -1.052 195 145 108
-12.26 6.697 -0.81999999 193 129 68
-12.256 6.684 -0.81800002 144 56 6
-12.267 6.6960001 -0.81300002 161 102 60
-12.256 6.6929998 -0.829 85 45 19
-12.244 6.7179999 -1.052 255 232 172
-12.239 6.7350001 -1.062 183 140 97
-12.244 6.73 -1.062 140 68 0
-12.245 6.7249999 -1.061 157 102 72
-12.307 6.7030001 -1.14 84 37 7
-12.313 6.645 -1.043 215 136 43
-12.306 6.631 -1.043 179 137 95
-12.294 6.638 -1.036 216 155 72
-12.302 6.6259999 -1.052 189 104 39
-12.313 6.618 -1.057 156 116 90
-12.29 6.7709999 -0.96499997 171 125 92
-12.318 6.711 -1.114 249 159 83
-12.314 6.7069998 -1.128 255 217 137
-12.308 6.7189999 -1.125 186 136 101
-12.314 6.7069998 -1.122 252 209 131
-12.247 6.7319999 -1.066 226 194 135
-12.307 6.7210002 -1.124 79 36 0
-12.267 6.7420001 -0.99400002 120 79 57
-12.266 6.7420001 -0.99000001 231 177 117
-12.258 6.7350001 -0.99199998 175 133 108
-12.272 6.7420001 -0.98799998 152 110 85
-12.247 6.697 -1.095 103 50 16
-12.256 6.7010002 -1.1 174 135 96
-12.263 6.6849999 -1.1 195 159 125
-12.201 6.6989999 -1.098 139 86 46
-12.286 6.6350002 -1.0420001 243 188 106
-12.252 6.7379999 -1.133 183 151 126
-12.3 6.7020001 -1.125 180 135 104
-12.304 6.7010002 -1.12 138 89 33
-12.317 6.6999998 -1.127 255 220 126
-12.312 6.6880002 -1.114 232 163 72
-12.269 6.6890001 -1.127 218 174 135
-12.264 6.6810002 -1.13 101 55 29
-12.247 6.7280002 -1.1339999 117 74 42
-12.25 6.7160001 -1.14 187 141 107
-12.23 6.7350001 -0.82999998 126 55 9
-12.26 6.6849999 -0.92400002 128 95 86
-12.267 6.6830001 -0.91900003 251 169 96
-12.25 6.6900001 -0.921 147 93 46
-12.301 6.6259999 -1.053 193 129 65
-12.325 6.6849999 -0.935 209 138 76
-12.317 6.6849999 -0.926 220 168 110
-12.325 6.6789999 -0.93400002 164 138 113
-12.321 6.684 -0.93099999 174 104 44
-12.304 6.6830001 -0.93400002 161 77 17
-12.291 6.684 -0.93400002 245 210 170
-12.294 6.6849999 -0.94099998 168 89 22
-12.288 6.6820002 -0.93300003 205 110 52
-12.305 6.6849999 -0.92400002 81 34 4
-12.231 6.7600002 -0.83999997 184 110 37
-12.219 6.7529998 -0.83399999 124 74 37
-12.274 6.7729998 -0.958 164 130 103
-12.236 6.7249999 -0.838 83 44 5
-12.239 6.7160001 -0.81900001 161 115 65
-12.249 6.691 -0.921 137 87 52
-12.248 6.6919999 -0.92500001 133 66 13
-12.263 6.6929998 -0.81199998 230 194 162
-12.232 6.6719999 -1.01 108 59 26
-12.232 6.6760001 -1 239 208 161
-12.233 6.6719999 -1.0039999 202 153 112
-12.239 6.6810002 -1.011 194 165 147
-12.234 6.6659999 -1.0039999 165 113 73
-12.251 6.6570001 -1.024 235 144 53
-12.249 6.665 -1.018 180 153 126
-12.251 6.6739998 -1.021 123 62 18
-12.258 6.6729999 -1.0369999 166 117 77
-12.26 6.7259998 -1.051 208 125 57
-12.318 6.7020001 -1.1339999 255 220 128
-12.319 6.704 -1.122 247 206 114
-12.314 6.6869998 -0.94400001 158 131 112
-12.294 6.658 -1.036 254 210 123
-12.308 6.6599998 -1.0470001 253 198 118
-12.299 6.625 -1.057 151 108 65
-12.303 6.7179999 -1.115 161 103 63
-12.313 6.7080002 -1.11 190 122 57
-12.303 6.717 -1.12 198 107 37
-12.316 6.697 -1.109 221 153 80
-12.241 6.7319999 -1.0650001 189 120 51
-12.28 6.7620001 -0.96100003 211 142 87
-12.284 6.7610002 -0.96600002 153 101 44
-12.274 6.7639999 -0.958 180 122 72
-12.281 6.7659998 -0.977 140 93 51
-12.199 6.6900001 -1.079 245 172 95
-12.203 6.697 -1.096 200 153 109
-12.304 6.6409998 -1.044 238 188 137
-12.27 6.652 -1.036 130 85 52
-12.277 6.6939998 -1.12 207 163 136
-12.274 6.6960001 -1.123 133 93 58
-12.299 6.6989999 -1.113 253 169 99
-12.307 6.7069998 -1.1339999 181 133 71
-12.252 6.7160001 -1.1339999 197 150 120
-12.249 6.7280002 -1.1339999 136 92 53
-12.251 6.7189999 -1.1339999 199 151 113
-12.217 6.7189999 -1.089 160 107 63
-12.202 6.7210002 -1.085 175 103 55
-12.219 6.7220001 -1.089 198 108 45
-12.221 6.7220001 -1.0829999 195 125 56
-12.225 6.7220001 -1.0930001 172 129 86
-12.202 6.723 -1.074 154 90 46
-12.225 6.7199998 -1.089 180 115 59
-12.213 6.7059999 -1.094 228 170 122
-12.229 6.6960001 -1.081 130 75 44
-12.262 6.73 -0.82200003 139 86 44
-12.263 6.7389998 -0.80599999 156 99 56
-12.262 6.743 -0.81400001 61 33 21
-12.284 6.6880002 -0.91900003 161 122 91
-12.28 6.6830001 -0.93000001 162 84 45
-12.238 6.6609998 -0.99299997 213 160 120
-12.248 6.6659999 -0.98799998 236 168 95
-12.241 6.6589999 -0.99699998 240 125 32
-12.252 6.6890001 -0.83899999 111 84 57
-12.25 6.6880002 -0.82099998 96 72 44
-12.237 6.677 -0.98100001 195 152 117
-12.276 6.6820002 -0.94300002 143 87 40
-12.29 6.6350002 -1.059 179 129 92
-12.253 6.6859999 -1.027 168 119 76
-12.237 6.6760001 -1.068 130 68 29
-12.239 6.6880002 -1.0700001 131 74 29
-12.243 6.678 -1.0650001 173 127 75
-12.264 6.6890001 -1.08 195 103 20
-12.268 6.665 -1.039 140 108 85
-12.273 6.6609998 -1.038 182 95 28
-12.281 6.6529999 -1.05 153 112 80
-12.291 6.7550001 -0.977 202 140 83
-12.286 6.7550001 -0.97899997 195 135 85
-12.254 6.6919999 -0.833 143 77 29
-12.253 6.6919999 -0.83499998 84 44 19
-12.254 6.6919999 -0.83700001 143 83 31
-12.251 6.6919999 -0.83200002 96 38 0
-12.256 6.6929998 -0.82300001 84 45 16
-12.251 6.698 -0.81800002 190 102 54
-12.256 6.6929998 -0.81699997 148 109 78
-12.271 6.7199998 -0.93300003 144 102 62
-12.29 6.7119999 -0.92900002 149 93 46
-12.281 6.7119999 -0.921 187 109 45
-12.276 6.7150002 -0.93300003 226 160 112
-12.278 6.7119999 -0.92500001 150 95 39
-12.299 6.7010002 -0.92299998 187 103 41
-12.251 6.6669998 -0.99800003 220 154 102
-12.253 6.6729999 -0.98500001 123 74 41
-12.256 6.6719999 -0.99599999 246 185 105
-12.309 6.6849999 -0.92799997 178 126 78
-12.312 6.691 -0.92799997 217 145 63
-12.295 6.684 -0.93000001 154 97 42
-12.267 6.7490001 -0.84399998 124 60 12
-12.268 6.7470002 -0.85000002 113 49 5
-12.274 6.7459998 -0.84500003 135 90 57
-12.253 6.75 -0.83999997 160 109 62
-12.254 6.7449999 -0.838 104 45 3
-12.264 6.7480001 -0.85100001 91 50 18
-12.247 6.7259998 -0.85699999 114 89 58
-12.249 6.7210002 -0.85600001 145 76 43
-12.242 6.7199998 -0.86400002 120 67 17
-12.233 6.737 -0.83899999 141 74 31
-12.253 6.6859999 -0.79799998 145 104 76
-12.249 6.6880002 -0.79299998 136 77 19
-12.254 6.6799998 -0.792 102 57 28
-12.206 6.684 -1.05 211 161 126
-12.197 6.6810002 -1.051 227 146 64
-12.2 6.684 -1.045 225 149 71
-12.235 6.6820002 -1.067 218 121 50
-12.242 6.6830001 -1.058 223 149 84
-12.24 6.6609998 -1.017 142 76 26
-12.242 6.6620002 -1.012 201 110 40
-12.248 6.6630001 -1.013 255 206 136
-12.314 6.6230001 -1.0549999 222 172 103
-12.312 6.6290002 -1.052 241 158 92
-12.309 6.6859999 -0.935 233 141 68
-12.312 6.6869998 -0.93699998 117 60 7
-12.299 6.6900001 -0.94099998 162 101 56
-12.284 6.6939998 -0.94700003 210 121 63
-12.276 6.691 -0.94400001 78 42 20
-12.294 6.7080002 -1.114 184 145 112
-12.275 6.6989999 -1.117 213 176 150
-12.281 6.71 -1.1059999 192 96 19
-12.27 6.717 -1.109 141 86 30
-12.275 6.6849999 -1.1160001 200 104 30
-12.275 6.6820002 -1.095 209 157 97
-12.272 6.6859999 -1.108 137 80 27
-12.279 6.6900001 -1.112 174 95 29
-12.282 6.684 -1.128 158 113 72
-12.295 6.6329999 -1.069 107 90 60
-12.297 6.6440001 -1.063 188 138 89
-12.313 6.6209998 -1.058 114 78 46
-12.304 6.717 -1.115 144 101 69
-12.302 6.7080002 -1.114 117 60 15
-12.315 6.6989999 -1.114 173 147 130
-12.311 6.6999998 -1.107 255 207 131
-12.286 6.6609998 -1.034 176 127 86
-12.31 6.7140002 -1.1160001 171 143 122
-12.248 6.7470002 -0.96799999 174 102 44
-12.242 6.7449999 -0.97000003 134 97 71
-12.244 6.7379999 -0.96700001 162 101 47
-12.236 6.7420001 -0.96499997 91 31 0
-12.236 6.7490001 -0.96100003 182 132 81
-12.242 6.7410002 -0.96100003 221 149 90
-12.261 6.6939998 -0.94499999 85 59 26
-12.246 6.7179999 -0.97100002 148 68 9
-12.243 6.71 -0.98000002 232 123 41
-12.248 6.7140002 -0.96899998 208 155 85
-12.244 6.7119999 -0.98400003 142 55 2
-12.248 6.71 -0.963 246 134 48
-12.257 6.7179999 -0.977 235 177 95
-12.266 6.7340002 -0.986 149 108 80
-12.259 6.7140002 -0.98799998 190 135 71
-12.265 6.7540002 -0.97500002 134 72 15
-12.276 6.7600002 -0.98299998 169 111 71
-12.208 6.691 -1.072 184 124 74
-12.206 6.6939998 -1.08 130 81 41
-12.223 6.6880002 -1.076 161 115 56
-12.254 6.6989999 -1.095 98 57 35
-12.307 6.684 -1.11 165 112 58
-12.288 6.6360002 -1.053 248 137 48
-12.27 6.6880002 -1.127 122 75 31
-12.288 6.7129998 -1.104 149 85 39
-12.268 6.7179999 -1.104 152 110 60
-12.291 6.7020001 -1.107 210 110 34
-12.253 6.73 -1.132 165 133 110
-12.207 6.7179999 -1.081 112 58 14
-12.225 6.7069998 -1.0779999 245 182 129
-12.207 6.704 -1.102 203 152 97
-12.25 6.7220001 -0.81 175 132 81
-12.265 6.7649999 -0.77600002 98 47 2
-12.229 6.7490001 -0.81800002 124 80 43
-12.231 6.7379999 -0.824 124 82 44
-12.262 6.711 -0.84600002 112 46 0
-12.263 6.724 -0.84899998 103 62 30
-12.268 6.724 -0.85799998 159 92 37
-12.262 6.7270002 -0.83200002 179 98 51
-12.256 6.6919999 -0.912 230 116 27
-12.266 6.6989999 -0.87599999 92 45 0
-12.272 6.7150002 -0.87099999 200 133 80
-12.269 6.7020001 -0.88499999 171 121 70
-12.276 6.6849999 -0.93199998 240 144 58
-12.283 6.737 -0.99400002 159 115 70
-12.252 6.6830001 -1.0089999 118 59 15
-12.252 6.6950002 -1.028 81 61 52
-12.238 6.6799998 -1.015 116 84 63
-12.251 6.678 -1.0190001 196 116 47
-12.268 6.684 -1.095 112 68 43
-12.265 6.6830001 -1.076 88 48 23
-12.26 6.6609998 -1.038 121 74 46
-12.256 6.6620002 -1.04 111 65 29
-12.297 6.658 -1.043 216 171 129
-12.289 6.678 -1.0369999 161 102 46
-12.301 6.6630001 -1.05 176 125 82
-12.288 6.6760001 -1.045 190 161 129
-12.286 6.7519999 -0.97399998 118 53 15
-12.27 6.7540002 -0.96799999 233 170 117
-12.276 6.737 -0.97299999 155 111 66
-12.261 6.671 -1.02 160 105 49
-12.254 6.677 -1.003 160 74 15
-12.268 6.6900001 -1.013 177 84 17
-12.252 6.6680002 -1.005 233 176 99
-12.268 6.711 -0.95099998 95 73 62
-12.273 6.7049999 -0.96499997 161 106 52
-12.272 6.711 -0.94499999 225 141 77
-12.277 6.7140002 -0.93300003 216 144 86
-12.254 6.7540002 -0.96100003 102 65 38
-12.261 6.7589998 -0.95999998 179 136 102
-12.258 6.7550001 -0.963 96 58 22
-12.25 6.7360001 -0.95200002 161 98 55
-12.253 6.7449999 -0.96200001 200 134 84
-12.27 6.7090001 -0.88300002 171 114 71
-12.236 6.6659999 -0.99800003 204 150 106
-12.24 6.6719999 -0.98799998 180 130 81
-12.24 6.6609998 -1.001 221 126 60
-12.31 6.6849999 -0.92900002 132 64 3
-12.297 6.6950002 -0.92699999 161 129 118
-12.24 6.7340002 -0.94800001 229 180 147
-12.256 6.7410002 -0.83499998 120 53 0
-12.237 6.73 -0.82499999 147 77 25
-12.232 6.7379999 -0.82200003 97 71 46
-12.244 6.724 -0.83200002 132 70 23
-12.254 6.7179999 -0.85100001 101 64 35
-12.258 6.71 -0.84299999 146 63 9
-12.241 6.7010002 -1.0549999 109 42 0
-12.245 6.6989999 -1.054 201 114 61
-12.217 6.7150002 -1.058 222 129 52
-12.206 6.7150002 -1.063 184 74 0
-12.208 6.7090001 -1.056 235 189 137
-12.223 6.697 -1.059 166 108 58
-12.225 6.6950002 -1.059 152 103 71
-12.228 6.6950002 -1.057 191 154 101
-12.22 6.6859999 -1.062 223 184 145
-12.207 6.6880002 -1.067 231 150 59
-12.22 6.6830001 -1.0700001 190 146 117
-12.225 6.6799998 -1.062 137 76 21
-12.264 6.6560001 -1.034 239 127 41
-12.238 6.6799998 -0.99400002 105 74 54
-12.24 6.6789999 -0.98699999 159 107 67
-12.235 6.7319999 -1.062 177 121 74
-12.235 6.7140002 -1.052 178 110 61
-12.229 6.7129998 -1.053 215 124 67
-12.229 6.7210002 -1.061 251 184 93
-12.224 6.724 -1.068 217 124 67
-12.239 6.7129998 -1.053 129 65 17
-12.255 6.7049999 -1.005 124 68 31
-12.249 6.711 -0.986 127 89 53
-12.266 6.7129998 -0.99699998 155 86 19
-12.255 6.6900001 -1 174 105 48
-12.23 6.7140002 -1.0549999 193 123 63
-12.275 6.6939998 -0.99400002 187 121 73
-12.28 6.7090001 -0.98799998 208 163 122
-12.279 6.7059999 -0.99599999 204 143 63
-12.307 6.6919999 -1.112 249 200 124
-12.3 6.691 -1.105 239 189 126
-12.268 6.7090001 -1.107 158 95 44
-12.263 6.7480001 -0.97600001 141 80 26
-12.235 6.7309999 -0.94499999 153 108 66
-12.271 6.7049999 -0.95599997 148 66 10
-12.273 6.723 -0.98400003 179 125 81
-12.266 6.7090001 -0.97899997 217 146 90
-12.273 6.7350001 -0.97500002 246 191 134
-12.265 6.7639999 -0.97399998 186 130 71
-12.268 6.7610002 -0.958 227 151 93
-12.263 6.7529998 -0.95700002 183 136 92
-12.203 6.6989999 -1.073 160 94 46
-12.267 6.691 -1.089 162 101 54
-12.309 6.638 -1.0650001 189 103 30
-12.312 6.6370001 -1.064 150 86 25
-12.315 6.625 -1.057 241 172 94
-12.325 6.6240001 -1.058 236 169 88
-12.332 6.619 -1.054 149 111 88
-12.272 6.6900001 -1.118 172 123 80
-12.272 6.6900001 -1.109 195 137 87
-12.273 6.6929998 -1.109 223 189 164
-12.214 6.71 -1.095 238 197 145
-12.227 6.7199998 -1.066 183 121 70
-12.244 6.756 -0.82800001 208 151 108
-12.259 6.7280002 -0.815 173 110 66
-12.261 6.6989999 -0.81400001 207 138 79
-12.243 6.724 -0.81199998 188 132 95
-12.244 6.7319999 -0.80000001 154 98 51
-12.247 6.7389998 -0.80000001 153 108 75
-12.254 6.7350001 -0.79799998 145 109 83
-12.262 6.7270002 -0.84500003 203 125 79
-12.261 6.7360001 -0.85000002 96 57 28
-12.259 6.7030001 -0.824 158 94 46
-12.242 6.71 -0.921 107 60 16
-12.258 6.6929998 -0.83899999 159 87 37
-12.256 6.7049999 -0.84500003 156 83 28
-12.317 6.691 -0.93599999 246 166 105
-12.265 6.691 -0.91500002 170 107 54
-12.271 6.6880002 -0.91799998 126 78 40
-12.266 6.6929998 -0.898 253 176 108
-12.271 6.6989999 -0.91100001 117 83 48
-12.258 6.6929998 -0.89099997 176 130 94
-12.26 6.6960001 -0.89700001 255 205 133
-12.265 6.7059999 -0.90499997 205 144 79
-12.266 6.7129998 -0.89600003 213 166 120
-12.266 6.7129998 -0.90499997 151 100 53
-12.274 6.6919999 -0.91799998 216 164 104
-12.266 6.691 -0.93400002 181 104 58
-12.274 6.697 -1.013 255 214 132
-12.281 6.6960001 -1.025 136 92 47
-12.278 6.6929998 -1.015 242 172 112
-12.271 6.6960001 -1.031 149 114 92
-12.269 6.6939998 -1.028 132 60 12
-12.272 6.697 -1.029 167 86 41
-12.285 6.6570001 -1.0549999 146 77 36
-12.301 6.6459999 -1.057 171 109 50
-12.291 6.6560001 -1.05 217 139 75
-12.249 6.6849999 -1.052 248 159 91
-12.275 6.6669998 -1.046 237 157 88
-12.289 6.6339998 -1.046 169 119 84
-12.287 6.6360002 -1.0470001 235 173 124
-12.286 6.7589998 -0.972 179 108 52
-12.275 6.7399998 -0.98699999 196 140 79
-12.266 6.6929998 -1.038 138 61 9
-12.261 6.7119999 -0.96899998 249 187 110
-12.264 6.7150002 -0.94700003 117 103 102
-12.265 6.7379999 -0.94 101 71 43
-12.269 6.7140002 -0.88599998 128 69 25
-12.281 6.7059999 -0.92000002 152 108 79
-12.295 6.7030001 -0.926 237 179 116
-12.24 6.6609998 -1.01 236 160 98
-12.265 6.6890001 -0.99900001 177 85 12
-12.27 6.7020001 -0.96899998 164 110 38
-12.282 6.7249999 -0.98699999 184 141 107
-12.274 6.6939998 -0.97399998 208 141 96
-12.274 6.6939998 -0.97100002 247 199 135
-12.267 6.697 -0.95899999 129 65 3
-12.255 6.6890001 -0.95999998 179 140 111
-12.275 6.6849999 -0.97299999 202 140 93
-12.27 6.6799998 -0.97399998 210 142 71
-12.269 6.6989999 -0.958 100 73 66
-12.28 6.6869998 -0.94099998 194 166 145
-12.228 6.7160001 -0.884 73 42 13
-12.222 6.7189999 -0.88 158 90 43
-12.223 6.7210002 -0.884 134 98 74
-12.227 6.7119999 -0.87599999 213 106 28
-12.223 6.723 -0.88700002 124 72 32
-12.226 6.75 -0.84600002 150 82 37
-12.257 6.7420001 -0.88200003 141 87 41
-12.253 6.737 -0.87099999 104 66 27
-12.251 6.7389998 -0.87 94 61 44
-12.235 6.7509999 -0.85100001 199 170 128
-12.23 6.7459998 -0.85900003 228 122 60
-12.235 6.7529998 -0.866 154 61 2
-12.227 6.7210002 -0.87800002 175 114 70
-12.248 6.7280002 -0.84100002 109 58 31
-12.234 6.7220001 -0.866 237 142 76
-12.24 6.7249999 -0.86500001 87 61 48
-12.225 6.7389998 -0.86299998 91 58 39
-12.217 6.7399998 -0.86500001 188 91 23
-12.249 6.678 -0.97100002 255 214 159
-12.243 6.6890001 -0.96399999 197 139 91
-12.243 6.684 -0.97299999 187 119 56
-12.249 6.6760001 -0.98100001 213 133 80
-12.229 6.71 -1.053 166 109 66
-12.22 6.7010002 -1.058 188 136 99
-12.235 6.7010002 -1.073 240 157 77
-12.248 6.6919999 -1.0599999 160 102 54
-12.223 6.7199998 -1.064 211 116 34
-12.213 6.7090001 -1.058 137 80 27
-12.214 6.7179999 -1.066 202 139 85
-12.272 6.7199998 -0.99400002 180 118 71
-12.278 6.7049999 -1.002 110 57 13
-12.221 6.6999998 -1.058 215 144 90
-12.264 6.6939998 -1.0549999 191 124 79
-12.253 6.6939998 -1.046 150 92 46
-12.274 6.697 -1.049 197 149 113
-12.267 6.6929998 -1.063 155 83 24
-12.272 6.6529999 -1.03 121 69 22
-12.261 6.6680002 -1.027 219 157 108
-12.255 6.6570001 -1.026 206 143 92
-12.246 6.6810002 -1.008 166 123 80
-12.247 6.691 -0.96899998 158 104 40
-12.246 6.6859999 -0.98000002 174 112 51
-12.25 6.6960001 -0.98199999 168 105 38
-12.237 6.7080002 -1.0549999 218 152 94
-12.25 6.6929998 -1.0319999 171 69 0
-12.234 6.7160001 -1.057 223 130 63
-12.309 6.6240001 -1.056 193 148 117
-12.273 6.6919999 -1.0039999 132 82 47
-12.271 6.691 -0.99900001 204 144 71
-12.278 6.677 -1.03 157 132 102
-12.27 6.6890001 -0.98900002 198 141 64
-12.276 6.6849999 -1.105 206 107 26
-12.286 6.6849999 -1.102 218 152 92
-12.29 6.6849999 -1.105 203 146 91
-12.273 6.7090001 -1.099 136 59 5
-12.272 6.7020001 -1.099 189 152 99
-12.275 6.7030001 -1.098 128 79 49
-12.303 6.6919999 -1.1 241 176 118
-12.283 6.697 -1.033 179 148 120
-12.283 6.6810002 -1.045 182 153 121
-12.287 6.6880002 -1.04 123 65 25
-12.281 6.6859999 -1.066 241 182 116
-12.277 6.652 -1.036 134 91 56
-12.245 6.7470002 -0.96899998 120 71 41
-12.251 6.7049999 -0.96799999 255 198 122
-12.28 6.7340002 -0.99699998 126 65 20
-12.262 6.7160001 -0.97600001 148 103 61
-12.268 6.7319999 -0.98400003 212 159 115
-12.274 6.7610002 -0.96100003 188 109 52
-12.266 6.7639999 -0.958 205 135 83
-12.265 6.7420001 -0.85299999 138 67 21
-12.196 6.6989999 -1.079 193 82 0
-12.271 6.691 -1.077 176 124 76
-12.272 6.6890001 -1.071 185 116 57
-12.267 6.691 -1.076 147 79 32
-12.266 6.6929998 -1.099 213 169 140
-12.269 6.6869998 -1.0829999 199 161 125
-12.303 6.651 -1.049 199 143 92
-12.31 6.6420002 -1.058 147 92 28
-12.324 6.6220002 -1.053 233 146 79
-12.298 6.6360002 -1.0420001 152 63 0
-12.21 6.7199998 -1.073 231 162 85
-12.205 6.7199998 -1.072 189 148 104
-12.223 6.7129998 -1.072 204 141 90
-12.232 6.7160001 -1.062 98 64 39
-12.242 6.7249999 -1.062 168 102 50
-12.261 6.7360001 -0.80199999 151 103 67
-12.26 6.7389998 -0.80199999 193 119 74
-12.256 6.7449999 -0.801 163 98 58
-12.245 6.7360001 -0.80800003 238 186 139
-12.24 6.7360001 -0.81999999 157 75 25
-12.259 6.7119999 -0.85299999 176 114 55
-12.261 6.7189999 -0.85799998 135 50 0
-12.259 6.7309999 -0.84100002 104 63 35
-12.257 6.7049999 -0.82099998 148 83 25
-12.259 6.6989999 -0.88499999 122 74 38
-12.261 6.697 -0.88999999 255 208 135
-12.251 6.691 -0.91799998 93 57 23
-12.25 6.71 -0.90700001 107 73 45
-12.241 6.7129998 -0.90399998 95 58 29
-12.247 6.7080002 -0.86900002 83 50 17
-12.269 6.7010002 -0.88800001 253 179 108
-12.267 6.7140002 -0.89099997 215 145 93
-12.283 6.691 -0.92000002 128 91 49
-12.258 6.698 -0.93000001 164 84 49
-12.272 6.6859999 -0.926 59 30 16
-12.261 6.711 -0.99199998 147 105 80
-12.275 6.6880002 -1.025 253 187 129
-12.283 6.6830001 -1.0319999 178 136 122
-12.27 6.6830001 -1.071 167 74 7
-12.264 6.6810002 -1.069 191 136 95
-12.271 6.6810002 -1.0650001 161 102 46
-12.246 6.6929998 -1.049 254 148 74
-12.245 6.684 -1.0650001 188 98 22
-12.257 6.678 -1.058 230 144 83
-12.276 6.6900001 -1.058 230 172 122
-12.275 6.691 -1.051 147 99 61
-12.274 6.7379999 -0.98299998 205 140 84
-12.268 6.737 -0.97299999 149 87 48
-12.266 6.7069998 -0.95599997 107 54 2
-12.27 6.7179999 -0.90799999 180 127 83
-12.263 6.7290001 -0.90200001 102 48 14
-12.264 6.7160001 -0.89700001 174 121 79
-12.289 6.6999998 -0.94700003 190 124 72
-12.29 6.7020001 -0.93800002 185 123 64
-12.306 6.7010002 -0.93599999 229 176 122
-12.298 6.6960001 -0.94499999 189 109 50
-12.292 6.7059999 -0.93199998 133 71 14
-12.268 6.7319999 -0.93300003 129 71 25
-12.269 6.737 -0.93199998 159 92 47
-12.244 6.7480001 -0.95999998 145 78 35
-12.247 6.7420001 -0.94800001 112 67 25
-12.241 6.7449999 -0.958 120 78 53
-12.254 6.7410002 -0.94499999 162 124 88
-12.253 6.7360001 -0.93400002 70 23 0
-12.239 6.7399998 -0.95300001 138 91 45
-12.259 6.717 -0.94199997 148 101 71
-12.261 6.7069998 -0.94400001 78 42 20
-12.242 6.7379999 -0.94499999 218 151 98
-12.241 6.6609998 -1.007 212 150 101
-12.315 6.6929998 -0.93400002 215 135 66
-12.314 6.6989999 -0.93599999 186 99 32
-12.276 6.6999998 -0.98799998 182 121 40
-12.271 6.6950002 -0.98699999 210 164 115
-12.275 6.7010002 -0.954 108 55 21
-12.274 6.6960001 -0.94700003 96 90 92
-12.263 6.6950002 -0.963 87 59 22
-12.22 6.75 -0.83499998 90 59 31
-12.264 6.7160001 -0.88700002 177 120 91
-12.256 6.7249999 -0.89099997 121 66 35
-12.23 6.7459998 -0.87599999 165 63 0
-12.22 6.744 -0.86299998 140 69 25
-12.235 6.7610002 -0.87300003 146 114 91
-12.241 6.7220001 -0.81599998 108 64 27
-12.252 6.723 -0.82999998 232 176 127
-12.253 6.7410002 -0.83099997 159 85 38
-12.252 6.7410002 -0.82700002 95 48 18
-12.244 6.7509999 -0.85100001 222 129 70
-12.251 6.7459998 -0.85399997 111 70 42
-12.243 6.6739998 -0.98299998 203 150 98
-12.256 6.6880002 -0.96600002 214 169 112
-12.254 6.6999998 -1.0930001 204 109 25
-12.213 6.717 -1.064 215 145 59
-12.208 6.7010002 -1.0650001 128 45 0
-12.255 6.6620002 -1.0140001 152 99 49
-12.252 6.6919999 -0.99000001 153 107 74
-12.246 6.6810002 -0.995 141 97 58
-12.234 6.7129998 -1.0599999 129 54 0
-12.26 6.6869998 -1.039 150 95 54
-12.223 6.7150002 -1.059 189 110 44
-12.31 6.631 -1.058 235 155 102
-12.28 6.7140002 -1.097 202 136 86
-12.282 6.6929998 -1.087 165 88 10
-12.282 6.711 -1.1 174 79 13
-12.291 6.6849999 -1.035 192 106 31
-12.281 6.698 -1.04 177 110 57
-12.275 6.6999998 -1.039 144 87 44
-12.284 6.684 -1.033 171 96 41
-12.28 6.6729999 -1.045 137 83 36
-12.28 6.652 -1.035 230 166 122
-12.288 6.6539998 -1.039 241 185 100
-12.252 6.6989999 -0.963 146 109 67
-12.273 6.7030001 -1.041 200 160 108
-12.252 6.7129998 -0.98100001 121 67 31
-12.267 6.7090001 -0.99900001 153 103 66
-12.273 6.6919999 -1.09 199 143 92
-12.302 6.6589999 -1.0470001 210 129 63
-12.31 6.6529999 -1.046 216 162 116
-12.31 6.6420002 -1.051 230 173 104
-12.306 6.6469998 -1.045 255 200 125
-12.306 6.631 -1.057 185 141 102
-12.296 6.631 -1.0470001 171 107 61
-12.286 6.691 -1.1059999 153 91 34
-12.292 6.6900001 -1.097 255 220 162
-12.249 6.7459998 -0.82599998 87 39 1
-12.253 6.7259998 -0.80900002 197 96 28
-12.24 6.7529998 -0.81900001 171 128 96
-12.247 6.744 -0.81999999 133 84 51
-12.258 6.7059999 -0.847 150 98 51
-12.259 6.7080002 -0.85399997 107 60 14
-12.256 6.7220001 -0.82499999 172 108 62
-12.253 6.7220001 -0.81199998 148 78 26
-12.25 6.7080002 -0.88800001 158 87 35
-12.252 6.7049999 -0.87699997 231 188 145
-12.237 6.7059999 -0.88200003 224 126 61
-12.234 6.7129998 -0.88599998 198 104 50
-12.237 6.7140002 -0.87599999 88 48 23
-12.282 6.6960001 -0.92000002 221 180 134
-12.268 6.6869998 -0.93000001 195 143 106
-12.249 6.6989999 -0.98699999 107 48 8
-12.273 6.6939998 -1.006 255 202 128
-12.269 6.7030001 -1.005 199 160 131
-12.269 6.698 -1.012 141 52 0
-12.27 6.697 -1.015 137 62 20
-12.274 6.684 -1.067 163 108 51
-12.237 6.7119999 -1.051 221 160 105
-12.256 6.6900001 -1.069 228 162 102
-12.253 6.6830001 -1.062 138 78 28
-12.274 6.6929998 -1.057 177 118 58
-12.256 6.7059999 -0.93000001 114 87 70
-12.243 6.7160001 -0.93400002 147 80 37
-12.305 6.6950002 -0.94499999 176 88 24
-12.298 6.7030001 -0.93199998 169 109 55
-12.263 6.7309999 -0.90600002 105 66 33
-12.254 6.7399998 -0.889 94 61 44
-12.24 6.7199998 -0.92000002 121 69 19
-12.252 6.7470002 -0.95300001 204 128 68
-12.257 6.7360001 -0.95099998 138 79 37
-12.243 6.7379999 -0.95300001 200 152 114
-12.243 6.7340002 -0.93300003 152 112 76
-12.259 6.6859999 -1.001 119 58 13
-12.27 6.6880002 -0.98000002 209 159 86
-12.305 6.6999998 -0.926 243 184 124
-12.292 6.6929998 -0.94400001 204 136 71
-12.25 6.7160001 -0.93400002 141 87 49
-12.25 6.7309999 -0.90100002 126 57 15
-12.249 6.7340002 -0.89600003 128 78 41
-12.265 6.7389998 -0.86000001 213 119 58
-12.262 6.7259998 -0.87400001 151 61 8
-12.241 6.7360001 -0.85100001 183 91 26
-12.235 6.7410002 -0.84600002 184 126 88
-12.237 6.7389998 -0.84500003 163 112 81
-12.231 6.744 -0.84799999 104 55 12
-12.227 6.7449999 -0.84299999 87 65 54
-12.256 6.7340002 -0.88700002 137 80 51
-12.258 6.7049999 -0.898 153 102 39
-12.255 6.7379999 -0.83200002 158 75 21
-12.237 6.756 -0.87 111 65 29
-12.258 6.6830001 -0.977 178 107 41
-12.259 6.6820002 -0.98000002 246 168 106
-12.201 6.704 -1.072 171 111 59
-12.271 6.6690001 -1.031 141 85 38
-12.263 6.6719999 -1.024 171 118 78
-12.265 6.678 -1.026 163 105 57
-12.288 6.7010002 -1.096 165 65 0
-12.266 6.7329998 -1.057 174 112 61
-12.279 6.698 -1.096 130 70 16
-12.297 6.6440001 -1.0420001 168 125 83
-12.31 6.6430001 -1.049 219 150 93
-12.316 6.6329999 -1.058 223 154 77
-12.234 6.7579999 -0.82300001 106 60 36
-12.238 6.7519999 -0.81800002 128 105 53
-12.246 6.7459998 -0.82200003 91 38 4
-12.241 6.743 -0.81300002 106 65 43
-12.256 6.73 -0.81099999 147 99 61
-12.248 6.7280002 -0.80400002 166 114 74
-12.254 6.7080002 -0.86799997 182 121 64
-12.249 6.7010002 -0.82700002 164 102 51
-12.263 6.724 -0.86799997 126 86 51
-12.242 6.7119999 -0.88599998 120 57 6
-12.236 6.71 -0.87800002 120 52 7
-12.271 6.7030001 -0.91399997 226 138 74
-12.277 6.6919999 -0.91799998 168 109 67
-12.243 6.7259998 -0.90799999 88 62 47
-12.263 6.7270002 -0.90799999 195 151 114
-12.262 6.7010002 -0.94499999 135 96 53
-12.273 6.7080002 -0.94400001 125 73 25
-12.262 6.684 -0.986 222 145 91
-12.266 6.6929998 -1.016 129 57 7
-12.276 6.6849999 -1.0829999 198 97 29
-12.279 6.7350001 -0.99000001 177 143 116
-12.253 6.7290001 -0.90399998 110 57 26
-12.255 6.7290001 -0.91000003 79 33 7
-12.249 6.7270002 -0.91100001 187 80 2
-12.246 6.7280002 -0.90200001 114 70 45
-12.254 6.7470002 -0.96100003 209 136 85
-12.257 6.7399998 -0.94800001 139 88 41
-12.245 6.743 -0.954 135 101 73
-12.241 6.7379999 -0.95200002 190 117 62
-12.242 6.7350001 -0.93900001 185 136 103
-12.241 6.724 -0.935 121 68 34
-12.243 6.7379999 -0.94499999 186 143 111
-12.248 6.7340002 -0.93400002 196 157 128
-12.278 6.6960001 -0.94700003 184 141 96
-12.3 6.704 -0.92799997 147 67 0
-12.299 6.7059999 -0.926 156 100 53
-12.297 6.6989999 -0.93900001 161 100 53
-12.245 6.7309999 -0.94400001 115 73 35
-12.237 6.7189999 -0.88999999 195 132 89
-12.245 6.7470002 -0.85299999 131 62 21
-12.238 6.7540002 -0.84399998 198 101 46
-12.254 6.737 -0.88999999 205 137 88
-12.231 6.7509999 -0.86900002 101 69 56
-12.238 6.7519999 -0.87800002 108 72 46
-12.234 6.7449999 -0.88300002 74 40 12
-12.24 6.7529998 -0.88099998 161 113 77
-12.24 6.7329998 -0.89499998 103 62 40
-12.243 6.7470002 -0.88700002 154 105 65
-12.251 6.7459998 -0.88499999 84 46 23
-12.232 6.6880002 -1.053 179 114 56
-12.253 6.6719999 -0.99299997 186 113 70
-12.194 6.711 -1.079 169 113 64
-12.212 6.697 -1.063 215 106 24
-12.28 6.6700001 -1.0319999 164 109 70
-12.282 6.691 -1.084 125 79 53
-12.298 6.6960001 -1.098 236 153 87
-12.279 6.6890001 -1.073 182 102 31
-12.283 6.6890001 -1.096 221 157 96
-12.25 6.7399998 -0.81400001 118 72 39
-12.238 6.7140002 -0.88700002 94 58 42
-12.279 6.698 -0.91900003 210 161 128
-12.232 6.7259998 -0.89300001 94 61 42
-12.266 6.7179999 -0.921 109 58 29
-12.265 6.6919999 -1.015 151 77 14
-12.255 6.6799998 -1.057 122 86 64
-12.275 6.691 -1.058 179 123 76
-12.256 6.7309999 -0.91799998 149 77 27
-12.25 6.7340002 -0.92799997 105 68 41
-12.243 6.7270002 -0.92799997 246 135 54
-12.238 6.7329998 -0.94400001 204 167 140
-12.292 6.6989999 -0.94199997 166 104 57
-12.246 6.7319999 -0.94499999 252 219 178
-12.241 6.73 -0.898 114 61 29
-12.24 6.7509999 -0.852 76 40 14
-12.228 6.7449999 -0.86900002 124 78 44
-12.24 6.757 -0.87699997 141 92 52
-12.23 6.7399998 -0.88099998 166 96 60
-12.239 6.7389998 -0.889 124 80 53
-12.235 6.7399998 -0.84399998 89 39 2
-12.196 6.7129998 -1.079 158 87 35
-12.298 6.691 -1.097 232 165 97
-12.283 6.7010002 -1.098 176 144 105
-12.265 6.7160001 -0.86799997 128 62 2
-12.249 6.71 -0.90200001 113 80 47
-12.283 6.7020001 -0.93699998 186 122 61
-12.26 6.7280002 -0.912 122 70 33
-12.243 6.7150002 -0.92299998 81 41 16
-12.24 6.7210002 -0.92199999 83 53 27
-12.254 6.7319999 -0.92699999 83 66 58
-12.258 6.7309999 -0.92900002 98 52 28
-12.245 6.7449999 -0.875 79 63 40
-12.233 6.7340002 -0.87699997 115 79 53
-12.195 6.7069998 -1.074 236 195 143
-12.276 6.6849999 -1.094 191 89 14
-12.278 6.7080002 -0.92000002 153 108 66
-12.265 6.7220001 -0.912 156 95 50
-12.262 6.723 -0.91500002 178 98 45
-12.242 6.7509999 -0.87900001 122 87 59
-12.244 6.7459998 -0.88700002 151 92 58
-12.243 6.7199998 -0.92900002 253 162 69
-12.259 6.7290001 -0.91799998 158 95 44
0 0 0 1 0 0 0 1 0 0 0 1 0 0 0 0 0 824 1 0 0
