ply
format ascii 1.0
comment PCL generated
element vertex 612
property float x
property float y
property float z
property uchar red
property uchar green
property uchar blue
element camera 1
property float view_px
property float view_py
property float view_pz
property float x_axisx
property float x_axisy
property float x_axisz
property float y_axisx
property float y_axisy
property float y_axisz
property float z_axisx
property float z_axisy
property float z_axisz
property float focal
property float scalex
property float scaley
property float centerx
property float centery
property int viewportx
property int viewporty
property float k1
property float k2
end_header
8.7550001 9.7799997 -0.51899999 108 74 47
8.7510004 9.7790003 -0.51899999 199 139 102
8.7489996 9.7600002 -0.514 145 98 46
8.7349997 9.7679996 -0.514 36 17 11
8.6529999 9.7740002 -0.82099998 105 69 47
8.6599998 9.7790003 -0.815 111 73 50
8.6459999 9.7770004 -0.81900001 79 42 15
8.7299995 9.7679996 -0.52100003 77 46 26
8.7370005 9.7740002 -0.523 148 119 53
8.7259998 9.7609997 -0.51599997 120 100 91
8.7250004 9.7639999 -0.51800001 90 46 7
8.757 9.7740002 -0.51899999 80 23 0
8.7559996 9.7580004 -0.51899999 219 141 92
8.75 9.7440004 -0.52700001 73 50 44
8.7539997 9.7419996 -0.52899998 182 131 78
8.7600002 9.7519999 -0.528 220 191 151
8.7690001 9.7639999 -0.81400001 59 27 14
8.7770004 9.7720003 -0.801 131 88 46
8.7779999 9.7659998 -0.80299997 107 77 66
8.7609997 9.7519999 -0.54500002 213 184 166
8.7489996 9.7460003 -0.54799998 123 112 108
8.7469997 9.7449999 -0.53200001 128 79 39
8.7309999 9.7360001 -0.54400003 187 140 84
8.6730003 9.7889996 -0.79799998 79 50 32
8.684 9.7860003 -0.80199999 117 87 76
8.677 9.783 -0.80199999 110 68 43
8.6669998 9.7840004 -0.81 86 60 43
8.6660004 9.7840004 -0.80900002 109 72 46
8.6750002 9.7849998 -0.82999998 136 90 74
8.6829996 9.7799997 -0.79799998 111 80 62
8.7449999 9.7799997 -0.52399999 93 58 36
8.7460003 9.7679996 -0.51899999 171 100 54
8.7600002 9.7629995 -0.51899999 130 77 35
8.7159996 9.7250004 -0.88300002 73 36 18
8.7139997 9.7189999 -0.89899999 121 80 58
8.7010002 9.7089996 -0.889 120 82 59
8.6859999 9.7729998 -0.81599998 122 79 63
8.6929998 9.776 -0.80400002 115 79 57
8.6870003 9.7790003 -0.81999999 140 106 78
8.6809998 9.7819996 -0.82599998 106 63 44
8.6820002 9.7790003 -0.82599998 110 80 72
8.7320004 9.7320004 -0.85799998 97 56 36
8.7259998 9.7200003 -0.85399997 79 41 28
8.7390003 9.7270002 -0.84299999 78 38 13
8.7620001 9.7609997 -0.81699997 98 66 51
8.7550001 9.7650003 -0.81699997 118 78 66
8.7130003 9.7469997 -0.69 67 32 10
8.71 9.7410002 -0.69700003 133 80 48
8.7209997 9.7519999 -0.69599998 87 65 52
8.7270002 9.7539997 -0.699 140 84 51
8.7130003 9.7510004 -0.69800001 136 72 36
8.7390003 9.7810001 -0.52600002 159 102 49
8.6669998 9.7849998 -0.801 108 71 45
8.6660004 9.7729998 -0.81400001 134 87 45
8.6750002 9.7749996 -0.80299997 93 59 34
8.6890001 9.7810001 -0.80400002 120 84 52
8.7360001 9.7749996 -0.81400001 121 74 48
8.7299995 9.7729998 -0.81599998 63 37 24
8.7189999 9.7690001 -0.80400002 119 85 57
8.71 9.809 -0.70899999 91 43 21
8.7279997 9.802 -0.71899998 44 14 4
8.7130003 9.8120003 -0.70899999 70 34 0
8.7349997 9.783 -0.722 75 43 30
8.7379999 9.7819996 -0.71399999 81 61 54
8.7410002 9.8059998 -0.71700001 103 34 0
8.7299995 9.7770004 -0.73400003 66 34 21
8.7309999 9.7709999 -0.74199998 48 20 8
8.7340002 9.776 -0.73400003 65 41 37
8.7130003 9.7229996 -0.89200002 80 56 44
8.7150002 9.724 -0.89399999 88 51 32
8.7110004 9.724 -0.89399999 114 81 62
8.7019997 9.7159996 -0.88599998 77 42 20
8.7060003 9.7220001 -0.898 87 47 22
8.6960001 9.7150002 -0.889 104 67 41
8.6709995 9.7770004 -0.82700002 145 116 84
8.6750002 9.776 -0.83399999 50 31 25
8.677 9.7770004 -0.84100002 124 84 58
8.6450005 9.7690001 -0.82099998 51 28 14
8.6599998 9.7700005 -0.82200003 175 142 123
8.6730003 9.7589998 -0.81199998 115 84 53
8.6780005 9.7700005 -0.83700001 130 101 95
8.6739998 9.7609997 -0.80900002 119 75 46
8.7189999 9.7650003 -0.815 127 55 15
8.71 9.7609997 -0.81199998 103 58 35
8.7340002 9.7320004 -0.85399997 90 56 31
8.6929998 9.7299995 -0.71600002 112 45 16
8.6949997 9.7360001 -0.71600002 115 99 86
8.6870003 9.7360001 -0.71600002 86 53 36
8.7080002 9.7410002 -0.69499999 95 32 1
8.7040005 9.7469997 -0.699 46 26 17
8.7150002 9.75 -0.67900002 140 102 65
8.7480001 9.7460003 -0.52899998 81 63 53
8.6940002 9.7860003 -0.70999998 95 25 0
8.6929998 9.7690001 -0.70999998 140 96 59
8.6969995 9.7869997 -0.69700003 104 37 11
8.6850004 9.7709999 -0.72000003 48 16 1
8.7069998 9.7790003 -0.70499998 84 55 49
8.7309999 9.7709999 -0.528 103 83 72
8.6829996 9.7779999 -0.79500002 130 88 64
8.7629995 9.7539997 -0.54000002 171 128 93
8.7700005 9.7559996 -0.53500003 96 68 54
8.7659998 9.757 -0.52999997 116 98 94
8.757 9.7729998 -0.52700001 90 56 44
8.7559996 9.7770004 -0.52200001 80 54 39
8.7150002 9.7639999 -0.80199999 115 43 5
8.717 9.7679996 -0.80000001 69 45 33
8.7720003 9.7690001 -0.80000001 130 97 82
8.7270002 9.7639999 -0.75300002 73 47 34
8.724 9.7709999 -0.75800002 81 59 45
8.7279997 9.7629995 -0.75099999 64 36 22
8.7200003 9.7720003 -0.764 65 39 22
8.7130003 9.7729998 -0.75300002 69 28 6
8.7379999 9.7700005 -0.81599998 101 57 28
8.7349997 9.7589998 -0.82999998 112 84 70
8.7349997 9.7629995 -0.847 74 50 24
8.7229996 9.7659998 -0.82800001 123 54 15
8.7229996 9.7969999 -0.71499997 57 31 18
8.7049999 9.7889996 -0.71200001 76 39 20
8.7089996 9.7819996 -0.72399998 41 19 8
8.7019997 9.7700005 -0.73500001 250 199 154
8.6870003 9.7530003 -0.73299998 90 86 77
8.6809998 9.7580004 -0.73299998 95 57 34
8.691 9.7480001 -0.72600001 84 44 19
8.6929998 9.7519999 -0.70700002 98 61 43
8.7019997 9.7440004 -0.69099998 110 71 40
8.6999998 9.75 -0.69 59 32 2
8.6859999 9.7600002 -0.71899998 129 98 80
8.684 9.7620001 -0.72100002 96 63 32
8.7440004 9.7530003 -0.52600002 254 192 119
8.7580004 9.7639999 -0.52399999 141 108 73
8.7320004 9.7779999 -0.71799999 59 34 30
8.7329998 9.7779999 -0.73199999 69 39 28
8.7379999 9.8059998 -0.71899998 75 38 11
8.7270002 9.7799997 -0.72500002 122 56 22
8.7200003 9.7790003 -0.73799998 116 53 18
8.71 9.7799997 -0.73100001 90 52 29
8.677 9.7679996 -0.83200002 117 68 38
8.6780005 9.7740002 -0.83499998 148 110 91
8.658 9.7740002 -0.81900001 97 61 35
8.6960001 9.71 -0.88099998 92 59 42
8.677 9.7220001 -0.89099997 92 45 17
8.7119999 9.7209997 -0.861 70 52 40
8.7189999 9.7639999 -0.82300001 198 127 73
8.7139997 9.7559996 -0.82200003 78 41 15
8.717 9.7659998 -0.83600003 134 97 68
8.6859999 9.7810001 -0.80599999 68 41 30
8.7060003 9.7410002 -0.69300002 68 34 9
8.7049999 9.7469997 -0.67299998 99 75 47
8.7270002 9.8109999 -0.713 97 75 64
8.7180004 9.7539997 -0.639 111 80 49
8.7119999 9.7460003 -0.634 90 61 47
8.7060003 9.7379999 -0.64600003 103 68 46
8.7200003 9.7580004 -0.71700001 136 96 60
8.7329998 9.7589998 -0.70099998 118 101 94
8.7290001 9.7670002 -0.74299997 49 25 15
8.7329998 9.8059998 -0.713 207 178 170
8.6899996 9.7539997 -0.65100002 59 35 33
8.6789999 9.7530003 -0.634 80 49 21
8.6870003 9.7650003 -0.63300002 118 90 66
8.691 9.7720003 -0.64200002 125 116 119
8.6890001 9.7629995 -0.634 95 59 23
8.6920004 9.7290001 -0.574 94 45 5
8.6859999 9.7290001 -0.57499999 163 133 109
8.6990004 9.724 -0.579 137 88 45
8.7259998 9.7629995 -0.54000002 105 69 53
8.7340002 9.7519999 -0.546 179 124 85
8.724 9.7670002 -0.55599999 103 34 1
8.7290001 9.7440004 -0.542 156 136 127
8.6999998 9.7449999 -0.57700002 77 51 36
8.7130003 9.7530003 -0.58399999 134 105 65
8.7010002 9.743 -0.579 118 83 55
8.7010002 9.7559996 -0.57499999 119 76 41
8.6949997 9.7449999 -0.56999999 83 58 54
8.6780005 9.7399998 -0.56 127 86 42
8.6680002 9.7379999 -0.56599998 103 50 19
8.6730003 9.7309999 -0.56400001 153 123 99
8.6899996 9.7770004 -0.79400003 140 96 71
8.7139997 9.7639999 -0.76300001 111 48 15
8.7089996 9.7659998 -0.74800003 68 38 12
8.6850004 9.7709999 -0.80000001 56 21 2
8.7060003 9.7670002 -0.74400002 70 28 6
8.6680002 9.7849998 -0.79400003 78 41 22
8.7600002 9.7659998 -0.81300002 117 75 37
8.7510004 9.7639999 -0.80500001 123 85 62
8.7469997 9.7589998 -0.801 171 122 90
8.7279997 9.7629995 -0.82499999 157 130 111
8.7030001 9.7790003 -0.72600001 98 63 43
8.7089996 9.7969999 -0.70700002 85 49 35
8.6999998 9.8009996 -0.69700003 66 36 10
8.7299995 9.79 -0.713 102 59 25
8.7349997 9.783 -0.71200001 142 107 87
8.724 9.7889996 -0.71799999 100 64 48
8.6829996 9.7460003 -0.71899998 111 74 47
8.6949997 9.7460003 -0.722 143 84 50
8.6960001 9.7510004 -0.70700002 150 94 61
8.6759996 9.7480001 -0.72399998 68 38 10
8.757 9.7489996 -0.81699997 127 81 57
8.7580004 9.7469997 -0.81300002 121 92 84
8.7449999 9.7440004 -0.82200003 162 97 57
8.7299995 9.7740002 -0.73000002 61 36 32
8.7069998 9.7469997 -0.70700002 168 127 95
8.7069998 9.75 -0.722 75 51 39
8.684 9.7270002 -0.89200002 78 47 26
8.6990004 9.7349997 -0.89099997 87 49 26
8.677 9.7250004 -0.89200002 97 78 74
8.6940002 9.7309999 -0.88300002 102 61 39
8.7049999 9.7290001 -0.89200002 73 47 30
8.6780005 9.7679996 -0.83499998 117 80 51
8.6780005 9.7609997 -0.81599998 155 108 66
8.6890001 9.7639999 -0.80400002 143 92 47
8.7220001 9.7639999 -0.84500003 80 44 18
8.7250004 9.7629995 -0.852 87 45 21
8.7270002 9.7620001 -0.84299999 173 147 130
8.7370005 9.7340002 -0.833 146 112 84
8.7379999 9.7349997 -0.82300001 122 88 60
8.7379999 9.7270002 -0.83499998 100 60 34
8.7010002 9.7110004 -0.88099998 69 30 13
8.7139997 9.7250004 -0.88200003 85 52 47
8.7329998 9.7650003 -0.79000002 81 50 30
8.7150002 9.7639999 -0.78899997 124 51 16
8.7229996 9.7609997 -0.76099998 100 67 48
8.7340002 9.7589998 -0.84399998 81 55 40
8.7159996 9.7340002 -0.88200003 81 45 31
8.7159996 9.7650003 -0.88099998 109 68 46
8.71 9.7700005 -0.88099998 119 79 53
8.7130003 9.7690001 -0.88700002 57 25 4
8.71 9.7659998 -0.87599999 66 34 11
8.7030001 9.7320004 -0.87400001 51 16 0
8.6999998 9.7399998 -0.88300002 84 61 43
8.7329998 9.7589998 -0.81599998 104 78 65
8.6949997 9.7259998 -0.579 82 47 25
8.6929998 9.7259998 -0.602 100 64 42
8.71 9.7530003 -0.65200001 88 57 36
8.7180004 9.7600002 -0.66399997 94 68 45
8.7130003 9.7550001 -0.67000002 121 84 66
8.7620001 9.7600002 -0.54799998 59 38 35
8.7030001 9.7919998 -0.70099998 39 15 5
8.7019997 9.7930002 -0.69300002 67 43 39
8.698 9.7650003 -0.67699999 70 36 26
8.6899996 9.7670002 -0.67199999 80 50 24
8.7019997 9.7819996 -0.68099999 65 45 34
8.7229996 9.7690001 -0.68400002 94 34 0
8.7159996 9.7580004 -0.67400002 89 38 9
8.7189999 9.7639999 -0.68699998 110 53 23
8.7309999 9.7969999 -0.699 159 149 147
8.724 9.7860003 -0.70700002 69 38 20
8.7270002 9.8009996 -0.70099998 143 106 77
8.7270002 9.7659998 -0.72100002 65 33 18
8.7220001 9.7519999 -0.74000001 151 98 58
8.7250004 9.7629995 -0.73500001 69 40 26
8.7259998 9.7629995 -0.70499998 87 55 44
8.7279997 9.7659998 -0.741 50 26 22
8.7279997 9.7679996 -0.74699998 67 37 26
8.7270002 9.7659998 -0.70499998 68 43 39
8.6689997 9.7360001 -0.58999997 127 55 7
8.6879997 9.7259998 -0.60399997 68 43 38
8.6759996 9.7349997 -0.60699999 104 69 31
8.6730003 9.7349997 -0.59399998 60 32 28
8.7229996 9.7629995 -0.53799999 141 103 66
8.7299995 9.7700005 -0.54699999 128 84 49
8.7229996 9.7600002 -0.53200001 219 175 138
8.7399998 9.7550001 -0.53299999 118 55 14
8.7349997 9.743 -0.546 208 184 124
8.7469997 9.7580004 -0.55599999 125 77 41
8.7309999 9.7650003 -0.55299997 81 62 56
8.7270002 9.7679996 -0.55699998 135 97 61
8.7299995 9.7700005 -0.55900002 108 43 3
8.7440004 9.7790003 -0.52999997 123 105 101
8.7469997 9.7790003 -0.52999997 151 87 43
8.7399998 9.7810001 -0.546 108 58 25
8.7019997 9.7880001 -0.68300003 142 96 47
8.7030001 9.7939997 -0.68300003 105 43 6
8.7229996 9.7539997 -0.52600002 105 68 49
8.7259998 9.7609997 -0.523 74 54 45
8.6949997 9.7370005 -0.56300002 93 61 40
8.7229996 9.7679996 -0.53299999 99 43 8
8.7379999 9.7620001 -0.52399999 72 47 40
8.6619997 9.7559996 -0.56999999 88 59 41
8.7030001 9.7650003 -0.57599998 103 39 0
8.7139997 9.7720003 -0.58999997 125 85 50
8.7089996 9.8039999 -0.69199997 112 71 53
8.7189999 9.8059998 -0.69999999 48 22 9
8.6929998 9.7709999 -0.63300002 98 71 52
8.698 9.7729998 -0.63300002 100 26 0
8.6920004 9.7559996 -0.80199999 175 118 73
8.7060003 9.7580004 -0.80400002 91 44 18
8.6920004 9.7480001 -0.80299997 150 100 67
8.6929998 9.7679996 -0.80299997 69 46 32
8.7139997 9.7460003 -0.815 178 126 76
8.717 9.7889996 -0.71399999 97 58 41
8.7259998 9.8030005 -0.71600002 53 40 32
8.7189999 9.8050003 -0.70899999 65 34 13
8.7089996 9.7510004 -0.736 137 100 82
8.7060003 9.7270002 -0.778 76 41 19
8.7200003 9.7370005 -0.79000002 90 52 29
8.7060003 9.7220001 -0.78399998 169 107 50
8.7180004 9.7399998 -0.78600001 79 43 31
8.7049999 9.7360001 -0.79799998 95 65 57
8.6999998 9.7530003 -0.792 96 71 40
8.691 9.7489996 -0.79100001 91 49 25
8.6780005 9.7510004 -0.72500002 92 56 40
8.7069998 9.7639999 -0.73699999 92 62 36
8.7080002 9.7489996 -0.70999998 169 105 70
8.7200003 9.757 -0.70599997 68 36 15
8.7119999 9.7749996 -0.73799998 99 53 17
8.6990004 9.7370005 -0.88700002 64 23 1
8.7019997 9.7440004 -0.884 73 40 21
8.7150002 9.7309999 -0.884 104 60 31
8.717 9.7489996 -0.833 126 73 21
8.6759996 9.7639999 -0.815 118 58 24
8.7080002 9.7480001 -0.88499999 48 29 22
8.7110004 9.7709999 -0.889 114 74 48
8.7049999 9.7340002 -0.87099999 90 57 52
8.7189999 9.7250004 -0.85299999 112 37 5
8.7040005 9.717 -0.85699999 104 76 62
8.7110004 9.7399998 -0.81 101 69 46
8.7270002 9.7629995 -0.75300002 57 32 28
8.717 9.7489996 -0.76099998 75 48 31
8.7189999 9.7580004 -0.787 86 56 32
8.7320004 9.7589998 -0.83700001 112 66 40
8.7299995 9.757 -0.83999997 166 139 130
8.7220001 9.743 -0.86500001 86 51 32
8.7220001 9.743 -0.875 71 36 17
8.7229996 9.7530003 -0.87400001 59 18 0
8.7250004 9.7629995 -0.86000001 111 69 47
8.7200003 9.7589998 -0.87599999 107 73 48
8.6990004 9.7130003 -0.86699998 188 162 147
8.6949997 9.7250004 -0.87400001 100 47 16
8.7299995 9.7370005 -0.81099999 119 90 82
8.7390003 9.7410002 -0.81300002 97 62 40
8.7360001 9.7360001 -0.81699997 96 68 54
8.6800003 9.7320004 -0.583 144 79 41
8.691 9.7320004 -0.58499998 106 57 24
8.71 9.7460003 -0.69099998 84 64 57
8.6789999 9.7489996 -0.71700001 104 51 17
8.6850004 9.7550001 -0.71899998 61 38 24
8.6929998 9.7650003 -0.662 81 53 29
8.6940002 9.7720003 -0.66900003 101 66 38
8.6999998 9.7740002 -0.64600003 117 48 9
8.724 9.8050003 -0.699 57 47 46
8.717 9.7530003 -0.59200001 52 33 29
8.7309999 9.7679996 -0.59500003 124 71 27
8.7589998 9.7550001 -0.54699999 99 71 59
8.7010002 9.7880001 -0.71399999 113 76 58
8.7040005 9.7629995 -0.685 101 63 26
8.7010002 9.7539997 -0.68599999 96 61 29
8.6999998 9.7589998 -0.67900002 51 31 22
8.7220001 9.7729998 -0.74199998 105 67 44
8.7279997 9.7629995 -0.699 110 77 58
8.6689997 9.7379999 -0.59799999 170 147 131
8.6569996 9.743 -0.59100002 81 48 29
8.6739998 9.7410002 -0.61400002 160 92 43
8.6709995 9.7480001 -0.59799999 108 46 9
8.6709995 9.7360001 -0.574 101 53 17
8.7609997 9.7670002 -0.53600001 168 144 82
8.757 9.7600002 -0.54400003 109 78 58
8.7449999 9.7720003 -0.55299997 134 89 50
8.7530003 9.7679996 -0.53200001 97 71 56
8.6899996 9.7390003 -0.56 156 92 48
8.6949997 9.7349997 -0.56599998 140 71 29
8.7329998 9.7770004 -0.53200001 98 67 49
8.6630001 9.7589998 -0.58099997 86 55 34
8.6560001 9.7469997 -0.58399999 134 112 114
8.6719999 9.743 -0.565 112 59 25
8.6960001 9.7889996 -0.67199999 92 61 41
8.71 9.79 -0.67199999 119 59 23
8.7010002 9.7810001 -0.671 118 100 90
8.7089996 9.7919998 -0.68199998 113 76 47
8.7119999 9.7849998 -0.67799997 88 42 9
8.7080002 9.7950001 -0.68599999 124 113 109
8.7159996 9.7609997 -0.76700002 62 44 24
8.7119999 9.7550001 -0.76099998 82 32 9
8.6870003 9.757 -0.80000001 94 64 54
8.698 9.7550001 -0.79699999 140 93 51
8.6960001 9.7580004 -0.70700002 151 111 85
8.7069998 9.7580004 -0.73400003 104 62 38
8.6859999 9.7650003 -0.72500002 89 56 37
8.7309999 9.7440004 -0.82499999 72 40 17
8.7130003 9.7340002 -0.80299997 180 123 68
8.7299995 9.7410002 -0.801 125 100 78
8.7279997 9.7279997 -0.81900001 68 34 7
8.7370005 9.7489996 -0.796 66 38 24
8.7320004 9.7550001 -0.79000002 134 61 20
8.7510004 9.7530003 -0.80199999 113 76 60
8.6890001 9.7419996 -0.80000001 88 46 22
8.7089996 9.783 -0.72000003 69 19 0
8.7250004 9.809 -0.71200001 55 28 19
8.7229996 9.8009996 -0.713 109 70 31
8.7040005 9.7309999 -0.796 115 60 29
8.7180004 9.7510004 -0.75199997 153 141 143
8.71 9.7629995 -0.75 103 43 9
8.7130003 9.7659998 -0.75199997 144 130 130
8.71 9.7519999 -0.71499997 62 34 30
8.717 9.757 -0.722 76 41 21
8.717 9.776 -0.74000001 100 31 0
8.7110004 9.7370005 -0.88700002 72 37 15
8.677 9.7799997 -0.81400001 61 37 27
8.717 9.7390003 -0.86400002 64 23 3
8.7220001 9.7559996 -0.84500003 79 62 46
8.7080002 9.7399998 -0.85000002 103 47 0
8.7119999 9.7449999 -0.85600001 111 69 45
8.7340002 9.7419996 -0.84799999 139 101 65
8.7340002 9.7349997 -0.83499998 82 48 21
8.7080002 9.7360001 -0.86500001 124 54 18
8.7080002 9.7360001 -0.86299998 119 83 61
8.7220001 9.7270002 -0.85000002 84 28 3
8.7279997 9.7259998 -0.84200001 63 27 13
8.7159996 9.7279997 -0.852 71 53 39
8.7200003 9.743 -0.82499999 93 59 32
8.7670002 9.7580004 -0.80299997 104 67 51
8.7209997 9.7659998 -0.80299997 130 59 3
8.7299995 9.757 -0.787 58 35 21
8.7220001 9.7539997 -0.85799998 76 49 38
8.7089996 9.7460003 -0.87199998 128 84 55
8.6990004 9.7250004 -0.86699998 100 63 47
8.6969995 9.7159996 -0.86400002 120 64 31
8.7080002 9.7340002 -0.86199999 78 59 45
8.7060003 9.7189999 -0.861 68 33 13
8.6940002 9.7189999 -0.87699997 93 29 2
8.7489996 9.7449999 -0.81400001 97 63 36
8.7069998 9.7449999 -0.59500003 127 78 38
8.7150002 9.7519999 -0.59399998 100 74 59
8.698 9.7309999 -0.58399999 77 42 22
8.7010002 9.743 -0.597 147 92 53
8.7209997 9.8070002 -0.69700003 108 46 25
8.7220001 9.7969999 -0.69700003 132 64 17
8.7320004 9.7729998 -0.53799999 151 131 124
8.7410002 9.776 -0.57599998 184 138 78
8.7399998 9.7819996 -0.58200002 98 47 16
8.7360001 9.7790003 -0.56999999 147 128 121
8.7550001 9.7559996 -0.55199999 143 74 35
8.7130003 9.7609997 -0.611 97 52 21
8.7080002 9.7550001 -0.61000001 106 71 41
8.7150002 9.7589998 -0.62800002 74 40 28
8.7089996 9.7600002 -0.61400002 117 52 10
8.7019997 9.743 -0.64700001 58 37 32
8.7040005 9.75 -0.653 170 131 100
8.6949997 9.7440004 -0.65200001 97 68 36
8.6990004 9.7440004 -0.64499998 62 36 23
8.7159996 9.7950001 -0.70899999 64 25 0
8.7209997 9.7910004 -0.699 33 4 0
8.7069998 9.7489996 -0.68300003 115 94 63
8.7040005 9.7819996 -0.68800002 90 55 25
8.7040005 9.7670002 -0.69 60 38 27
8.7290001 9.7629995 -0.69999999 151 99 59
8.7030001 9.7749996 -0.634 143 80 29
8.7010002 9.7740002 -0.62900001 141 93 57
8.7089996 9.7729998 -0.64600003 142 116 99
8.7419996 9.7559996 -0.55199999 159 85 38
8.743 9.7729998 -0.54100001 117 54 13
8.6949997 9.7729998 -0.61900002 86 42 15
8.6820002 9.7510004 -0.616 79 52 45
8.6750002 9.7480001 -0.62800002 113 79 54
8.684 9.7580004 -0.63200003 82 40 15
8.6820002 9.7620001 -0.59399998 94 41 10
8.6780005 9.7519999 -0.59600002 81 46 16
8.6739998 9.7349997 -0.58099997 203 180 166
8.691 9.7340002 -0.565 132 105 84
8.6700001 9.7629995 -0.574 119 80 47
8.6809998 9.7609997 -0.56 105 58 28
8.6899996 9.7709999 -0.58099997 100 31 0
8.691 9.7720003 -0.57200003 109 86 68
8.6949997 9.7729998 -0.56800002 130 61 30
8.6809998 9.7510004 -0.56 94 61 44
8.6590004 9.7519999 -0.574 126 106 107
8.6599998 9.75 -0.58399999 71 55 42
8.6700001 9.7460003 -0.56900001 82 54 50
8.6940002 9.7559996 -0.57099998 64 31 12
8.6999998 9.7740002 -0.59399998 102 33 0
8.6990004 9.7720003 -0.60000002 135 70 28
8.6890001 9.7709999 -0.57499999 129 92 66
8.7130003 9.7480001 -0.79100001 90 54 32
8.7299995 9.7390003 -0.83499998 221 175 142
8.7290001 9.7559996 -0.83399999 91 52 23
8.7550001 9.7469997 -0.80800003 104 78 65
8.7030001 9.7270002 -0.85500002 123 64 30
8.7030001 9.7340002 -0.79900002 68 30 19
8.7030001 9.7220001 -0.78500003 94 60 32
8.71 9.7519999 -0.73699999 108 80 58
8.71 9.7559996 -0.74599999 69 37 26
8.7180004 9.7580004 -0.71499997 90 53 34
8.7110004 9.7530003 -0.72600001 60 32 8
8.7080002 9.7320004 -0.86900002 78 40 21
8.7220001 9.7609997 -0.84399998 82 42 17
8.7360001 9.7349997 -0.85100001 143 98 75
8.7320004 9.7370005 -0.85100001 128 94 69
8.7609997 9.7609997 -0.80500001 156 119 93
8.7379999 9.7559996 -0.80299997 169 95 48
8.7279997 9.7629995 -0.80699998 141 110 92
8.7209997 9.7469997 -0.84799999 84 53 50
8.7130003 9.7379999 -0.84899998 101 67 42
8.7139997 9.7620001 -0.87599999 136 115 98
8.7110004 9.7440004 -0.87900001 94 53 31
8.7010002 9.7150002 -0.87300003 74 40 15
8.691 9.7119999 -0.87 74 36 17
8.7449999 9.7460003 -0.81300002 132 103 95
8.7080002 9.75 -0.60900003 134 98 74
8.6929998 9.7399998 -0.63499999 141 130 128
8.6969995 9.7410002 -0.61699998 142 82 46
8.7019997 9.7449999 -0.63 125 89 65
8.7510004 9.7620001 -0.542 148 122 109
8.7259998 9.7629995 -0.59899998 68 43 36
8.7279997 9.7690001 -0.60000002 156 116 80
8.7379999 9.7810001 -0.57700002 111 70 40
8.7229996 9.7790003 -0.59500003 102 69 52
8.7410002 9.7670002 -0.55900002 158 139 125
8.7089996 9.7720003 -0.59399998 108 78 54
8.7209997 9.776 -0.59600002 110 57 23
8.7139997 9.7639999 -0.62 74 50 48
8.7060003 9.7519999 -0.62599999 95 62 27
8.7060003 9.7510004 -0.667 230 195 157
8.7130003 9.7860003 -0.68599999 154 145 140
8.7159996 9.7639999 -0.67500001 95 40 9
8.7159996 9.7700005 -0.67299998 193 150 108
8.7030001 9.7700005 -0.68000001 81 56 51
8.7060003 9.7740002 -0.68800002 74 44 20
8.7049999 9.7720003 -0.62800002 78 54 44
8.717 9.7729998 -0.60799998 72 47 43
8.7040005 9.7679996 -0.61900002 76 42 17
8.6809998 9.7320004 -0.574 153 84 42
8.7399998 9.7860003 -0.57999998 166 123 81
8.6899996 9.7629995 -0.62800002 57 32 25
8.6899996 9.7349997 -0.56400001 144 95 52
8.7340002 9.7749996 -0.54400003 108 82 45
8.7360001 9.7729998 -0.54799998 176 152 92
8.6899996 9.7489996 -0.55800003 134 92 54
8.6929998 9.7620001 -0.57200003 112 49 5
8.6730003 9.7460003 -0.565 74 46 22
8.7030001 9.7740002 -0.588 74 34 8
8.6999998 9.7740002 -0.58600003 133 69 31
8.6999998 9.7740002 -0.57200003 108 48 12
8.7320004 9.7320004 -0.82700002 129 86 54
8.724 9.7329998 -0.81400001 96 41 10
8.7200003 9.7340002 -0.81199998 121 107 96
8.7639999 9.7550001 -0.80299997 57 29 7
8.7189999 9.7320004 -0.83200002 48 34 21
8.7019997 9.7370005 -0.801 188 131 86
8.7159996 9.7539997 -0.73699999 128 89 50
8.7080002 9.7600002 -0.736 113 72 50
8.7200003 9.776 -0.68699998 86 32 6
8.7180004 9.7580004 -0.70999998 91 65 52
8.71 9.7530003 -0.73000002 96 70 53
8.7159996 9.7460003 -0.85399997 89 70 55
8.7209997 9.743 -0.86000001 91 52 19
8.7659998 9.7559996 -0.81099999 115 68 42
8.7209997 9.7589998 -0.852 89 45 8
8.7110004 9.7440004 -0.86299998 73 32 10
8.7130003 9.7550001 -0.87599999 57 22 2
8.7189999 9.7390003 -0.87199998 105 64 32
8.7399998 9.7460003 -0.80699998 146 93 61
8.7040005 9.7700005 -0.59899998 110 75 45
8.6940002 9.7309999 -0.60600001 165 86 43
8.7080002 9.7469997 -0.64399999 114 61 29
8.6879997 9.7449999 -0.63800001 96 68 44
8.6789999 9.7469997 -0.62800002 122 79 34
8.6870003 9.7360001 -0.63099998 84 58 45
8.7440004 9.7729998 -0.551 93 27 0
8.7150002 9.8000002 -0.69300002 95 60 41
8.7410002 9.7740002 -0.55900002 106 74 53
8.724 9.776 -0.59799999 121 91 55
8.724 9.7729998 -0.60100001 131 98 79
8.7220001 9.776 -0.60500002 85 49 33
8.7130003 9.7679996 -0.64999998 132 91 47
8.7110004 9.7679996 -0.65899998 50 23 6
8.7150002 9.7770004 -0.66900003 63 16 0
8.7189999 9.7709999 -0.60900003 92 67 60
8.7080002 9.7449999 -0.62900001 72 44 32
8.7159996 9.7779999 -0.67299998 85 24 0
8.71 9.7740002 -0.66399997 140 109 89
8.7019997 9.7709999 -0.66500002 82 47 27
8.6990004 9.75 -0.67199999 126 114 114
8.7229996 9.7749996 -0.69599998 123 59 15
8.677 9.7349997 -0.58600003 136 99 72
8.7410002 9.7869997 -0.58099997 56 36 29
8.6870003 9.7639999 -0.61500001 86 52 25
8.6879997 9.7530003 -0.60699999 109 70 41
8.6569996 9.7440004 -0.58399999 117 106 86
8.6820002 9.7620001 -0.56699997 83 36 6
8.7010002 9.7629995 -0.57300001 117 92 62
8.684 9.7559996 -0.56300002 108 70 47
8.7049999 9.7740002 -0.58399999 129 73 38
8.7139997 9.7559996 -0.755 69 36 21
8.7229996 9.7519999 -0.78799999 108 79 71
8.7220001 9.7349997 -0.82099998 140 104 72
8.7270002 9.7229996 -0.83099997 64 27 11
8.7119999 9.7550001 -0.74299997 75 27 7
8.7089996 9.7370005 -0.85600001 215 160 130
8.7379999 9.7449999 -0.801 75 51 41
8.7030001 9.7480001 -0.60900003 157 114 79
8.6829996 9.7419996 -0.62099999 119 48 6
8.7180004 9.7629995 -0.63499999 115 89 56
8.7089996 9.7700005 -0.60399997 73 36 18
8.6990004 9.7489996 -0.68099999 69 45 21
8.6990004 9.7709999 -0.667 69 28 10
8.6809998 9.7600002 -0.58200002 113 55 18
8.691 9.7629995 -0.59500003 91 26 0
8.6719999 9.7360001 -0.58399999 123 117 101
8.6680002 9.7379999 -0.579 135 72 31
8.6689997 9.7379999 -0.58099997 107 51 16
8.6780005 9.7609997 -0.56900001 71 49 38
8.7229996 9.7299995 -0.83899999 145 85 48
8.698 9.7119999 -0.87099999 65 32 15
8.7340002 9.7440004 -0.80199999 126 88 65
8.6870003 9.7580004 -0.62099999 100 65 27
8.7189999 9.7779999 -0.67500001 109 51 14
8.6829996 9.75 -0.56 110 44 0
8.6709995 9.7550001 -0.56999999 107 71 35
8.7119999 9.7550001 -0.59899998 156 119 92
8.7180004 9.7559996 -0.78799999 157 112 70
8.7139997 9.757 -0.64200002 81 49 34
8.7119999 9.7700005 -0.63700002 133 66 24
8.6739998 9.7370005 -0.60500002 70 42 38
0 0 0 1 0 0 0 1 0 0 0 1 0 0 0 0 0 612 1 0 0
