ply
format ascii 1.0
comment PCL generated
element vertex 129
property float x
property float y
property float z
property uchar red
property uchar green
property uchar blue
element camera 1
property float view_px
property float view_py
property float view_pz
property float x_axisx
property float x_axisy
property float x_axisz
property float y_axisx
property float y_axisy
property float y_axisz
property float z_axisx
property float z_axisy
property float z_axisz
property float focal
property float scalex
property float scaley
property float centerx
property float centery
property int viewportx
property int viewporty
property float k1
property float k2
end_header
0.79900002 17.177999 -0.243 197 135 94
0.80599999 17.181 -0.236 158 114 75
0.80299997 17.184999 -0.242 207 155 107
0.82099998 17.184 -0.237 151 72 15
0.81599998 17.183001 -0.2 130 80 29
0.82099998 17.177 -0.213 104 55 23
0.82700002 17.177999 -0.19400001 252 181 103
0.82700002 17.17 -0.212 128 78 29
0.78200001 17.17 -0.20200001 102 65 49
0.79100001 17.183001 -0.211 141 85 24
0.78299999 17.181999 -0.214 108 62 13
0.79400003 17.177999 -0.19 141 97 58
0.778 17.162001 -0.205 189 109 36
0.77999997 17.17 -0.21699999 126 98 74
0.78500003 17.202999 -0.248 243 182 138
0.79299998 17.198 -0.25 193 133 73
0.78399998 17.198999 -0.242 188 131 86
0.78299999 17.191 -0.23899999 213 153 90
0.78100002 17.204 -0.23899999 226 198 174
0.77600002 17.201 -0.229 233 159 96
0.82499999 17.188 -0.23899999 94 62 23
0.82499999 17.198 -0.25099999 85 74 52
0.82599998 17.193001 -0.236 125 75 42
0.81999999 17.187 -0.23199999 148 85 32
0.81300002 17.179001 -0.22499999 143 88 34
0.81199998 17.179001 -0.214 167 113 53
0.78299999 17.158001 -0.204 195 147 111
0.796 17.156 -0.213 93 45 7
0.79400003 17.174 -0.19400001 143 71 23
0.79900002 17.174 -0.2 150 82 21
0.80900002 17.184 -0.20900001 129 57 9
0.79500002 17.167 -0.22 174 108 47
0.80000001 17.173 -0.23899999 158 124 87
0.78600001 17.174999 -0.23800001 190 138 88
0.80199999 17.162001 -0.215 122 66 15
0.78899997 17.205999 -0.249 181 119 72
0.79000002 17.172001 -0.193 133 95 56
0.79799998 17.164 -0.189 143 92 49
0.78799999 17.184999 -0.21600001 158 113 45
0.78600001 17.176001 -0.211 116 63 11
0.78200001 17.176001 -0.21600001 239 197 157
0.78600001 17.191 -0.23899999 178 112 52
0.80000001 17.195 -0.249 75 42 33
0.81900001 17.17 -0.2 161 95 35
0.81099999 17.164 -0.20900001 148 112 78
0.787 17.205 -0.23999999 255 187 131
0.81 17.186001 -0.228 138 78 26
0.824 17.187 -0.17200001 157 76 20
0.83200002 17.184 -0.178 110 63 33
0.82700002 17.179001 -0.17200001 243 149 79
0.81699997 17.184999 -0.17 155 99 48
0.80599999 17.162001 -0.204 180 109 27
0.81099999 17.173 -0.191 131 84 16
0.79799998 17.177999 -0.191 127 52 0
0.79400003 17.18 -0.23800001 205 146 70
0.82099998 17.208 -0.213 113 90 74
0.82499999 17.209999 -0.21799999 107 77 39
0.82700002 17.209999 -0.215 113 81 43
0.77999997 17.198999 -0.22400001 159 128 99
0.78600001 17.195 -0.223 147 86 39
0.79699999 17.198 -0.22499999 120 64 13
0.80000001 17.200001 -0.226 152 78 29
0.80199999 17.197001 -0.189 189 105 32
0.81099999 17.191999 -0.19499999 134 81 27
0.80800003 17.197001 -0.192 112 62 11
0.78399998 17.190001 -0.223 192 119 51
0.81699997 17.193001 -0.171 108 66 24
0.78200001 17.172001 -0.20900001 133 67 9
0.787 17.167999 -0.214 133 79 17
0.78500003 17.202 -0.23100001 185 121 73
0.824 17.165001 -0.229 102 89 55
0.81300002 17.174 -0.189 228 176 137
0.80400002 17.191 -0.252 105 53 42
0.80400002 17.208 -0.257 163 111 51
0.80599999 17.219 -0.25299999 166 93 48
0.79900002 17.219 -0.25799999 80 57 51
0.80199999 17.219999 -0.26499999 179 106 55
0.81099999 17.204 -0.241 174 105 50
0.80199999 17.209 -0.24699999 138 82 35
0.82200003 17.201 -0.257 93 54 37
0.80699998 17.202999 -0.25299999 191 152 121
0.79900002 17.181999 -0.222 209 140 75
0.80000001 17.153999 -0.206 149 96 42
0.79299998 17.156 -0.20299999 183 103 40
0.80900002 17.188999 -0.193 177 143 106
0.82599998 17.205 -0.208 99 81 41
0.829 17.187 -0.182 110 47 4
0.81900001 17.195999 -0.17200001 154 70 0
0.79400003 17.198999 -0.22499999 120 71 28
0.80500001 17.200001 -0.18799999 150 95 41
0.81 17.181999 -0.17399999 176 113 69
0.815 17.195 -0.17200001 142 97 38
0.81 17.176001 -0.176 140 93 47
0.79100001 17.165001 -0.214 127 76 19
0.787 17.202999 -0.236 104 61 18
0.81800002 17.17 -0.23199999 151 77 32
0.824 17.166 -0.23100001 85 52 33
0.83200002 17.162001 -0.233 133 95 76
0.82700002 17.176001 -0.176 162 119 77
0.82599998 17.177999 -0.17299999 183 124 80
0.78600001 17.164 -0.20200001 153 100 58
0.81599998 17.194 -0.25600001 90 55 35
0.79699999 17.215 -0.25400001 153 96 41
0.79699999 17.209 -0.25 146 102 67
0.79799998 17.219999 -0.26899999 79 49 39
0.81099999 17.198 -0.23999999 179 114 60
0.80699998 17.18 -0.23199999 147 81 31
0.80599999 17.162001 -0.215 228 162 76
0.82499999 17.195 -0.19400001 95 43 6
0.82700002 17.205999 -0.20999999 146 64 4
0.81599998 17.18 -0.17200001 173 87 14
0.80299997 17.177999 -0.18799999 148 95 41
0.78100002 17.198999 -0.234 181 154 133
0.792 17.202 -0.23 188 127 73
0.82700002 17.18 -0.183 198 117 38
0.81199998 17.174 -0.18799999 237 182 141
0.801 17.160999 -0.20200001 147 98 55
0.81400001 17.201 -0.255 174 110 66
0.80299997 17.211 -0.26199999 94 68 35
0.80500001 17.194 -0.23 117 51 3
0.81 17.163 -0.20900001 198 160 123
0.80900002 17.194 -0.182 103 41 0
0.796 17.171 -0.19 205 119 62
0.82700002 17.179001 -0.18799999 123 56 1
0.81599998 17.198999 -0.255 107 62 33
0.80299997 17.211 -0.264 89 56 25
0.80400002 17.216999 -0.273 91 76 53
0.81800002 17.198999 -0.19 136 97 56
0.82200003 17.200001 -0.183 129 67 16
0 0 0 1 0 0 0 1 0 0 0 1 0 0 0 0 0 129 1 0 0
