ply
format ascii 1.0
comment PCL generated
element vertex 130
property float x
property float y
property float z
property uchar red
property uchar green
property uchar blue
element camera 1
property float view_px
property float view_py
property float view_pz
property float x_axisx
property float x_axisy
property float x_axisz
property float y_axisx
property float y_axisy
property float y_axisz
property float z_axisx
property float z_axisy
property float z_axisz
property float focal
property float scalex
property float scaley
property float centerx
property float centery
property int viewportx
property int viewporty
property float k1
property float k2
end_header
-12.159 8.2080002 -1.0140001 249 203 117
-12.16 8.2089996 -1.026 177 123 87
-12.149 8.198 -1.025 254 196 123
-12.153 8.2019997 -1.007 207 144 67
-12.158 8.184 -1.018 207 111 25
-12.163 8.198 -1.005 202 136 76
-12.163 8.1780005 -1.016 219 171 107
-12.169 8.21 -1.029 156 108 32
-12.166 8.2019997 -1.0369999 228 135 66
-12.167 8.2200003 -1.107 176 77 10
-12.17 8.2270002 -1.11 179 97 24
-12.167 8.2180004 -1.096 200 149 106
-12.17 8.2110004 -1.0039999 251 206 113
-12.152 8.1999998 -1.024 217 175 93
-12.155 8.2019997 -1.01 198 135 81
-12.159 8.2010002 -1.008 228 125 33
-12.166 8.2019997 -1.04 238 200 155
-12.18 8.217 -1.0700001 125 75 4
-12.18 8.2159996 -1.062 131 84 12
-12.175 8.2130003 -1.0650001 247 153 81
-12.175 8.2279997 -1.105 178 104 57
-12.18 8.2270002 -1.099 206 137 70
-12.179 8.1990004 -1.039 178 132 96
-12.173 8.198 -1.039 255 227 158
-12.158 8.1789999 -1.022 254 165 85
-12.167 8.1750002 -1.0190001 178 130 82
-12.175 8.1750002 -1.026 168 118 65
-12.171 8.2209997 -1.099 207 150 60
-12.169 8.2119999 -1.015 216 149 79
-12.174 8.2119999 -1.008 198 140 77
-12.157 8.2010002 -1.026 255 238 172
-12.182 8.2229996 -1.128 117 66 23
-12.175 8.2270002 -1.128 85 38 0
-12.177 8.2340002 -1.1210001 100 55 14
-12.175 8.2189999 -1.133 120 110 101
-12.18 8.2089996 -1.151 166 114 66
-12.181 8.2180004 -1.128 127 59 12
-12.154 8.1929998 -1.0190001 254 148 60
-12.177 8.2320004 -1.113 120 75 34
-12.185 8.2139997 -1.1160001 191 132 92
-12.182 8.2200003 -1.119 206 162 133
-12.191 8.1929998 -1.016 218 143 60
-12.185 8.1809998 -1.028 249 190 88
-12.196 8.1960001 -1.0190001 227 147 50
-12.192 8.1949997 -1.02 148 101 55
-12.181 8.1890001 -1.038 247 149 84
-12.183 8.1879997 -1.026 143 98 41
-12.185 8.2069998 -1.117 142 90 43
-12.186 8.2030001 -1.119 211 136 81
-12.176 8.1750002 -1.021 234 164 79
-12.168 8.1870003 -1.0319999 255 227 141
-12.173 8.1890001 -1.036 255 220 140
-12.17 8.1820002 -1.028 255 216 124
-12.161 8.1949997 -1.13 154 78 26
-12.167 8.1929998 -1.131 156 103 61
-12.162 8.1929998 -1.128 155 85 33
-12.166 8.1920004 -1.035 255 215 167
-12.154 8.1920004 -1.038 246 174 90
-12.174 8.2250004 -1.103 143 98 56
-12.18 8.2060003 -1.008 98 52 28
-12.176 8.2019997 -1.007 227 152 33
-12.183 8.198 -1.005 219 122 41
-12.173 8.1940002 -1.0039999 250 171 78
-12.181 8.1940002 -1.005 228 172 95
-12.174 8.2089996 -1.149 188 109 53
-12.163 8.2080002 -1.14 155 83 25
-12.162 8.2119999 -1.141 132 50 0
-12.181 8.2060003 -1.158 189 112 56
-12.166 8.1999998 -1.1390001 164 87 31
-12.18 8.2329998 -1.112 202 115 46
-12.188 8.191 -1.011 249 154 64
-12.172 8.1949997 -1.123 150 94 59
-12.165 8.2139997 -1.13 126 59 4
-12.185 8.2119999 -1.11 104 60 15
-12.187 8.2119999 -1.097 195 95 20
-12.171 8.2180004 -1.095 255 210 135
-12.186 8.2220001 -1.091 199 134 66
-12.175 8.2159996 -1.0930001 159 64 0
-12.167 8.2150002 -1.096 254 193 113
-12.17 8.21 -1.092 213 125 53
-12.171 8.1940002 -1.038 255 227 148
-12.172 8.2049999 -1.108 234 136 61
-12.172 8.21 -1.1160001 174 121 103
-12.157 8.1990004 -1.123 123 80 35
-12.158 8.191 -1.031 255 225 146
-12.164 8.1780005 -1.023 235 196 131
-12.182 8.2200003 -1.108 177 144 127
-12.183 8.2189999 -1.098 168 81 4
-12.178 8.2089996 -1.01 177 128 98
-12.181 8.1969995 -1.015 255 212 103
-12.16 8.1899996 -1.016 190 99 6
-12.169 8.21 -1.141 100 48 1
-12.174 8.1820002 -1.0089999 132 96 62
-12.173 8.2080002 -1.085 125 69 10
-12.182 8.2069998 -1.15 174 99 44
-12.179 8.1929998 -1.033 216 157 87
-12.175 8.2250004 -1.12 140 72 9
-12.18 8.2010002 -1.117 116 62 15
-12.182 8.2119999 -1.101 144 85 27
-12.163 8.1949997 -1.036 255 220 144
-12.159 8.2049999 -1.132 118 68 19
-12.158 8.1920004 -1.028 255 236 153
-12.161 8.184 -1.025 224 162 87
-12.155 8.1949997 -1.036 99 71 32
-12.182 8.198 -1.01 248 205 100
-12.183 8.1949997 -1.021 212 161 82
-12.182 8.2060003 -1.119 199 123 63
-12.167 8.2080002 -1.1390001 128 61 9
-12.158 8.2040005 -1.02 184 133 86
-12.183 8.184 -1.025 246 197 104
-12.173 8.2040005 -1.124 104 57 15
-12.182 8.2209997 -1.1109999 149 98 55
-12.171 8.2049999 -1.094 131 77 33
-12.166 8.217 -1.123 157 79 30
-12.171 8.217 -1.115 172 103 44
-12.161 8.2049999 -1.13 126 63 9
-12.165 8.1990004 -1.123 183 106 50
-12.159 8.1899996 -1.03 247 224 172
-12.161 8.1969995 -1.01 193 150 95
-12.179 8.198 -1.021 207 148 72
-12.175 8.2010002 -1.018 245 211 113
-12.171 8.2019997 -1.027 132 89 46
-12.17 8.2130003 -1.1339999 123 70 26
-12.169 8.1960001 -1.127 132 77 38
-12.169 8.1969995 -1.123 88 58 20
-12.158 8.1929998 -1.036 253 151 67
-12.174 8.2139997 -1.1289999 106 48 10
-12.176 8.2069998 -1.11 200 143 98
-12.161 8.1990004 -1.131 130 81 66
-12.177 8.21 -1.122 196 126 66
0 0 0 1 0 0 0 1 0 0 0 1 0 0 0 0 0 130 1 0 0
