ply
format ascii 1.0
comment PCL generated
element vertex 56
property float x
property float y
property float z
property uchar red
property uchar green
property uchar blue
element camera 1
property float view_px
property float view_py
property float view_pz
property float x_axisx
property float x_axisy
property float x_axisz
property float y_axisx
property float y_axisy
property float y_axisz
property float z_axisx
property float z_axisy
property float z_axisz
property float focal
property float scalex
property float scaley
property float centerx
property float centery
property int viewportx
property int viewporty
property float k1
property float k2
end_header
-17.566 1.214 -0.82099998 184 121 68
-17.565001 1.211 -0.815 211 140 86
-17.577 1.217 -0.81199998 142 98 63
-17.562 1.2079999 -0.82700002 185 133 85
-17.561001 1.2079999 -0.81300002 105 76 62
-17.584 1.224 -0.83899999 102 58 29
-17.587 1.238 -0.84299999 177 92 37
-17.587999 1.2410001 -0.83399999 182 108 61
-17.573 1.194 -0.82999998 179 112 60
-17.573 1.193 -0.83899999 149 86 35
-17.573 1.199 -0.83700001 172 111 57
-17.580999 1.222 -0.84100002 145 79 27
-17.582001 1.235 -0.83999997 148 103 72
-17.586 1.251 -0.82999998 172 102 53
-17.587 1.249 -0.83999997 187 127 67
-17.583 1.255 -0.83399999 211 124 57
-17.582001 1.2589999 -0.85100001 146 88 51
-17.563999 1.2029999 -0.815 124 73 26
-17.568001 1.2079999 -0.80699998 146 96 47
-17.570999 1.21 -0.801 198 132 80
-17.568001 1.207 -0.80400002 165 103 62
-17.586 1.2079999 -0.82800001 137 92 61
-17.583 1.222 -0.82700002 163 77 20
-17.570999 1.201 -0.81 154 73 26
-17.58 1.2079999 -0.81300002 191 111 50
-17.577999 1.196 -0.824 142 64 16
-17.575001 1.207 -0.801 128 73 34
-17.577 1.255 -0.85100001 111 53 15
-17.582001 1.247 -0.85100001 94 41 9
-17.577 1.255 -0.84899998 110 63 33
-17.58 1.256 -0.83099997 123 87 55
-17.577999 1.255 -0.83999997 124 78 45
-17.576 1.198 -0.84100002 139 85 41
-17.587 1.2460001 -0.84100002 181 91 38
-17.577 1.245 -0.83999997 138 93 62
-17.582001 1.2130001 -0.80800003 154 94 42
-17.583 1.23 -0.824 223 138 74
-17.573999 1.243 -0.82599998 170 108 59
-17.579 1.235 -0.82800001 125 81 52
-17.568001 1.22 -0.829 111 66 27
-17.57 1.228 -0.83600003 146 83 30
-17.582001 1.2410001 -0.83099997 125 80 41
-17.576 1.196 -0.824 199 111 48
-17.573 1.205 -0.80500001 111 76 38
-17.576 1.253 -0.84399998 139 76 33
-17.577 1.226 -0.83999997 128 85 53
-17.579 1.204 -0.82999998 103 58 19
-17.576 1.207 -0.83200002 156 91 49
-17.579 1.255 -0.838 131 68 24
-17.577 1.248 -0.82800001 172 116 59
-17.570999 1.206 -0.83399999 179 104 47
-17.573999 1.217 -0.83099997 96 44 7
-17.579 1.239 -0.82700002 204 116 53
-17.577 1.238 -0.82999998 173 101 51
-17.580999 1.2539999 -0.84299999 168 83 18
-17.583 1.228 -0.82800001 176 121 67
0 0 0 1 0 0 0 1 0 0 0 1 0 0 0 0 0 56 1 0 0
