ply
format ascii 1.0
comment PCL generated
element vertex 64
property float x
property float y
property float z
property uchar red
property uchar green
property uchar blue
element camera 1
property float view_px
property float view_py
property float view_pz
property float x_axisx
property float x_axisy
property float x_axisz
property float y_axisx
property float y_axisy
property float y_axisz
property float z_axisx
property float z_axisy
property float z_axisz
property float focal
property float scalex
property float scaley
property float centerx
property float centery
property int viewportx
property int viewporty
property float k1
property float k2
end_header
-13.768 -3.2409999 -1.018 133 76 49
-13.776 -3.221 -1.007 70 19 0
-13.778 -3.227 -1 112 58 32
-13.756 -3.2679999 -0.98199999 137 76 47
-13.76 -3.2679999 -0.986 103 32 0
-13.75 -3.25 -0.97899997 156 98 60
-13.758 -3.2679999 -0.98900002 100 38 13
-13.759 -3.2739999 -0.995 136 64 26
-13.761 -3.2360001 -1.003 116 62 36
-13.768 -3.247 -1.044 78 27 10
-13.761 -3.2290001 -1.043 56 12 3
-13.763 -3.2420001 -1.049 52 5 0
-13.776 -3.24 -1.026 122 61 42
-13.768 -3.2349999 -1.024 72 11 0
-13.75 -3.2679999 -1.005 80 23 0
-13.75 -3.27 -1.003 138 57 10
-13.746 -3.266 -0.99699998 128 86 38
-13.761 -3.224 -1.006 167 90 46
-13.759 -3.217 -1.0039999 59 12 0
-13.753 -3.2179999 -1.022 128 73 42
-13.757 -3.2260001 -1.006 179 123 90
-13.754 -3.2409999 -1.005 132 55 13
-13.751 -3.2309999 -1.021 97 36 15
-13.753 -3.25 -0.99000001 84 24 0
-13.746 -3.25 -0.98699999 76 31 10
-13.752 -3.2690001 -1.001 64 7 0
-13.757 -3.2360001 -1.0089999 103 46 17
-13.756 -3.2679999 -1.01 99 32 3
-13.772 -3.247 -1.031 95 43 19
-13.755 -3.2679999 -0.99199998 93 33 0
-13.76 -3.2360001 -1.0420001 92 44 22
-13.755 -3.224 -1.029 89 35 9
-13.758 -3.2390001 -1.017 108 32 0
-13.771 -3.247 -1.038 59 6 0
-13.772 -3.253 -1.038 54 7 0
-13.765 -3.2349999 -1.017 95 35 7
-13.77 -3.24 -1.024 85 29 4
-13.741 -3.2609999 -0.96700001 86 33 0
-13.748 -3.2709999 -0.991 167 94 43
-13.775 -3.221 -1 77 22 2
-13.742 -3.253 -0.97100002 150 108 70
-13.729 -3.2590001 -0.958 45 1 0
-13.737 -3.2579999 -0.97899997 67 18 1
-13.743 -3.2509999 -0.98000002 81 36 13
-13.747 -3.2539999 -0.977 142 84 46
-13.751 -3.257 -0.98500001 88 17 0
-13.753 -3.23 -1.028 80 23 3
-13.762 -3.2349999 -1.036 182 129 98
-13.756 -3.24 -1.012 137 76 47
-13.767 -3.2409999 -1.0369999 142 86 61
-13.744 -3.257 -0.972 92 20 0
-13.744 -3.267 -0.98100001 150 94 33
-13.741 -3.2609999 -0.97799999 107 50 20
-13.73 -3.2550001 -0.96600002 161 79 23
-13.753 -3.2620001 -0.98199999 140 86 62
-13.754 -3.23 -1.035 66 15 0
-13.764 -3.2349999 -1.03 102 42 18
-13.754 -3.224 -1.022 119 63 36
-13.765 -3.2409999 -1.043 122 70 48
-13.734 -3.2579999 -0.96499997 48 4 0
-13.75 -3.256 -0.98799998 64 15 1
-13.744 -3.2609999 -0.98400003 109 58 13
-13.755 -3.224 -1.035 67 18 3
-13.77 -3.2409999 -1.031 73 13 0
0 0 0 1 0 0 0 1 0 0 0 1 0 0 0 0 0 64 1 0 0
