ply
format ascii 1.0
comment PCL generated
element vertex 376
property float x
property float y
property float z
property uchar red
property uchar green
property uchar blue
element camera 1
property float view_px
property float view_py
property float view_pz
property float x_axisx
property float x_axisy
property float x_axisz
property float y_axisx
property float y_axisy
property float y_axisz
property float z_axisx
property float z_axisy
property float z_axisz
property float focal
property float scalex
property float scaley
property float centerx
property float centery
property int viewportx
property int viewporty
property float k1
property float k2
end_header
-16.990999 -5.1919999 -0.82800001 133 90 47
-16.986 -5.2010002 -0.824 170 75 19
-16.983999 -5.1859999 -0.83999997 177 111 61
-16.986 -5.1989999 -0.81400001 207 100 20
-17.068001 -5.1880002 -0.79100001 194 96 21
-17.058001 -5.1900001 -0.78799999 207 99 24
-17.077 -5.198 -0.773 228 167 110
-17.056 -5.197 -0.78200001 132 82 49
-17.002001 -5.2490001 -0.80000001 215 103 39
-17.002001 -5.2540002 -0.79900002 217 108 23
-17.025999 -5.2579999 -0.801 135 105 71
-16.989 -5.2340002 -0.86199999 175 77 6
-16.992001 -5.2399998 -0.866 186 122 50
-16.990999 -5.2329998 -0.86699998 134 58 9
-16.999001 -5.2199998 -0.85000002 113 94 79
-16.993 -5.1950002 -0.81099999 174 126 88
-16.988001 -5.1999998 -0.82099998 125 91 30
-16.987 -5.1999998 -0.829 202 96 20
-16.988001 -5.2030001 -0.83399999 178 114 53
-16.990999 -5.198 -0.80699998 219 154 90
-16.997999 -5.2069998 -0.81 193 89 0
-17.004999 -5.152 -0.77499998 209 107 23
-17.002001 -5.1570001 -0.764 198 112 29
-17.006001 -5.1630001 -0.76700002 94 53 21
-16.999001 -5.2480001 -0.82499999 98 64 36
-16.98 -5.2470002 -0.81400001 189 121 60
-16.98 -5.2579999 -0.81199998 211 102 20
-17.023001 -5.25 -0.80500001 96 65 36
-17.004999 -5.2459998 -0.80500001 189 86 17
-17.028999 -5.25 -0.833 193 90 13
-17.041 -5.2620001 -0.81900001 201 90 18
-17.025999 -5.2550001 -0.81699997 221 151 99
-17.030001 -5.2389998 -0.81400001 218 131 62
-17.031 -5.2329998 -0.83099997 201 101 23
-17.025999 -5.2319999 -0.84799999 176 74 2
-17.031 -5.2280002 -0.83099997 179 125 79
-17.025999 -5.2280002 -0.83899999 182 92 29
-17.034 -5.2329998 -0.81599998 201 98 19
-17.013 -5.2639999 -0.85299999 180 88 13
-16.997999 -5.2690001 -0.84299999 175 129 106
-17.01 -5.276 -0.84799999 213 112 40
-17.014 -5.2680001 -0.84799999 191 94 23
-17.011 -5.2670002 -0.84500003 191 120 56
-17.052999 -5.237 -0.79500002 206 99 19
-17.063 -5.2459998 -0.79699999 191 91 3
-17.056 -5.2309999 -0.792 128 57 0
-17.132999 -5.164 -0.73500001 167 99 38
-17.129999 -5.165 -0.74299997 189 87 25
-17.141001 -5.1659999 -0.73299998 126 72 34
-17.125 -5.1609998 -0.74599999 112 81 60
-17.024 -5.2340002 -0.84600002 100 82 44
-17.034 -5.25 -0.83999997 162 65 0
-17.066999 -5.2490001 -0.80199999 207 104 12
-17.062 -5.2529998 -0.80699998 163 112 55
-16.985001 -5.2069998 -0.824 134 87 31
-16.999001 -5.2150002 -0.81900001 213 115 42
-16.999001 -5.2030001 -0.83499998 122 36 0
-16.999001 -5.2459998 -0.80000001 108 55 15
-16.98 -5.2509999 -0.80699998 206 116 40
-17.011 -5.1570001 -0.76499999 172 102 51
-17.013 -5.1420002 -0.773 160 108 71
-17.027 -5.1389999 -0.76899999 178 113 55
-17.025999 -5.276 -0.83099997 179 95 23
-17.038 -5.2709999 -0.81800002 210 108 34
-17.025 -5.2649999 -0.80900002 184 127 74
-17.021999 -5.2270002 -0.81699997 197 131 81
-17.030001 -5.2140002 -0.80800003 159 124 84
-17.025 -5.2280002 -0.82800001 201 103 38
-17.003 -5.25 -0.80599999 174 127 107
-16.999001 -5.2509999 -0.80299997 131 83 21
-17.006001 -5.2529998 -0.815 172 108 47
-17.023001 -5.2620001 -0.81199998 188 118 48
-17.009001 -5.2470002 -0.81999999 199 96 19
-17.037001 -5.25 -0.838 195 95 20
-17.076 -5.2179999 -0.75599998 194 86 14
-17.083 -5.217 -0.75400001 173 122 103
-17.087 -5.2199998 -0.755 135 76 20
-17.07 -5.217 -0.75400001 120 55 1
-17.063999 -5.2129998 -0.76800001 220 112 39
-17.028 -5.257 -0.80900002 215 131 59
-17.025 -5.2490001 -0.80500001 205 106 25
-17.032 -5.2600002 -0.80800003 200 92 19
-17.040001 -5.152 -0.75999999 119 91 70
-17.046 -5.1469998 -0.76099998 159 111 62
-17.034 -5.145 -0.76499999 169 118 89
-17.041 -5.145 -0.76899999 178 131 113
-17.025 -5.2420001 -0.83499998 86 58 37
-16.995001 -5.1869998 -0.82800001 145 95 46
-17.063999 -5.191 -0.81 184 77 7
-17.045 -5.1859999 -0.82599998 141 96 77
-17.062 -5.197 -0.81199998 193 129 57
-17.055 -5.2360001 -0.79500002 178 134 105
-17.124001 -5.165 -0.75400001 202 130 58
-17.122999 -5.1589999 -0.764 217 115 33
-16.983999 -5.243 -0.81199998 97 66 46
-16.999001 -5.2410002 -0.82499999 206 119 42
-17.000999 -5.2470002 -0.82999998 175 119 70
-17.124001 -5.1680002 -0.74900001 219 109 32
-17.111 -5.1570001 -0.75 137 94 52
-17.121 -5.1659999 -0.75400001 178 119 77
-17.021 -5.0869999 -0.81 210 135 54
-17.024 -5.0869999 -0.80900002 190 120 48
-17.023001 -5.0819998 -0.80500001 159 133 116
-17.016001 -5.1009998 -0.80199999 225 121 36
-16.987 -5.2540002 -0.81199998 188 137 94
-17.01 -5.2540002 -0.82599998 176 81 15
-17.011 -5.2670002 -0.829 188 118 48
-17.007 -5.244 -0.829 193 109 39
-17.018 -5.2709999 -0.83099997 193 123 61
-17.007 -5.2680001 -0.84200001 185 84 16
-17.035999 -5.2649999 -0.82200003 202 96 18
-17.024 -5.2069998 -0.80599999 221 119 44
-17.002001 -5.2049999 -0.81 211 112 27
-17.006001 -5.2129998 -0.81699997 82 62 51
-17.007 -5.2030001 -0.81400001 169 101 36
-17.023001 -5.1739998 -0.79100001 178 111 58
-17.035999 -5.1929998 -0.792 161 103 57
-17.034 -5.1820002 -0.79900002 205 104 16
-17.024 -5.21 -0.81199998 155 94 47
-17.011 -5.2129998 -0.82099998 109 65 28
-17.021999 -5.204 -0.81400001 117 103 94
-17.028999 -5.2329998 -0.81699997 190 84 0
-17.065001 -5.2090001 -0.76200002 106 93 87
-17.086 -5.2210002 -0.75999999 245 134 53
-17.09 -5.2199998 -0.76300001 214 110 21
-17.041 -5.1919999 -0.824 147 108 51
-17.047001 -5.198 -0.81300002 167 105 56
-17.070999 -5.1589999 -0.75300002 177 111 51
-17.076 -5.165 -0.75400001 149 79 28
-17.080999 -5.1620002 -0.74800003 164 102 63
-17.033001 -5.1589999 -0.75700003 141 110 89
-17.038 -5.1669998 -0.74699998 181 112 47
-17.030001 -5.1680002 -0.75 144 87 44
-17.052999 -5.1409998 -0.78200001 151 97 59
-17.048 -5.1370001 -0.78399998 113 62 5
-17.068001 -5.1370001 -0.77999997 132 88 59
-17.07 -5.1389999 -0.77499998 211 109 37
-17.134001 -5.1630001 -0.73000002 205 103 19
-17.118999 -5.1389999 -0.76300001 224 121 44
-17.122 -5.1389999 -0.77200001 142 92 59
-17.127001 -5.1459999 -0.77600002 250 149 69
-17.000999 -5.2140002 -0.84600002 157 78 22
-17.009001 -5.2129998 -0.824 145 99 83
-17.002001 -5.1989999 -0.852 151 68 2
-17 -5.2010002 -0.852 168 82 21
-17.000999 -5.2030001 -0.85699999 106 32 0
-17.017 -5.2160001 -0.82700002 185 89 29
-17.013 -5.237 -0.83700001 194 102 39
-17.011999 -5.1030002 -0.80400002 89 64 42
-17.014999 -5.1040001 -0.80599999 147 98 58
-17.003 -5.1409998 -0.78299999 143 84 42
-17.065001 -5.2470002 -0.80299997 144 109 55
-17.055 -5.2069998 -0.81300002 222 122 37
-17.056999 -5.2069998 -0.80699998 149 102 46
-17.124001 -5.1539998 -0.76899999 184 102 26
-17.125999 -5.152 -0.77499998 146 89 36
-17.118999 -5.1669998 -0.75800002 182 85 14
-17.049999 -5.2049999 -0.78500003 179 130 74
-17.049999 -5.2059999 -0.787 183 114 55
-17.034 -5.2049999 -0.792 175 109 57
-17.035999 -5.2049999 -0.79699999 120 107 99
-17.066 -5.1849999 -0.80500001 157 99 36
-16.997999 -5.2129998 -0.815 226 125 57
-16.987 -5.2490001 -0.80699998 163 125 78
-17 -5.2350001 -0.815 199 97 33
-17.003 -5.2420001 -0.81300002 197 112 45
-17.014 -5.1459999 -0.773 145 101 40
-17.021 -5.1440001 -0.77100003 203 97 19
-17.02 -5.1500001 -0.76999998 173 99 34
-17.028 -5.1440001 -0.76999998 161 102 58
-17.033001 -5.184 -0.76899999 211 101 26
-17.033001 -5.1810002 -0.77700001 232 130 45
-17.032 -5.1950002 -0.77100003 194 126 65
-17.035 -5.1849999 -0.77999997 159 84 17
-16.997999 -5.2030001 -0.80199999 142 87 30
-17.131001 -5.1659999 -0.73400003 219 115 42
-17.084 -5.164 -0.75400001 216 114 39
-17.075001 -5.1719999 -0.76899999 189 116 71
-17.072001 -5.1739998 -0.76700002 186 101 21
-17.076 -5.1630001 -0.76099998 217 105 19
-17.09 -5.1599998 -0.77600002 220 108 22
-17.1 -5.1589999 -0.77200001 219 119 44
-17.087 -5.1529999 -0.77200001 206 134 62
-17.09 -5.1539998 -0.78200001 214 113 25
-17.106001 -5.1560001 -0.77399999 166 103 49
-16.990999 -5.2529998 -0.80400002 174 120 60
-17.004 -5.244 -0.81199998 146 84 35
-17.004999 -5.2519999 -0.82300001 88 66 42
-17.014999 -5.2470002 -0.82700002 183 80 11
-17.013 -5.2690001 -0.82700002 205 108 31
-17.025999 -5.283 -0.83399999 212 114 43
-17.027 -5.2789998 -0.83399999 177 110 58
-17.007 -5.2680001 -0.84299999 196 95 15
-17.030001 -5.2779999 -0.83499998 207 103 18
-17.003 -5.1820002 -0.82499999 170 76 15
-17.000999 -5.1799998 -0.829 173 74 6
-17.016001 -5.2069998 -0.82200003 154 103 60
-17.030001 -5.2010002 -0.82499999 168 123 104
-17.023001 -5.1999998 -0.82099998 203 109 35
-17.08 -5.2030001 -0.74900001 136 97 56
-17.084999 -5.1960001 -0.75199997 206 134 58
-17.070999 -5.2069998 -0.76999998 93 59 32
-17.066 -5.204 -0.76499999 223 117 31
-17.084999 -5.2150002 -0.76200002 228 118 57
-17.079 -5.21 -0.77200001 106 76 48
-17.077 -5.204 -0.76899999 214 109 41
-17.077999 -5.2140002 -0.76499999 155 104 47
-17.040001 -5.1859999 -0.81699997 217 114 22
-17.034 -5.1799998 -0.81300002 138 92 56
-17.042 -5.1810002 -0.81199998 109 73 37
-17.037001 -5.197 -0.81800002 77 55 41
-17.044001 -5.1890001 -0.81699997 190 82 7
-17.070999 -5.1609998 -0.75800002 193 137 102
-17.042999 -5.1360002 -0.78600001 156 107 74
-17.056999 -5.1240001 -0.79900002 183 119 58
-17.049 -5.1370001 -0.78500003 170 105 47
-17.021 -5.1009998 -0.80500001 160 113 95
-17.035 -5.1129999 -0.81099999 212 141 63
-17.066999 -5.1409998 -0.778 133 97 61
-17.072001 -5.1399999 -0.77899998 165 120 89
-17.059 -5.1539998 -0.79799998 118 91 74
-17.115 -5.1570001 -0.75599998 159 86 31
-17.112 -5.158 -0.75800002 149 93 56
-17.055 -5.1589999 -0.76999998 209 105 32
-17.045 -5.1529999 -0.75800002 200 99 29
-17.037001 -5.1630001 -0.75599998 167 101 41
-17.042 -5.1589999 -0.76300001 145 95 36
-17.013 -5.1849999 -0.83200002 113 95 85
-16.999001 -5.204 -0.84600002 166 64 0
-16.999001 -5.1989999 -0.83499998 161 70 0
-17.018999 -5.223 -0.83200002 107 90 80
-17.016001 -5.2410002 -0.83200002 102 82 71
-17.021999 -5.2399998 -0.82599998 137 88 30
-17.013 -5.177 -0.83099997 180 74 0
-17.025 -5.164 -0.82200003 133 95 30
-17.024 -5.1659999 -0.82099998 130 82 34
-17.025 -5.1750002 -0.81599998 180 113 61
-17.02 -5.1300001 -0.787 218 107 25
-17.016001 -5.1009998 -0.80400002 153 121 100
-17.044001 -5.2020001 -0.80599999 206 109 32
-17.115 -5.1409998 -0.77499998 126 49 0
-17.080999 -5.1469998 -0.77200001 167 106 62
-17.069 -5.1269999 -0.79299998 166 104 43
-17.065001 -5.1869998 -0.79699999 135 82 28
-17.031 -5.2010002 -0.76999998 173 122 101
-17.040001 -5.1989999 -0.787 223 112 33
-17.027 -5.2069998 -0.77100003 143 84 26
-16.997 -5.21 -0.81400001 202 99 22
-16.997 -5.2410002 -0.81400001 187 117 55
-17.013 -5.164 -0.787 207 114 34
-17.011 -5.1599998 -0.77700001 133 93 34
-17.018999 -5.1550002 -0.76599997 192 123 54
-17.024 -5.204 -0.778 114 101 95
-17.018999 -5.1669998 -0.78799999 183 83 8
-17.02 -5.1719999 -0.77999997 211 107 20
-17.08 -5.1539998 -0.76499999 191 125 65
-17.077 -5.1539998 -0.77200001 197 135 78
-17.073 -5.2059999 -0.77200001 183 116 48
-17.046 -5.1849999 -0.773 225 113 29
-17.07 -5.1789999 -0.76899999 207 126 73
-17.079 -5.1960001 -0.75300002 165 118 98
-17.062 -5.1880002 -0.80699998 204 106 31
-17.049 -5.1869998 -0.81199998 210 109 27
-17.044001 -5.1739998 -0.80199999 204 98 22
-17.062 -5.198 -0.80900002 142 91 60
-17.058001 -5.1989999 -0.79799998 171 92 25
-17.040001 -5.1139998 -0.80400002 209 156 86
-17.052999 -5.158 -0.76599997 198 131 76
-17.032 -5.1750002 -0.74800003 177 107 58
-17.037001 -5.1690001 -0.75300002 214 108 34
-17.033001 -5.165 -0.76300001 172 101 39
-17.041 -5.1820002 -0.77200001 172 102 40
-17.006001 -5.1830001 -0.83200002 138 89 57
-16.99 -5.191 -0.84500003 148 68 15
-16.995001 -5.1859999 -0.84200001 157 70 16
-17.006001 -5.1900001 -0.82999998 240 134 58
-17 -5.2150002 -0.852 158 70 6
-17.011 -5.2329998 -0.83200002 148 106 58
-17.021 -5.2199998 -0.82999998 192 94 19
-17.041 -5.1669998 -0.81099999 183 116 45
-17.049999 -5.1370001 -0.80800003 143 85 45
-17.047001 -5.1560001 -0.801 189 85 12
-17.049999 -5.1479998 -0.79799998 129 67 20
-17.027 -5.197 -0.81699997 206 107 39
-17.111 -5.1570001 -0.76300001 184 124 62
-17.124001 -5.158 -0.76899999 193 126 71
-17.115999 -5.1659999 -0.764 145 99 50
-17.091999 -5.1620002 -0.78200001 190 120 58
-17.041 -5.2020001 -0.81199998 227 153 82
-17.049999 -5.1999998 -0.79799998 189 82 2
-17.118 -5.1430001 -0.77399999 167 104 61
-17.075001 -5.1259999 -0.78799999 177 109 38
-17.072001 -5.132 -0.78600001 205 105 29
-17.061001 -5.1279998 -0.801 192 91 11
-17.059 -5.1230001 -0.81199998 169 91 25
-17.045 -5.1719999 -0.801 207 99 24
-17.047001 -5.1680002 -0.79799998 188 92 31
-17.059 -5.1589999 -0.79900002 176 95 40
-17.044001 -5.191 -0.792 175 108 40
-17.044001 -5.1869998 -0.77499998 106 67 24
-17.030001 -5.2010002 -0.773 181 89 14
-17.028 -5.177 -0.78299999 179 132 90
-17.084 -5.151 -0.76899999 200 116 52
-17.077999 -5.152 -0.76800001 208 141 71
-17.056999 -5.1960001 -0.78799999 200 134 58
-17.073 -5.2129998 -0.773 189 115 40
-17.061001 -5.1919999 -0.796 208 106 22
-17.014 -5.1370001 -0.78600001 153 106 88
-17.02 -5.131 -0.79000002 188 119 50
-17.039 -5.1149998 -0.80299997 200 97 30
-17.042 -5.1230001 -0.80599999 169 86 16
-17.025 -5.1620002 -0.76099998 159 109 60
-17.032 -5.178 -0.76599997 170 105 51
-17.011999 -5.184 -0.83600003 179 88 18
-16.992001 -5.178 -0.84399998 182 144 81
-17.000999 -5.1869998 -0.82599998 219 120 39
-17.042999 -5.1589999 -0.81199998 163 93 23
-17.030001 -5.1690001 -0.815 101 84 74
-17.033001 -5.1869998 -0.815 192 125 57
-17.006001 -5.1430001 -0.787 175 97 31
-17.111 -5.1680002 -0.76300001 210 102 37
-17.120001 -5.1680002 -0.76300001 219 107 23
-17.037001 -5.1999998 -0.801 195 91 18
-17.033001 -5.1820002 -0.80699998 147 100 80
-17.042 -5.1989999 -0.81300002 143 91 41
-17.115999 -5.1490002 -0.773 195 98 27
-17.018999 -5.1669998 -0.77200001 197 99 24
-17.042999 -5.1849999 -0.76999998 172 124 104
-17.031 -5.1750002 -0.77399999 143 94 36
-17.042999 -5.171 -0.78799999 205 94 12
-17.052999 -5.2030001 -0.79000002 195 99 22
-17.025999 -5.1329999 -0.78799999 154 75 8
-17.025 -5.1290002 -0.78899997 144 88 37
-17.035 -5.1420002 -0.773 238 126 40
-17.021 -5.1409998 -0.77700001 168 107 50
-17.018 -5.138 -0.792 202 100 16
-17.059 -5.1529999 -0.76899999 142 90 50
-17.052 -5.1209998 -0.80599999 194 87 7
-17.025 -5.1420002 -0.792 135 87 49
-17.025 -5.178 -0.81199998 172 92 21
-17.013 -5.184 -0.83399999 180 115 51
-16.989 -5.1830001 -0.84299999 158 71 4
-17.035999 -5.1409998 -0.81099999 174 107 36
-17.018999 -5.1430001 -0.82200003 170 108 51
-17.017 -5.138 -0.82200003 153 113 43
-17.042 -5.1389999 -0.80699998 142 90 50
-17.025999 -5.165 -0.81699997 160 72 9
-17.031 -5.1680002 -0.80500001 195 94 22
-17.030001 -5.1620002 -0.80599999 153 108 89
-17.007 -5.1479998 -0.77700001 180 104 42
-17.105 -5.1560001 -0.76599997 157 107 46
-17.111 -5.1589999 -0.75999999 173 110 57
-17.042999 -5.2030001 -0.79100001 106 75 47
-17.018999 -5.1680002 -0.76899999 185 119 58
-17.035 -5.1620002 -0.76999998 183 117 57
-17.034 -5.178 -0.76999998 202 128 55
-17.044001 -5.1680002 -0.787 197 129 54
-17.052 -5.1459999 -0.78200001 205 106 38
-17.049999 -5.1500001 -0.78500003 148 101 57
-17.059 -5.1609998 -0.79699999 184 109 44
-17.055 -5.1220002 -0.80400002 189 80 0
-17.049 -5.1290002 -0.80599999 92 62 36
-17.039 -5.1490002 -0.80199999 217 110 32
-17.031 -5.1599998 -0.81400001 173 106 35
-17.004999 -5.1490002 -0.78600001 230 119 37
-17.021999 -5.152 -0.79000002 179 107 35
-17.046 -5.1820002 -0.77899998 141 86 32
-17.046 -5.1669998 -0.78200001 147 95 58
-17.018999 -5.1659999 -0.792 82 47 19
-17.023001 -5.1570001 -0.79000002 182 114 43
-17.025999 -5.1479998 -0.79100001 211 105 27
-17.034 -5.1440001 -0.79500002 167 106 49
-17.011 -5.1570001 -0.78399998 176 106 55
-17.016001 -5.145 -0.815 201 134 82
-17.028999 -5.165 -0.80000001 119 81 19
-17.039 -5.1360002 -0.80299997 198 96 24
0 0 0 1 0 0 0 1 0 0 0 1 0 0 0 0 0 376 1 0 0
