ply
format ascii 1.0
comment PCL generated
element vertex 615
property float x
property float y
property float z
property uchar red
property uchar green
property uchar blue
element camera 1
property float view_px
property float view_py
property float view_pz
property float x_axisx
property float x_axisy
property float x_axisz
property float y_axisx
property float y_axisy
property float y_axisz
property float z_axisx
property float z_axisy
property float z_axisz
property float focal
property float scalex
property float scaley
property float centerx
property float centery
property int viewportx
property int viewporty
property float k1
property float k2
end_header
-3.0350001 9.184 -1.054 74 29 6
-3.0209999 9.1829996 -1.051 86 27 0
-3.0320001 9.1800003 -1.0650001 145 76 35
-2.977 9.1680002 -0.866 157 86 32
-2.964 9.1610003 -0.866 136 87 44
-2.9619999 9.1599998 -0.84899998 188 108 49
-2.9630001 9.1569996 -0.86799997 118 47 1
-3.03 9.073 -1.021 198 124 75
-3.0350001 9.0749998 -1.024 187 102 61
-3.0320001 9.0620003 -1.0319999 239 164 109
-3.029 9.0710001 -1.025 249 194 140
-3.0239999 9.0679998 -1.024 226 126 51
-3.0309999 9.1719999 -1.064 113 37 3
-3.039 9.1700001 -1.063 190 172 162
-3.04 9.1479998 -1.005 240 159 80
-3.03 9.1330004 -1.0089999 169 122 76
-3.033 9.1420002 -1.018 253 171 97
-3.043 9.1459999 -0.99699998 164 106 66
-3.033 9.1420002 -1.0039999 132 78 44
-2.9860001 9.1059999 -1.056 112 64 24
-2.987 9.1070004 -1.0599999 180 121 77
-2.9860001 9.1110001 -1.052 180 96 32
-2.973 9.165 -0.87599999 144 81 38
-2.9809999 9.1669998 -0.87699997 161 94 41
-2.9760001 9.1639996 -0.88 139 76 25
-3.036 9.1800003 -1.062 139 78 47
-3.0480001 9.1780005 -1.054 79 17 0
-3.04 9.1800003 -1.0549999 221 167 120
-3.0190001 9.1210003 -0.90700001 82 39 23
-3.029 9.125 -0.92799997 122 56 0
-3.0320001 9.1300001 -0.926 230 129 49
-3.03 9.1409998 -1 190 142 106
-3.029 9.1409998 -0.99400002 168 122 86
-3.0350001 9.1450005 -1.011 116 52 6
-2.9779999 9.1359997 -0.98299998 129 62 10
-2.9679999 9.1540003 -0.98799998 97 67 39
-2.9719999 9.1359997 -0.972 254 166 77
-2.967 9.1809998 -0.99299997 213 147 87
-2.961 9.1789999 -0.98400003 215 133 51
-2.9630001 9.1960001 -0.98799998 128 74 36
-3.04 9.1549997 -1.007 208 147 102
-3.0420001 9.1520004 -1.013 215 123 36
-3.039 9.1639996 -1.061 157 103 57
-3.0250001 9.1499996 -1.061 163 86 0
-3.029 9.151 -1.058 144 91 49
-3.03 9.1219997 -1.0420001 232 167 101
-3.0339999 9.1149998 -1.043 158 105 73
-3.0280001 9.1169996 -1.048 181 78 12
-2.973 9.1630001 -0.86000001 146 83 39
-2.9909999 9.1680002 -0.85600001 173 115 75
-2.9779999 9.1599998 -0.85299999 161 78 8
-2.97 9.1569996 -0.87300003 174 92 10
-3.0420001 9.1610003 -0.98900002 187 96 15
-2.967 9.1560001 -0.861 214 118 31
-2.971 9.158 -0.84799999 141 66 0
-2.9660001 9.1820002 -0.972 246 168 83
-2.974 9.1859999 -0.97500002 225 144 63
-2.9619999 9.1700001 -0.97000003 217 140 84
-2.964 9.1850004 -0.98500001 180 139 111
-3.0039999 9.1169996 -0.87 73 41 3
-3.0020001 9.1199999 -0.86799997 139 94 55
-3.0209999 9.1280003 -0.866 205 115 37
-2.984 9.1409998 -0.85100001 189 82 26
-2.983 9.1350002 -0.85299999 131 89 51
-2.9690001 9.1379995 -0.85299999 186 135 82
-2.974 9.1199999 -0.85799998 140 75 21
-2.9809999 9.1450005 -0.85000002 201 94 22
-2.9890001 9.1459999 -0.995 160 68 5
-2.9749999 9.1520004 -0.98199999 131 53 17
-3.0239999 9.1350002 -0.99400002 128 79 38
-3.026 9.1389999 -0.98500001 165 113 76
-3.0350001 9.1599998 -1.022 105 47 7
-3.0009999 9.1540003 -1.064 157 64 0
-2.983 9.1590004 -1.0650001 255 182 96
-2.9809999 9.1499996 -1.067 218 129 35
-3.033 9.0690002 -1.05 242 146 85
-3.0339999 9.0819998 -1.0549999 195 110 43
-3.036 9.0769997 -1.069 153 97 36
-3.033 9.0530005 -1.0650001 107 62 33
-3.0339999 9.0640001 -1.043 128 65 24
-3.0350001 9.0559998 -1.0700001 155 82 27
-3.04 9.0530005 -1.0700001 203 122 59
-3.0250001 9.1490002 -1.054 135 66 9
-3.0139999 9.1409998 -1.064 184 99 34
-3.039 9.1739998 -1.059 91 55 33
-3.0350001 9.1639996 -1.048 82 16 0
-3.0039999 9.1549997 -0.86400002 161 103 57
-2.99 9.1639996 -0.86000001 154 96 48
-2.9949999 9.1540003 -0.85299999 95 50 9
-3.0320001 9.0710001 -1.049 137 101 77
-3.0320001 9.0740004 -1.05 216 115 59
-3 9.1370001 -0.92500001 153 70 36
-2.9920001 9.1330004 -0.91799998 70 48 27
-3.0150001 9.1219997 -0.91399997 134 94 58
-3.0079999 9.132 -0.91399997 97 51 25
-3.017 9.1269999 -0.92000002 171 97 50
-3.0280001 9.125 -0.93199998 144 80 53
-3.0039999 9.0749998 -1.066 106 40 5
-3.0020001 9.0749998 -1.0599999 103 35 0
-3.0009999 9.0699997 -1.059 117 107 108
-3.0139999 9.1300001 -0.98100001 196 148 102
-3.0209999 9.1389999 -0.98199999 164 111 61
-3.0309999 9.0819998 -1.035 148 68 19
-3.03 9.0819998 -1.052 214 107 39
-2.99 9.1029997 -1.053 156 91 51
-3.0239999 9.0719995 -1.022 219 124 40
-2.967 9.1499996 -0.87699997 147 68 11
-2.9590001 9.1429996 -0.87400001 105 86 79
-2.974 9.1920004 -0.99800003 121 116 122
-3.0469999 9.1780005 -1.05 97 32 2
-3.0320001 9.1829996 -1.045 79 25 0
-3.0309999 9.1789999 -1.043 129 47 0
-3.0350001 9.1630001 -1.033 102 69 50
-3.0179999 9.1829996 -1.0420001 112 66 42
-3.0280001 9.1829996 -1.0470001 72 27 4
-2.9920001 9.1379995 -0.91000003 114 65 32
-2.9860001 9.1450005 -0.90899998 181 79 13
-2.9809999 9.1370001 -0.89399999 51 28 10
-2.9760001 9.1330004 -0.96899998 206 124 42
-2.9779999 9.132 -0.96399999 221 143 68
-2.971 9.1529999 -0.98000002 81 63 43
-2.9690001 9.1639996 -0.97100002 217 118 51
-2.9949999 9.1700001 -0.92900002 101 47 23
-2.9990001 9.1759996 -0.92000002 62 11 0
-3.003 9.1820002 -0.92299998 66 20 0
-3.006 9.1709995 -0.93099999 66 37 23
-3.027 9.1420002 -0.98799998 166 74 0
-3.0339999 9.1440001 -1.012 238 140 49
-3.0120001 9.1370001 -1.038 174 90 30
-3.02 9.1520004 -1.04 97 19 0
-3.0109999 9.1420002 -1.052 59 41 21
-3.0020001 9.151 -1.017 211 133 84
-3.003 9.1569996 -1.024 119 43 9
-3.003 9.1479998 -1.034 146 49 0
-2.9979999 9.1470003 -1.045 172 115 85
-2.99 9.1599998 -1.056 248 171 91
-2.987 9.1479998 -1.059 209 126 50
-2.987 9.1590004 -1.059 249 163 78
-2.9879999 9.1630001 -1.0599999 143 59 0
-2.9860001 9.1520004 -1.062 221 128 58
-2.9860001 9.1549997 -1.062 249 163 76
-2.983 9.1549997 -1.0650001 241 160 81
-2.9879999 9.1630001 -1.063 219 140 61
-3.013 9.1160002 -1.05 127 109 99
-3.0150001 9.1090002 -1.053 177 94 42
-3.013 9.1090002 -1.053 205 114 57
-3.02 9.1029997 -1.048 105 58 32
-3.0250001 9.1029997 -1.038 213 116 39
-3.0109999 9.0900002 -1.062 92 47 26
-2.9979999 9.1459999 -1.062 232 135 64
-3.0309999 9.1549997 -1.0369999 146 88 42
-3.043 9.1669998 -1.056 192 104 33
-2.9879999 9.1339998 -0.85500002 207 146 92
-2.9890001 9.1490002 -0.84899998 164 66 1
-3.0109999 9.1459999 -0.86400002 90 37 5
-2.974 9.1470003 -0.852 236 145 52
-3.0120001 9.1780005 -0.91399997 124 109 112
-3.026 9.1800003 -0.92900002 117 73 48
-3.0179999 9.1759996 -0.92500001 161 87 38
-3.0179999 9.1660004 -0.91000003 126 79 37
-3.003 9.1700001 -0.89999998 95 88 95
-2.9890001 9.1689997 -0.87599999 179 118 73
-3.0320001 9.0819998 -1.0549999 121 70 23
-3.029 9.1020002 -1.026 180 117 50
-3.03 9.0799999 -1.021 151 90 46
-3.0209999 9.1409998 -0.97399998 206 154 106
-3.0190001 9.1350002 -0.96100003 224 153 87
-3.0280001 9.1330004 -0.92299998 126 48 12
-3.033 9.1440001 -0.90899998 122 44 0
-3.027 9.1370001 -0.92000002 163 77 30
-3 9.1350002 -0.90200001 160 52 0
-3.0020001 9.1350002 -0.90799999 181 76 10
-3.023 9.1280003 -0.926 106 73 56
-3.0109999 9.1379995 -0.92500001 102 52 17
-3.0120001 9.1379995 -0.92500001 74 37 19
-3.0139999 9.1350002 -0.95200002 120 81 52
-3.0090001 9.1280003 -0.95499998 115 75 50
-3.0250001 9.1260004 -0.99900001 70 39 18
-3.0350001 9.1149998 -0.99900001 136 91 52
-3.01 9.132 -0.97299999 143 94 62
-2.9909999 9.125 -0.972 119 70 30
-3.03 9.0889997 -1.0319999 184 123 79
-3.02 9.059 -1.026 104 31 0
-3.0050001 9.0579996 -1.034 192 132 96
-3.0009999 9.0559998 -1.0190001 170 110 58
-3.0050001 9.0579996 -1.025 144 65 24
-3.0039999 9.1099997 -1.0089999 155 105 70
-3.0109999 9.1070004 -1.001 98 78 67
-3.0079999 9.1079998 -1.008 108 38 0
-3.01 9.1110001 -1.002 189 140 107
-3.0039999 9.1040001 -1.0319999 255 206 115
-3.0039999 9.1099997 -1.021 241 159 77
-3.0090001 9.1230001 -1.021 157 73 9
-2.9690001 9.1920004 -0.986 238 159 84
-3.0320001 9.1709995 -1.045 87 49 30
-3.0190001 9.1680002 -0.98400003 112 68 43
-3.0280001 9.1639996 -0.991 152 90 43
-3.0120001 9.177 -0.991 195 106 50
-3.0239999 9.151 -0.89200002 178 129 96
-3.036 9.151 -0.90399998 155 133 122
-3.0339999 9.1470003 -0.99299997 152 104 64
-2.9719999 9.158 -0.85000002 171 137 109
-2.9690001 9.1569996 -0.85100001 178 91 20
-2.977 9.1359997 -0.95599997 140 112 98
-2.9790001 9.1330004 -0.96100003 253 189 117
-2.9779999 9.1370001 -0.94800001 209 153 116
-2.967 9.1309996 -0.86900002 64 41 25
-2.9630001 9.1389999 -0.87599999 255 168 65
-2.971 9.1289997 -0.85600001 81 67 54
-2.9690001 9.1420002 -0.866 244 150 36
-2.987 9.1330004 -0.88999999 118 69 28
-2.9890001 9.1339998 -0.89300001 103 49 13
-3.0020001 9.1230001 -0.88999999 136 99 80
-2.9820001 9.1389999 -0.89099997 172 65 0
-2.977 9.1339998 -0.87199998 255 172 100
-2.9949999 9.1289997 -0.87300003 194 90 1
-3.016 9.1230001 -0.89099997 150 106 67
-3.023 9.1350002 -0.90600002 164 55 0
-3.0280001 9.1280003 -0.89499998 81 36 13
-3.0139999 9.1219997 -0.86900002 137 111 86
-3.026 9.1309996 -0.87900001 182 75 0
-3.0280001 9.125 -0.87599999 163 61 0
-3.0209999 9.1400003 -0.86900002 136 53 11
-2.9949999 9.0679998 -1.028 38 28 29
-2.9979999 9.0790005 -1.028 199 164 136
-2.9949999 9.0679998 -1.0369999 134 60 11
-2.9979999 9.0640001 -1.038 122 49 0
-2.99 9.1289997 -0.96700001 240 162 77
-2.9920001 9.1280003 -0.963 225 148 60
-2.9979999 9.1309996 -0.96600002 255 151 60
-3.007 9.1330004 -0.97299999 216 167 124
-2.964 9.1920004 -0.98799998 157 78 12
-3.0039999 9.1520004 -1.023 161 77 31
-2.9649999 9.1709995 -0.96700001 131 49 0
-2.9760001 9.1789999 -0.972 172 95 23
-2.9760001 9.1719999 -0.97100002 187 87 25
-2.9979999 9.1870003 -0.977 152 96 49
-3.0090001 9.1750002 -0.926 157 98 68
-3.03 9.158 -1.028 110 65 36
-3.0050001 9.125 -1.017 250 185 105
-3.0039999 9.125 -1.013 181 130 77
-3 9.1470003 -1.01 95 50 19
-2.9960001 9.1110001 -1.015 168 96 37
-2.9949999 9.1639996 -1.058 180 97 31
-2.9749999 9.177 -0.98900002 154 107 77
-2.9719999 9.1870003 -0.995 150 115 77
-3.003 9.1599998 -1.059 84 58 35
-3.0220001 9.1490002 -1.058 122 68 24
-2.983 9.1520004 -1.0650001 221 133 62
-3 9.1499996 -1.063 170 72 11
-3.0009999 9.1429996 -1.059 152 88 53
-3.0150001 9.151 -1.061 171 85 26
-3.02 9.1560001 -1.058 79 24 0
-3.0079999 9.1499996 -1.061 188 108 49
-3.0009999 9.1639996 -1.028 99 25 0
-2.997 9.1610003 -1.054 155 85 13
-2.9990001 9.1639996 -1.056 133 57 0
-3.0120001 9.0749998 -1.066 96 31 1
-3.01 9.0699997 -1.062 189 115 70
-3.0179999 9.073 -1.063 116 71 38
-3.0179999 9.1049995 -1.054 109 50 16
-3.0079999 9.0869999 -1.062 123 48 6
-3.0090001 9.1440001 -1.063 195 104 31
-3.0280001 9.1569996 -1.0470001 107 56 13
-3.027 9.1499996 -1.033 149 70 11
-3.02 9.1309996 -1.023 213 153 103
-3.0439999 9.1689997 -1.054 109 49 13
-2.994 9.1359997 -0.86000001 166 58 0
-2.977 9.1269999 -0.85600001 76 39 10
-2.967 9.1470003 -0.85699999 88 52 30
-2.977 9.1490002 -0.88999999 207 118 52
-3.01 9.1339998 -0.91900003 192 119 78
-3.0009999 9.1350002 -0.91299999 169 63 5
-3.0109999 9.1260004 -0.90899998 103 56 26
-3.0339999 9.1490002 -0.92299998 157 137 128
-3.0309999 9.1370001 -0.92900002 107 36 4
-3.016 9.132 -1.033 101 47 1
-3.0280001 9.125 -1.01 224 158 71
-3.0280001 9.1129999 -0.995 208 159 103
-3.0220001 9.1059999 -1.0089999 106 52 16
-3.01 9.0860004 -1.017 182 122 68
-3.013 9.0839996 -1.017 199 143 86
-3.0120001 9.1350002 -0.97399998 124 72 25
-3.0120001 9.125 -0.99599999 169 118 65
-3.026 9.0830002 -1.048 147 93 49
-3.027 9.0819998 -1.048 202 104 43
-3.0280001 9.0819998 -1.038 102 29 0
-3.0380001 9.0799999 -1.029 156 70 19
-3.016 9.0600004 -1.023 196 140 91
-3.0150001 9.1040001 -1.039 163 107 60
-3.016 9.0930004 -1.05 161 65 14
-3.017 9.1110001 -1.03 135 81 35
-2.9979999 9.1079998 -1.018 135 86 53
-2.99 9.1590004 -0.85399997 102 56 23
-2.9820001 9.1549997 -0.85299999 170 89 10
-3 9.1590004 -0.88800001 124 61 18
-3.0109999 9.1630001 -0.903 236 169 117
-3.0090001 9.158 -0.90100002 85 31 3
-3.0179999 9.1549997 -0.89700001 108 28 3
-3.02 9.1499996 -0.884 98 35 2
-3.02 9.1529999 -0.90100002 121 37 1
-3.0239999 9.151 -0.89999998 102 49 18
-3.039 9.1540003 -0.99299997 178 151 132
-2.9790001 9.1520004 -0.85000002 149 60 0
-2.98 9.1409998 -0.85299999 193 86 16
-2.973 9.1400003 -0.85399997 208 155 123
-2.977 9.1370001 -0.85500002 198 136 85
-2.9820001 9.1529999 -0.91500002 199 114 60
-2.9809999 9.1549997 -0.91399997 128 46 0
-2.9760001 9.158 -0.92299998 136 71 33
-2.99 9.1440001 -0.92199999 196 99 30
-2.9679999 9.1370001 -0.87699997 255 158 57
-2.97 9.1260004 -0.861 102 53 21
-2.977 9.1280003 -0.85799998 159 130 114
-2.9779999 9.1339998 -0.87099999 141 81 31
-2.99 9.1289997 -0.95999998 168 78 16
-2.9879999 9.1339998 -0.94999999 106 62 33
-3.0209999 9.1230001 -0.889 181 119 60
-3.0179999 9.1230001 -0.88200003 236 149 69
-3.027 9.1440001 -0.90700001 106 56 29
-3.0009999 9.1540003 -0.86500001 203 146 91
-3.026 9.132 -0.88999999 238 159 84
-3.0250001 9.1339998 -0.88 186 110 58
-3.0220001 9.1400003 -0.88300002 91 40 9
-3.026 9.1269999 -0.88499999 152 66 9
-3.023 9.1350002 -0.87599999 129 64 24
-2.98 9.1309996 -0.97100002 202 112 36
-3.016 9.1549997 -0.96399999 187 144 101
-3.006 9.1569996 -0.96399999 161 113 67
-3.0039999 9.1560001 -0.954 89 42 12
-3.003 9.1599998 -0.94199997 40 2 0
-3.013 9.165 -0.93599999 108 63 40
-2.9690001 9.1870003 -0.99199998 203 126 56
-2.9920001 9.1610003 -0.95099998 111 70 48
-2.983 9.1590004 -0.93300003 154 90 54
-3.0120001 9.177 -0.92000002 99 41 4
-3.027 9.1800003 -1.04 71 33 12
-3.0250001 9.1739998 -1.033 139 76 41
-3.029 9.1669998 -1.033 178 111 68
-3.0109999 9.1350002 -1.03 178 98 35
-3.0090001 9.1309996 -1.022 164 111 61
-3 9.1569996 -1.051 224 149 66
-3.0039999 9.1619997 -1.053 131 55 0
-2.9649999 9.1730003 -0.98000002 244 149 59
-3.0039999 9.1540003 -1.005 222 145 93
-3.0050001 9.1540003 -1.011 126 52 7
-3.0090001 9.158 -1.007 234 157 87
-3.0220001 9.1689997 -1.013 120 62 22
-3.013 9.1689997 -1.002 153 125 113
-3.013 9.1660004 -1.015 142 93 52
-3.0190001 9.1660004 -0.99800003 180 123 80
-3.0220001 9.1619997 -1.003 95 49 25
-3.026 9.1569996 -1.013 120 109 113
-3.023 9.1750002 -1.0319999 231 154 102
-3.0120001 9.1719999 -1.031 127 52 12
-2.9749999 9.1619997 -0.98699999 66 31 11
-2.99 9.1549997 -0.991 115 38 0
-3.0050001 9.165 -1.054 111 33 0
-3.007 9.1619997 -1.025 215 155 103
-2.9809999 9.1700001 -0.99199998 164 101 57
-2.9820001 9.1669998 -0.98900002 159 136 120
-2.984 9.1879997 -0.99000001 239 141 70
-2.9860001 9.1700001 -0.99000001 148 117 86
-2.99 9.1929998 -0.99900001 231 146 82
-3.0179999 9.092 -1.048 144 81 46
-3.0020001 9.0790005 -1.056 146 94 57
-3.0020001 9.073 -1.054 104 95 98
-3.0020001 9.0719995 -1.044 101 37 2
-3.0079999 9.0880003 -1.0549999 136 54 7
-3.0320001 9.1599998 -1.0420001 81 23 1
-3.0190001 9.1459999 -1.033 127 82 43
-2.9979999 9.132 -0.86299998 232 134 45
-3.017 9.1450005 -0.86799997 137 102 70
-3.0209999 9.1409998 -0.87599999 112 59 27
-3.0139999 9.1440001 -0.87199998 142 103 70
-3.0020001 9.1529999 -0.875 153 63 11
-2.967 9.151 -0.861 253 164 62
-2.9679999 9.1429996 -0.86699998 138 105 74
-2.9960001 9.1359997 -0.89999998 154 49 0
-3.0079999 9.1660004 -0.903 162 100 51
-2.997 9.1719999 -0.91900003 61 12 0
-2.99 9.165 -0.89200002 160 99 52
-3.0150001 9.0889997 -1.056 113 30 0
-3.0320001 9.0740004 -1.067 105 37 0
-3.033 9.0780001 -1.061 151 76 21
-3.0250001 9.0670004 -1.063 71 34 18
-3.0220001 9.0629997 -1.048 120 61 21
-3.007 9.1079998 -1.011 233 161 102
-3.0050001 9.0889997 -1.022 182 145 116
-3 9.1370001 -0.93699998 113 63 14
-3.0079999 9.1330004 -0.95300001 205 130 72
-3.0190001 9.1280003 -0.917 111 32 0
-3.0309999 9.1479998 -0.92199999 178 125 93
-3.03 9.1450005 -0.90899998 120 36 0
-3.026 9.1490002 -0.92699999 106 60 36
-3.036 9.1330004 -0.93199998 116 51 23
-3.029 9.1300001 -0.93000001 112 49 18
-3.0280001 9.1160002 -1.0140001 194 93 21
-3.0220001 9.0780001 -1.0190001 141 44 0
-3.0179999 9.0740004 -1.021 180 83 14
-3.0250001 9.0970001 -1.021 217 155 108
-3.0039999 9.1409998 -1.011 240 145 77
-3.006 9.1470003 -1.016 240 143 75
-3.03 9.0970001 -1.027 112 97 90
-2.9809999 9.1350002 -0.98400003 224 150 87
-2.98 9.1339998 -0.97899997 252 186 92
-2.9779999 9.1800003 -0.97600001 253 182 100
-3.0220001 9.1639996 -1.056 140 55 0
-3.0220001 9.1639996 -0.995 98 56 32
-3.0369999 9.158 -0.99199998 77 45 34
-3.033 9.1520004 -0.98100001 183 87 10
-2.98 9.1590004 -0.926 133 64 22
-2.9949999 9.1280003 -0.95999998 240 169 89
-2.9849999 9.1429996 -0.94999999 214 120 48
-3.0250001 9.1300001 -0.92299998 204 111 34
-3.0079999 9.1260004 -0.866 201 100 22
-3.0079999 9.1219997 -0.87599999 204 160 123
-3.0039999 9.125 -0.87900001 250 140 55
-3.0239999 9.1289997 -0.87199998 236 185 132
-2.98 9.1389999 -0.97600001 108 85 67
-2.9779999 9.1549997 -0.98100001 196 128 83
-2.9779999 9.1330004 -0.97399998 234 158 70
-2.98 9.1330004 -0.97500002 192 100 25
-3.023 9.1739998 -0.93000001 173 100 57
-3.0090001 9.1549997 -0.94499999 131 105 90
-3.0209999 9.1520004 -0.96200001 109 93 93
-2.9690001 9.1850004 -0.98100001 255 182 94
-2.9879999 9.1669998 -0.96899998 156 96 59
-3.02 9.1350002 -1.021 173 115 51
-3.0280001 9.1669998 -1.029 125 80 47
-3.006 9.1490002 -1.029 143 53 0
-3.0109999 9.1409998 -1.0190001 135 107 95
-3.007 9.1560001 -1.018 164 141 133
-3.0109999 9.1639996 -1.036 134 64 13
-2.9979999 9.1429996 -1.052 70 49 28
-3.007 9.158 -1.036 159 67 18
-3.0039999 9.1520004 -1.012 149 72 18
-3.0020001 9.151 -1 234 152 92
-3.0090001 9.158 -1.0039999 154 103 58
-3.0109999 9.1759996 -0.99599999 121 38 0
-2.9719999 9.191 -0.99000001 122 72 39
-3.0120001 9.1400003 -1.056 88 38 15
-3.003 9.1540003 -1.017 213 148 92
-2.977 9.184 -0.99000001 157 114 72
-3.029 9.059 -1.041 147 88 54
-3.0190001 9.0620003 -1.044 62 42 31
-3.017 9.0620003 -1.034 154 97 42
-3.003 9.0690002 -1.048 202 116 59
-3.0220001 9.1359997 -0.86900002 145 82 39
-3.0139999 9.1379995 -0.86699998 158 77 24
-2.967 9.1470003 -0.86500001 252 166 55
-3.0009999 9.1669998 -0.90100002 102 66 50
-2.98 9.1520004 -0.889 149 67 7
-2.983 9.158 -0.89499998 132 80 40
-2.993 9.1660004 -0.92000002 120 54 22
-3.026 9.0760002 -1.067 106 43 2
-3.023 9.0839996 -1.023 158 124 97
-2.9949999 9.1470003 -0.93199998 89 67 46
-3.0050001 9.1680002 -0.98000002 195 148 104
-3.0109999 9.1590004 -0.97100002 132 58 31
-3.013 9.1619997 -0.97500002 133 73 23
-2.9979999 9.1669998 -0.97899997 227 161 113
-3.0209999 9.1389999 -0.898 136 89 63
-3.023 9.1350002 -0.91100001 206 101 33
-3.017 9.1590004 -0.92000002 95 46 16
-3.016 9.1210003 -1.028 131 112 106
-3.029 9.1169996 -1.023 151 89 48
-3.0109999 9.066 -1.0190001 168 81 28
-3.003 9.1350002 -1.005 198 117 52
-2.9979999 9.1400003 -0.99299997 241 140 62
-2.9990001 9.0629997 -1.03 188 88 28
-3.0090001 9.059 -1.026 143 59 12
-3.0079999 9.059 -1.036 164 103 58
-3.016 9.1059999 -1.0140001 158 75 23
-2.9719999 9.1450005 -0.85299999 59 33 20
-2.99 9.1379995 -0.89999998 207 99 34
-3.016 9.1759996 -1.043 127 67 33
-3.0139999 9.177 -1.038 142 62 11
-3.0190001 9.1680002 -0.991 104 59 30
-3.023 9.165 -0.99000001 105 60 18
-3.0350001 9.151 -0.97500002 240 162 87
-3.0250001 9.1490002 -0.97399998 184 145 102
-3.029 9.1619997 -0.98299998 197 154 111
-3.033 9.1520004 -0.977 222 124 53
-3.029 9.1470003 -0.98799998 159 112 68
-2.974 9.1560001 -0.85000002 169 109 57
-2.984 9.1330004 -0.86000001 132 83 43
-2.9890001 9.1429996 -0.85399997 215 159 108
-2.997 9.165 -0.93099999 75 47 35
-2.9760001 9.1490002 -0.884 184 101 23
-2.984 9.1499996 -0.93699998 172 84 34
-2.99 9.158 -0.95599997 127 73 35
-2.9960001 9.1389999 -0.94499999 177 99 27
-3.003 9.1359997 -0.94700003 63 18 0
-3.0209999 9.1239996 -0.87800002 193 132 77
-2.9779999 9.1619997 -0.97500002 248 169 113
-2.9760001 9.1660004 -0.97299999 206 101 44
-3.003 9.1709995 -0.99299997 211 169 131
-3.0039999 9.1730003 -0.99000001 143 64 8
-3.027 9.1800003 -0.93099999 189 117 69
-3.0339999 9.1850004 -0.92900002 204 128 76
-3.0179999 9.1669998 -0.926 25 13 15
-3.0150001 9.1700001 -0.92900002 123 54 12
-3.0020001 9.158 -0.96399999 98 25 0
-3.0190001 9.1450005 -1.031 159 85 38
-3.01 9.1669998 -1.031 131 108 94
-3.02 9.177 -1.034 215 135 86
-2.994 9.1529999 -1.053 110 56 20
-3.0020001 9.1529999 -0.99900001 188 107 54
-3.003 9.1429996 -1.01 255 168 99
-2.99 9.1920004 -0.98699999 140 91 48
-2.9849999 9.1940002 -0.99199998 105 59 36
-2.9820001 9.1879997 -0.98400003 222 121 41
-2.9879999 9.1750002 -0.97899997 191 89 27
-2.987 9.1820002 -0.98100001 164 61 0
-2.9749999 9.1879997 -0.99400002 120 80 44
-3.006 9.0810003 -1.022 70 51 44
-3.0020001 9.0690002 -1.054 157 79 30
-3.006 9.0670004 -1.058 79 23 0
-3.0079999 9.066 -1.051 131 126 130
-3.0009999 9.0860004 -1.04 145 94 49
-3.0209999 9.1359997 -0.86799997 118 32 0
-3.0039999 9.151 -0.86699998 87 58 44
-2.9660001 9.1499996 -0.866 218 132 29
-3.0109999 9.1660004 -0.90799999 143 79 35
-2.9849999 9.151 -0.90899998 156 63 4
-2.9890001 9.1639996 -0.92400002 57 15 0
-2.9860001 9.1599998 -0.92199999 152 80 32
-3.027 9.0799999 -1.061 136 63 20
-3.0039999 9.1079998 -1.016 219 139 54
-3.0109999 9.1190004 -1.005 255 203 109
-3.0079999 9.1210003 -1.011 218 165 125
-3.0209999 9.1400003 -0.95700002 201 101 26
-3.0120001 9.1379995 -0.94999999 251 173 111
-3.0220001 9.1499996 -0.97000003 243 131 45
-3.013 9.1709995 -0.98199999 161 105 70
-3.0190001 9.1639996 -0.977 98 36 0
-3.0039999 9.1739998 -0.98400003 176 94 36
-3.017 9.1540003 -0.90799999 155 64 20
-3.027 9.1230001 -1.016 232 167 77
-3.0139999 9.066 -1.021 231 131 37
-3.0090001 9.0609999 -1.02 168 111 81
-3.006 9.0670004 -1.018 247 147 72
-3.0020001 9.0710001 -1.013 148 93 39
-3 9.0629997 -1.0190001 198 140 102
-3.017 9.158 -0.97000003 130 83 39
-2.99 9.1400003 -0.98799998 255 173 97
-2.987 9.1370001 -0.98199999 237 137 62
-2.993 9.1260004 -0.977 246 157 65
-3.01 9.1040001 -1.0140001 189 138 93
-2.9760001 9.1470003 -0.88499999 195 109 22
-2.9809999 9.1809998 -0.97899997 172 74 0
-2.971 9.1719999 -0.986 183 132 85
-3.033 9.1499996 -0.99000001 171 112 68
-2.9909999 9.1590004 -0.93699998 35 1 0
-2.9860001 9.1420002 -0.963 215 153 96
-2.987 9.1400003 -0.949 206 103 24
-2.9949999 9.1350002 -0.949 77 34 0
-3.013 9.1239996 -0.88599998 166 125 103
-3.0009999 9.1260004 -0.87800002 249 138 48
-2.9960001 9.1289997 -0.87800002 253 136 43
-2.994 9.177 -0.98100001 167 70 2
-3.0109999 9.1490002 -0.93800002 129 46 2
-3.0209999 9.1669998 -1.023 147 82 42
-2.997 9.1599998 -0.99299997 200 118 60
-2.997 9.1890001 -0.98299998 182 81 1
-2.9790001 9.1870003 -0.98100001 240 162 77
-2.9909999 9.1870003 -0.98299998 149 102 76
-3.0079999 9.0579996 -1.0470001 101 47 9
-2.984 9.1330004 -0.87199998 175 83 6
-2.9860001 9.1330004 -0.87300003 118 64 28
-3.02 9.1300001 -0.86699998 125 37 0
-3.0039999 9.1450005 -0.86500001 120 77 35
-2.993 9.1599998 -0.91399997 97 64 49
-2.983 9.1560001 -0.921 175 106 65
-2.984 9.1560001 -0.91399997 230 163 93
-3.016 9.1599998 -0.91399997 63 24 9
-3.026 9.1540003 -0.972 144 116 94
-2.9979999 9.0649996 -1.022 115 98 91
-3 9.0629997 -1.024 156 66 14
-3.01 9.0690002 -1.0190001 235 140 74
-3.0050001 9.132 -1.006 188 140 91
-2.9949999 9.1389999 -0.986 254 150 77
-3.013 9.1160002 -1.002 230 167 87
-3.0090001 9.1129999 -1.006 113 89 77
-2.97 9.1479998 -0.85500002 220 121 27
-2.9879999 9.158 -0.89999998 121 60 29
-2.9909999 9.1599998 -0.89899999 154 73 17
-2.9660001 9.1750002 -0.98799998 64 30 5
-2.9890001 9.1440001 -0.96799999 182 102 17
-3.0009999 9.1260004 -0.87900001 254 165 73
-3.0120001 9.1409998 -0.93699998 120 69 22
-2.9779999 9.1689997 -0.97100002 141 38 0
-2.997 9.1630001 -0.99199998 158 118 83
-3.0020001 9.165 -0.99199998 143 96 52
-2.9960001 9.1599998 -0.99199998 192 114 68
-3.0039999 9.1789999 -0.98500001 184 89 31
-3.0090001 9.0570002 -1.044 74 28 2
-3.003 9.0579996 -1.04 114 104 112
-3.0079999 9.0869999 -1.0420001 199 104 38
-2.984 9.1479998 -0.89899999 228 139 71
-2.9860001 9.1560001 -0.91000003 123 41 1
-2.9849999 9.158 -0.91900003 182 113 74
-3.01 9.1260004 -1.006 255 196 103
-2.9909999 9.1459999 -0.96600002 144 92 53
-3.006 9.1300001 -0.86500001 175 76 0
-2.9920001 9.1689997 -0.98900002 232 154 82
-3.0090001 9.1440001 -0.949 75 40 2
-3.013 9.1689997 -1.036 101 30 0
-2.983 9.1700001 -0.97299999 111 29 0
-3.0179999 9.1709995 -1.027 253 173 122
-2.99 9.1590004 -0.91299999 95 26 0
-3.0220001 9.1630001 -0.97600001 54 9 0
-2.983 9.1499996 -0.89700001 210 120 57
-2.9879999 9.1700001 -0.98900002 234 160 87
0 0 0 1 0 0 0 1 0 0 0 1 0 0 0 0 0 615 1 0 0
