ply
format ascii 1.0
comment PCL generated
element vertex 184
property float x
property float y
property float z
property uchar red
property uchar green
property uchar blue
element camera 1
property float view_px
property float view_py
property float view_pz
property float x_axisx
property float x_axisy
property float x_axisz
property float y_axisx
property float y_axisy
property float y_axisz
property float z_axisx
property float z_axisy
property float z_axisz
property float focal
property float scalex
property float scaley
property float centerx
property float centery
property int viewportx
property int viewporty
property float k1
property float k2
end_header
2.2939999 11.748 -0.90899998 176 96 23
2.2780001 11.759 -0.90100002 82 53 39
2.2980001 11.746 -0.89899999 253 191 114
2.345 11.833 -0.83899999 145 65 2
2.3399999 11.819 -0.82999998 174 97 25
2.3410001 11.835 -0.83399999 185 108 38
2.3510001 11.838 -0.89399999 180 120 86
2.3499999 11.833 -0.898 175 112 81
2.3570001 11.84 -0.89499998 100 36 0
2.3469999 11.832 -0.838 39 15 3
2.3499999 11.827 -0.81800002 62 34 22
2.2939999 11.749 -0.90499997 255 188 105
2.2880001 11.759 -0.88300002 156 72 25
2.2780001 11.759 -0.87599999 156 103 69
2.2920001 11.756 -0.87800002 209 122 51
2.3469999 11.821 -0.90899998 209 129 80
2.3499999 11.824 -0.91600001 217 137 84
2.355 11.823 -0.91000003 142 128 125
2.349 11.807 -0.90200001 128 44 10
2.2839999 11.79 -0.92400002 158 112 89
2.279 11.802 -0.90499997 151 97 53
2.286 11.809 -0.91399997 68 16 0
2.3759999 11.823 -0.89999998 137 127 128
2.3740001 11.816 -0.898 155 145 143
2.3770001 11.816 -0.89499998 88 57 39
2.3800001 11.822 -0.89700001 157 107 80
2.299 11.749 -0.90499997 239 173 99
2.3 11.787 -0.81400001 179 121 83
2.3169999 11.777 -0.81400001 135 65 16
2.293 11.772 -0.81 151 84 39
2.2969999 11.769 -0.81 110 40 0
2.299 11.787 -0.82700002 178 123 59
2.2950001 11.785 -0.82499999 163 83 30
2.3199999 11.781 -0.82099998 150 70 9
2.303 11.768 -0.81099999 156 82 33
2.3 11.764 -0.815 206 123 57
2.303 11.763 -0.81900001 235 148 55
2.3110001 11.761 -0.81800002 62 41 46
2.3510001 11.823 -0.83700001 161 82 25
2.3510001 11.802 -0.89099997 102 57 28
2.3529999 11.804 -0.89700001 180 97 47
2.322 11.783 -0.83200002 182 102 41
2.312 11.775 -0.83499998 76 44 33
2.306 11.779 -0.83899999 231 157 108
2.3570001 11.838 -0.88200003 58 30 18
2.3510001 11.838 -0.889 116 56 19
2.2809999 11.766 -0.91299999 93 27 0
2.2809999 11.767 -0.93199998 229 174 144
2.2739999 11.772 -0.92500001 83 27 0
2.2750001 11.773 -0.89999998 99 37 0
2.2920001 11.772 -0.92500001 105 26 0
2.2869999 11.77 -0.91399997 135 60 5
2.293 11.774 -0.91100001 193 114 45
2.2980001 11.776 -0.92699999 123 35 0
2.2869999 11.772 -0.92000002 170 93 47
2.345 11.835 -0.88800001 173 110 67
2.3269999 11.779 -0.82700002 89 52 26
2.352 11.811 -0.829 189 112 66
2.345 11.822 -0.81900001 114 88 75
2.3429999 11.808 -0.89600003 119 44 5
2.2839999 11.79 -0.91900003 176 125 98
2.2909999 11.769 -0.81900001 69 42 31
2.296 11.783 -0.81800002 183 94 28
2.342 11.821 -0.82499999 95 66 58
2.345 11.818 -0.83499998 157 77 16
2.2950001 11.767 -0.815 170 89 24
2.2920001 11.77 -0.815 181 104 48
2.28 11.775 -0.88599998 158 100 63
2.28 11.775 -0.87099999 181 116 74
2.277 11.761 -0.86900002 185 127 89
2.2809999 11.772 -0.87800002 153 91 52
2.2939999 11.779 -0.89300001 127 73 35
2.3010001 11.78 -0.88700002 70 26 1
2.2969999 11.772 -0.86199999 63 31 16
2.2939999 11.774 -0.85699999 93 42 13
2.3069999 11.782 -0.87199998 63 21 0
2.3099999 11.769 -0.82499999 241 161 66
2.2869999 11.755 -0.86299998 215 124 51
2.2939999 11.763 -0.85600001 196 116 45
2.2980001 11.76 -0.86000001 255 177 106
2.29 11.769 -0.82499999 229 172 101
2.29 11.765 -0.90399998 208 129 72
2.3 11.76 -0.89700001 146 93 51
2.3 11.766 -0.88099998 223 140 64
2.293 11.759 -0.87400001 174 82 15
2.302 11.76 -0.884 250 173 95
2.309 11.765 -0.89099997 211 140 62
2.2950001 11.776 -0.90700001 211 157 119
2.3069999 11.762 -0.89700001 123 73 36
2.365 11.817 -0.88300002 176 113 72
2.3499999 11.819 -0.86699998 149 92 49
2.3610001 11.806 -0.87199998 191 136 105
2.3559999 11.829 -0.88 157 137 136
2.346 11.808 -0.88800001 77 26 0
2.3410001 11.813 -0.88099998 190 134 99
2.3529999 11.814 -0.89899999 162 150 152
2.3180001 11.781 -0.82200003 54 26 14
2.279 11.77 -0.926 88 28 2
2.3039999 11.766 -0.89099997 238 164 91
2.3 11.768 -0.89099997 174 94 33
2.3050001 11.771 -0.87800002 160 89 47
2.3469999 11.838 -0.87900001 93 24 0
2.346 11.812 -0.89200002 115 46 5
2.2980001 11.773 -0.88999999 62 34 22
2.2850001 11.785 -0.90899998 87 30 1
2.283 11.805 -0.90200001 139 89 54
2.2850001 11.808 -0.90799999 103 53 20
2.29 11.813 -0.91600001 68 13 0
2.293 11.808 -0.92000002 156 103 71
2.3 11.783 -0.92400002 145 54 7
2.2920001 11.779 -0.92400002 89 27 2
2.296 11.791 -0.90700001 213 146 104
2.2980001 11.785 -0.921 82 21 2
2.2880001 11.798 -0.91900003 170 116 80
2.2969999 11.785 -0.82300001 147 77 28
2.2969999 11.782 -0.82800001 70 48 34
2.345 11.825 -0.81999999 124 42 4
2.3099999 11.77 -0.81599998 124 43 0
2.3429999 11.812 -0.829 125 45 0
2.349 11.818 -0.83099997 154 75 19
2.28 11.764 -0.87900001 114 39 0
2.293 11.774 -0.82499999 183 97 14
2.2980001 11.761 -0.82700002 216 136 25
2.313 11.78 -0.833 253 180 88
2.293 11.76 -0.86000001 180 93 22
2.2880001 11.774 -0.86299998 178 110 61
2.283 11.772 -0.88599998 135 63 23
2.3010001 11.774 -0.88300002 218 141 87
2.352 11.82 -0.87400001 42 21 18
2.365 11.82 -0.889 135 123 125
2.355 11.834 -0.884 155 98 68
2.3529999 11.804 -0.88099998 136 80 43
2.3559999 11.805 -0.87599999 132 119 113
2.346 11.812 -0.88099998 97 42 11
2.2820001 11.77 -0.92799997 129 72 45
2.3050001 11.779 -0.875 114 44 10
2.3039999 11.769 -0.88300002 160 86 37
2.3469999 11.824 -0.87599999 118 56 17
2.3469999 11.813 -0.88700002 97 31 0
2.346 11.806 -0.89499998 88 37 6
2.28 11.775 -0.89300001 160 106 68
2.2950001 11.781 -0.92299998 186 102 55
2.2869999 11.809 -0.90799999 77 17 0
2.2850001 11.801 -0.90700001 98 46 7
2.2850001 11.793 -0.91600001 93 38 7
2.2950001 11.776 -0.81800002 208 148 88
2.2869999 11.778 -0.85600001 163 94 35
2.3069999 11.775 -0.83600003 255 200 106
2.2969999 11.768 -0.83200002 255 205 132
2.303 11.762 -0.82800001 245 173 65
2.3199999 11.781 -0.82599998 180 98 38
2.29 11.76 -0.85900003 147 94 54
2.29 11.767 -0.83200002 205 151 77
2.2939999 11.763 -0.83200002 194 117 29
2.2909999 11.755 -0.86299998 217 126 55
2.3570001 11.838 -0.89600003 38 8 0
2.2809999 11.773 -0.91600001 81 23 0
2.28 11.775 -0.89999998 141 88 48
2.2939999 11.762 -0.82700002 218 136 37
2.2939999 11.764 -0.82300001 224 136 36
2.299 11.764 -0.81999999 209 123 50
2.299 11.763 -0.833 255 183 83
2.303 11.763 -0.82300001 234 149 42
2.2909999 11.769 -0.81999999 157 75 15
2.2939999 11.765 -0.81900001 255 171 99
2.2920001 11.769 -0.833 96 68 56
2.29 11.769 -0.86000001 88 29 0
2.2880001 11.759 -0.86900002 227 134 64
2.3039999 11.779 -0.875 118 80 59
2.2920001 11.758 -0.88800001 166 81 27
2.2839999 11.784 -0.91900003 110 57 25
2.2839999 11.776 -0.912 68 10 0
2.2939999 11.779 -0.917 197 113 49
2.2939999 11.78 -0.90899998 108 39 10
2.3559999 11.823 -0.88 188 137 106
2.279 11.774 -0.89600003 237 177 127
2.2969999 11.788 -0.90499997 62 32 21
2.29 11.768 -0.82499999 132 51 0
2.299 11.763 -0.82300001 255 173 64
2.279 11.773 -0.90499997 104 46 8
2.283 11.783 -0.92400002 129 76 44
2.3510001 11.816 -0.87400001 145 90 49
2.3540001 11.806 -0.87599999 76 31 2
2.293 11.764 -0.824 220 132 58
0 0 0 1 0 0 0 1 0 0 0 1 0 0 0 0 0 184 1 0 0
