ply
format ascii 1.0
comment PCL generated
element vertex 248
property float x
property float y
property float z
property uchar red
property uchar green
property uchar blue
element camera 1
property float view_px
property float view_py
property float view_pz
property float x_axisx
property float x_axisy
property float x_axisz
property float y_axisx
property float y_axisy
property float y_axisz
property float z_axisx
property float z_axisy
property float z_axisz
property float focal
property float scalex
property float scaley
property float centerx
property float centery
property int viewportx
property int viewporty
property float k1
property float k2
end_header
5.2059999 8.4639997 -0.83099997 117 97 88
5.2140002 8.4650002 -0.83099997 167 121 85
5.1999998 8.46 -0.82499999 43 28 33
5.2280002 8.4689999 -0.86400002 44 32 36
5.2329998 8.4729996 -0.87599999 106 100 100
5.2399998 8.4770002 -0.86299998 61 33 19
5.2129998 8.467 -0.866 78 55 41
5.2610002 8.4440002 -0.84299999 110 87 71
5.2670002 8.4429998 -0.84299999 175 144 113
5.2589998 8.4460001 -0.83200002 28 13 10
5.2199998 8.448 -0.82499999 100 69 48
5.2189999 8.4530001 -0.82300001 96 59 32
5.21 8.4429998 -0.81800002 100 79 62
5.1999998 8.4549999 -0.81599998 102 79 61
5.1919999 8.4549999 -0.82200003 113 75 52
5.191 8.448 -0.81599998 170 134 110
5.1950002 8.4540005 -0.82999998 97 47 20
5.2620001 8.4399996 -0.852 34 11 3
5.2670002 8.4350004 -0.852 92 71 68
5.276 8.4499998 -0.84600002 54 42 42
5.2670002 8.4569998 -0.83700001 66 37 29
5.2800002 8.4359999 -0.76800001 63 35 23
5.283 8.4359999 -0.77200001 89 51 30
5.289 8.4519997 -0.77200001 255 226 205
5.2880001 8.448 -0.773 93 74 68
5.2849998 8.4429998 -0.773 133 112 91
5.2859998 8.4429998 -0.77499998 255 233 217
5.276 8.441 -0.76200002 61 29 16
5.2909999 8.4530001 -0.778 74 41 22
5.2839999 8.4499998 -0.76999998 221 180 152
5.2610002 8.4809999 -0.80800003 53 35 33
5.263 8.4840002 -0.81300002 35 19 19
5.2620001 8.4820004 -0.815 33 22 20
5.2620001 8.4750004 -0.86400002 59 37 23
5.244 8.4770002 -0.85399997 60 39 34
5.2620001 8.4750004 -0.86000001 48 25 11
5.2529998 8.4420004 -0.866 23 12 10
5.2309999 8.4759998 -0.89300001 97 75 64
5.2360001 8.4709997 -0.89499998 153 133 124
5.2270002 8.4709997 -0.898 140 116 106
5.2259998 8.4650002 -0.88700002 25 5 0
5.2410002 8.4659996 -0.89600003 138 115 109
5.2449999 8.4759998 -0.85500002 29 20 21
5.2059999 8.448 -0.81599998 116 67 34
5.2069998 8.4510002 -0.81800002 175 167 165
5.2119999 8.4530001 -0.82200003 158 105 63
5.2620001 8.4829998 -0.82599998 23 19 16
5.256 8.5 -0.82999998 76 45 42
5.256 8.4790001 -0.83899999 56 28 25
5.2579999 8.4809999 -0.83200002 10 0 0
5.1989999 8.448 -0.81900001 82 63 48
5.217 8.4560003 -0.824 137 91 55
5.2030001 8.441 -0.82499999 102 79 61
5.2199998 8.4460001 -0.833 50 38 42
5.2360001 8.4879999 -0.81199998 49 21 17
5.2350001 8.4790001 -0.81300002 34 16 12
5.2410002 8.4860001 -0.79400003 65 56 57
5.276 8.4560003 -0.84600002 137 120 112
5.2480001 8.4860001 -0.796 64 53 51
5.2480001 8.4960003 -0.80299997 33 14 0
5.2610002 8.4899998 -0.79900002 88 65 47
5.2620001 8.4809999 -0.80400002 53 35 33
5.2579999 8.4770002 -0.88800001 60 40 33
5.2639999 8.4759998 -0.889 32 8 8
5.2519999 8.4650002 -0.89099997 57 19 6
5.2509999 8.4589996 -0.89700001 25 16 17
5.2270002 8.4680004 -0.85699999 31 18 25
5.2199998 8.4659996 -0.86699998 140 117 111
5.2550001 8.4949999 -0.80400002 32 15 5
5.2509999 8.4949999 -0.80299997 47 31 16
5.2600002 8.4910002 -0.80699998 115 104 102
5.2470002 8.4790001 -0.83499998 45 28 21
5.2519999 8.4779997 -0.84100002 15 3 3
5.2210002 8.4709997 -0.84200001 37 22 25
5.2399998 8.4770002 -0.83399999 42 23 9
5.1900001 8.4519997 -0.82499999 82 37 14
5.1880002 8.4449997 -0.829 127 83 58
5.2090001 8.4530001 -0.82099998 147 93 49
5.2210002 8.4499998 -0.86000001 42 19 5
5.2249999 8.4560003 -0.88 33 8 3
5.2119999 8.4589996 -0.86299998 128 106 95
5.1929998 8.4460001 -0.82700002 146 90 55
5.2199998 8.4549999 -0.824 46 34 38
5.223 8.4560003 -0.82800001 100 74 59
5.2259998 8.4540005 -0.83200002 22 7 10
5.2220001 8.4510002 -0.82999998 56 28 7
5.2399998 8.4879999 -0.80199999 45 23 10
5.2690001 8.4420004 -0.852 44 28 31
5.276 8.4610004 -0.84799999 105 87 77
5.2579999 8.4700003 -0.84500003 57 38 40
5.2610002 8.4429998 -0.824 17 6 10
5.257 8.4799995 -0.81 32 18 18
5.2839999 8.4449997 -0.77200001 193 162 133
5.2740002 8.4469995 -0.76499999 84 46 27
5.256 8.448 -0.847 61 37 33
5.2779999 8.4540005 -0.85399997 21 9 9
5.2719998 8.4490004 -0.85000002 45 23 12
5.2470002 8.4630003 -0.88599998 43 19 15
5.2360001 8.4630003 -0.89099997 37 12 7
5.2470002 8.4560003 -0.89099997 99 57 45
5.2189999 8.4650002 -0.84899998 30 6 0
5.217 8.4619999 -0.85500002 26 8 6
5.217 8.467 -0.84500003 100 63 34
5.2179999 8.4639997 -0.87 61 39 28
5.224 8.4619999 -0.88099998 58 34 24
5.2340002 8.4530001 -0.88 70 40 32
5.2550001 8.4949999 -0.81800002 12 2 1
5.2220001 8.4700003 -0.84399998 150 111 68
5.2179999 8.4700003 -0.84299999 132 85 41
5.198 8.4469995 -0.83200002 124 68 33
5.2329998 8.4540005 -0.84299999 108 69 38
5.244 8.4569998 -0.838 76 55 38
5.2340002 8.4530001 -0.85000002 44 20 8
5.244 8.4890003 -0.81800002 23 9 8
5.2410002 8.4910002 -0.81400001 28 10 6
5.2410002 8.4860001 -0.81400001 110 103 110
5.2490001 8.4980001 -0.82700002 81 60 43
5.2509999 8.4980001 -0.82300001 97 75 61
5.2420001 8.4919996 -0.80699998 37 17 8
5.2670002 8.4440002 -0.861 56 35 30
5.2690001 8.4630003 -0.85799998 96 74 63
5.263 8.467 -0.87400001 31 12 8
5.2639999 8.448 -0.82300001 10 0 1
5.257 8.4429998 -0.81999999 11 3 1
5.2639999 8.4370003 -0.77200001 145 123 110
5.2729998 8.4329996 -0.77200001 84 64 53
5.2600002 8.4840002 -0.801 32 15 8
5.276 8.4420004 -0.76300001 86 66 57
5.243 8.4560003 -0.86799997 60 39 36
5.2410002 8.4530001 -0.86400002 56 36 29
5.257 8.4490004 -0.84399998 94 60 32
5.2620001 8.4700003 -0.88800001 73 44 38
5.2410002 8.4630003 -0.89200002 25 9 9
5.2049999 8.4569998 -0.83200002 132 126 128
5.2519999 8.4770002 -0.84500003 29 11 9
5.2249999 8.4630003 -0.87800002 42 19 11
5.2210002 8.4630003 -0.87400001 42 20 9
5.2280002 8.4619999 -0.88599998 36 12 10
5.224 8.4540005 -0.85000002 60 39 34
5.2420001 8.4659996 -0.87900001 48 27 22
5.2600002 8.4879999 -0.81 81 60 41
5.2360001 8.4689999 -0.85299999 46 27 21
5.2350001 8.467 -0.84899998 104 84 77
5.2210002 8.4680004 -0.84600002 57 25 0
5.2030001 8.4560003 -0.82099998 114 65 32
5.1960001 8.4560003 -0.82300001 86 46 21
5.1950002 8.4549999 -0.82700002 76 29 3
5.2579999 8.4820004 -0.80400002 25 9 9
5.256 8.4809999 -0.80900002 71 56 53
5.2579999 8.4809999 -0.80800003 26 10 13
5.2490001 8.4919996 -0.81099999 147 103 64
5.2509999 8.493 -0.81 110 84 67
5.2670002 8.4659996 -0.89099997 86 66 57
5.256 8.46 -0.89099997 32 1 0
5.2670002 8.474 -0.88200003 62 27 0
5.2589998 8.4680004 -0.87800002 29 5 3
5.2670002 8.4589996 -0.86000001 22 1 0
5.2620001 8.4630003 -0.84899998 92 58 31
5.2750001 8.4610004 -0.85100001 41 19 6
5.263 8.4639997 -0.84200001 29 16 23
5.2589998 8.4610004 -0.83399999 58 37 36
5.263 8.4499998 -0.82499999 55 32 16
5.2649999 8.4379997 -0.80900002 19 8 12
5.2389998 8.4750004 -0.80900002 29 20 15
5.2410002 8.4659996 -0.824 22 10 10
5.2789998 8.4359999 -0.77600002 116 73 54
5.2740002 8.4399996 -0.78299999 81 36 17
5.2659998 8.4519997 -0.778 52 28 16
5.2639999 8.448 -0.77999997 51 27 15
5.2670002 8.448 -0.79100001 39 19 12
5.2670002 8.4469995 -0.787 30 5 0
5.2160001 8.4540005 -0.852 15 0 0
5.2600002 8.4420004 -0.85600001 61 40 37
5.2399998 8.4560003 -0.85699999 72 49 41
5.2389998 8.4549999 -0.86000001 57 34 26
5.2519999 8.4530001 -0.86199999 45 27 23
5.2620001 8.46 -0.88700002 85 75 76
5.2540002 8.4540005 -0.87699997 60 41 34
5.2480001 8.4580002 -0.87699997 33 15 11
5.2600002 8.46 -0.87699997 32 17 14
5.2620001 8.4630003 -0.87699997 52 20 0
5.204 8.4530001 -0.83200002 45 27 27
5.21 8.46 -0.83700001 51 29 31
5.2270002 8.4680004 -0.87099999 28 13 16
5.223 8.4650002 -0.87099999 33 10 4
5.2540002 8.474 -0.81900001 48 27 8
5.2589998 8.4779997 -0.82800001 8 0 0
5.2550001 8.4960003 -0.815 19 8 6
5.2410002 8.4910002 -0.81099999 19 1 0
5.27 8.4680004 -0.88800001 39 17 20
5.2589998 8.4460001 -0.82499999 14 4 3
5.2600002 8.4469995 -0.80800003 30 12 0
5.2709999 8.4560003 -0.80699998 106 87 70
5.2649999 8.4560003 -0.82300001 41 14 3
5.2729998 8.4510002 -0.80699998 38 27 31
5.256 8.441 -0.80900002 48 43 39
5.2690001 8.4370003 -0.80599999 38 26 28
5.223 8.4589996 -0.829 64 27 0
5.277 8.4420004 -0.76499999 63 22 4
5.2800002 8.4379997 -0.77600002 114 77 51
5.2789998 8.4420004 -0.78100002 125 79 53
5.276 8.441 -0.78600001 71 29 7
5.2839999 8.4519997 -0.77200001 84 45 28
5.2750001 8.4510002 -0.78600001 118 80 61
5.2740002 8.4510002 -0.77499998 66 27 12
5.27 8.4519997 -0.77899998 55 26 12
5.2670002 8.4469995 -0.77399999 70 48 51
5.2680001 8.4440002 -0.773 52 23 17
5.2670002 8.441 -0.78600001 62 33 25
5.27 8.441 -0.78399998 52 33 19
5.2199998 8.4519997 -0.84600002 92 72 71
5.2140002 8.46 -0.85600001 118 102 102
5.2350001 8.4540005 -0.86199999 24 5 1
5.223 8.4589996 -0.86900002 35 11 7
5.2519999 8.4709997 -0.86900002 28 8 0
5.256 8.4530001 -0.87 13 0 0
5.244 8.4700003 -0.87400001 75 43 18
5.2319999 8.4560003 -0.88099998 53 24 18
5.2350001 8.4610004 -0.88700002 85 58 49
5.2340002 8.46 -0.88499999 49 28 23
5.2270002 8.4540005 -0.87599999 32 8 4
5.2309999 8.4540005 -0.87599999 43 18 13
5.2309999 8.4540005 -0.875 50 29 26
5.2290001 8.4619999 -0.83499998 69 57 61
5.257 8.4709997 -0.84299999 21 12 17
5.257 8.4510002 -0.85600001 101 66 38
5.2579999 8.4499998 -0.82999998 57 41 41
5.2490001 8.4680004 -0.82999998 56 27 21
5.243 8.4689999 -0.82200003 10 0 1
5.2579999 8.4440002 -0.81699997 7 2 0
5.2600002 8.441 -0.81300002 10 1 2
5.27 8.4449997 -0.80900002 14 3 7
5.2800002 8.4490004 -0.76899999 155 106 74
5.2719998 8.4490004 -0.77100003 96 56 31
5.2750001 8.448 -0.76700002 182 158 158
5.2659998 8.4449997 -0.78299999 34 6 0
5.2189999 8.4530001 -0.84100002 52 28 18
5.2379999 8.46 -0.88700002 89 57 46
5.2620001 8.4519997 -0.81699997 16 11 8
5.2620001 8.4449997 -0.81800002 9 0 1
5.2659998 8.4449997 -0.81099999 16 7 8
5.2680001 8.4490004 -0.80599999 27 19 17
5.2719998 8.4429998 -0.76899999 164 115 83
5.276 8.4490004 -0.76800001 129 85 58
5.2709999 8.441 -0.78600001 55 25 14
5.257 8.448 -0.86500001 21 7 6
5.27 8.4549999 -0.80800003 42 23 8
5.2579999 8.4589996 -0.87400001 70 40 14
0 0 0 1 0 0 0 1 0 0 0 1 0 0 0 0 0 248 1 0 0
