ply
format ascii 1.0
comment PCL generated
element vertex 805
property float x
property float y
property float z
property uchar red
property uchar green
property uchar blue
element camera 1
property float view_px
property float view_py
property float view_pz
property float x_axisx
property float x_axisy
property float x_axisz
property float y_axisx
property float y_axisy
property float y_axisz
property float z_axisx
property float z_axisy
property float z_axisz
property float focal
property float scalex
property float scaley
property float centerx
property float centery
property int viewportx
property int viewporty
property float k1
property float k2
end_header
2.1010001 -3.7780001 -0.991 172 124 78
2.0880001 -3.777 -0.98100001 144 123 118
2.0899999 -3.7780001 -0.99900001 250 203 131
2.079 -3.733 -0.98299998 66 30 6
2.072 -3.7409999 -0.99299997 155 92 48
2.082 -3.7249999 -0.986 49 15 3
2.1819999 -3.7880001 -0.88200003 110 64 48
2.1830001 -3.793 -0.884 136 97 56
2.187 -3.7839999 -0.88800001 116 69 43
2.125 -3.6229999 -0.85600001 127 71 38
2.122 -3.6289999 -0.85299999 240 182 100
2.122 -3.6289999 -0.86000001 127 102 82
2.1289999 -3.6229999 -0.85699999 157 99 51
2.1470001 -3.6140001 -0.852 113 78 56
2.138 -3.6140001 -0.84299999 122 77 18
2.138 -3.6340001 -0.88999999 146 87 45
2.131 -3.638 -0.89700001 105 42 7
2.128 -3.635 -0.88300002 84 29 0
2.095 -3.7349999 -0.81800002 223 141 59
2.085 -3.7219999 -0.82700002 132 64 17
2.098 -3.7160001 -0.80900002 100 52 12
2.0869999 -3.727 -0.82599998 91 25 1
2.075 -3.7609999 -0.98000002 166 111 46
2.0810001 -3.7750001 -0.98699999 97 55 15
2.0650001 -3.76 -0.99400002 146 79 26
2.1129999 -3.7390001 -0.81400001 146 95 48
2.131 -3.73 -0.81699997 154 117 49
2.1140001 -3.7290001 -0.80800003 149 97 49
2.115 -3.7609999 -0.99699998 58 20 7
2.1059999 -3.7609999 -1.005 57 31 18
2.1140001 -3.753 -1.007 79 53 40
2.1040001 -3.7720001 -0.98400003 109 80 66
2.109 -3.7409999 -0.82099998 222 180 78
2.1199999 -3.7449999 -0.82200003 116 73 31
2.0669999 -3.7550001 -0.99000001 139 101 56
2.079 -3.773 -0.99699998 163 101 64
2.086 -3.776 -0.99400002 151 99 86
2.0739999 -3.7550001 -0.99699998 106 71 43
2.128 -3.714 -1.011 10 0 1
2.118 -3.7019999 -1.0190001 114 98 101
2.1270001 -3.7030001 -1.018 68 22 9
2.128 -3.7190001 -1.011 8 0 0
2.112 -3.721 -1.012 76 49 40
2.1300001 -3.7249999 -1.01 34 15 9
2.1340001 -3.7249999 -1.011 12 1 0
2.1300001 -3.6470001 -0.83200002 114 69 40
2.1240001 -3.6429999 -0.83899999 146 83 40
2.1259999 -3.645 -0.838 63 26 7
2.1270001 -3.6400001 -0.83899999 54 14 2
2.0880001 -3.7079999 -0.82099998 94 58 8
2.0910001 -3.7060001 -0.82999998 133 61 0
2.095 -3.7030001 -0.82300001 205 129 71
2.098 -3.687 -0.99000001 48 22 5
2.0929999 -3.704 -0.991 53 32 15
2.102 -3.6900001 -1.0089999 59 44 23
2.1040001 -3.6800001 -0.99599999 31 14 6
2.187 -3.776 -0.88200003 146 118 79
2.181 -3.779 -0.87900001 145 111 86
2.1830001 -3.783 -0.88300002 123 71 58
2.1600001 -3.773 -0.85299999 84 56 42
2.161 -3.7809999 -0.85500002 107 78 60
2.158 -3.7720001 -0.85500002 67 40 33
2.1359999 -3.7309999 -0.824 143 96 52
2.102 -3.7260001 -0.838 103 75 63
2.099 -3.7179999 -0.83399999 97 73 39
2.108 -3.7119999 -0.84899998 34 3 0
2.1559999 -3.7590001 -0.958 85 54 23
2.158 -3.76 -0.94700003 49 10 3
2.1689999 -3.7509999 -0.96600002 47 26 9
2.1670001 -3.75 -0.96200001 51 16 0
2.0999999 -3.773 -0.98100001 123 102 97
2.1459999 -3.77 -0.94700003 85 66 60
2.138 -3.766 -0.94400001 41 14 0
2.1489999 -3.773 -0.94300002 41 11 3
2.0899999 -3.777 -0.99199998 146 83 3
2.085 -3.7679999 -0.97899997 173 131 81
2.1059999 -3.7019999 -1.012 16 2 2
2.112 -3.697 -1.016 51 11 3
2.1070001 -3.7 -1.012 17 3 2
2.072 -3.7460001 -0.99000001 201 151 114
2.0769999 -3.766 -0.98299998 173 94 28
2.072 -3.7609999 -0.99199998 188 149 108
2.0940001 -3.7579999 -1.01 30 3 0
2.108 -3.7090001 -1.011 17 3 2
2.092 -3.7160001 -1.0039999 59 36 20
2.0880001 -3.7179999 -0.99299997 74 63 61
2.0969999 -3.7179999 -1.007 145 104 82
2.0899999 -3.7130001 -0.98299998 52 24 2
2.095 -3.6930001 -0.97799999 248 224 200
2.0940001 -3.71 -0.96799999 131 101 65
2.0940001 -3.687 -0.96499997 130 97 66
2.086 -3.678 -0.95999998 123 93 59
2.082 -3.678 -0.96600002 55 19 0
2.1229999 -3.641 -0.84200001 116 48 0
2.122 -3.6389999 -0.84399998 160 98 41
2.0999999 -3.6989999 -0.83999997 59 17 3
2.1229999 -3.6470001 -0.84500003 93 55 46
2.1259999 -3.654 -0.84799999 78 29 0
2.122 -3.645 -0.86000001 70 36 11
2.1210001 -3.645 -0.84200001 107 79 68
2.132 -3.717 -1.012 4 0 0
2.1340001 -3.727 -1.011 14 0 0
2.138 -3.724 -1.008 38 15 1
2.138 -3.711 -1.007 48 30 18
2.1389999 -3.7 -1.003 142 97 58
2.1329999 -3.687 -1.005 74 34 9
2.138 -3.6960001 -0.99000001 27 10 3
2.1329999 -3.6900001 -0.99900001 93 56 40
2.1210001 -3.7320001 -1.011 16 0 1
2.096 -3.6889999 -0.97799999 43 20 4
2.0910001 -3.6830001 -0.97399998 51 26 6
2.1229999 -3.711 -1.01 17 3 2
2.138 -3.6229999 -0.86299998 85 46 17
2.131 -3.6389999 -0.89099997 59 6 0
2.1370001 -3.6900001 -0.935 37 17 6
2.131 -3.6789999 -0.92199999 24 6 2
2.1500001 -3.688 -0.935 73 48 7
2.148 -3.707 -0.94400001 132 87 58
2.1489999 -3.6860001 -0.94 66 40 5
2.145 -3.701 -0.94800001 53 34 0
2.1199999 -3.6329999 -0.85299999 121 57 21
2.128 -3.6800001 -0.98000002 47 18 4
2.1140001 -3.6670001 -0.977 78 49 19
2.1159999 -3.671 -0.99000001 72 46 13
2.1259999 -3.7390001 -0.824 151 103 55
2.1270001 -3.733 -0.82099998 78 30 0
2.118 -3.734 -0.81400001 133 79 32
2.1800001 -3.7820001 -0.88 91 59 36
2.1670001 -3.78 -0.86299998 64 13 0
2.171 -3.7679999 -0.87300003 173 108 40
2.1800001 -3.7690001 -0.89700001 91 41 14
2.1849999 -3.7809999 -0.89200002 49 6 0
2.1819999 -3.7709999 -0.889 52 27 0
2.152 -3.6530001 -0.85500002 147 88 44
2.152 -3.655 -0.85900003 116 54 0
2.151 -3.661 -0.85600001 97 63 36
2.1570001 -3.6400001 -0.85399997 125 90 52
2.158 -3.6340001 -0.86000001 119 75 38
2.1559999 -3.628 -0.84100002 136 104 93
2.1670001 -3.7780001 -0.85699999 150 89 44
2.1670001 -3.783 -0.85699999 84 43 13
2.131 -3.721 -0.815 146 93 23
2.1630001 -3.79 -0.87400001 49 14 0
2.154 -3.7809999 -0.875 131 96 68
2.1589999 -3.793 -0.88599998 143 107 73
2.1630001 -3.78 -0.85500002 206 139 86
2.1040001 -3.734 -0.81699997 146 107 74
2.0969999 -3.724 -0.83099997 112 53 13
2.0999999 -3.7320001 -0.83499998 63 31 16
2.118 -3.707 -0.85500002 77 51 34
2.115 -3.6930001 -0.84100002 89 29 1
2.109 -3.7019999 -0.84899998 68 51 5
2.119 -3.704 -0.84100002 111 61 28
2.1329999 -3.641 -0.889 63 8 0
2.131 -3.655 -0.88800001 45 11 0
2.122 -3.7490001 -0.995 47 21 4
2.1170001 -3.753 -1.002 47 20 9
2.154 -3.7650001 -0.95099998 28 3 0
2.1500001 -3.7609999 -0.958 37 9 0
2.158 -3.7620001 -0.94300002 31 3 0
2.151 -3.773 -0.92400002 40 11 0
2.1489999 -3.77 -0.92299998 67 39 17
2.1500001 -3.773 -0.903 63 28 6
2.1129999 -3.7409999 -0.82300001 103 57 8
2.112 -3.7409999 -0.82599998 78 33 0
2.0929999 -3.7720001 -0.98000002 194 122 63
2.154 -3.7869999 -0.89200002 52 14 1
2.112 -3.744 -0.83600003 137 96 66
2.0769999 -3.7449999 -0.97799999 122 79 10
2.1099999 -3.7579999 -0.97600001 45 0 0
2.1210001 -3.753 -0.977 78 29 14
2.1129999 -3.7590001 -0.98299998 113 83 55
2.108 -3.7090001 -0.91399997 77 31 5
2.112 -3.7130001 -0.912 71 37 2
2.125 -3.7119999 -0.926 152 80 32
2.112 -3.714 -0.91600001 18 0 0
2.089 -3.7409999 -0.99900001 27 0 0
2.0829999 -3.747 -0.99800003 125 90 68
2.089 -3.75 -1.001 75 43 18
2.079 -3.77 -0.98900002 86 52 17
2.1170001 -3.7550001 -0.99699998 53 21 0
2.1240001 -3.7509999 -0.98199999 47 0 0
2.098 -3.7479999 -1.003 79 53 28
2.1140001 -3.7420001 -1.011 51 33 29
2.109 -3.737 -1.0089999 99 55 28
2.102 -3.7219999 -1.01 72 51 24
2.0899999 -3.721 -0.98100001 129 80 47
2.0869999 -3.7390001 -0.98000002 154 104 67
2.095 -3.7190001 -0.97500002 61 30 1
2.131 -3.658 -0.89499998 57 21 0
2.1359999 -3.6589999 -0.89200002 66 51 46
2.1400001 -3.651 -0.90499997 86 44 6
2.1300001 -3.641 -0.90399998 64 18 0
2.1440001 -3.6530001 -0.90399998 72 24 0
2.1470001 -3.654 -0.91299999 33 0 0
2.0910001 -3.7060001 -0.82499999 150 75 20
2.1229999 -3.6570001 -0.83600003 80 14 0
2.1300001 -3.6500001 -0.83200002 123 85 62
2.135 -3.7130001 -1.0089999 162 131 110
2.1340001 -3.7090001 -1.0089999 84 53 33
2.145 -3.737 -0.99400002 138 57 1
2.1429999 -3.74 -0.99299997 77 26 0
2.145 -3.7479999 -0.98299998 124 87 58
2.1429999 -3.6700001 -0.921 138 90 54
2.1370001 -3.671 -0.90799999 20 7 0
2.1199999 -3.7349999 -1.011 14 0 2
2.115 -3.74 -1.011 22 4 0
2.1289999 -3.727 -1.01 35 17 13
2.115 -3.6930001 -0.93900001 77 50 31
2.1129999 -3.711 -0.93400002 58 13 0
2.108 -3.7060001 -0.94499999 76 44 23
2.1140001 -3.6930001 -0.94300002 53 30 16
2.1029999 -3.6860001 -0.94700003 37 10 1
2.095 -3.6760001 -0.95099998 98 65 48
2.099 -3.6719999 -0.94599998 86 48 12
2.1129999 -3.6889999 -0.94300002 30 7 0
2.105 -3.7219999 -0.92900002 58 22 0
2.108 -3.7149999 -0.94300002 49 10 3
2.0999999 -3.7179999 -0.95899999 115 75 39
2.108 -3.71 -0.954 65 39 24
2.158 -3.756 -0.96399999 67 44 28
2.105 -3.698 -0.82700002 84 18 0
2.118 -3.6989999 -0.82200003 177 141 93
2.1199999 -3.698 -0.82700002 132 102 66
2.1370001 -3.7160001 -0.83399999 105 66 33
2.131 -3.7149999 -0.82300001 38 7 2
2.1259999 -3.6500001 -0.85399997 70 33 4
2.1500001 -3.654 -0.83999997 118 71 25
2.1530001 -3.6400001 -0.84299999 150 106 33
2.108 -3.674 -0.97799999 4 0 0
2.1099999 -3.6760001 -0.98199999 4 0 0
2.1289999 -3.6229999 -0.852 210 143 88
2.152 -3.6329999 -0.83700001 142 113 99
2.1459999 -3.645 -0.838 47 14 0
2.1389999 -3.655 -0.83399999 91 42 25
2.154 -3.618 -0.85100001 110 60 25
2.151 -3.618 -0.85000002 122 63 21
2.148 -3.622 -0.86299998 100 50 13
2.1370001 -3.622 -0.86000001 96 62 37
2.132 -3.6229999 -0.85900003 77 38 0
2.1289999 -3.7260001 -0.83399999 47 9 0
2.1470001 -3.6270001 -0.86500001 99 37 0
2.1370001 -3.654 -0.88200003 47 26 9
2.1459999 -3.665 -0.86299998 79 37 12
2.135 -3.6530001 -0.87599999 75 40 18
2.1370001 -3.652 -0.87699997 69 51 47
2.1440001 -3.6459999 -0.87699997 100 85 44
2.1670001 -3.7490001 -0.95300001 103 72 54
2.1789999 -3.79 -0.89499998 166 116 81
2.1719999 -3.7920001 -0.88700002 68 25 8
2.171 -3.783 -0.90200001 52 17 0
2.1719999 -3.7809999 -0.90200001 107 71 37
2.171 -3.77 -0.91399997 117 77 52
2.1659999 -3.776 -0.90899998 118 78 52
2.1500001 -3.7620001 -0.912 54 24 0
2.152 -3.766 -0.91600001 45 28 0
2.1689999 -3.773 -0.90899998 202 155 127
2.145 -3.6689999 -0.94 80 54 39
2.142 -3.665 -0.94 116 78 55
2.1500001 -3.665 -0.92400002 56 20 0
2.148 -3.6670001 -0.92799997 240 166 95
2.1210001 -3.7420001 -0.83600003 53 10 0
2.122 -3.7279999 -0.85299999 59 18 0
2.151 -3.6659999 -0.861 65 20 0
2.1459999 -3.668 -0.84899998 129 80 37
2.1760001 -3.767 -0.889 159 101 53
2.1670001 -3.76 -0.87599999 157 125 66
2.164 -3.7509999 -0.88800001 103 55 0
2.1730001 -3.7650001 -0.89200002 107 87 80
2.1659999 -3.757 -0.88999999 73 29 0
2.181 -3.7780001 -0.89399999 48 6 0
2.0899999 -3.7190001 -0.82499999 168 97 45
2.0899999 -3.7249999 -0.82499999 106 41 3
2.099 -3.7349999 -0.82499999 163 97 49
2.108 -3.74 -0.83499998 78 37 15
2.1040001 -3.7360001 -0.829 37 10 0
2.0929999 -3.7279999 -0.82200003 158 96 23
2.131 -3.6789999 -0.92500001 40 23 16
2.1329999 -3.675 -0.92500001 90 56 31
2.122 -3.6760001 -0.926 53 29 17
2.1270001 -3.688 -0.93300003 23 6 0
2.1289999 -3.7060001 -0.83499998 145 96 55
2.132 -3.661 -0.85799998 107 62 39
2.1300001 -3.658 -0.85699999 70 28 6
2.1289999 -3.652 -0.86000001 37 3 0
2.1289999 -3.72 -0.94400001 41 7 0
2.1229999 -3.724 -0.92799997 59 12 0
2.122 -3.7320001 -0.921 78 47 16
2.109 -3.7260001 -0.91000003 51 20 2
2.1459999 -3.76 -0.91900003 63 35 14
2.1429999 -3.767 -0.94999999 118 72 39
2.109 -3.7639999 -0.98900002 107 40 0
2.1070001 -3.763 -0.99900001 87 47 21
2.099 -3.7750001 -0.995 163 92 40
2.1670001 -3.7909999 -0.88200003 66 29 3
2.1300001 -3.6459999 -0.90899998 64 12 0
2.128 -3.661 -0.90799999 45 8 0
2.132 -3.661 -0.89899999 68 32 8
2.132 -3.661 -0.90200001 56 19 1
2.099 -3.763 -1.005 98 36 0
2.075 -3.7509999 -0.97799999 156 119 51
2.0880001 -3.7349999 -0.99599999 158 116 92
2.072 -3.747 -0.99400002 125 97 49
2.082 -3.7639999 -0.98000002 101 58 23
2.0969999 -3.743 -1 115 61 25
2.108 -3.723 -1.011 42 20 0
2.095 -3.711 -0.97799999 79 49 25
2.096 -3.697 -0.98299998 128 102 85
2.0969999 -3.6960001 -0.97000003 42 15 4
2.1300001 -3.642 -0.90100002 85 35 10
2.1340001 -3.625 -0.84100002 206 159 89
2.132 -3.7460001 -0.98500001 30 2 0
2.138 -3.7490001 -0.97899997 45 8 0
2.164 -3.7390001 -0.96600002 79 37 23
2.1670001 -3.7390001 -0.95899999 136 104 66
2.164 -3.7349999 -0.95999998 100 61 18
2.155 -3.7349999 -0.96700001 49 21 10
2.1470001 -3.6730001 -0.94300002 80 56 44
2.141 -3.6659999 -0.94300002 79 59 52
2.168 -3.7420001 -0.958 70 23 3
2.171 -3.7479999 -0.95700002 100 68 43
2.1630001 -3.7620001 -0.93400002 43 15 11
2.1659999 -3.7620001 -0.92900002 60 32 21
2.1670001 -3.7679999 -0.926 101 66 64
2.165 -3.7379999 -0.95599997 150 96 68
2.161 -3.7409999 -0.954 157 123 85
2.161 -3.7360001 -0.95999998 116 74 49
2.151 -3.717 -0.95099998 144 88 41
2.125 -3.6789999 -0.99599999 51 21 0
2.1270001 -3.6849999 -0.98799998 42 11 0
2.122 -3.6800001 -0.98799998 46 27 21
2.125 -3.688 -1.011 61 32 2
2.1240001 -3.6949999 -1.012 24 6 2
2.1289999 -3.6960001 -1.013 42 20 7
2.1259999 -3.6949999 -1.012 17 3 2
2.1289999 -3.6930001 -1.011 78 58 51
2.118 -3.674 -0.99599999 60 33 3
2.1240001 -3.6849999 -1.005 65 38 9
2.145 -3.6689999 -0.92000002 72 42 6
2.1440001 -3.6730001 -0.935 62 12 0
2.112 -3.7149999 -0.93300003 114 69 38
2.1500001 -3.727 -0.963 38 8 0
2.142 -3.7119999 -0.96499997 32 5 0
2.1459999 -3.704 -0.96600002 95 63 42
2.1340001 -3.675 -0.95200002 62 27 7
2.1289999 -3.675 -0.963 60 31 13
2.115 -3.6659999 -0.96700001 63 27 5
2.135 -3.6689999 -0.94499999 56 19 0
2.1229999 -3.6760001 -0.96499997 47 16 11
2.1619999 -3.7750001 -0.85900003 105 52 21
2.135 -3.6500001 -0.833 92 39 0
2.099 -3.7119999 -0.83499998 130 64 3
2.1270001 -3.654 -0.85299999 57 26 6
2.132 -3.711 -0.82599998 172 120 62
2.109 -3.6670001 -0.972 138 90 44
2.1070001 -3.664 -0.96100003 140 84 49
2.1059999 -3.671 -0.96700001 119 65 27
2.1040001 -3.671 -0.96399999 99 61 24
2.1559999 -3.6329999 -0.847 109 59 8
2.154 -3.632 -0.85000002 119 68 23
2.1470001 -3.6259999 -0.84399998 94 41 9
2.141 -3.6199999 -0.85399997 130 65 1
2.131 -3.6270001 -0.86000001 76 19 0
2.1289999 -3.6300001 -0.861 71 47 9
2.1340001 -3.622 -0.85600001 125 57 10
2.1600001 -3.7780001 -0.91299999 54 10 1
2.1429999 -3.665 -0.838 109 71 34
2.1340001 -3.661 -0.84500003 200 142 94
2.1210001 -3.7190001 -0.85900003 57 13 2
2.122 -3.7130001 -0.86799997 52 15 6
2.118 -3.7409999 -0.84200001 121 84 57
2.1440001 -3.6440001 -0.889 40 6 0
2.145 -3.641 -0.88300002 49 17 4
2.141 -3.6359999 -0.88200003 112 77 49
2.1359999 -3.6559999 -0.88700002 80 65 60
2.1340001 -3.655 -0.88599998 42 12 2
2.132 -3.6470001 -0.86799997 73 45 33
2.1630001 -3.7520001 -0.963 193 125 64
2.1559999 -3.747 -0.96799999 168 109 75
2.1600001 -3.757 -0.93099999 45 8 0
2.1570001 -3.7509999 -0.93000001 45 8 0
2.1530001 -3.7520001 -0.94199997 154 100 54
2.154 -3.7679999 -0.93900001 28 0 0
2.1559999 -3.7650001 -0.94099998 125 95 84
2.122 -3.6400001 -0.847 139 78 23
2.1270001 -3.6619999 -0.92900002 62 21 1
2.128 -3.6619999 -0.93800002 79 43 11
2.1229999 -3.6659999 -0.94199997 99 64 44
2.1059999 -3.665 -0.95200002 145 73 35
2.1389999 -3.661 -0.935 77 36 4
2.1129999 -3.7379999 -0.84299999 45 10 0
2.1470001 -3.665 -0.84299999 148 98 49
2.138 -3.6589999 -0.89399999 75 60 53
2.1389999 -3.6659999 -0.89700001 73 56 49
2.1589999 -3.779 -0.861 26 0 0
2.175 -3.7880001 -0.88200003 45 2 0
2.1600001 -3.7839999 -0.86900002 38 9 5
2.095 -3.721 -0.829 132 102 52
2.1170001 -3.6789999 -0.93900001 30 0 0
2.1259999 -3.6659999 -0.93000001 80 45 13
2.1259999 -3.6570001 -0.921 72 33 2
2.1229999 -3.727 -0.83700001 124 57 5
2.1240001 -3.7119999 -0.838 111 70 38
2.112 -3.7079999 -0.86199999 62 39 0
2.1159999 -3.7049999 -0.866 66 19 1
2.148 -3.6470001 -0.86199999 45 10 8
2.115 -3.75 -1.007 70 46 36
2.1400001 -3.7449999 -0.94199997 114 72 58
2.1440001 -3.7509999 -0.92000002 91 45 29
2.1289999 -3.737 -0.92500001 87 60 15
2.1500001 -3.7490001 -0.93599999 117 98 91
2.1029999 -3.723 -0.912 178 106 56
2.1040001 -3.7249999 -0.90399998 52 19 2
2.109 -3.723 -0.92000002 61 26 6
2.0880001 -3.756 -0.977 222 157 101
2.109 -3.7160001 -0.91600001 59 26 0
2.1099999 -3.7119999 -0.912 112 70 45
2.1040001 -3.734 -0.83700001 51 18 3
2.1530001 -3.7709999 -0.93199998 23 0 0
2.122 -3.73 -0.93099999 62 35 28
2.132 -3.753 -0.94 96 82 45
2.1340001 -3.7449999 -0.94199997 114 95 88
2.125 -3.7309999 -0.92900002 61 37 0
2.096 -3.76 -0.97799999 127 77 40
2.1199999 -3.7320001 -0.912 115 86 70
2.1459999 -3.756 -0.94 94 75 68
2.154 -3.756 -0.91399997 59 33 16
2.1340001 -3.7520001 -0.96399999 30 2 0
2.1429999 -3.7609999 -0.94800001 112 95 51
2.145 -3.757 -0.95599997 110 80 56
2.1029999 -3.7679999 -0.99199998 98 69 55
2.096 -3.7679999 -0.98100001 65 25 17
2.1489999 -3.7639999 -0.95099998 93 75 65
2.128 -3.6589999 -0.91600001 133 82 35
2.1340001 -3.6500001 -0.90799999 58 12 0
2.1370001 -3.655 -0.92900002 59 20 0
2.141 -3.6589999 -0.91900003 157 120 93
2.099 -3.7679999 -0.99800003 56 12 1
2.0929999 -3.743 -0.972 130 92 53
2.0880001 -3.7409999 -0.97799999 182 116 58
2.109 -3.711 -0.91799998 75 28 0
2.112 -3.714 -0.92299998 122 73 43
2.112 -3.714 -0.92900002 92 43 11
2.0899999 -3.7219999 -0.99800003 103 76 57
2.0929999 -3.737 -1 223 165 127
2.0929999 -3.7490001 -1.001 57 26 6
2.1229999 -3.7290001 -1.01 21 1 0
2.118 -3.684 -1.007 95 64 36
2.128 -3.7509999 -0.977 59 11 1
2.141 -3.711 -0.97399998 19 0 0
2.1370001 -3.701 -0.991 83 30 0
2.141 -3.6989999 -0.98199999 28 0 0
2.099 -3.71 -0.96100003 55 32 18
2.102 -3.6860001 -0.954 35 3 0
2.095 -3.6900001 -0.97000003 42 15 4
2.131 -3.6470001 -0.89999998 143 93 70
2.1370001 -3.6470001 -0.89899999 57 1 0
2.1370001 -3.6340001 -0.83999997 247 206 90
2.1300001 -3.6300001 -0.84799999 218 150 89
2.141 -3.7449999 -0.986 64 32 21
2.1440001 -3.7260001 -0.99400002 113 96 89
2.1619999 -3.7420001 -0.96700001 31 0 0
2.1659999 -3.7420001 -0.96200001 45 5 0
2.1670001 -3.7650001 -0.92299998 33 0 0
2.178 -3.77 -0.90799999 83 41 16
2.178 -3.7709999 -0.90200001 100 77 61
2.1459999 -3.6589999 -0.90799999 85 46 5
2.1370001 -3.6730001 -0.89899999 80 66 63
2.1199999 -3.678 -0.986 87 61 28
2.1099999 -3.678 -0.94599998 89 37 13
2.1300001 -3.6960001 -0.93699998 65 45 38
2.108 -3.691 -0.95499998 71 46 42
2.1159999 -3.6819999 -0.94 138 105 86
2.141 -3.6830001 -0.94999999 100 75 35
2.1559999 -3.7409999 -0.94999999 51 22 14
2.155 -3.737 -0.96799999 80 50 14
2.1270001 -3.6789999 -0.96700001 30 1 0
2.1129999 -3.7079999 -0.81699997 190 119 27
2.1240001 -3.7119999 -0.81099999 40 7 0
2.1099999 -3.7160001 -0.81599998 219 135 47
2.102 -3.7190001 -0.80800003 66 19 0
2.109 -3.6989999 -0.83999997 54 25 11
2.1029999 -3.6989999 -0.82999998 127 60 18
2.1210001 -3.701 -0.83499998 97 62 42
2.1340001 -3.661 -0.84799999 130 74 39
2.132 -3.7119999 -0.829 126 77 19
2.135 -3.701 -1.006 91 26 0
2.1029999 -3.687 -0.95599997 23 5 1
2.109 -3.678 -0.98400003 5 0 0
2.105 -3.678 -0.97799999 10 2 0
2.1530001 -3.6289999 -0.86000001 95 61 33
2.1500001 -3.631 -0.86199999 61 8 0
2.1670001 -3.7850001 -0.903 55 24 6
2.1689999 -3.789 -0.88999999 149 110 71
2.1329999 -3.655 -0.833 86 49 23
2.119 -3.717 -0.91100001 145 104 72
2.1289999 -3.7160001 -0.91299999 45 16 2
2.1300001 -3.7160001 -0.91500002 29 0 0
2.1340001 -3.717 -0.90700001 37 5 0
2.1289999 -3.7160001 -0.90600002 132 100 85
2.125 -3.7160001 -0.90499997 43 10 0
2.1129999 -3.714 -0.90799999 61 27 0
2.128 -3.723 -0.86799997 71 30 8
2.1259999 -3.727 -0.85799998 149 108 78
2.131 -3.7279999 -0.86799997 63 22 0
2.1240001 -3.717 -0.87699997 70 18 0
2.132 -3.73 -0.87599999 103 48 18
2.1099999 -3.734 -0.84200001 49 15 3
2.115 -3.7249999 -0.89600003 61 29 8
2.119 -3.7279999 -0.88499999 62 35 14
2.1259999 -3.7290001 -0.89700001 76 30 0
2.1159999 -3.7260001 -0.86400002 53 21 0
2.1229999 -3.717 -0.898 90 42 20
2.115 -3.714 -0.90200001 51 15 1
2.152 -3.642 -0.86400002 43 4 0
2.1470001 -3.6370001 -0.86699998 87 48 15
2.1489999 -3.6389999 -0.86500001 52 11 7
2.1359999 -3.668 -0.898 96 82 81
2.1559999 -3.7579999 -0.94 37 0 0
2.171 -3.76 -0.90200001 38 5 0
2.1760001 -3.767 -0.89600003 137 110 83
2.155 -3.777 -0.91500002 54 18 2
2.155 -3.783 -0.898 26 1 0
2.1589999 -3.767 -0.93400002 68 33 0
2.125 -3.7130001 -0.889 48 9 0
2.1719999 -3.7679999 -0.87599999 124 89 67
2.1789999 -3.7720001 -0.884 73 48 17
2.1760001 -3.7739999 -0.90100002 87 65 52
2.151 -3.773 -0.87599999 160 119 99
2.161 -3.773 -0.87099999 63 18 0
2.1530001 -3.7590001 -0.88700002 119 85 47
2.1159999 -3.73 -0.81099999 205 149 98
2.1240001 -3.6670001 -0.91299999 138 102 78
2.1289999 -3.6789999 -0.92199999 33 14 7
2.1099999 -3.74 -0.82599998 175 123 84
2.125 -3.6989999 -0.82599998 154 98 39
2.1240001 -3.7030001 -0.82099998 180 142 93
2.1300001 -3.7090001 -0.82099998 51 15 1
2.1259999 -3.714 -0.81400001 253 202 111
2.125 -3.7160001 -0.83899999 37 11 10
2.1229999 -3.7260001 -0.85600001 71 30 12
2.1140001 -3.7049999 -0.87099999 61 25 1
2.135 -3.658 -0.86199999 85 46 17
2.1289999 -3.743 -0.99199998 27 4 0
2.125 -3.7409999 -1 28 4 0
2.1359999 -3.7390001 -0.94199997 97 55 41
2.1459999 -3.757 -0.96200001 126 111 104
2.108 -3.737 -0.838 77 42 20
2.148 -3.77 -0.93400002 23 0 0
2.119 -3.7290001 -0.92199999 95 76 70
2.132 -3.7309999 -0.94700003 91 76 35
2.1270001 -3.7360001 -0.91399997 111 78 45
2.135 -3.74 -0.91299999 45 14 0
2.131 -3.7390001 -0.96700001 69 39 15
2.135 -3.737 -0.95499998 129 96 65
2.1159999 -3.734 -0.96600002 185 149 117
2.118 -3.7320001 -0.963 23 2 0
2.098 -3.7579999 -0.97899997 133 80 38
2.099 -3.75 -0.97899997 161 110 63
2.1600001 -3.7869999 -0.89300001 51 17 7
2.085 -3.7590001 -0.97899997 112 56 21
2.0910001 -3.763 -0.98000002 78 34 0
2.098 -3.763 -0.98000002 137 92 50
2.0829999 -3.7509999 -0.97799999 180 110 61
2.105 -3.7219999 -0.94199997 41 10 0
2.0829999 -3.7590001 -0.97899997 77 32 9
2.105 -3.7490001 -0.97899997 143 110 69
2.095 -3.7539999 -0.97899997 107 42 0
2.079 -3.7479999 -0.99599999 160 96 69
2.095 -3.73 -0.99900001 91 64 47
2.1370001 -3.7179999 -1.002 117 95 71
2.145 -3.7509999 -0.977 20 1 0
2.1370001 -3.721 -0.98500001 105 72 53
2.141 -3.7279999 -0.98900002 43 26 19
2.141 -3.7260001 -0.97299999 146 74 49
2.1029999 -3.7019999 -1.0089999 37 18 11
2.102 -3.7 -1.0039999 58 38 27
2.0969999 -3.7079999 -0.995 32 9 0
2.0940001 -3.6860001 -0.97000003 87 60 39
2.1400001 -3.6489999 -0.89300001 93 75 39
2.1359999 -3.631 -0.84100002 199 150 81
2.1389999 -3.6370001 -0.838 255 220 103
2.1340001 -3.7409999 -0.99400002 21 0 0
2.141 -3.7090001 -0.97500002 33 12 7
2.1389999 -3.668 -0.91000003 57 30 21
2.135 -3.671 -0.91000003 34 10 0
2.131 -3.671 -0.917 46 31 28
2.1389999 -3.677 -0.94700003 103 66 40
2.112 -3.6760001 -0.98799998 17 8 9
2.1240001 -3.6700001 -0.94800001 56 38 34
2.131 -3.694 -0.935 26 7 0
2.1110001 -3.6960001 -0.94999999 22 2 0
2.109 -3.6800001 -0.94499999 119 92 83
2.145 -3.6789999 -0.94400001 97 66 35
2.141 -3.7179999 -0.96799999 97 51 18
2.1459999 -3.724 -0.94800001 79 60 56
2.135 -3.7249999 -0.949 60 19 0
2.1500001 -3.7360001 -0.97600001 107 72 52
2.1489999 -3.7309999 -0.96600002 27 0 0
2.1559999 -3.744 -0.949 119 68 41
2.148 -3.7060001 -0.94800001 73 41 16
2.1270001 -3.6819999 -0.97000003 25 0 0
2.109 -3.711 -0.81699997 145 103 31
2.1210001 -3.7190001 -0.81300002 69 33 9
2.112 -3.701 -0.81900001 96 61 41
2.1289999 -3.655 -0.85699999 61 18 2
2.135 -3.6670001 -0.85900003 86 48 12
2.1389999 -3.665 -0.85299999 75 27 4
2.1389999 -3.6530001 -0.83499998 83 31 10
2.1429999 -3.648 -0.83700001 29 0 0
2.095 -3.675 -0.96499997 95 65 63
2.0999999 -3.6719999 -0.96100003 26 5 2
2.0969999 -3.688 -0.96100003 83 56 26
2.0940001 -3.678 -0.97600001 131 74 19
2.1429999 -3.6270001 -0.84200001 201 126 33
2.145 -3.632 -0.838 113 80 61
2.152 -3.625 -0.85399997 129 71 31
2.142 -3.6259999 -0.86500001 157 93 55
2.1199999 -3.7290001 -0.866 70 44 27
2.112 -3.7260001 -0.88300002 43 8 0
2.115 -3.733 -0.84500003 126 103 87
2.1010001 -3.7320001 -0.83600003 56 22 10
2.135 -3.652 -0.87900001 48 12 0
2.1270001 -3.6359999 -0.86199999 116 49 6
2.135 -3.635 -0.875 133 76 56
2.1600001 -3.7650001 -0.935 104 75 67
2.165 -3.76 -0.90799999 35 1 0
2.1300001 -3.7279999 -0.88099998 91 34 5
2.132 -3.7309999 -0.884 134 78 53
2.152 -3.6470001 -0.852 165 103 42
2.1659999 -3.7909999 -0.87800002 46 9 0
2.1619999 -3.7750001 -0.86699998 80 32 9
2.1570001 -3.7809999 -0.88 113 85 73
2.1199999 -3.734 -0.81699997 187 136 93
2.1259999 -3.6670001 -0.917 64 31 0
2.1070001 -3.7390001 -0.82300001 244 195 103
2.102 -3.7130001 -0.83700001 78 42 10
2.1300001 -3.707 -0.83099997 127 83 36
2.1240001 -3.7049999 -0.81699997 207 150 69
2.1270001 -3.7130001 -0.83700001 106 56 5
2.1210001 -3.7479999 -0.99800003 59 14 0
2.119 -3.7479999 -1 167 109 69
2.122 -3.7349999 -1.007 15 1 1
2.125 -3.7349999 -1.002 13 0 0
2.1210001 -3.737 -1.007 15 0 0
2.132 -3.7360001 -0.95099998 38 11 0
2.1070001 -3.7260001 -0.83999997 78 43 21
2.1059999 -3.7219999 -0.83899999 178 113 59
2.109 -3.724 -0.84100002 59 37 24
2.108 -3.7279999 -0.84100002 57 25 12
2.145 -3.7520001 -0.93699998 52 9 0
2.1559999 -3.7739999 -0.926 155 108 82
2.128 -3.7349999 -0.94700003 64 50 5
2.161 -3.7709999 -0.92500001 136 90 64
2.1259999 -3.7309999 -0.91799998 64 39 0
2.1470001 -3.757 -0.91399997 176 132 105
2.1489999 -3.7579999 -0.90899998 122 75 47
2.1440001 -3.7590001 -0.88999999 71 22 0
2.154 -3.7690001 -0.884 100 65 25
2.154 -3.767 -0.88999999 122 74 52
2.148 -3.7550001 -0.89099997 82 40 18
2.1289999 -3.7290001 -0.89899999 73 36 18
2.132 -3.7520001 -0.97399998 90 60 26
2.1429999 -3.7539999 -0.96600002 87 65 52
2.1600001 -3.79 -0.88999999 57 23 0
2.1600001 -3.7839999 -0.89700001 27 0 0
2.168 -3.7690001 -0.87300003 150 89 26
2.092 -3.7639999 -0.98000002 137 93 46
2.1400001 -3.654 -0.91299999 37 2 0
2.138 -3.654 -0.91399997 70 28 0
2.1370001 -3.655 -0.92000002 108 63 24
2.0969999 -3.733 -0.96899998 32 1 0
2.0899999 -3.7320001 -0.99699998 155 123 98
2.086 -3.7679999 -0.99699998 187 137 76
2.102 -3.6919999 -1.006 136 95 65
2.1389999 -3.6619999 -0.89899999 30 15 10
2.1389999 -3.73 -1.002 38 12 0
2.131 -3.6689999 -0.94499999 48 26 5
2.132 -3.675 -0.95200002 115 90 83
2.122 -3.6730001 -0.95599997 110 77 62
2.135 -3.6930001 -0.93800002 82 77 81
2.1340001 -3.6989999 -0.94199997 107 88 81
2.1140001 -3.6860001 -0.94199997 46 24 10
2.148 -3.744 -0.97399998 47 17 9
2.1470001 -3.7260001 -0.95599997 85 48 6
2.141 -3.691 -0.97299999 150 121 89
2.1329999 -3.691 -0.977 229 169 119
2.0999999 -3.7219999 -0.81300002 97 51 17
2.1040001 -3.72 -0.80900002 103 50 18
2.119 -3.7279999 -0.81099999 178 125 81
2.112 -3.701 -0.81900001 96 61 41
2.1270001 -3.7019999 -0.833 134 105 73
2.132 -3.655 -0.861 57 19 0
2.1370001 -3.665 -0.85000002 91 38 4
2.0899999 -3.6760001 -0.96200001 182 145 127
2.154 -3.6300001 -0.85900003 134 104 94
2.125 -3.72 -0.89200002 112 60 39
2.1300001 -3.7349999 -0.91100001 83 31 10
2.1270001 -3.7309999 -0.90899998 81 30 0
2.1259999 -3.7219999 -0.89999998 104 56 34
2.1429999 -3.665 -0.84500003 120 68 20
2.109 -3.7309999 -0.84200001 96 51 28
2.1170001 -3.7219999 -0.85299999 80 42 19
2.1159999 -3.72 -0.85600001 94 66 45
2.1110001 -3.7130001 -0.85399997 42 13 5
2.1210001 -3.73 -0.87599999 64 39 19
2.112 -3.7260001 -0.88700002 55 20 0
2.1159999 -3.7190001 -0.85799998 92 63 45
2.1289999 -3.6400001 -0.86900002 177 115 76
2.1370001 -3.625 -0.86500001 203 141 100
2.151 -3.635 -0.86199999 88 45 10
2.1570001 -3.7590001 -0.92299998 80 35 4
2.154 -3.7650001 -0.94499999 123 89 79
2.1570001 -3.78 -0.90600002 24 0 0
2.174 -3.7650001 -0.903 36 1 0
2.1689999 -3.7650001 -0.90899998 35 0 0
2.1630001 -3.7520001 -0.88599998 78 45 14
2.1619999 -3.7539999 -0.884 122 102 95
2.1110001 -3.6659999 -0.96100003 92 45 15
2.1760001 -3.777 -0.898 118 69 37
2.161 -3.757 -0.89600003 30 3 0
2.1559999 -3.777 -0.89099997 159 116 74
2.105 -3.7179999 -0.83899999 62 36 35
2.1270001 -3.7019999 -0.82599998 197 163 125
2.1300001 -3.707 -0.83200002 102 69 38
2.1170001 -3.711 -0.85100001 109 81 59
2.1140001 -3.7079999 -0.88099998 129 97 72
2.108 -3.7090001 -0.88599998 152 106 82
2.112 -3.7130001 -0.90399998 58 23 0
2.1459999 -3.757 -0.95999998 82 55 38
2.1570001 -3.7739999 -0.92299998 197 164 147
2.1300001 -3.7509999 -0.94499999 103 87 38
2.119 -3.7290001 -0.94800001 35 10 3
2.118 -3.724 -0.94 57 30 23
2.1140001 -3.723 -0.95200002 108 95 89
2.1429999 -3.7509999 -0.97299999 17 0 0
2.1359999 -3.73 -0.94800001 41 5 0
2.1110001 -3.7219999 -0.94 28 3 0
2.0799999 -3.7539999 -0.99800003 135 99 73
2.1140001 -3.7590001 -0.991 53 26 7
2.108 -3.72 -0.95700002 28 9 3
2.102 -3.7 -0.99900001 55 36 22
2.1359999 -3.694 -0.98400003 70 38 23
2.1010001 -3.6949999 -0.96399999 36 13 7
2.1059999 -3.6989999 -0.96200001 13 1 1
2.0999999 -3.6760001 -0.96799999 160 126 98
2.1389999 -3.7 -0.95899999 92 74 50
2.135 -3.687 -0.96100003 77 45 24
2.132 -3.7060001 -0.94099998 21 1 0
2.1329999 -3.681 -0.96200001 115 89 54
2.105 -3.7049999 -0.81900001 247 196 153
2.132 -3.6589999 -0.852 120 80 31
2.1370001 -3.665 -0.84600002 99 45 0
2.099 -3.6700001 -0.958 55 46 49
2.1400001 -3.6259999 -0.84200001 222 150 76
2.1429999 -3.6259999 -0.84299999 148 108 56
2.112 -3.7260001 -0.84299999 60 27 12
2.1070001 -3.7309999 -0.84100002 46 14 1
2.1159999 -3.7190001 -0.85299999 121 89 68
2.118 -3.7079999 -0.86900002 93 42 25
2.115 -3.714 -0.86500001 86 54 39
2.1340001 -3.635 -0.87800002 71 14 0
2.151 -3.7420001 -0.94199997 45 11 2
2.1670001 -3.7679999 -0.92199999 104 67 61
2.1589999 -3.753 -0.884 135 91 66
2.1800001 -3.776 -0.89499998 69 24 5
2.1530001 -3.757 -0.90700001 124 88 74
2.1589999 -3.7809999 -0.866 31 3 2
2.1289999 -3.707 -0.82599998 172 137 97
2.1129999 -3.7119999 -0.89099997 99 72 51
2.109 -3.711 -0.875 106 61 32
2.1140001 -3.7179999 -0.87699997 40 5 0
2.1140001 -3.7149999 -0.87199998 100 66 39
2.1110001 -3.717 -0.88599998 148 134 99
2.1129999 -3.7119999 -0.89300001 38 12 0
2.1129999 -3.723 -0.89399999 84 42 17
2.1159999 -3.7449999 -1.006 22 1 0
2.112 -3.723 -0.949 48 20 6
2.0999999 -3.677 -0.97299999 74 43 14
2.119 -3.671 -0.95700002 34 0 0
2.142 -3.6919999 -0.94499999 46 22 12
2.109 -3.7079999 -0.81800002 227 146 55
2.1010001 -3.714 -0.81300002 105 58 28
2.105 -3.7019999 -0.82200003 170 92 30
2.1370001 -3.6619999 -0.84299999 127 71 20
2.122 -3.7260001 -0.89999998 46 29 3
2.118 -3.7290001 -0.84799999 43 9 0
2.1170001 -3.7260001 -0.86799997 50 18 0
2.148 -3.7550001 -0.92000002 114 78 62
2.115 -3.7149999 -0.86699998 249 216 199
2.1159999 -3.7479999 -1.006 30 6 2
2.0840001 -3.7639999 -0.99699998 179 135 90
2.086 -3.766 -0.99699998 143 77 27
2.086 -3.756 -0.99800003 66 25 0
2.1359999 -3.71 -0.995 170 97 44
2.108 -3.6900001 -1.01 46 32 21
2.1059999 -3.7260001 -0.81300002 121 63 23
2.098 -3.7079999 -0.81900001 77 14 0
2.118 -3.7260001 -0.87199998 48 15 0
2.158 -3.753 -0.89300001 31 3 0
2.1159999 -3.721 -0.86400002 102 74 60
2.0810001 -3.756 -0.99699998 121 83 46
2.102 -3.724 -0.81400001 64 14 0
2.1129999 -3.723 -0.88999999 133 90 55
2.1159999 -3.7179999 -0.86500001 90 60 49
0 0 0 1 0 0 0 1 0 0 0 1 0 0 0 0 0 805 1 0 0
