ply
format ascii 1.0
comment PCL generated
element vertex 51
property float x
property float y
property float z
property uchar red
property uchar green
property uchar blue
element camera 1
property float view_px
property float view_py
property float view_pz
property float x_axisx
property float x_axisy
property float x_axisz
property float y_axisx
property float y_axisy
property float y_axisz
property float z_axisx
property float z_axisy
property float z_axisz
property float focal
property float scalex
property float scaley
property float centerx
property float centery
property int viewportx
property int viewporty
property float k1
property float k2
end_header
0.80000001 2.664 -1.0089999 129 101 62
0.815 2.6530001 -1.017 37 28 33
0.81400001 2.6570001 -1.0039999 139 105 70
0.80900002 2.681 -1.0190001 108 88 63
0.824 2.6789999 -0.99800003 68 51 33
0.81300002 2.6819999 -0.99699998 66 54 54
0.81900001 2.675 -1.017 85 40 19
0.80900002 2.684 -1.023 118 97 70
0.81800002 2.668 -1.028 224 209 178
0.82300001 2.6670001 -1.018 94 53 25
0.81599998 2.674 -1.021 220 176 141
0.81800002 2.678 -0.99800003 151 132 115
0.82499999 2.6630001 -1.0089999 36 26 24
0.82700002 2.674 -0.99800003 124 103 76
0.81999999 2.6570001 -1.0089999 11 5 5
0.80900002 2.6630001 -1.006 28 19 22
0.81099999 2.668 -1.025 204 190 155
0.81099999 2.671 -1.031 222 201 170
0.79299998 2.665 -1.015 136 136 134
0.81900001 2.6530001 -1.02 36 30 34
0.80400002 2.6760001 -1.028 248 241 213
0.79699999 2.6760001 -1.029 254 241 209
0.80000001 2.6830001 -1.022 134 105 63
0.79500002 2.677 -1.028 254 237 207
0.79799998 2.6760001 -1.023 241 218 187
0.80000001 2.6719999 -1.02 250 229 198
0.81099999 2.6819999 -1.024 127 106 87
0.815 2.6789999 -0.995 128 106 83
0.81900001 2.6760001 -0.995 181 167 164
0.80599999 2.681 -1.012 73 59 50
0.80900002 2.6789999 -0.99400002 186 157 127
0.80800003 2.675 -0.99599999 59 41 37
0.81300002 2.6670001 -0.99900001 76 62 59
0.81999999 2.668 -1.0039999 48 39 40
0.81900001 2.6530001 -1.012 13 7 7
0.81300002 2.6630001 -1.003 33 3 0
0.80800003 2.668 -1.002 39 24 17
0.80699998 2.6689999 -1.022 255 244 210
0.815 2.6659999 -1.023 249 229 192
0.80800003 2.671 -1.025 255 251 218
0.82300001 2.675 -0.99599999 105 84 55
0.79799998 2.6670001 -1.011 151 108 57
0.79799998 2.6689999 -1.012 129 74 35
0.82200003 2.668 -1.005 19 9 7
0.82300001 2.675 -1 109 89 65
0.81400001 2.658 -1.016 39 32 39
0.80900002 2.681 -1.024 129 109 85
0.81099999 2.675 -0.99599999 29 15 12
0.79699999 2.674 -1.016 129 87 65
0.81900001 2.654 -1.017 33 22 26
0.80199999 2.6719999 -1.01 136 114 73
0 0 0 1 0 0 0 1 0 0 0 1 0 0 0 0 0 51 1 0 0
