ply
format ascii 1.0
comment PCL generated
element vertex 727
property float x
property float y
property float z
property uchar red
property uchar green
property uchar blue
element camera 1
property float view_px
property float view_py
property float view_pz
property float x_axisx
property float x_axisy
property float x_axisz
property float y_axisx
property float y_axisy
property float y_axisz
property float z_axisx
property float z_axisy
property float z_axisz
property float focal
property float scalex
property float scaley
property float centerx
property float centery
property int viewportx
property int viewporty
property float k1
property float k2
end_header
11.041 -0.93400002 -0.713 99 85 76
11.054 -0.93400002 -0.72500002 110 66 29
11.04 -0.92299998 -0.71100003 61 26 4
11.039 -0.92799997 -0.71200001 47 33 24
11.066 -0.75300002 -0.77399999 143 122 117
11.063 -0.75300002 -0.773 49 31 17
11.058 -0.745 -0.75800002 76 57 42
11.048 -0.741 -0.759 116 101 98
11.071 -0.755 -0.77200001 123 108 103
11.071 -0.94400001 -0.84299999 61 43 29
11.071 -0.93800002 -0.83700001 137 117 92
11.06 -0.95300001 -0.84600002 57 42 35
11.058 -0.93300003 -0.741 34 12 1
11.063 -0.92799997 -0.73500001 13 0 0
11.057 -0.79799998 -0.64600003 148 90 52
11.057 -0.79799998 -0.64499998 119 90 56
11.059 -0.79100001 -0.64499998 73 39 2
11.073 -0.93199998 -0.84500003 107 85 72
11.033 -0.926 -0.713 43 14 0
10.981 -0.73699999 -0.68000001 142 97 64
10.982 -0.72799999 -0.671 128 83 44
10.97 -0.74000001 -0.67699999 93 85 82
10.974 -0.77499998 -0.611 61 29 8
10.968 -0.76499999 -0.60299999 131 104 77
10.976 -0.759 -0.602 212 159 105
10.983 -0.759 -0.60500002 58 23 4
10.959 -0.76599997 -0.61699998 100 48 9
10.961 -0.78100002 -0.62699997 95 56 27
11.048 -0.76200002 -0.85699999 73 25 5
11.056 -0.75700003 -0.84899998 123 100 92
11.048 -0.74299997 -0.85600001 121 107 107
11.056 -0.76599997 -0.85299999 85 58 39
10.942 -0.86000001 -0.80199999 64 33 28
10.947 -0.85399997 -0.79900002 38 18 7
10.936 -0.86199999 -0.801 112 103 108
11.069 -0.76200002 -0.78200001 50 34 21
11.076 -0.76599997 -0.78299999 108 88 79
11.064 -0.75999999 -0.78600001 23 0 0
11.043 -0.93800002 -0.72100002 56 10 0
11.049 -0.93300003 -0.72100002 62 43 28
10.962 -0.796 -0.676 104 73 53
10.974 -0.801 -0.67000002 72 34 0
10.971 -0.79699999 -0.68099999 68 31 5
11.055 -0.75099999 -0.764 24 2 0
11.067 -0.75300002 -0.77100003 55 21 0
11.066 -0.75999999 -0.77399999 53 30 22
11.064 -0.75400001 -0.76800001 27 10 3
11.062 -0.75599998 -0.76899999 90 53 24
11.063 -0.76099998 -0.77399999 55 39 26
10.903 -0.85399997 -0.70999998 62 30 7
10.896 -0.852 -0.722 138 123 116
10.893 -0.85100001 -0.72299999 76 37 20
10.901 -0.85500002 -0.71499997 74 45 27
11.034 -0.92900002 -0.71799999 47 22 15
11.039 -0.73699999 -0.82999998 85 62 46
11.04 -0.73000002 -0.83700001 92 52 26
11.038 -0.73199999 -0.83700001 79 55 45
11.047 -0.74299997 -0.75300002 83 40 5
11.048 -0.74199998 -0.75099999 55 34 29
11.045 -0.73500001 -0.84600002 79 42 24
11.054 -0.73799998 -0.847 74 37 11
11.046 -0.74199998 -0.85299999 90 46 17
11.042 -0.74299997 -0.85699999 23 9 9
10.971 -0.76099998 -0.60299999 116 92 68
10.973 -0.75700003 -0.60399997 129 81 59
10.972 -0.75800002 -0.60500002 52 20 0
10.945 -0.76200002 -0.648 142 127 124
10.956 -0.75599998 -0.63700002 104 69 41
10.946 -0.759 -0.62300003 70 39 21
10.971 -0.76499999 -0.60500002 166 116 81
10.978 -0.74000001 -0.667 197 152 121
10.966 -0.76099998 -0.60799998 154 102 52
10.957 -0.75700003 -0.62699997 134 100 73
10.971 -0.75099999 -0.616 68 39 23
10.969 -0.75800002 -0.60900003 70 42 20
10.967 -0.76999998 -0.616 69 34 6
11.056 -0.77399999 -0.83499998 33 19 19
10.981 -0.80599999 -0.83700001 113 109 110
10.975 -0.80500001 -0.82599998 101 69 44
10.978 -0.78600001 -0.83899999 30 7 1
10.947 -0.86000001 -0.80500001 62 40 27
10.939 -0.86500001 -0.801 38 12 0
10.889 -0.85900003 -0.68300003 99 50 9
10.896 -0.86199999 -0.685 50 24 1
10.898 -0.86799997 -0.685 49 18 0
10.888 -0.86699998 -0.68300003 104 56 20
10.89 -0.85600001 -0.69099998 115 91 81
10.896 -0.87300003 -0.68900001 171 154 147
10.909 -0.87599999 -0.68400002 143 124 110
11.067 -0.76899999 -0.787 96 60 36
11.003 -0.838 -0.73400003 61 32 14
10.997 -0.84600002 -0.745 21 3 0
11 -0.83399999 -0.73400003 133 86 68
11.047 -0.92799997 -0.71899998 129 74 43
10.909 -0.87 -0.68699998 58 27 6
10.912 -0.875 -0.68699998 61 36 14
10.889 -0.86799997 -0.69099998 89 45 10
10.889 -0.87599999 -0.69099998 127 83 54
10.908 -0.85900003 -0.71600002 69 38 18
11.038 -0.73900002 -0.847 127 104 98
10.952 -0.773 -0.62900001 198 122 70
10.951 -0.76099998 -0.64899999 128 81 51
10.949 -0.76099998 -0.64099997 115 68 40
10.973 -0.76599997 -0.60699999 129 84 63
10.977 -0.76599997 -0.611 151 124 107
10.994 -0.73500001 -0.67799997 81 57 45
10.992 -0.73299998 -0.66799998 170 139 118
10.997 -0.73799998 -0.66000003 160 95 29
10.988 -0.741 -0.67699999 51 23 20
10.991 -0.75700003 -0.69 77 37 11
10.998 -0.75800002 -0.68900001 51 27 17
11.06 -0.92500001 -0.73299998 142 107 88
11.059 -0.92299998 -0.73400003 26 12 3
11.047 -0.81 -0.65700001 98 62 46
11.049 -0.80699998 -0.64899999 160 135 105
11.059 -0.74699998 -0.75099999 105 72 39
10.997 -0.76200002 -0.69700003 40 4 0
10.98 -0.73400003 -0.67400002 185 141 116
11.063 -0.92500001 -0.73900002 198 149 117
11.059 -0.92299998 -0.74000001 50 33 23
10.959 -0.78200001 -0.64399999 146 115 97
10.949 -0.77999997 -0.63800001 102 63 34
10.958 -0.77999997 -0.64899999 46 28 26
10.951 -0.77600002 -0.64600003 55 24 3
11.005 -0.852 -0.83399999 96 74 50
10.994 -0.847 -0.82499999 156 129 118
10.983 -0.85399997 -0.83499998 142 116 103
11.012 -0.83099997 -0.83200002 125 101 91
11.061 -0.78200001 -0.81800002 33 13 4
11.065 -0.77499998 -0.79699999 89 54 22
11.062 -0.79000002 -0.81099999 71 53 43
11.059 -0.792 -0.81900001 47 26 9
10.932 -0.86500001 -0.796 111 99 103
10.925 -0.85900003 -0.78500003 144 141 150
10.931 -0.86900002 -0.78600001 136 134 145
10.931 -0.861 -0.79299998 116 111 118
11.046 -0.75 -0.85399997 60 28 15
11.044 -0.75700003 -0.85399997 65 30 11
11.051 -0.76300001 -0.847 111 88 70
11.049 -0.76300001 -0.84100002 90 35 14
11.052 -0.76999998 -0.84899998 51 23 2
10.903 -0.86900002 -0.755 48 34 33
10.905 -0.86500001 -0.76099998 136 107 91
10.904 -0.85600001 -0.76099998 67 29 16
10.905 -0.86000001 -0.75 35 17 7
10.993 -0.792 -0.829 49 27 13
10.987 -0.78899997 -0.829 80 47 16
10.983 -0.79000002 -0.82200003 142 108 70
11.006 -0.801 -0.81999999 35 6 0
10.995 -0.79299998 -0.82999998 89 55 27
10.979 -0.79500002 -0.83399999 78 55 37
10.982 -0.79100001 -0.838 179 114 72
10.999 -0.83899999 -0.75099999 20 6 0
11.005 -0.83399999 -0.759 26 7 0
11.008 -0.84100002 -0.75300002 53 20 15
11.004 -0.838 -0.74599999 29 10 3
10.95 -0.85900003 -0.80000001 38 18 7
10.98 -0.80900002 -0.83200002 41 13 0
10.92 -0.85900003 -0.78100002 53 15 2
10.915 -0.852 -0.77100003 69 32 14
10.916 -0.84600002 -0.76999998 138 78 52
10.915 -0.85699999 -0.74599999 26 9 0
10.911 -0.85799998 -0.75700003 38 21 11
11.058 -0.764 -0.77600002 104 78 63
11.049 -0.74299997 -0.75999999 77 38 7
11.037 -0.84299999 -0.74199998 39 19 10
11.025 -0.84299999 -0.755 50 22 18
11.038 -0.83999997 -0.741 38 12 0
11.046 -0.85100001 -0.74800003 126 111 104
11.032 -0.84799999 -0.73900002 35 16 1
11.048 -0.85399997 -0.74699998 27 0 0
11.043 -0.73500001 -0.83899999 140 102 83
11.049 -0.74299997 -0.83700001 49 29 28
11.045 -0.84899998 -0.74000001 66 28 7
11.002 -0.84399998 -0.74299997 43 5 0
11.012 -0.83899999 -0.73500001 56 14 2
10.982 -0.81099999 -0.69599998 95 45 20
10.993 -0.80500001 -0.70599997 90 49 19
10.994 -0.79900002 -0.69400001 63 44 29
10.988 -0.81 -0.70999998 24 9 12
10.977 -0.81300002 -0.704 99 54 31
10.976 -0.80900002 -0.72600001 21 6 3
11.047 -0.93800002 -0.84799999 38 18 9
11.039 -0.92299998 -0.85000002 9 0 0
11.039 -0.92299998 -0.84200001 87 64 48
11.047 -0.94499999 -0.85000002 9 0 0
11.051 -0.93099999 -0.72600001 22 8 0
11.05 -0.935 -0.73699999 70 43 24
11.048 -0.935 -0.73400003 164 134 110
10.902 -0.86299998 -0.69199997 80 48 33
10.98 -0.77499998 -0.61799997 95 61 33
10.962 -0.80199999 -0.71700001 59 45 32
10.956 -0.792 -0.72799999 125 110 103
10.957 -0.79799998 -0.72799999 43 27 12
10.968 -0.77399999 -0.70300001 38 20 20
10.969 -0.77600002 -0.68699998 70 44 29
10.973 -0.76300001 -0.70599997 67 16 0
10.96 -0.79000002 -0.685 68 24 13
10.961 -0.78899997 -0.676 53 4 0
10.969 -0.778 -0.68099999 68 42 29
10.967 -0.778 -0.67299998 62 25 6
10.898 -0.85600001 -0.73199999 31 13 3
10.895 -0.86000001 -0.71100003 86 53 34
10.911 -0.86000001 -0.71499997 115 100 97
10.906 -0.86500001 -0.704 102 59 25
10.904 -0.866 -0.71399999 108 60 37
10.945 -0.866 -0.78100002 21 6 0
10.955 -0.86900002 -0.78799999 59 25 13
10.946 -0.86799997 -0.78299999 31 2 0
11.003 -0.89099997 -0.83200002 104 82 61
11.003 -0.87300003 -0.84500003 88 66 53
11.009 -0.89200002 -0.83600003 104 87 71
11.036 -0.917 -0.84899998 11 0 0
10.986 -0.85299999 -0.81800002 159 127 106
10.988 -0.86000001 -0.83099997 48 27 10
10.955 -0.86299998 -0.78899997 21 6 1
11.058 -0.94599998 -0.84299999 156 121 91
11.054 -0.76999998 -0.792 77 42 14
11.061 -0.764 -0.78899997 78 52 37
11.056 -0.76899999 -0.796 38 14 4
10.958 -0.79799998 -0.73199999 131 109 96
10.971 -0.75300002 -0.61000001 100 69 51
10.981 -0.73799998 -0.667 134 98 72
11.042 -0.74199998 -0.85299999 45 16 2
10.947 -0.77499998 -0.634 52 36 36
10.947 -0.76800001 -0.648 163 115 79
10.947 -0.76800001 -0.64099997 156 107 74
10.947 -0.76999998 -0.639 101 74 63
10.95 -0.773 -0.64300001 150 116 91
10.95 -0.773 -0.65200001 91 64 55
10.955 -0.77100003 -0.65600002 139 97 75
10.97 -0.75700003 -0.61500001 56 20 0
10.98 -0.74599999 -0.60399997 45 16 2
10.979 -0.76599997 -0.61500001 58 31 22
10.983 -0.74800003 -0.68199998 91 53 34
10.973 -0.76599997 -0.66799998 104 68 46
10.976 -0.75099999 -0.67799997 140 112 91
10.971 -0.77600002 -0.68099999 73 41 30
10.989 -0.759 -0.62800002 70 43 34
10.987 -0.741 -0.62 148 113 85
10.982 -0.74299997 -0.62699997 58 34 24
10.976 -0.74699998 -0.65899998 67 55 31
10.993 -0.74599999 -0.667 66 31 11
10.996 -0.74599999 -0.66000003 156 115 83
11.007 -0.75999999 -0.667 46 17 13
11.036 -0.792 -0.648 96 34 0
11.059 -0.78600001 -0.64600003 77 39 3
10.992 -0.79299998 -0.68699998 63 37 20
11.046 -0.78299999 -0.65499997 119 67 30
11.053 -0.78799999 -0.671 71 41 33
11.058 -0.77999997 -0.64999998 130 68 9
11.044 -0.77999997 -0.65499997 203 138 74
11.04 -0.77600002 -0.65499997 62 25 0
11.062 -0.74800003 -0.75599998 143 131 131
11.038 -0.78600001 -0.66399997 126 75 30
11.064 -0.92199999 -0.83700001 91 73 51
11.065 -0.917 -0.83600003 131 113 103
11.019 -0.87199998 -0.82599998 67 31 17
11.019 -0.87699997 -0.82200003 117 100 92
11.02 -0.898 -0.79000002 37 22 25
11.014 -0.89300001 -0.79100001 37 11 0
11.011 -0.90700001 -0.78600001 53 27 10
11.022 -0.89200002 -0.78799999 36 19 11
11.043 -0.92400002 -0.85000002 103 77 62
10.958 -0.77999997 -0.63700002 104 64 29
10.98 -0.76800001 -0.63499999 105 40 8
10.983 -0.75999999 -0.63300002 169 133 109
10.984 -0.76300001 -0.625 124 62 15
10.969 -0.74699998 -0.62900001 139 95 68
11.045 -0.79000002 -0.82200003 48 21 4
11.04 -0.77899998 -0.81599998 113 99 86
11.046 -0.78200001 -0.81 41 25 26
10.986 -0.79500002 -0.82200003 122 88 53
10.981 -0.79400003 -0.82599998 119 104 99
10.986 -0.80500001 -0.82800001 102 77 55
11 -0.81999999 -0.824 78 56 43
10.993 -0.80699998 -0.82800001 96 90 92
10.985 -0.79400003 -0.838 120 103 96
11.054 -0.78100002 -0.81300002 28 5 0
11.027 -0.83600003 -0.80900002 109 58 41
11.024 -0.84399998 -0.81099999 81 54 43
11.023 -0.83999997 -0.81599998 72 39 22
10.936 -0.85699999 -0.79100001 26 7 0
10.934 -0.852 -0.77999997 34 22 10
10.914 -0.86299998 -0.74599999 29 13 0
10.894 -0.86299998 -0.72000003 27 15 15
10.886 -0.87400001 -0.70200002 69 24 5
10.898 -0.87300003 -0.70999998 49 25 13
11.034 -0.73900002 -0.84100002 26 2 0
11.035 -0.74199998 -0.83700001 142 104 83
10.977 -0.79100001 -0.83200002 135 91 66
11 -0.84100002 -0.74400002 35 15 8
10.949 -0.86699998 -0.79299998 35 6 2
10.986 -0.85100001 -0.82599998 36 5 0
10.997 -0.83099997 -0.815 147 122 115
10.986 -0.85100001 -0.81599998 36 5 0
11.001 -0.82700002 -0.824 50 28 14
10.98 -0.80299997 -0.833 59 30 12
11.042 -0.79500002 -0.67299998 223 166 113
11.057 -0.792 -0.67500001 43 18 0
11.037 -0.792 -0.66799998 235 193 151
10.909 -0.85900003 -0.76599997 101 70 52
10.907 -0.86500001 -0.76099998 93 56 40
10.909 -0.86400002 -0.75 141 125 112
11.055 -0.755 -0.76999998 44 29 26
11.053 -0.75199997 -0.76099998 70 50 23
11.054 -0.80000001 -0.67400002 154 98 51
11.002 -0.82999998 -0.787 60 37 29
11.01 -0.83499998 -0.78200001 43 19 7
11.001 -0.83499998 -0.79100001 98 46 25
11.014 -0.83499998 -0.78399998 43 25 13
11.068 -0.76700002 -0.78799999 82 45 16
11.059 -0.773 -0.80000001 86 51 23
11.056 -0.75 -0.84799999 105 70 51
11.013 -0.89499998 -0.78100002 46 28 16
10.951 -0.85900003 -0.78200001 19 6 0
10.953 -0.85600001 -0.79500002 71 42 10
10.994 -0.80500001 -0.713 64 29 10
11.01 -0.83600003 -0.727 10 0 0
11.003 -0.83499998 -0.74000001 118 87 67
10.976 -0.81099999 -0.70200002 82 46 30
11.047 -0.93199998 -0.83899999 23 6 0
11.053 -0.93099999 -0.83399999 157 135 122
11.005 -0.90899998 -0.77200001 100 64 32
11.005 -0.90899998 -0.76599997 32 14 0
11.006 -0.89700001 -0.773 57 37 26
11.039 -0.91500002 -0.84600002 52 29 23
11.056 -0.94199997 -0.83700001 60 26 0
10.977 -0.78200001 -0.61699998 67 28 0
10.964 -0.79000002 -0.68699998 36 8 0
10.966 -0.78299999 -0.70700002 122 106 90
10.898 -0.86199999 -0.70300001 165 125 90
10.902 -0.88099998 -0.69 143 120 114
10.904 -0.88 -0.69300002 166 142 138
10.897 -0.88 -0.69199997 25 13 15
10.908 -0.86900002 -0.69499999 86 57 49
11.014 -0.90399998 -0.75999999 96 70 57
11.01 -0.90700001 -0.76300001 116 93 75
11.013 -0.90100002 -0.77399999 81 41 16
10.989 -0.85900003 -0.83499998 40 6 0
10.997 -0.87300003 -0.82800001 139 119 84
11.008 -0.861 -0.847 70 49 32
11.004 -0.86199999 -0.83999997 47 28 13
11.066 -0.94800001 -0.84899998 86 50 24
11.057 -0.94099998 -0.84799999 158 126 105
11.049 -0.91299999 -0.83700001 45 19 4
11.042 -0.91000003 -0.83899999 18 3 0
11.054 -0.90700001 -0.83499998 53 36 18
11.052 -0.76999998 -0.78899997 32 7 0
11.05 -0.76599997 -0.77700001 83 29 5
11.051 -0.76999998 -0.78299999 39 16 8
11.041 -0.77399999 -0.79699999 47 13 3
11.047 -0.77399999 -0.79100001 143 108 80
10.973 -0.74299997 -0.61400002 117 87 63
10.98 -0.74299997 -0.60600001 71 48 32
10.977 -0.74299997 -0.63 75 43 20
10.988 -0.74199998 -0.61699998 152 91 37
10.954 -0.77700001 -0.66100001 107 89 85
10.981 -0.77100003 -0.62 161 107 63
10.993 -0.764 -0.69099998 41 20 17
10.985 -0.74299997 -0.67900002 81 50 32
10.977 -0.745 -0.67900002 120 75 46
11.048 -0.80299997 -0.65499997 99 37 0
11.023 -0.78500003 -0.65399998 113 42 10
11.028 -0.78799999 -0.653 193 134 78
10.979 -0.79500002 -0.67900002 52 13 0
11.046 -0.792 -0.64899999 218 184 149
11.057 -0.787 -0.64999998 138 69 12
11.052 -0.78799999 -0.64999998 100 61 18
11.003 -0.75999999 -0.67400002 97 52 21
10.992 -0.755 -0.67000002 79 44 25
11.037 -0.77999997 -0.65499997 248 202 166
11.065 -0.91600001 -0.83700001 55 37 17
11.003 -0.87400001 -0.83899999 45 25 16
11.001 -0.87400001 -0.833 30 13 5
10.99 -0.84899998 -0.81800002 154 124 113
10.996 -0.83700001 -0.80500001 42 18 6
11.019 -0.89899999 -0.787 41 24 16
11.014 -0.90600002 -0.76800001 103 81 70
11.01 -0.90600002 -0.77700001 50 24 7
11.015 -0.86400002 -0.83600003 33 16 6
11.004 -0.85600001 -0.829 37 18 3
10.964 -0.77399999 -0.62400001 54 17 0
10.981 -0.76800001 -0.62099999 113 79 54
11.004 -0.80199999 -0.82599998 77 46 25
11.044 -0.77899998 -0.82999998 92 78 65
11.046 -0.74900001 -0.75599998 63 44 29
11.037 -0.75700003 -0.838 137 99 76
10.992 -0.77600002 -0.72799999 74 52 39
10.992 -0.77700001 -0.727 81 67 58
10.989 -0.76899999 -0.72600001 149 135 124
10.998 -0.84299999 -0.80400002 118 98 89
11.005 -0.81999999 -0.80299997 54 29 22
11 -0.80299997 -0.83099997 103 73 49
10.982 -0.80500001 -0.82599998 115 100 95
10.996 -0.83399999 -0.80400002 40 22 10
11.001 -0.81900001 -0.79799998 121 103 99
10.995 -0.81900001 -0.792 123 103 94
11.004 -0.81300002 -0.796 60 40 33
11.049 -0.78500003 -0.79699999 51 35 36
11.027 -0.83499998 -0.79900002 56 28 16
11.025 -0.82800001 -0.79900002 34 10 0
10.907 -0.87599999 -0.69800001 81 40 10
10.901 -0.866 -0.71499997 57 29 18
10.891 -0.85799998 -0.727 63 35 21
10.946 -0.85799998 -0.79299998 33 0 0
10.933 -0.86900002 -0.77899998 112 111 117
11.009 -0.83499998 -0.82599998 47 25 12
10.895 -0.86000001 -0.72899997 63 49 48
11.059 -0.75599998 -0.78100002 34 1 0
11.012 -0.83399999 -0.74699998 146 122 110
11.032 -0.84200001 -0.73299998 84 56 32
11.028 -0.83600003 -0.736 120 98 87
11.024 -0.838 -0.73799998 45 18 1
11.06 -0.75300002 -0.75099999 151 130 113
11.027 -0.83700001 -0.745 33 10 2
11.051 -0.77499998 -0.80000001 124 99 79
11.037 -0.74199998 -0.84500003 80 45 26
10.93 -0.847 -0.773 30 13 3
10.959 -0.801 -0.741 32 0 1
10.936 -0.85100001 -0.77200001 40 17 3
10.916 -0.86400002 -0.76899999 130 125 129
11.051 -0.92799997 -0.83700001 45 17 0
11.008 -0.90200001 -0.77899998 40 23 13
11.039 -0.917 -0.84399998 17 6 4
11.006 -0.86699998 -0.84600002 46 24 11
11.006 -0.90799999 -0.778 29 12 4
11.05 -0.93599999 -0.84299999 127 96 76
11.053 -0.92500001 -0.75700003 50 33 23
10.963 -0.78299999 -0.64499998 121 80 48
10.987 -0.79100001 -0.70499998 40 12 0
10.987 -0.78500003 -0.71600002 95 66 52
10.987 -0.796 -0.71200001 61 34 23
10.968 -0.79500002 -0.713 133 118 111
11.042 -0.93699998 -0.72500002 92 65 48
11.036 -0.93000001 -0.73299998 157 126 105
11.031 -0.912 -0.75199997 150 123 106
11.042 -0.91000003 -0.75 73 52 35
11.046 -0.90399998 -0.75 104 83 66
11.044 -0.91000003 -0.75599998 30 11 0
11.049 -0.92000002 -0.73299998 56 38 26
10.882 -0.85799998 -0.70200002 32 8 0
10.884 -0.86299998 -0.70200002 120 60 36
10.876 -0.85399997 -0.70200002 43 14 6
10.883 -0.86500001 -0.70300001 49 34 31
10.877 -0.85500002 -0.70499998 33 19 19
11.004 -0.87900001 -0.82700002 17 1 1
11.067 -0.93400002 -0.84899998 122 84 65
11.052 -0.93099999 -0.84899998 61 41 30
11.057 -0.912 -0.83600003 37 20 2
11.059 -0.92900002 -0.83600003 67 47 23
11.025 -0.83200002 -0.80900002 136 104 89
11.021 -0.815 -0.80400002 32 14 2
10.974 -0.74400002 -0.61699998 149 122 113
10.972 -0.74400002 -0.61000001 154 123 105
10.945 -0.76200002 -0.63599998 131 116 113
10.948 -0.76800001 -0.634 108 63 34
10.978 -0.74000001 -0.68099999 126 88 67
10.975 -0.74699998 -0.67500001 50 24 9
10.964 -0.76099998 -0.65799999 120 74 41
10.977 -0.74800003 -0.671 136 98 59
10.977 -0.74699998 -0.66399997 51 22 6
10.985 -0.76099998 -0.69700003 37 17 8
10.974 -0.75700003 -0.65100002 94 53 23
10.982 -0.76300001 -0.65799999 77 43 16
10.975 -0.76599997 -0.64600003 91 41 14
10.963 -0.759 -0.648 125 84 56
10.989 -0.74199998 -0.65899998 166 97 30
11.044 -0.79699999 -0.65799999 87 58 52
10.977 -0.79100001 -0.66799998 53 18 0
10.98 -0.79100001 -0.67400002 128 98 70
10.987 -0.764 -0.65899998 86 48 27
10.989 -0.75700003 -0.66000003 161 99 38
11.002 -0.76499999 -0.66399997 122 83 52
10.98 -0.79299998 -0.676 45 14 0
10.974 -0.79699999 -0.68800002 45 13 0
10.972 -0.79400003 -0.68900001 114 77 61
11.053 -0.79900002 -0.65600002 161 127 82
11.053 -0.79900002 -0.64999998 139 107 66
11.04 -0.792 -0.64899999 188 158 122
11.057 -0.792 -0.65899998 115 82 73
10.989 -0.73400003 -0.67299998 202 139 85
10.951 -0.76899999 -0.62800002 159 113 77
11.012 -0.87099999 -0.82300001 36 22 19
10.994 -0.852 -0.82099998 66 44 31
10.999 -0.833 -0.81699997 52 28 16
10.973 -0.77600002 -0.62300003 82 31 0
10.976 -0.75099999 -0.63099998 157 125 102
10.97 -0.75199997 -0.62 106 69 43
10.985 -0.74599999 -0.61799997 156 129 112
11.003 -0.82099998 -0.82800001 122 105 98
11.021 -0.80599999 -0.81599998 90 67 51
11.018 -0.81300002 -0.80500001 51 28 22
11.051 -0.78399998 -0.829 108 60 20
11.059 -0.78899997 -0.81800002 61 41 30
11.048 -0.79100001 -0.82200003 140 95 54
11.049 -0.75199997 -0.76800001 58 18 0
11.05 -0.77200001 -0.83700001 164 137 116
11.057 -0.745 -0.83700001 186 159 129
11.044 -0.75999999 -0.824 169 134 102
11.043 -0.74900001 -0.83200002 178 129 88
11.042 -0.75599998 -0.83200002 146 92 48
11.041 -0.74299997 -0.83099997 67 42 20
11.005 -0.83899999 -0.80299997 97 65 52
11.015 -0.82300001 -0.82099998 70 44 31
10.989 -0.796 -0.838 112 103 104
11.002 -0.81999999 -0.80000001 46 23 9
11.003 -0.80800003 -0.81900001 48 21 2
10.998 -0.82999998 -0.792 118 88 77
10.996 -0.815 -0.77999997 25 6 2
10.997 -0.81199998 -0.787 138 119 113
11.059 -0.77700001 -0.79699999 67 51 52
11.061 -0.77899998 -0.79000002 24 5 1
11.019 -0.83200002 -0.778 69 45 35
11.042 -0.77999997 -0.79000002 103 45 23
10.892 -0.861 -0.722 111 65 41
10.95 -0.86699998 -0.787 37 5 0
10.998 -0.84399998 -0.81400001 99 69 58
11.015 -0.83399999 -0.829 34 15 9
10.915 -0.87400001 -0.745 29 16 7
10.898 -0.87800002 -0.70300001 69 40 22
11.02 -0.83200002 -0.74699998 119 91 79
11.015 -0.83200002 -0.75700003 123 95 83
11.053 -0.76999998 -0.77700001 68 45 37
11.058 -0.74800003 -0.75199997 108 99 102
11.002 -0.80199999 -0.77200001 16 1 0
11.004 -0.81 -0.773 39 24 17
11 -0.81 -0.75599998 111 53 33
10.998 -0.815 -0.76599997 21 4 0
11.019 -0.84100002 -0.75800002 118 90 69
11.014 -0.83399999 -0.77600002 43 23 16
10.988 -0.80699998 -0.722 125 101 89
10.991 -0.80500001 -0.727 29 4 0
11.01 -0.833 -0.73500001 134 106 92
10.987 -0.78600001 -0.722 57 33 21
11.008 -0.81800002 -0.79000002 116 63 45
11.006 -0.81999999 -0.78100002 143 124 117
10.978 -0.78399998 -0.72899997 23 5 5
10.977 -0.77899998 -0.72600001 83 52 34
10.982 -0.80500001 -0.73100001 39 21 19
10.97 -0.80800003 -0.72100002 120 96 84
10.96 -0.81099999 -0.73100001 35 0 0
10.965 -0.80599999 -0.73900002 46 29 21
10.969 -0.80699998 -0.71799999 25 11 10
10.92 -0.847 -0.76099998 47 28 13
10.927 -0.84200001 -0.75 42 28 15
10.925 -0.84799999 -0.755 35 18 10
10.924 -0.84500003 -0.76800001 60 28 15
10.927 -0.84200001 -0.755 32 18 7
10.936 -0.86299998 -0.77200001 42 33 38
10.924 -0.87199998 -0.76899999 59 39 38
11.045 -0.91500002 -0.83899999 21 8 0
11.008 -0.866 -0.84100002 32 12 1
11.066 -0.93300003 -0.83700001 66 46 21
11.051 -0.92500001 -0.75 88 70 58
11.049 -0.92400002 -0.74900001 66 35 14
11.053 -0.91900003 -0.75700003 28 10 0
11.046 -0.92400002 -0.76099998 59 27 4
10.961 -0.78100002 -0.65100002 105 69 43
10.981 -0.76899999 -0.68900001 107 71 47
10.984 -0.76300001 -0.68800002 85 47 26
10.984 -0.77499998 -0.71100003 68 42 29
10.987 -0.77600002 -0.69800001 60 40 31
10.982 -0.778 -0.68199998 104 69 41
10.973 -0.79500002 -0.70499998 41 8 0
10.968 -0.80500001 -0.71399999 80 45 25
10.891 -0.87800002 -0.69499999 172 152 145
10.891 -0.86900002 -0.704 74 51 35
11.035 -0.93000001 -0.73799998 74 32 10
11.039 -0.92199999 -0.71899998 20 3 0
11.031 -0.91900003 -0.74900001 50 30 23
11.039 -0.91399997 -0.745 155 128 111
11.053 -0.91900003 -0.73900002 49 30 15
10.88 -0.85699999 -0.70300001 49 26 10
11.004 -0.88 -0.83399999 60 34 21
11.047 -0.93800002 -0.85000002 10 1 2
11.057 -0.91600001 -0.84200001 135 115 106
10.975 -0.745 -0.62 178 141 115
10.979 -0.73699999 -0.67699999 73 46 29
10.981 -0.76300001 -0.69800001 84 47 18
10.978 -0.76200002 -0.70300001 78 52 37
10.986 -0.73799998 -0.66299999 146 101 62
11.041 -0.79500002 -0.66399997 118 59 15
10.983 -0.78200001 -0.66299999 64 28 14
10.981 -0.78500003 -0.66900003 125 84 66
10.976 -0.79000002 -0.66100001 66 30 6
10.975 -0.79000002 -0.65399998 87 48 19
11.004 -0.76700002 -0.671 85 44 24
11.006 -0.77100003 -0.66799998 65 33 10
11.008 -0.764 -0.662 154 109 76
10.99 -0.77600002 -0.66100001 72 27 0
11.001 -0.77700001 -0.67000002 60 18 0
10.982 -0.77499998 -0.67900002 86 45 27
10.988 -0.773 -0.66100001 124 76 30
11.037 -0.78899997 -0.65600002 202 157 124
11.036 -0.78399998 -0.65399998 255 195 136
11.05 -0.787 -0.65499997 161 85 51
10.959 -0.77200001 -0.66500002 64 16 0
11.009 -0.86000001 -0.83499998 43 24 9
11.018 -0.80400002 -0.815 118 97 80
11.015 -0.81 -0.81699997 107 93 92
11.052 -0.78799999 -0.81800002 60 36 24
11.057 -0.787 -0.815 76 35 5
11.037 -0.74400002 -0.83600003 61 34 17
11.047 -0.76300001 -0.83600003 177 149 127
11.051 -0.76800001 -0.83499998 127 74 34
11.059 -0.77999997 -0.82200003 87 44 12
11.051 -0.76099998 -0.82700002 147 96 53
11.051 -0.77899998 -0.82999998 142 119 101
11.005 -0.84299999 -0.80800003 146 115 95
11.004 -0.84100002 -0.81 44 17 6
11.013 -0.81800002 -0.82099998 41 6 0
10.983 -0.80199999 -0.83700001 58 39 24
10.998 -0.82099998 -0.79100001 43 20 6
11.052 -0.77600002 -0.78799999 32 12 5
11.022 -0.83700001 -0.75599998 52 35 25
11.011 -0.82700002 -0.77499998 78 58 49
10.95 -0.85900003 -0.78799999 20 7 1
10.931 -0.85799998 -0.78399998 20 5 0
10.935 -0.87 -0.79400003 144 138 148
11.025 -0.84200001 -0.80599999 77 49 37
10.976 -0.76899999 -0.70999998 56 30 17
10.972 -0.77200001 -0.70200002 83 47 23
10.98 -0.76899999 -0.70999998 56 21 2
11.017 -0.83499998 -0.74599999 153 134 128
10.995 -0.81400001 -0.75800002 26 9 1
10.998 -0.80800003 -0.76499999 37 23 14
10.996 -0.80599999 -0.77200001 117 62 42
10.993 -0.80500001 -0.764 21 6 1
10.989 -0.80800003 -0.76200002 49 26 10
11.018 -0.83499998 -0.80599999 134 117 109
11.056 -0.77499998 -0.801 20 1 0
10.993 -0.80500001 -0.75800002 32 14 10
10.985 -0.801 -0.745 26 8 0
10.986 -0.80699998 -0.745 56 40 25
10.981 -0.81099999 -0.74800003 34 17 9
10.992 -0.80500001 -0.74000001 50 34 18
10.976 -0.80500001 -0.74000001 60 37 29
10.966 -0.80900002 -0.73199999 51 27 17
10.958 -0.801 -0.73100001 33 2 0
10.926 -0.84200001 -0.76099998 15 2 0
10.942 -0.85699999 -0.77999997 113 105 103
10.932 -0.861 -0.76700002 144 126 112
10.923 -0.86799997 -0.76200002 48 15 6
11 -0.80900002 -0.78299999 24 11 3
11 -0.80900002 -0.78100002 109 80 64
10.913 -0.87400001 -0.75099999 134 119 112
10.982 -0.78299999 -0.653 199 156 113
10.97 -0.77899998 -0.65200001 140 88 49
10.982 -0.78899997 -0.676 117 81 47
10.988 -0.79400003 -0.69300002 41 19 5
10.978 -0.76800001 -0.69700003 56 32 22
10.975 -0.801 -0.69700003 100 42 5
10.895 -0.87900001 -0.70300001 126 104 91
11.03 -0.91299999 -0.75599998 115 89 64
11.041 -0.92000002 -0.75099999 57 34 20
11.043 -0.91500002 -0.73799998 70 48 34
11.05 -0.92000002 -0.745 39 18 1
11.006 -0.884 -0.833 45 26 12
11.062 -0.91000003 -0.838 162 135 114
10.981 -0.74299997 -0.62400001 39 12 5
10.979 -0.74299997 -0.61199999 162 139 123
10.983 -0.74800003 -0.60600001 101 79 58
10.951 -0.75800002 -0.63 83 48 26
10.987 -0.73299998 -0.66600001 204 136 73
11.045 -0.80000001 -0.662 199 157 119
11.003 -0.76999998 -0.671 119 82 56
10.99 -0.778 -0.667 79 55 51
10.986 -0.77200001 -0.66000003 106 64 39
11.032 -0.78500003 -0.653 172 127 86
11.01 -0.83499998 -0.81900001 30 6 0
10.967 -0.77399999 -0.62699997 67 35 10
11.007 -0.80500001 -0.80000001 67 46 29
11.056 -0.77999997 -0.80900002 50 30 23
11.046 -0.74800003 -0.83099997 66 39 10
11.049 -0.76700002 -0.82700002 110 62 22
11.056 -0.773 -0.83099997 182 157 137
11.009 -0.833 -0.759 140 118 105
10.918 -0.86299998 -0.75099999 108 78 67
10.984 -0.77600002 -0.70899999 84 66 64
10.985 -0.76099998 -0.69700003 37 17 8
10.975 -0.77399999 -0.68800002 130 94 72
11.023 -0.833 -0.81099999 48 28 21
11.022 -0.833 -0.80000001 39 16 8
11.008 -0.82499999 -0.78200001 46 25 22
10.977 -0.787 -0.72500002 36 18 6
10.967 -0.79699999 -0.74599999 41 24 16
10.985 -0.80699998 -0.75 35 18 8
10.982 -0.80900002 -0.74599999 52 26 13
10.983 -0.79100001 -0.73299998 55 36 29
10.927 -0.847 -0.76700002 39 25 16
10.996 -0.81199998 -0.77899998 19 0 0
11.002 -0.80900002 -0.77600002 116 97 93
10.979 -0.76599997 -0.69599998 181 161 150
10.968 -0.78299999 -0.69499999 35 7 0
10.983 -0.77100003 -0.71700001 62 38 26
10.981 -0.77399999 -0.71799999 45 29 16
10.984 -0.77499998 -0.722 61 35 22
10.974 -0.79400003 -0.69700003 32 15 8
11.044 -0.91000003 -0.74400002 146 125 108
10.964 -0.75700003 -0.64399999 96 62 37
10.985 -0.74800003 -0.65899998 165 97 32
11.046 -0.80299997 -0.66399997 113 54 12
11.054 -0.79299998 -0.66799998 90 59 28
10.967 -0.78500003 -0.653 118 86 71
10.985 -0.78299999 -0.67500001 130 98 87
10.976 -0.77100003 -0.63999999 42 26 27
11.013 -0.82300001 -0.82499999 72 23 6
11.009 -0.80599999 -0.796 131 112 108
11.058 -0.77999997 -0.80699998 24 5 0
11.048 -0.74299997 -0.83200002 97 54 20
10.915 -0.87300003 -0.75099999 54 43 47
10.918 -0.87199998 -0.76300001 122 116 118
10.986 -0.78299999 -0.70499998 53 36 26
10.989 -0.80500001 -0.72000003 35 6 0
10.96 -0.79699999 -0.73699999 50 31 24
10.968 -0.79900002 -0.73900002 34 17 7
10.996 -0.815 -0.77200001 22 4 0
10.975 -0.778 -0.71600002 50 19 1
11.048 -0.91799998 -0.736 70 51 36
10.972 -0.79299998 -0.66799998 66 44 31
11.011 -0.81199998 -0.79699999 33 17 4
11.06 -0.78100002 -0.80800003 65 30 2
10.92 -0.86699998 -0.75300002 31 14 6
10.97 -0.80000001 -0.74599999 37 21 8
10.958 -0.78100002 -0.66500002 61 36 31
10.918 -0.87400001 -0.75999999 63 45 45
0 0 0 1 0 0 0 1 0 0 0 1 0 0 0 0 0 727 1 0 0
