ply
format ascii 1.0
comment PCL generated
element vertex 440
property float x
property float y
property float z
property uchar red
property uchar green
property uchar blue
element camera 1
property float view_px
property float view_py
property float view_pz
property float x_axisx
property float x_axisy
property float x_axisz
property float y_axisx
property float y_axisy
property float y_axisz
property float z_axisx
property float z_axisy
property float z_axisz
property float focal
property float scalex
property float scaley
property float centerx
property float centery
property int viewportx
property int viewporty
property float k1
property float k2
end_header
-0.74699998 17.778 -0.74400002 126 76 43
-0.74000001 17.774 -0.74599999 76 34 12
-0.75 17.767 -0.74699998 125 85 50
-0.699 17.787001 -0.94499999 70 38 17
-0.68900001 17.790001 -0.93900001 100 64 38
-0.70200002 17.796 -0.93599999 110 57 25
-0.69300002 17.789 -0.94 124 66 29
-0.69300002 17.782 -0.94300002 81 41 15
-0.75099999 17.724001 -0.93900001 186 102 42
-0.75099999 17.725 -0.92699999 192 112 51
-0.759 17.726999 -0.93199998 213 117 59
-0.67799997 17.728001 -0.73000002 62 31 11
-0.68099999 17.723 -0.72299999 86 42 17
-0.67400002 17.726999 -0.71899998 87 49 26
-0.69300002 17.775 -0.72799999 47 20 9
-0.68900001 17.775 -0.71700001 120 88 65
-0.69999999 17.778999 -0.72500002 85 39 13
-0.745 17.792 -0.67699999 100 35 3
-0.75400001 17.784 -0.676 121 78 46
-0.755 17.797001 -0.67199999 56 36 27
-0.74800003 17.787001 -0.68000001 81 43 22
-0.66799998 17.742001 -0.73699999 109 69 44
-0.66900003 17.743 -0.74599999 106 42 4
-0.67400002 17.73 -0.71700001 73 28 0
-0.759 17.735001 -0.93099999 143 97 73
-0.759 17.728001 -0.94599998 165 72 15
-0.75800002 17.733999 -0.94700003 139 93 67
-0.755 17.771999 -0.74400002 83 26 0
-0.76999998 17.775 -0.74800003 164 120 83
-0.76099998 17.771999 -0.75 136 63 18
-0.755 17.768999 -0.74900001 106 69 43
-0.75099999 17.804001 -0.69800001 88 39 7
-0.75300002 17.792999 -0.70099998 143 101 63
-0.75400001 17.809999 -0.68000001 85 48 30
-0.759 17.801001 -0.69700003 81 46 27
-0.75800002 17.804001 -0.68000001 141 80 49
-0.66399997 17.757999 -0.74199998 104 62 40
-0.66600001 17.754999 -0.73799998 88 43 20
-0.65600002 17.761 -0.745 100 63 37
-0.66100001 17.764 -0.74800003 173 113 76
-0.713 17.725 -0.95499998 98 35 0
-0.713 17.723 -0.96100003 87 41 15
-0.70200002 17.725 -0.94999999 174 83 30
-0.70700002 17.725 -0.95899999 179 92 47
-0.71499997 17.728001 -0.963 211 118 57
-0.75099999 17.771 -0.755 164 114 91
-0.68000001 17.738001 -0.70999998 159 81 33
-0.67799997 17.743999 -0.70999998 94 57 38
-0.69400001 17.743 -0.69400001 53 17 0
-0.67699999 17.742001 -0.71100003 131 77 49
-0.67900002 17.746 -0.71499997 104 99 105
-0.75300002 17.789 -0.68300003 110 76 48
-0.75800002 17.795 -0.68699998 56 29 18
-0.69300002 17.74 -0.69800001 115 42 1
-0.69 17.750999 -0.70899999 84 48 22
-0.69199997 17.768999 -0.71100003 94 51 19
-0.69700003 17.761 -0.70700002 76 34 12
-0.69999999 17.761999 -0.708 66 21 0
-0.69499999 17.77 -0.72000003 92 56 32
-0.699 17.759001 -0.71100003 80 49 21
-0.69 17.768 -0.71899998 69 24 1
-0.68800002 17.736 -0.778 69 36 21
-0.69300002 17.742001 -0.77600002 127 63 27
-0.69099998 17.732 -0.78200001 255 202 163
-0.66399997 17.75 -0.74599999 85 45 20
-0.66799998 17.753 -0.73900002 52 34 34
-0.68099999 17.742001 -0.83099997 151 83 36
-0.68199998 17.743 -0.81900001 138 65 20
-0.69099998 17.731001 -0.82999998 123 50 9
-0.69099998 17.732 -0.84200001 152 77 35
-0.68699998 17.736 -0.83399999 92 57 29
-0.74599999 17.733 -0.92000002 221 126 70
-0.75599998 17.735001 -0.94999999 104 67 40
-0.74800003 17.731001 -0.94599998 57 33 21
-0.71200001 17.731001 -0.78399998 195 161 136
-0.713 17.738001 -0.79000002 82 45 18
-0.71799999 17.743 -0.78299999 90 27 0
-0.71499997 17.733999 -0.80000001 86 36 3
-0.72000003 17.745001 -0.78200001 102 62 36
-0.69499999 17.738001 -0.78100002 103 57 24
-0.70700002 17.740999 -0.78100002 77 42 14
-0.70300001 17.747 -0.759 117 65 28
-0.69800001 17.77 -0.727 90 49 27
-0.67400002 17.733999 -0.72899997 71 26 0
-0.70599997 17.764 -0.74299997 85 41 16
-0.76700002 17.778 -0.745 129 69 32
-0.76999998 17.778 -0.75199997 110 35 0
-0.75 17.802999 -0.68099999 100 51 19
-0.755 17.799999 -0.69199997 144 78 46
-0.75800002 17.799999 -0.67500001 93 41 27
-0.755 17.797001 -0.67400002 168 91 47
-0.75400001 17.777 -0.76300001 63 22 2
-0.75599998 17.777 -0.75199997 96 26 0
-0.75300002 17.775 -0.764 54 28 11
-0.75 17.761999 -0.903 123 74 42
-0.75800002 17.754 -0.90799999 221 130 73
-0.755 17.757 -0.90200001 129 38 0
-0.75099999 17.739 -0.94099998 142 89 47
-0.72000003 17.725 -0.95899999 187 100 46
-0.73199999 17.745001 -0.96100003 137 50 0
-0.69700003 17.733999 -0.93400002 147 79 18
-0.70200002 17.738001 -0.94 83 42 12
-0.72799999 17.746 -0.95599997 115 53 12
-0.741 17.73 -0.94 175 85 23
-0.73699999 17.773001 -0.76700002 80 19 0
-0.73199999 17.784 -0.77200001 88 51 24
-0.73000002 17.782 -0.77899998 102 41 10
-0.72899997 17.782 -0.77399999 130 88 64
-0.72600001 17.781 -0.78100002 86 36 9
-0.71399999 17.74 -0.82099998 112 58 24
-0.71100003 17.731001 -0.80900002 70 52 50
-0.72100002 17.747999 -0.80500001 79 30 15
-0.75300002 17.792999 -0.67900002 151 86 46
-0.69 17.726999 -0.70899999 142 66 17
-0.69700003 17.736 -0.71799999 97 44 12
-0.69199997 17.718 -0.71100003 94 40 38
-0.72799999 17.756001 -0.741 80 33 17
-0.727 17.750999 -0.74199998 109 62 32
-0.73000002 17.747 -0.74000001 48 29 31
-0.73100001 17.749001 -0.74199998 71 17 0
-0.69099998 17.753 -0.713 69 33 19
-0.68699998 17.739 -0.77999997 221 185 159
-0.66299999 17.759001 -0.745 54 9 0
-0.68199998 17.743 -0.84299999 150 78 30
-0.67299998 17.754999 -0.88800001 160 113 83
-0.67199999 17.764 -0.898 47 28 30
-0.67500001 17.75 -0.90100002 204 130 81
-0.68599999 17.742001 -0.82099998 207 127 64
-0.685 17.749001 -0.83099997 142 89 45
-0.73799998 17.735001 -0.93599999 138 105 96
-0.74199998 17.736 -0.92799997 191 99 32
-0.73199999 17.733999 -0.91000003 91 52 35
-0.741 17.742001 -0.89999998 142 90 51
-0.73199999 17.733999 -0.88800001 81 39 23
-0.72799999 17.733 -0.90600002 88 47 25
-0.75099999 17.747999 -0.90700001 76 48 37
-0.74599999 17.745001 -0.89999998 122 74 51
-0.73500001 17.761 -0.917 134 83 56
-0.73799998 17.766001 -0.90100002 100 39 8
-0.70499998 17.750999 -0.76300001 105 40 8
-0.70700002 17.759001 -0.76200002 87 41 26
-0.71899998 17.753 -0.76800001 98 63 41
-0.71100003 17.743999 -0.74299997 111 69 45
-0.745 17.745001 -0.89499998 115 28 0
-0.70499998 17.736 -0.79400003 149 77 37
-0.745 17.757 -0.764 98 37 6
-0.69400001 17.764999 -0.72799999 98 64 39
-0.66900003 17.746 -0.73799998 93 44 14
-0.66399997 17.754 -0.74199998 82 41 13
-0.70499998 17.740999 -0.73699999 64 27 1
-0.70599997 17.739 -0.736 104 45 13
-0.68099999 17.73 -0.72299999 125 74 45
-0.69700003 17.740999 -0.73400003 112 63 59
-0.676 17.731001 -0.72500002 67 29 8
-0.69400001 17.743999 -0.71200001 152 97 66
-0.70099998 17.743999 -0.72299999 74 29 10
-0.69300002 17.75 -0.71100003 97 42 11
-0.69800001 17.74 -0.71799999 89 40 25
-0.699 17.76 -0.73799998 111 59 22
-0.69599998 17.757 -0.736 124 53 11
-0.75800002 17.794001 -0.74900001 78 33 12
-0.755 17.801001 -0.70099998 84 20 0
-0.74000001 17.802999 -0.73299998 103 57 33
-0.75 17.811001 -0.73199999 96 56 31
-0.74699998 17.816999 -0.736 101 43 21
-0.74199998 17.798 -0.73100001 79 42 23
-0.755 17.798 -0.68699998 128 58 24
-0.74299997 17.749001 -0.90100002 182 90 27
-0.68000001 17.746 -0.90799999 166 87 46
-0.676 17.752001 -0.91299999 77 31 31
-0.68000001 17.754 -0.90100002 152 99 68
-0.69700003 17.775999 -0.93900001 34 20 20
-0.67900002 17.761999 -0.912 67 18 4
-0.68199998 17.761999 -0.90200001 117 73 48
-0.70700002 17.732 -0.94599998 35 16 9
-0.708 17.731001 -0.94700003 114 62 25
-0.71399999 17.74 -0.94800001 128 57 13
-0.72799999 17.774 -0.78200001 96 51 28
-0.72399998 17.773001 -0.78200001 84 33 4
-0.69700003 17.735001 -0.85399997 137 54 4
-0.69599998 17.722 -0.70599997 124 71 39
-0.69999999 17.747999 -0.73000002 81 49 26
-0.713 17.746 -0.76999998 102 62 36
-0.72299999 17.749001 -0.778 78 47 27
-0.70700002 17.735001 -0.80500001 41 16 11
-0.662 17.757 -0.74199998 163 112 69
-0.67400002 17.764999 -0.88099998 188 103 48
-0.67500001 17.768 -0.88800001 144 81 37
-0.68599999 17.768999 -0.87099999 70 24 9
-0.67900002 17.768 -0.884 169 86 46
-0.685 17.740999 -0.838 33 17 18
-0.72299999 17.747 -0.92500001 145 92 48
-0.73100001 17.737 -0.89999998 216 125 54
-0.75400001 17.754 -0.90399998 135 101 74
-0.75199997 17.757999 -0.91000003 158 110 64
-0.73100001 17.763 -0.90700001 125 51 4
-0.72000003 17.763 -0.917 105 52 21
-0.72500002 17.777 -0.93400002 103 50 18
-0.70700002 17.733999 -0.727 97 52 31
-0.70499998 17.733 -0.72600001 104 69 41
-0.69300002 17.742001 -0.70999998 88 50 27
-0.73000002 17.752001 -0.745 77 49 38
-0.73000002 17.759001 -0.76200002 119 73 49
-0.73199999 17.764999 -0.755 102 43 11
-0.73199999 17.766001 -0.74699998 108 69 38
-0.72799999 17.763 -0.76499999 152 101 56
-0.69800001 17.749001 -0.75700003 96 48 44
-0.75700003 17.799999 -0.70099998 94 36 12
-0.75300002 17.798 -0.70099998 66 29 3
-0.75 17.804001 -0.73400003 79 54 34
-0.74900001 17.796 -0.73400003 46 50 53
-0.755 17.799 -0.741 52 35 27
-0.73500001 17.796 -0.741 106 53 37
-0.745 17.781 -0.745 85 29 4
-0.74699998 17.787001 -0.73900002 81 33 0
-0.75700003 17.798 -0.68900001 106 45 14
-0.68099999 17.754 -0.80699998 96 64 43
-0.67000002 17.766001 -0.80599999 120 71 41
-0.67400002 17.766001 -0.79699999 211 152 110
-0.69199997 17.743 -0.80900002 107 72 50
-0.68800002 17.740999 -0.81599998 81 45 19
-0.69499999 17.752001 -0.77399999 185 139 115
-0.69700003 17.763 -0.79000002 162 116 92
-0.70200002 17.76 -0.77499998 98 54 27
-0.676 17.767 -0.80000001 92 55 28
-0.68000001 17.771999 -0.81900001 97 53 18
-0.67400002 17.773001 -0.81900001 125 69 32
-0.72299999 17.75 -0.79400003 81 50 30
-0.69499999 17.746 -0.79900002 73 20 2
-0.74199998 17.778 -0.76200002 73 28 5
-0.699 17.757999 -0.755 66 26 1
-0.69599998 17.757 -0.75999999 129 68 37
-0.704 17.792 -0.74000001 58 34 30
-0.69300002 17.780001 -0.92000002 89 49 23
-0.69499999 17.783001 -0.921 117 66 35
-0.69599998 17.780001 -0.903 179 135 106
-0.704 17.790001 -0.92199999 117 57 7
-0.68099999 17.764 -0.89300001 142 89 45
-0.685 17.756001 -0.898 120 53 8
-0.73100001 17.739 -0.889 248 158 82
-0.71700001 17.737 -0.94 151 56 0
-0.70599997 17.756001 -0.83099997 41 24 14
-0.70999998 17.753 -0.82599998 83 55 51
-0.70999998 17.752001 -0.81699997 123 70 30
-0.699 17.754999 -0.824 75 30 27
-0.69800001 17.743 -0.69700003 70 24 0
-0.70700002 17.761 -0.74000001 81 34 18
-0.69300002 17.742001 -0.722 147 71 22
-0.71799999 17.75 -0.81599998 114 48 14
-0.70499998 17.737 -0.80699998 123 46 2
-0.69300002 17.736 -0.81999999 103 58 27
-0.69700003 17.738001 -0.81999999 218 140 76
-0.69800001 17.74 -0.833 172 122 85
-0.67299998 17.761999 -0.89300001 168 83 29
-0.72500002 17.740999 -0.94800001 135 79 42
-0.72299999 17.745001 -0.93699998 139 85 51
-0.72899997 17.747 -0.94099998 107 53 7
-0.74900001 17.740999 -0.93300003 99 38 10
-0.75300002 17.738001 -0.92900002 136 88 42
-0.72899997 17.736 -0.90399998 249 158 88
-0.722 17.745001 -0.90200001 118 66 26
-0.71100003 17.743999 -0.90200001 69 29 4
-0.75 17.749001 -0.91299999 96 53 34
-0.74599999 17.797001 -0.74299997 94 48 22
-0.73900002 17.804001 -0.73900002 174 126 103
-0.741 17.792 -0.74900001 73 28 7
-0.741 17.790001 -0.74699998 80 42 23
-0.75 17.811001 -0.73299998 73 34 1
-0.69499999 17.752001 -0.77100003 206 147 113
-0.69800001 17.775 -0.76200002 48 27 24
-0.67900002 17.768999 -0.81199998 124 76 40
-0.72000003 17.756001 -0.79299998 122 72 45
-0.70099998 17.759001 -0.79100001 184 140 113
-0.70599997 17.757 -0.80599999 77 31 18
-0.70300001 17.757 -0.79100001 97 32 0
-0.69300002 17.737 -0.78899997 121 52 10
-0.74900001 17.771999 -0.76200002 90 44 20
-0.74900001 17.792999 -0.75599998 43 47 48
-0.722 17.777 -0.75599998 103 44 10
-0.70499998 17.768999 -0.75999999 101 57 32
-0.727 17.784 -0.76300001 100 39 11
-0.69800001 17.773001 -0.759 99 54 31
-0.70599997 17.764 -0.76300001 119 72 46
-0.708 17.764999 -0.759 78 26 2
-0.69199997 17.781 -0.93199998 86 42 13
-0.704 17.783001 -0.93800002 129 50 7
-0.704 17.775999 -0.89200002 82 38 37
-0.71799999 17.759001 -0.90100002 89 36 5
-0.70599997 17.771999 -0.88499999 156 101 70
-0.685 17.757999 -0.86900002 164 81 37
-0.685 17.757999 -0.85699999 164 88 39
-0.69300002 17.774 -0.90799999 53 29 25
-0.68900001 17.754 -0.88599998 123 52 10
-0.68099999 17.75 -0.91399997 166 106 70
-0.69 17.754999 -0.91799998 41 27 27
-0.70999998 17.757999 -0.92799997 136 64 16
-0.68800002 17.763 -0.92299998 79 41 18
-0.69199997 17.766001 -0.92299998 129 50 9
-0.68900001 17.775999 -0.93099999 123 39 0
-0.73299998 17.766001 -0.93099999 128 79 38
-0.73000002 17.773001 -0.93699998 135 43 0
-0.70499998 17.735001 -0.93900001 144 54 4
-0.72100002 17.74 -0.94 95 51 22
-0.71899998 17.745001 -0.93400002 140 54 7
-0.71399999 17.728001 -0.94800001 80 40 5
-0.71600002 17.729 -0.95099998 144 49 0
-0.71899998 17.733999 -0.94700003 129 47 0
-0.727 17.740999 -0.94599998 116 66 33
-0.72399998 17.739 -0.954 114 51 16
-0.69800001 17.771999 -0.88599998 174 118 83
-0.699 17.771 -0.88200003 131 44 0
-0.69099998 17.747999 -0.82099998 128 71 26
-0.70499998 17.764999 -0.84399998 142 69 34
-0.71499997 17.753 -0.83700001 98 52 26
-0.713 17.761 -0.85100001 84 43 11
-0.71399999 17.750999 -0.82200003 84 40 13
-0.69800001 17.764 -0.87 120 38 0
-0.708 17.75 -0.86799997 110 34 0
-0.69499999 17.750999 -0.86900002 115 61 27
-0.699 17.743 -0.85600001 107 58 18
-0.72299999 17.745001 -0.88599998 101 48 6
-0.722 17.745001 -0.87900001 93 41 4
-0.70599997 17.743999 -0.89200002 154 65 7
-0.70999998 17.743999 -0.83700001 168 118 81
-0.71100003 17.745001 -0.85500002 75 23 2
-0.71799999 17.750999 -0.84200001 105 36 5
-0.70200002 17.759001 -0.73900002 100 47 31
-0.70999998 17.747999 -0.741 134 89 66
-0.699 17.752001 -0.77899998 89 44 39
-0.69199997 17.737 -0.81800002 115 40 0
-0.71200001 17.743999 -0.82300001 140 102 89
-0.69199997 17.733999 -0.83600003 128 79 47
-0.69300002 17.742001 -0.85500002 146 69 27
-0.68900001 17.745001 -0.852 119 80 51
-0.73900002 17.757 -0.93599999 136 99 72
-0.72000003 17.747999 -0.90499997 205 112 43
-0.71200001 17.75 -0.91100001 78 41 25
-0.72000003 17.750999 -0.91299999 170 85 21
-0.74800003 17.732 -0.926 73 46 35
-0.73100001 17.747 -0.917 189 136 94
-0.74900001 17.743999 -0.91900003 38 27 31
-0.713 17.763 -0.91100001 120 74 40
-0.74699998 17.761999 -0.76099998 140 76 38
-0.73799998 17.763 -0.74699998 45 18 0
-0.685 17.761999 -0.80800003 134 61 18
-0.70200002 17.759001 -0.78299999 95 43 29
-0.699 17.736 -0.79699999 103 56 12
-0.74000001 17.785 -0.76099998 87 48 19
-0.713 17.761999 -0.77499998 101 53 15
-0.73299998 17.785 -0.76800001 90 34 1
-0.70300001 17.795 -0.73900002 69 23 0
-0.70700002 17.797001 -0.73900002 53 32 29
-0.69499999 17.784 -0.93300003 146 86 49
-0.68599999 17.764 -0.90600002 176 87 31
-0.69400001 17.778 -0.912 79 43 31
-0.68900001 17.749001 -0.866 52 25 18
-0.68900001 17.752001 -0.85799998 34 15 17
-0.68400002 17.756001 -0.917 138 51 0
-0.68900001 17.757 -0.90700001 143 72 30
-0.71200001 17.754999 -0.93300003 116 63 29
-0.708 17.752001 -0.90499997 172 80 17
-0.69099998 17.782 -0.93800002 118 40 2
-0.68000001 17.750999 -0.91600001 140 89 60
-0.71399999 17.739 -0.93699998 84 51 42
-0.68800002 17.768999 -0.86900002 124 70 34
-0.699 17.759001 -0.84500003 79 43 19
-0.69999999 17.75 -0.83099997 79 45 18
-0.708 17.75 -0.88 127 46 1
-0.69999999 17.752001 -0.87900001 106 58 20
-0.70999998 17.747999 -0.86199999 68 30 7
-0.73000002 17.740999 -0.89200002 179 101 39
-0.73000002 17.747 -0.88599998 57 28 20
-0.69400001 17.735001 -0.84100002 162 90 50
-0.727 17.743 -0.88099998 89 49 24
-0.71799999 17.752001 -0.80299997 117 51 16
-0.73400003 17.747 -0.94800001 116 45 0
-0.73000002 17.761999 -0.94300002 101 52 22
-0.74000001 17.757999 -0.92799997 126 63 32
-0.75099999 17.795 -0.75199997 100 61 32
-0.70099998 17.76 -0.80599999 105 60 31
-0.68000001 17.761999 -0.80500001 88 39 22
-0.72000003 17.749001 -0.787 78 45 26
-0.736 17.782 -0.76499999 99 62 33
-0.727 17.785999 -0.75599998 100 58 36
-0.708 17.771999 -0.92000002 107 45 6
-0.70300001 17.773001 -0.91500002 74 30 29
-0.70499998 17.791 -0.92299998 48 30 18
-0.70300001 17.781 -0.91299999 99 54 15
-0.68800002 17.75 -0.87800002 45 26 28
-0.713 17.752001 -0.91399997 104 74 64
-0.70899999 17.750999 -0.91299999 133 51 0
-0.68099999 17.764 -0.91799998 133 76 31
-0.69 17.768999 -0.92199999 98 62 38
-0.71899998 17.754999 -0.93199998 173 124 94
-0.68800002 17.747999 -0.829 52 32 31
-0.69300002 17.754999 -0.852 136 77 35
-0.713 17.750999 -0.866 76 49 42
-0.71100003 17.757999 -0.866 50 22 18
-0.71399999 17.757999 -0.86699998 72 32 20
-0.713 17.747 -0.88999999 93 64 56
-0.71899998 17.746 -0.89200002 179 95 33
-0.71600002 17.754999 -0.85299999 100 53 27
-0.69999999 17.759001 -0.847 67 22 19
-0.685 17.757 -0.80900002 148 97 50
-0.73100001 17.746 -0.95300001 181 87 25
-0.73400003 17.759001 -0.93900001 38 28 29
-0.72600001 17.771 -0.93699998 85 45 45
-0.727 17.763 -0.94 123 60 17
-0.67900002 17.764 -0.80400002 139 74 32
-0.72500002 17.777 -0.76599997 87 40 10
-0.69300002 17.773001 -0.92799997 60 39 34
-0.71200001 17.787001 -0.921 116 69 39
-0.69 17.749001 -0.88200003 76 40 18
-0.71899998 17.752001 -0.92199999 121 77 48
-0.69099998 17.759001 -0.866 41 17 13
-0.713 17.756001 -0.87400001 141 80 51
-0.73299998 17.752001 -0.88999999 110 65 24
-0.71600002 17.754999 -0.80599999 123 79 52
-0.73199999 17.749001 -0.94800001 145 60 6
-0.67400002 17.767 -0.80900002 159 94 52
-0.70599997 17.788 -0.93800002 92 48 49
-0.71799999 17.753 -0.92199999 144 54 2
-0.699 17.756001 -0.861 99 48 3
-0.72000003 17.753 -0.87900001 247 166 87
-0.73500001 17.76 -0.90100002 131 81 56
-0.73000002 17.754999 -0.89999998 106 45 1
-0.73100001 17.756001 -0.94199997 157 104 62
-0.70499998 17.764999 -0.92299998 154 72 25
-0.70499998 17.754 -0.89600003 172 85 42
-0.71600002 17.754999 -0.86900002 98 48 21
-0.713 17.757 -0.88999999 81 35 1
-0.70599997 17.756001 -0.85299999 119 65 21
-0.70200002 17.750999 -0.79000002 94 49 20
-0.71100003 17.767 -0.93099999 142 54 4
-0.71899998 17.754 -0.88300002 96 55 27
-0.727 17.752001 -0.88499999 148 94 56
-0.71100003 17.757999 -0.88700002 44 19 14
-0.71399999 17.759001 -0.93300003 51 13 0
-0.71600002 17.754999 -0.88499999 92 41 12
-0.722 17.753 -0.89099997 76 35 33
0 0 0 1 0 0 0 1 0 0 0 1 0 0 0 0 0 440 1 0 0
