ply
format ascii 1.0
comment PCL generated
element vertex 1214
property float x
property float y
property float z
property uchar red
property uchar green
property uchar blue
element camera 0
property float view_px
property float view_py
property float view_pz
property float x_axisx
property float x_axisy
property float x_axisz
property float y_axisx
property float y_axisy
property float y_axisz
property float z_axisx
property float z_axisy
property float z_axisz
property float focal
property float scalex
property float scaley
property float centerx
property float centery
property int viewportx
property int viewporty
property float k1
property float k2
end_header
-5.8299999 2.388 -0.815 130 75 34
-5.8200002 2.392 -0.79100001 62 30 9
-5.8239999 2.3929999 -0.76700002 58 31 20
-5.7930002 2.3269999 -0.82300001 122 103 97
-5.7909999 2.3310001 -0.81900001 102 87 84
-5.7800002 2.3169999 -0.75400001 171 102 60
-5.7810001 2.3280001 -0.75800002 91 42 0
-5.7589998 2.339 -0.66900003 215 131 61
-5.756 2.335 -0.676 62 10 0
-5.7969999 2.3670001 -0.71100003 118 61 31
-5.8239999 2.385 -0.685 58 8 0
-5.803 2.3800001 -0.69999999 123 69 43
-5.816 2.3929999 -0.69999999 88 45 10
-5.8000002 2.3640001 -0.70300001 82 24 2
-5.757 2.3380001 -0.713 150 102 62
-5.7540002 2.3340001 -0.69599998 77 61 35
-5.7839999 2.342 -0.72399998 142 77 35
-5.7729998 2.3440001 -0.73500001 139 84 43
-5.7820001 2.3380001 -0.69599998 136 60 10
-5.7930002 2.3429999 -0.69700003 163 110 76
-5.783 2.3380001 -0.699 123 71 32
-5.7909999 2.346 -0.70999998 120 66 28
-5.7940001 2.355 -0.71200001 156 102 58
-5.776 2.382 -0.73400003 29 10 0
-5.7600002 2.418 -0.71499997 92 58 33
-5.756 2.411 -0.71799999 42 10 0
-5.7610002 2.4200001 -0.68000001 116 64 27
-5.7909999 2.388 -0.634 192 134 86
-5.79 2.3789999 -0.64499998 101 40 0
-5.7940001 2.3770001 -0.64099997 152 98 52
-5.7709999 2.3789999 -0.685 61 36 16
-5.7589998 2.4100001 -0.64300001 66 31 12
-5.7470002 2.395 -0.63599998 91 59 34
-5.816 2.3929999 -0.69599998 20 0 0
-5.822 2.391 -0.69199997 136 85 28
-5.8150001 2.3989999 -0.70200002 122 76 52
-5.8260002 2.4400001 -0.722 120 72 24
-5.8189998 2.4489999 -0.727 131 103 79
-5.8060002 2.4460001 -0.75800002 34 15 9
-5.8579998 2.434 -0.79299998 66 30 14
-5.8649998 2.421 -0.80199999 65 33 12
-5.7270002 2.3269999 -0.727 83 25 1
-5.724 2.313 -0.736 206 133 98
-5.7670002 2.349 -0.78200001 122 80 42
-5.7550001 2.358 -0.79299998 59 22 3
-5.7509999 2.348 -0.79900002 96 47 4
-5.7789998 2.3299999 -0.81400001 129 106 92
-5.7649999 2.3210001 -0.81300002 254 185 128
-5.7820001 2.3180001 -0.81999999 115 79 47
-5.7789998 2.3410001 -0.81300002 115 93 82
-5.7750001 2.3199999 -0.81900001 144 102 62
-5.757 2.3369999 -0.78100002 69 21 0
-5.79 2.359 -0.76999998 70 30 5
-5.756 2.365 -0.796 128 75 21
-5.7610002 2.3629999 -0.80800003 110 88 75
-5.776 2.352 -0.82700002 17 0 0
-5.7690001 2.358 -0.824 198 106 31
-5.7930002 2.3429999 -0.838 148 83 43
-5.7519999 2.3710001 -0.80500001 70 35 7
-5.796 2.392 -0.84399998 157 95 48
-5.8060002 2.4059999 -0.79400003 34 18 3
-5.809 2.4030001 -0.79400003 89 44 11
-5.8140001 2.398 -0.801 127 73 29
-5.8449998 2.4000001 -0.78799999 88 36 12
-5.7410002 2.4119999 -0.74699998 48 15 0
-5.7470002 2.4089999 -0.73199999 84 48 26
-5.8010001 2.3699999 -0.69199997 39 16 2
-5.8070002 2.418 -0.69599998 119 92 75
-5.809 2.4070001 -0.68099999 145 128 121
-5.8119998 2.411 -0.69400001 143 106 79
-5.7280002 2.339 -0.79100001 166 68 0
-5.7270002 2.3399999 -0.79100001 143 57 0
-5.7129998 2.3699999 -0.75700003 38 11 2
-5.7199998 2.3670001 -0.76999998 118 75 43
-5.7140002 2.365 -0.76800001 124 77 61
-5.7189999 2.3670001 -0.76200002 67 18 1
-5.724 2.375 -0.81699997 125 98 81
-5.7290001 2.3759999 -0.81599998 63 36 25
-5.7280002 2.3959999 -0.76999998 17 3 2
-5.7360001 2.4000001 -0.79000002 26 8 6
-5.7329998 2.4089999 -0.78600001 27 16 14
-5.7280002 2.4100001 -0.79400003 17 5 5
-5.724 2.424 -0.80000001 78 43 21
-5.7280002 2.424 -0.78799999 34 16 12
-5.6789999 2.365 -0.74599999 76 14 0
-5.7410002 2.3299999 -0.77200001 203 145 105
-5.7449999 2.3310001 -0.77399999 180 127 95
-5.7309999 2.335 -0.78399998 142 90 50
-5.7309999 2.3369999 -0.78600001 236 131 39
-5.744 2.3340001 -0.77899998 89 20 0
-5.7410002 2.336 -0.78100002 175 102 47
-5.724 2.339 -0.78100002 65 25 13
-5.7290001 2.319 -0.745 152 76 26
-5.75 2.3239999 -0.75099999 132 91 61
-5.7340002 2.323 -0.74299997 136 64 24
-5.7119999 2.336 -0.74900001 190 105 48
-5.7189999 2.323 -0.671 135 78 35
-5.71 2.3410001 -0.70099998 162 89 44
-5.7470002 2.325 -0.68400002 82 52 41
-5.7449999 2.3299999 -0.68599999 33 4 0
-5.7379999 2.3280001 -0.67400002 53 17 3
-5.737 2.3169999 -0.67000002 162 94 47
-5.7010002 2.335 -0.912 141 93 53
-5.7030001 2.335 -0.91600001 222 127 43
-5.704 2.336 -0.91399997 227 136 57
-5.711 2.3329999 -0.89200002 207 153 107
-5.7259998 2.3340001 -0.84299999 87 58 52
-5.743 2.3280001 -0.82599998 130 85 54
-5.7280002 2.3380001 -0.84600002 73 46 25
-5.7319999 2.3399999 -0.84600002 138 88 53
-5.7309999 2.3369999 -0.84100002 33 9 0
-5.723 2.3399999 -0.81699997 155 111 76
-5.7249999 2.362 -0.85399997 49 12 4
-5.7270002 2.3640001 -0.84799999 39 2 0
-5.6950002 2.352 -0.85799998 183 120 69
-5.677 2.3570001 -0.71700001 89 15 2
-5.6700001 2.3599999 -0.70499998 250 235 168
-5.6719999 2.3640001 -0.69700003 114 36 0
-5.6750002 2.3940001 -0.82800001 39 5 0
-5.6869998 2.345 -0.73500001 210 155 114
-5.704 2.362 -0.68900001 83 47 21
-5.6690001 2.3659999 -0.69400001 129 48 3
-5.6680002 2.368 -0.69099998 116 34 0
-5.6700001 2.368 -0.68400002 151 82 51
-5.6550002 2.3710001 -0.72299999 52 19 4
-5.6609998 2.392 -0.71700001 84 45 30
-5.6750002 2.404 -0.736 133 92 62
-5.6719999 2.405 -0.72100002 169 129 94
-5.6739998 2.3989999 -0.73000002 85 54 49
-5.6799998 2.391 -0.79699999 158 91 49
-5.677 2.3989999 -0.79400003 101 54 26
-5.6810002 2.3770001 -0.80299997 162 154 152
-5.6830001 2.3640001 -0.79900002 130 99 78
-5.6810002 2.3699999 -0.78600001 164 94 45
-5.6810002 2.369 -0.787 169 100 58
-5.6830001 2.365 -0.79400003 154 86 51
-5.7199998 2.392 -0.76599997 13 0 0
-5.7220001 2.3900001 -0.76300001 55 5 0
-5.7020001 2.4000001 -0.77200001 135 128 120
-5.6919999 2.404 -0.76099998 80 61 63
-5.6939998 2.402 -0.764 64 11 0
-5.6830001 2.391 -0.778 189 110 43
-5.6939998 2.4000001 -0.77499998 128 108 97
-5.7449999 2.4879999 -0.65100002 90 63 52
-5.7470002 2.484 -0.64899999 130 97 64
-5.7670002 2.473 -0.65499997 124 83 51
-5.868 2.451 -0.639 94 66 45
-5.8239999 2.438 -0.64300001 129 81 45
-5.8150001 2.4300001 -0.65399998 96 43 0
-5.7709999 2.4560001 -0.66900003 51 13 4
-5.7750001 2.464 -0.65700001 98 58 32
-5.7740002 2.4549999 -0.65700001 83 56 37
-5.658 2.3640001 -0.66600001 186 152 125
-5.6609998 2.369 -0.67199999 255 217 168
-5.6620002 2.359 -0.66799998 112 83 69
-5.677 2.425 -0.56900001 102 55 9
-5.6680002 2.405 -0.58099997 254 206 134
-5.6589999 2.408 -0.57599998 217 188 172
-5.6620002 2.431 -0.60500002 77 48 30
-5.6890001 2.425 -0.62400001 111 58 16
-5.691 2.418 -0.55900002 123 64 22
-5.6900001 2.4400001 -0.56099999 134 90 41
-5.7129998 2.4460001 -0.565 149 114 92
-5.7160001 2.4419999 -0.56699997 58 39 24
-5.6680002 2.4230001 -0.55599999 120 76 47
-5.7189999 2.4230001 -0.57200003 226 150 75
-5.7210002 2.4189999 -0.57700002 208 132 70
-5.7410002 2.474 -0.62900001 168 154 151
-5.7329998 2.4690001 -0.63599998 76 56 21
-5.7309999 2.4590001 -0.64899999 113 82 51
-5.7220001 2.4319999 -0.62199998 131 89 65
-5.711 2.4260001 -0.63200003 143 116 89
-5.724 2.447 -0.61799997 166 127 98
-5.7150002 2.4430001 -0.62300003 108 59 27
-5.7379999 2.4560001 -0.60299999 120 67 27
-5.7360001 2.4619999 -0.60299999 89 30 0
-5.7360001 2.461 -0.597 72 25 0
-5.71 2.421 -0.65799999 67 20 0
-5.6999998 2.4289999 -0.64099997 91 51 25
-5.7270002 2.437 -0.685 89 64 59
-5.7519999 2.4579999 -0.56800002 133 51 0
-5.7399998 2.4560001 -0.58499998 131 85 49
-5.7350001 2.4690001 -0.56599998 186 145 117
-5.7639999 2.4349999 -0.61699998 255 179 112
-5.6700001 2.408 -0.68000001 66 34 11
-5.6789999 2.4159999 -0.67799997 70 44 31
-5.6750002 2.414 -0.71600002 114 40 0
-5.743 2.4189999 -0.71600002 76 49 32
-5.7399998 2.421 -0.71399999 28 5 0
-5.75 2.4260001 -0.78500003 41 21 12
-5.7930002 2.425 -0.74699998 122 90 67
-5.7389998 2.428 -0.76599997 117 83 56
-5.7290001 2.4330001 -0.75999999 53 17 1
-5.7360001 2.424 -0.759 70 37 18
-5.7319999 2.421 -0.75099999 58 12 0
-5.724 2.437 -0.764 102 68 43
-5.7179999 2.444 -0.77600002 90 53 34
-5.704 2.4400001 -0.76300001 78 36 20
-5.7049999 2.437 -0.77100003 119 108 106
-5.7160001 2.437 -0.73299998 56 25 7
-5.8010001 2.4189999 -0.73299998 220 173 143
-5.7839999 2.4059999 -0.76200002 146 111 92
-5.7989998 2.4100001 -0.76599997 70 47 31
-5.836 2.395 -0.66100001 173 91 33
-5.829 2.4000001 -0.63800001 163 107 58
-5.829 2.411 -0.64499998 170 131 62
-5.8369999 2.4089999 -0.64499998 104 41 6
-5.8610001 2.408 -0.65100002 117 51 16
-5.8109999 2.362 -0.662 174 108 34
-5.8039999 2.3369999 -0.66500002 198 128 69
-5.7979999 2.3529999 -0.66900003 130 96 71
-5.882 2.4489999 -0.63499999 81 22 4
-5.776 2.336 -0.65799999 60 23 5
-5.763 2.3340001 -0.64899999 74 38 26
-5.7800002 2.3380001 -0.67000002 101 46 26
-5.7800002 2.336 -0.67900002 137 66 22
-5.7859998 2.335 -0.671 106 68 55
-5.7610002 2.3180001 -0.68199998 123 78 49
-5.7639999 2.3150001 -0.68699998 189 121 72
-5.7719998 2.3199999 -0.69199997 190 115 58
-5.7659998 2.3239999 -0.68599999 146 79 27
-5.756 2.312 -0.68400002 103 59 34
-5.7540002 2.3970001 -0.70200002 29 4 0
-5.7529998 2.391 -0.70499998 80 37 18
-5.75 2.402 -0.71100003 73 41 26
-5.7329998 2.424 -0.713 67 22 0
-5.7030001 2.414 -0.68699998 71 44 25
-5.73 2.428 -0.61400002 154 102 63
-5.7340002 2.438 -0.60600001 50 20 12
-5.7389998 2.428 -0.62199998 156 114 90
-5.7950001 2.332 -0.65899998 179 107 57
-5.7600002 2.3099999 -0.68400002 121 38 0
-5.79 2.3599999 -0.61000001 96 61 41
-5.7880001 2.358 -0.59500003 125 42 12
-5.7859998 2.359 -0.59500003 219 154 88
-5.7839999 2.3599999 -0.60900003 86 59 38
-5.7950001 2.332 -0.57200003 219 144 63
-5.8249998 2.3499999 -0.64200002 112 37 0
-5.8260002 2.3599999 -0.64200002 177 88 4
-5.7620001 2.4070001 -0.56099999 59 21 0
-5.7639999 2.4000001 -0.56199998 166 80 0
-5.7579999 2.4070001 -0.56199998 122 72 37
-5.757 2.404 -0.56099999 179 107 25
-5.7529998 2.4189999 -0.54100001 172 90 6
-5.7480001 2.4170001 -0.55299997 226 176 117
-5.7579999 2.3929999 -0.57099998 168 66 0
-5.7540002 2.4219999 -0.616 78 33 4
-5.7529998 2.425 -0.611 72 24 4
-5.7329998 2.4159999 -0.63800001 87 59 45
-5.849 2.408 -0.91399997 112 79 64
-5.8470001 2.3989999 -0.90399998 57 14 0
-5.8439999 2.401 -0.90100002 70 29 9
-5.8499999 2.414 -0.92199999 94 74 63
-5.8299999 2.4690001 -0.92799997 69 46 30
-5.8460002 2.447 -0.97799999 73 54 47
-5.8439999 2.444 -0.98299998 77 58 51
-5.7989998 2.4489999 -0.94 125 121 120
-5.7930002 2.444 -0.94099998 158 142 127
-5.8080001 2.4349999 -0.89999998 54 32 19
-5.8239999 2.4660001 -0.93199998 10 1 2
-5.8909998 2.404 -0.89300001 238 188 139
-5.8829999 2.401 -0.88300002 192 136 89
-5.868 2.4230001 -0.704 91 62 48
-5.8610001 2.421 -0.713 138 64 29
-5.8610001 2.424 -0.70999998 106 38 1
-5.882 2.427 -0.70999998 136 71 15
-5.8790002 2.4260001 -0.73900002 108 56 19
-5.8610001 2.4200001 -0.71399999 144 70 25
-5.8800001 2.4300001 -0.68599999 108 45 2
-5.881 2.434 -0.713 168 103 45
-5.8769999 2.441 -0.71799999 123 58 2
-5.842 2.4489999 -0.736 96 52 25
-5.8839998 2.421 -0.73299998 117 64 22
-5.8610001 2.427 -0.69099998 30 3 0
-5.8709998 2.4389999 -0.69099998 59 22 0
-5.8400002 2.431 -0.71899998 137 96 66
-5.8330002 2.4260001 -0.64300001 176 156 149
-5.8410001 2.418 -0.64300001 131 97 72
-5.8369999 2.428 -0.65799999 72 30 8
-5.8740001 2.444 -0.68099999 188 160 138
-5.8639998 2.437 -0.67000002 222 142 69
-5.8649998 2.4200001 -0.66399997 99 35 0
-5.868 2.415 -0.64399999 146 104 80
-5.875 2.438 -0.63700002 92 69 53
-5.8260002 2.4460001 -0.86500001 10 0 0
-5.816 2.4489999 -0.87199998 60 14 0
-5.8130002 2.45 -0.86199999 44 7 0
-5.8039999 2.4389999 -0.84899998 41 22 15
-5.8070002 2.4419999 -0.84100002 49 30 24
-5.8109999 2.4460001 -0.82599998 135 77 39
-5.822 2.4619999 -0.92000002 34 7 0
-5.8210001 2.4530001 -0.91399997 94 67 56
-5.8150001 2.454 -0.93000001 59 18 0
-5.7719998 2.4289999 -1.007 127 103 91
-5.7659998 2.421 -1.007 66 29 21
-5.743 2.4200001 -1.011 61 15 0
-5.7480001 2.4170001 -1.0089999 106 71 49
-5.7579999 2.418 -1.01 93 57 33
-5.7690001 2.4400001 -1.028 175 152 138
-5.7950001 2.421 -0.99400002 139 81 33
-5.7950001 2.4189999 -0.99299997 91 36 0
-5.6659999 2.3929999 -0.56599998 255 207 99
-5.6560001 2.3789999 -0.57999998 102 31 1
-5.6599998 2.3729999 -0.57599998 118 40 0
-5.671 2.385 -0.56900001 243 152 107
-5.651 2.398 -0.55199999 91 49 24
-5.7319999 2.464 -0.56800002 246 196 133
-5.7340002 2.4130001 -0.56199998 126 45 0
-5.7290001 2.424 -0.54000002 248 222 187
-5.7389998 2.4319999 -0.53600001 212 148 74
-5.7340002 2.4430001 -0.53399998 71 45 22
-5.8140001 2.3929999 -1.043 45 19 4
-5.8470001 2.4300001 -1.036 159 91 52
-5.8410001 2.4349999 -1.024 33 4 0
-5.8470001 2.404 -0.96399999 103 44 2
-5.849 2.4059999 -0.97500002 80 40 15
-5.8470001 2.398 -0.95499998 115 41 0
-5.8410001 2.391 -0.96200001 122 54 17
-5.8470001 2.3959999 -0.94599998 57 31 18
-5.848 2.3929999 -0.949 29 0 0
-5.8039999 2.3410001 -0.84200001 165 124 102
-5.789 2.3239999 -0.838 175 122 88
-5.7740002 2.378 -0.89200002 56 23 4
-5.8429999 2.4230001 -0.95999998 53 34 28
-5.8470001 2.4349999 -0.99199998 116 99 91
-5.8260002 2.441 -0.98799998 117 83 73
-5.8439999 2.4189999 -0.99299997 83 31 9
-5.8509998 2.4289999 -1.011 41 14 3
-5.8039999 2.3859999 -0.97500002 249 203 115
-5.7979999 2.3940001 -0.98000002 222 113 30
-5.829 2.3970001 -1.0039999 199 115 27
-5.835 2.402 -0.98699999 138 63 21
-5.8470001 2.4289999 -0.98900002 102 75 66
-5.8460002 2.4330001 -0.98299998 115 102 94
-5.7360001 2.4619999 -0.53399998 58 34 22
-5.7140002 2.4330001 -0.54299998 117 77 42
-5.704 2.4170001 -0.551 127 96 39
-5.7620001 2.3829999 -0.574 149 71 22
-5.7649999 2.3870001 -0.56800002 147 57 22
-5.7519999 2.4260001 -0.60900003 74 21 3
-5.8070002 2.4260001 -0.64999998 91 46 23
-5.7519999 2.352 -0.55199999 144 100 61
-5.75 2.342 -0.55000001 255 194 97
-5.7540002 2.342 -0.551 100 39 0
-5.744 2.4579999 -0.537 198 88 9
-5.7670002 2.3889999 -0.56599998 182 138 101
-5.7639999 2.388 -0.56599998 180 91 47
-5.7659998 2.3789999 -0.56199998 69 22 2
-5.7659998 2.3729999 -0.55599999 235 202 149
-5.7129998 2.375 -0.55800003 194 148 112
-5.7579999 2.3659999 -0.579 148 117 96
-5.7709999 2.355 -0.57700002 87 16 0
-5.7719998 2.3599999 -0.57499999 76 35 17
-5.756 2.4679999 -0.625 155 78 24
-5.7540002 2.4630001 -0.62300003 168 78 28
-5.7379999 2.457 -0.59600002 80 27 0
-5.7909999 2.4349999 -0.64899999 138 91 37
-5.7800002 2.437 -0.66000003 51 22 6
-5.7670002 2.4760001 -0.63599998 150 75 17
-5.756 2.447 -0.54000002 178 96 36
-5.7459998 2.4579999 -0.55299997 111 53 15
-5.75 2.457 -0.55199999 81 35 9
-5.7670002 2.4579999 -0.55599999 169 114 73
-5.777 2.4649999 -0.653 106 54 14
-5.7680001 2.473 -0.64399999 179 119 69
-5.7649999 2.4560001 -0.62300003 255 215 104
-5.7639999 2.467 -0.62699997 230 173 92
-5.7740002 2.4590001 -0.63099998 214 147 76
-5.7649999 2.4660001 -0.62800002 255 223 124
-5.7610002 2.4560001 -0.62199998 255 213 105
-5.7709999 2.4419999 -0.63300002 135 54 1
-5.7779999 2.4549999 -0.64099997 98 41 0
-5.7750001 2.447 -0.639 106 52 24
-5.7589998 2.454 -0.56400001 215 136 67
-5.7420001 2.4660001 -0.55900002 64 32 17
-5.7519999 2.421 -0.53899997 178 98 11
-5.7410002 2.4230001 -0.54100001 117 62 5
-5.763 2.441 -0.56 176 83 40
-5.7540002 2.428 -0.60500002 99 61 42
-5.7529998 2.431 -0.58499998 69 17 3
-5.7490001 2.4300001 -0.59799999 58 14 1
-5.7410002 2.437 -0.53500003 163 119 72
-5.7940001 2.352 -0.55599999 164 80 0
-5.7909999 2.348 -0.55599999 127 59 20
-5.7909999 2.3670001 -0.56400001 198 141 88
-5.7789998 2.3770001 -0.56999999 177 89 18
-5.783 2.3699999 -0.56699997 152 81 19
-5.7919998 2.349 -0.56999999 180 96 23
-5.79 2.3540001 -0.56800002 163 120 77
-5.7820001 2.342 -0.55199999 203 106 25
-5.789 2.3310001 -0.55699998 187 102 38
-5.7839999 2.3399999 -0.55299997 127 80 50
-5.8249998 2.411 -0.671 134 71 30
-5.789 2.345 -0.58499998 222 152 80
-5.7820001 2.427 -1.046 31 8 2
-5.7579999 2.418 -1.045 68 37 16
-5.7529998 2.411 -1.045 32 5 0
-5.7659998 2.4100001 -1.036 56 28 7
-5.7449999 2.415 -1.0420001 60 26 24
-5.7399998 2.4230001 -1.035 164 130 121
-5.7150002 2.402 -1.049 9 0 0
-5.7259998 2.4030001 -1.043 32 4 0
-5.744 2.4089999 -1.0420001 97 79 59
-5.7189999 2.405 -1.043 126 95 74
-5.7030001 2.3840001 -1.049 83 45 24
-5.7119999 2.401 -1.049 18 2 2
-5.7940001 2.4030001 -1.05 143 90 38
-5.7979999 2.392 -1.04 80 53 34
-5.796 2.4000001 -1.0420001 63 36 29
-5.7909999 2.4070001 -1.0420001 191 128 59
-5.7909999 2.4119999 -1.048 63 17 2
-5.7709999 2.415 -1.033 80 45 13
-5.822 2.4349999 -1.015 70 47 41
-5.822 2.438 -0.99599999 150 143 137
-5.8439999 2.4430001 -1.015 92 50 25
-5.8169999 2.408 -1.044 73 45 34
-5.79 2.332 -0.57599998 194 104 18
-5.7909999 2.336 -0.57800001 250 175 94
-5.79 2.3369999 -0.58200002 172 106 28
-5.7839999 2.325 -0.58999997 150 98 61
-5.7909999 2.3310001 -0.56199998 133 56 4
-5.882 2.414 -0.86400002 126 81 52
-5.848 2.4200001 -0.86500001 64 45 39
-5.849 2.4260001 -0.847 48 16 5
-5.8470001 2.421 -0.87400001 73 54 48
-5.848 2.4300001 -0.88300002 34 15 1
-5.8660002 2.4100001 -0.87199998 81 42 9
-5.8530002 2.4330001 -0.83499998 23 4 0
-5.8390002 2.434 -0.85100001 118 84 59
-5.8309999 2.4389999 -0.82800001 31 12 8
-5.8579998 2.4189999 -0.85299999 151 142 143
-5.8639998 2.4170001 -0.85699999 52 22 12
-5.8520002 2.4200001 -0.852 32 1 0
-5.8200002 2.457 -0.90700001 17 3 2
-5.835 2.4590001 -0.89700001 128 74 36
-5.796 2.447 -0.96200001 20 5 0
-5.8400002 2.4430001 -1.001 92 79 73
-5.7449999 2.464 -0.53899997 253 213 144
-5.7329998 2.477 -0.56400001 144 103 73
-5.7800002 2.336 -0.69 133 101 62
-5.8249998 2.339 -0.634 177 90 23
-5.7919998 2.3410001 -0.70200002 142 85 42
-5.802 2.348 -0.69300002 113 72 52
-5.7870002 2.3169999 -0.75 193 139 111
-5.79 2.3340001 -0.66799998 61 26 4
-5.783 2.319 -0.56199998 138 79 47
-5.7810001 2.3210001 -0.56 228 131 63
-5.6560001 2.3540001 -0.56599998 140 61 22
-5.6750002 2.388 -0.54900002 218 135 57
-5.6869998 2.402 -0.551 104 57 15
-5.6789999 2.404 -0.55000001 255 236 150
-5.7129998 2.4000001 -0.54799998 101 54 12
-5.691 2.3840001 -0.56 153 101 61
-5.7340002 2.4159999 -0.54400003 179 88 18
-5.7579999 2.362 -0.55500001 161 118 65
-5.7639999 2.3659999 -0.55400002 117 66 21
-5.737 2.427 -0.537 64 41 25
-5.7270002 2.358 -0.57700002 202 165 139
-5.7140002 2.3529999 -0.57700002 166 112 78
-5.7150002 2.3659999 -0.56300002 139 108 90
-5.7319999 2.372 -0.56599998 161 111 86
-5.737 2.372 -0.57099998 102 60 35
-5.7280002 2.359 -0.57099998 171 128 75
-5.7220001 2.322 -0.60799998 115 54 35
-5.7210002 2.3369999 -0.60600001 50 12 0
-5.7220001 2.325 -0.60699999 62 3 0
-5.7249999 2.3199999 -0.61699998 43 15 4
-5.724 2.3110001 -0.59299999 110 66 31
-5.7270002 2.349 -0.55699998 153 141 143
-5.7420001 2.3410001 -0.551 220 163 92
-5.6739998 2.3670001 -0.55599999 241 147 60
-5.6960001 2.3369999 -0.58499998 93 36 6
-5.698 2.342 -0.58899999 219 155 93
-5.6739998 2.3770001 -0.551 113 35 0
-5.6729999 2.3770001 -1.034 45 17 13
-5.7309999 2.352 -1.041 43 9 0
-5.6820002 2.345 -1.0470001 30 3 0
-5.6599998 2.362 -1.022 88 56 33
-5.6599998 2.3629999 -1.023 40 6 0
-5.6880002 2.391 -1.0089999 57 25 2
-5.6700001 2.346 -0.99900001 66 38 17
-5.6729999 2.345 -1.007 200 132 85
-5.6669998 2.3529999 -0.99299997 96 58 37
-5.6900001 2.381 -1.045 35 0 0
-5.6859999 2.3800001 -1.045 41 6 4
-5.6869998 2.408 -0.972 54 21 4
-5.6869998 2.4070001 -0.96100003 76 31 8
-5.6869998 2.4059999 -0.96399999 148 126 128
-5.7090001 2.411 -0.96799999 157 132 128
-5.7049999 2.4100001 -0.97799999 117 80 53
-5.6929998 2.405 -0.92900002 215 170 141
-5.698 2.401 -0.93900001 77 34 27
-5.737 2.3959999 -0.96399999 54 30 20
-5.6820002 2.3929999 -0.991 16 0 0
-5.7350001 2.405 -0.98000002 87 40 20
-5.73 2.4159999 -0.98799998 74 59 54
-5.7280002 2.4000001 -0.97100002 55 12 0
-5.7210002 2.4000001 -0.97799999 30 5 0
-5.783 2.391 -1.0140001 31 13 1
-5.7810001 2.3889999 -1.005 33 15 5
-5.7800002 2.3929999 -1.016 79 45 18
-5.7610002 2.3870001 -1.008 211 149 102
-5.7600002 2.3629999 -1.017 134 72 31
-5.7519999 2.372 -1.023 132 78 40
-5.7940001 2.3889999 -1.028 95 70 65
-5.79 2.398 -1.028 168 109 77
-5.6820002 2.4000001 -0.977 118 77 45
-5.6750002 2.3859999 -0.97000003 20 7 0
-5.6849999 2.3789999 -0.94999999 182 130 90
-5.678 2.3829999 -0.97299999 43 23 16
-5.6820002 2.3840001 -0.97000003 41 26 19
-5.6820002 2.381 -0.972 58 18 8
-5.6609998 2.3759999 -0.847 180 149 121
-5.6659999 2.355 -0.99699998 82 62 63
-5.6690001 2.362 -0.99699998 41 19 8
-5.6700001 2.368 -0.99400002 59 43 44
-5.677 2.3399999 -0.99800003 168 103 49
-5.7620001 2.3929999 -1.015 40 7 0
-5.7740002 2.3929999 -1.022 58 29 11
-5.7789998 2.3599999 -0.935 229 164 98
-5.7729998 2.362 -0.94099998 116 85 65
-5.777 2.3710001 -0.94700003 57 22 2
-5.7659998 2.358 -0.917 154 126 105
-5.7670002 2.365 -0.99800003 95 47 1
-5.7649999 2.369 -0.97799999 124 107 99
-5.7620001 2.3740001 -0.99299997 25 7 0
-5.7909999 2.3840001 -0.99599999 197 144 90
-5.7519999 2.3499999 -0.97799999 48 20 9
-5.7529998 2.3499999 -0.98199999 122 78 49
-5.7420001 2.3329999 -0.96399999 83 56 49
-5.7350001 2.329 -0.972 71 45 30
-5.697 2.3310001 -0.92299998 75 60 53
-5.704 2.3340001 -0.92000002 142 86 35
-5.7030001 2.336 -0.94300002 210 151 95
-5.717 2.319 -0.97600001 71 34 15
-5.7119999 2.326 -0.96799999 131 83 47
-5.7030001 2.326 -0.96200001 80 45 23
-5.7150002 2.3150001 -0.99400002 92 69 55
-5.7290001 2.325 -0.97100002 107 81 64
-5.737 2.3299999 -0.94800001 187 140 98
-5.73 2.3280001 -0.95300001 171 119 72
-5.743 2.4070001 -0.89300001 40 27 21
-5.7379999 2.4059999 -0.903 63 34 16
-5.7379999 2.4000001 -0.89700001 40 14 0
-5.737 2.4059999 -0.89600003 126 111 104
-5.7399998 2.405 -0.88800001 18 0 0
-5.776 2.398 -0.86400002 120 92 78
-5.7729998 2.3940001 -0.87300003 106 59 15
-5.7490001 2.3800001 -0.85900003 254 231 190
-5.7540002 2.385 -0.84399998 55 31 19
-5.7470002 2.3970001 -0.92000002 132 110 96
-5.744 2.385 -0.90799999 59 15 0
-5.829 2.382 -0.91000003 172 110 59
-5.7870002 2.404 -0.986 127 97 86
-5.7979999 2.3989999 -0.98100001 202 91 12
-5.8039999 2.378 -1.0319999 138 116 105
-5.8559999 2.411 -1.036 110 97 89
-5.8060002 2.382 -0.98199999 57 16 0
-5.7989998 2.438 -1.034 127 103 99
-5.8070002 2.427 -1.0369999 52 8 0
-5.8130002 2.4219999 -1.046 70 18 4
-5.8460002 2.4360001 -0.98100001 103 85 75
-5.8439999 2.4389999 -0.977 113 84 68
-5.7639999 2.358 -0.98400003 69 38 18
-5.7680001 2.3740001 -0.949 70 50 41
-5.7849998 2.375 -0.96700001 211 137 40
-5.7659998 2.388 -0.95099998 86 49 40
-5.7659998 2.3699999 -0.95999998 79 39 27
-5.7649999 2.372 -0.96499997 58 33 28
-5.7670002 2.3599999 -0.96100003 121 85 51
-5.7449999 2.339 -0.94999999 38 21 14
-5.7550001 2.3499999 -0.935 204 142 81
-5.7420001 2.3429999 -0.93000001 29 6 0
-5.7389998 2.3399999 -0.93900001 44 23 18
-5.7140002 2.3670001 -0.926 26 13 5
-5.6950002 2.3640001 -0.949 79 29 4
-5.698 2.365 -0.958 69 26 9
-5.698 2.3599999 -0.94999999 102 45 15
-5.6919999 2.3829999 -0.94700003 98 35 4
-5.6820002 2.3410001 -0.94 47 22 17
-5.7020001 2.3570001 -0.949 127 49 10
-5.6929998 2.336 -0.93599999 84 56 35
-5.697 2.3510001 -0.88200003 145 118 107
-5.6890001 2.3540001 -0.89300001 121 63 25
-5.697 2.3659999 -0.88099998 150 122 110
-5.6960001 2.372 -0.87199998 145 117 103
-5.7470002 2.312 -0.55500001 196 155 109
-5.7420001 2.303 -0.56 255 201 102
-5.7340002 2.3080001 -0.55599999 242 210 89
-5.7319999 2.3050001 -0.55699998 254 224 92
-5.7360001 2.303 -0.55699998 224 157 50
-5.7480001 2.2980001 -0.56300002 197 103 33
-5.7519999 2.303 -0.565 228 187 143
-5.723 2.3239999 -0.59299999 98 65 46
-5.724 2.3150001 -0.55800003 255 248 176
-5.7259998 2.319 -0.55699998 254 244 191
-5.7179999 2.3199999 -0.56 255 253 208
-5.7179999 2.322 -0.57999998 50 17 0
-5.7329998 2.3099999 -0.579 249 195 97
-5.743 2.329 -0.57599998 228 172 137
-5.7389998 2.3169999 -0.55599999 248 213 87
-5.7410002 2.316 -0.57999998 221 138 86
-5.7800002 2.3570001 -0.59200001 103 40 5
-5.7740002 2.368 -0.57300001 133 76 31
-5.7680001 2.349 -0.58700001 117 93 47
-5.7880001 2.3510001 -0.59100002 244 180 108
-5.7989998 2.348 -0.602 236 139 68
-5.7810001 2.434 -0.64200002 143 50 6
-5.776 2.4170001 -0.64399999 152 89 22
-5.77 2.418 -0.64099997 65 29 7
-5.7880001 2.4130001 -0.64200002 95 69 52
-5.7950001 2.414 -0.63999999 108 25 0
-5.7779999 2.4130001 -0.64399999 93 56 29
-5.7509999 2.3840001 -0.65100002 141 79 28
-5.7449999 2.3889999 -0.648 137 95 71
-5.7420001 2.3870001 -0.64700001 108 63 8
-5.75 2.3 -0.56599998 80 36 9
-5.7750001 2.3080001 -0.56900001 149 77 39
-5.7589998 2.3139999 -0.58499998 182 126 67
-5.757 2.3069999 -0.565 222 120 46
-5.7319999 2.3570001 -0.579 192 154 109
-5.7639999 2.329 -0.55199999 54 25 11
-5.757 2.332 -0.55199999 129 114 117
-5.7600002 2.3399999 -0.55199999 168 96 58
-5.6989999 2.3570001 -0.56400001 231 159 121
-5.704 2.3559999 -0.56 233 161 102
-5.6900001 2.3729999 -0.55500001 91 27 0
-5.6919999 2.359 -0.56599998 102 30 0
-5.691 2.3499999 -0.56999999 100 76 66
-5.6919999 2.355 -0.57099998 175 92 14
-5.6869998 2.4260001 -0.64600003 106 43 12
-5.6960001 2.4119999 -0.63300002 118 74 39
-5.6890001 2.4130001 -0.77999997 101 90 96
-5.6919999 2.4070001 -0.78299999 32 7 0
-5.698 2.4319999 -0.81999999 145 107 88
-5.698 2.4289999 -0.82200003 49 22 5
-5.6999998 2.427 -0.82599998 60 30 19
-5.7030001 2.4159999 -0.82800001 41 12 6
-5.6919999 2.418 -0.82300001 66 43 35
-5.6999998 2.404 -0.82499999 17 0 0
-5.6999998 2.4000001 -0.83899999 75 48 37
-5.6719999 2.375 -0.85100001 56 32 20
-5.6669998 2.382 -0.84500003 106 58 22
-5.697 2.3870001 -0.86199999 124 66 29
-5.697 2.3889999 -0.875 74 43 12
-5.6999998 2.398 -0.86699998 176 148 137
-5.697 2.3940001 -0.84399998 93 73 64
-5.7010002 2.4400001 -0.81800002 53 16 8
-5.7129998 2.3870001 -0.85500002 27 6 1
-5.7379999 2.3499999 -0.90100002 166 86 37
-5.73 2.3429999 -0.90100002 92 51 33
-5.724 2.339 -0.90100002 213 120 61
-5.7150002 2.339 -0.92299998 251 167 81
-5.7270002 2.339 -0.91799998 138 78 24
-5.744 2.3469999 -0.91799998 35 8 1
-5.7379999 2.345 -0.92699999 174 114 54
-5.7750001 2.3299999 -0.838 177 117 83
-5.7480001 2.325 -0.82499999 56 17 0
-5.75 2.3210001 -0.81400001 121 108 102
-5.7470002 2.326 -0.81099999 48 6 0
-5.7509999 2.3340001 -0.83499998 136 77 43
-5.75 2.336 -0.83600003 94 40 12
-5.7350001 2.3369999 -0.82800001 253 172 83
-5.7270002 2.3410001 -0.82800001 130 80 45
-5.724 2.3429999 -0.833 195 150 119
-5.7350001 2.3499999 -0.861 127 53 18
-5.7290001 2.3399999 -0.85699999 133 79 32
-5.7670002 2.349 -0.815 94 61 42
-5.77 2.355 -0.81699997 47 11 0
-5.7690001 2.3570001 -0.81699997 129 85 46
-5.757 2.352 -0.85799998 84 26 6
-5.7529998 2.359 -0.875 166 109 54
-5.763 2.3659999 -0.83200002 114 56 0
-5.7210002 2.3840001 -0.84200001 48 10 0
-5.7379999 2.342 -0.84899998 201 152 120
-5.698 2.3759999 -0.83899999 50 30 19
-5.7979999 2.411 -0.89999998 68 52 53
-5.7919998 2.3989999 -0.884 22 1 0
-5.7870002 2.4070001 -0.87599999 138 116 103
-5.677 2.3770001 -0.77600002 156 85 39
-5.691 2.392 -0.76300001 152 95 52
-5.7049999 2.3659999 -0.77700001 76 38 15
-5.7010002 2.3659999 -0.81099999 87 23 0
-5.677 2.3599999 -0.84500003 130 63 21
-5.6890001 2.4119999 -0.78899997 159 121 98
-5.6859999 2.4070001 -0.79400003 97 60 41
-5.678 2.4100001 -0.80199999 67 40 31
-5.6719999 2.3840001 -0.81699997 59 39 30
-5.7340002 2.381 -0.81199998 35 8 0
-5.6919999 2.369 -0.78899997 121 61 24
-5.6929998 2.3659999 -0.78200001 111 42 9
-5.6960001 2.3599999 -0.778 106 54 32
-5.697 2.418 -0.764 125 109 112
-5.6960001 2.414 -0.773 68 17 0
-5.691 2.4189999 -0.75099999 63 20 3
-5.79 2.3670001 -0.87800002 146 102 77
-5.7909999 2.369 -0.884 219 143 81
-5.7940001 2.3659999 -0.85500002 169 96 41
-5.8070002 2.3759999 -0.861 103 39 12
-5.823 2.385 -0.85699999 47 31 15
-5.8039999 2.375 -0.86299998 201 132 75
-5.7540002 2.3859999 -0.83499998 31 6 0
-5.7600002 2.372 -0.81999999 38 22 9
-5.7270002 2.365 -0.84399998 53 16 0
-5.7059999 2.3610001 -0.83600003 74 18 0
-5.7129998 2.3529999 -0.83899999 144 91 51
-5.6999998 2.3640001 -0.847 164 131 114
-5.7480001 2.382 -0.82999998 33 8 4
-5.73 2.392 -0.82200003 34 13 10
-5.77 2.3670001 -0.87400001 125 124 119
-5.6859999 2.3599999 -0.80400002 224 154 102
-5.6859999 2.362 -0.80900002 204 134 82
-5.6459999 2.411 -0.55900002 129 85 58
-5.6339998 2.404 -0.56800002 177 126 71
-5.632 2.3970001 -0.574 96 48 10
-5.6440001 2.4170001 -0.565 101 59 35
-5.652 2.415 -0.56400001 131 87 40
-5.6599998 2.427 -0.60299999 153 105 57
-5.6830001 2.431 -0.63 43 20 6
-5.6739998 2.438 -0.62400001 156 137 122
-5.6810002 2.4349999 -0.63300002 109 62 44
-5.638 2.392 -0.57599998 133 70 26
-5.6869998 2.391 -0.56699997 128 52 2
-5.6929998 2.388 -0.56699997 77 30 4
-5.6900001 2.3940001 -0.56400001 40 0 0
-5.6490002 2.4289999 -0.61000001 208 181 172
-5.7210002 2.4170001 -0.57800001 194 118 60
-5.723 2.415 -0.58099997 173 98 41
-5.6799998 2.4219999 -0.60699999 199 165 94
-5.6739998 2.4119999 -0.59799999 240 199 107
-5.6760001 2.4100001 -0.60100001 36 7 0
-5.6799998 2.3599999 -0.64300001 74 50 26
-5.678 2.365 -0.63599998 247 195 137
-5.6999998 2.352 -0.64899999 161 111 88
-5.7199998 2.326 -0.63099998 46 6 0
-5.7189999 2.3269999 -0.63300002 104 60 33
-5.7150002 2.3380001 -0.62900001 187 140 120
-5.7249999 2.3299999 -0.61500001 62 13 0
-5.6989999 2.362 -0.67000002 78 51 34
-5.7470002 2.3959999 -0.63800001 101 71 47
-5.7160001 2.441 -0.64499998 60 29 1
-5.6469998 2.404 -0.60799998 157 120 94
-5.6529999 2.392 -0.59799999 80 30 0
-5.6440001 2.402 -0.61299998 194 162 137
-5.6570001 2.4119999 -0.64700001 90 74 74
-5.6659999 2.4089999 -0.66299999 108 69 54
-5.6609998 2.4070001 -0.662 54 25 9
-5.677 2.4170001 -0.66299999 227 177 124
-5.6760001 2.358 -0.64700001 106 70 48
-5.6440001 2.395 -0.62300003 120 58 21
-5.6469998 2.4059999 -0.62400001 99 54 21
-5.6479998 2.398 -0.62699997 53 25 14
-5.7490001 2.3710001 -0.648 15 0 0
-5.6799998 2.368 -0.62800002 113 59 21
-5.652 2.395 -0.57499999 94 51 6
-5.6700001 2.3759999 -0.57200003 98 25 0
-5.6609998 2.3670001 -0.56999999 144 50 0
-5.6810002 2.3859999 -0.56900001 92 41 14
-5.6830001 2.3870001 -0.56800002 73 28 9
-5.6440001 2.3759999 -0.57599998 146 73 30
-5.6469998 2.3659999 -0.583 85 42 10
-5.6669998 2.372 -0.61900002 116 40 0
-5.6570001 2.3740001 -0.62400001 210 122 24
-5.665 2.3699999 -0.61000001 186 118 55
-5.7059999 2.3299999 -0.97299999 101 72 56
-5.7270002 2.3239999 -0.98500001 33 28 9
-5.7270002 2.3239999 -0.98400003 158 87 33
-5.7220001 2.323 -0.98299998 136 96 71
-5.6799998 2.3499999 -0.94700003 136 80 43
-5.6750002 2.362 -0.82200003 115 53 12
-5.697 2.362 -0.88200003 167 139 118
-5.698 2.3599999 -0.87599999 150 96 60
-5.6999998 2.355 -0.88499999 85 32 0
-5.7080002 2.3180001 -0.99900001 106 78 64
-5.7090001 2.325 -0.98799998 120 88 63
-5.7220001 2.336 -1.036 63 22 2
-5.7020001 2.3499999 -1.0420001 58 9 0
-5.744 2.3510001 -1.041 82 49 34
-5.691 2.332 -1.0319999 108 62 36
-5.6929998 2.339 -0.91000003 241 141 66
-5.717 2.336 -0.89099997 119 35 0
-5.7189999 2.3429999 -0.88700002 129 52 0
-5.7059999 2.3399999 -0.87599999 123 81 56
-5.6989999 2.339 -0.88499999 98 56 32
-5.698 2.339 -0.89099997 176 96 43
-5.7030001 2.3469999 -0.88700002 66 32 20
-5.7020001 2.3499999 -0.884 54 15 0
-5.6999998 2.3740001 -0.898 100 58 36
-5.7020001 2.3770001 -0.903 45 11 1
-5.7389998 2.359 -0.89300001 206 118 54
-5.7470002 2.382 -0.91500002 83 69 60
-5.6729999 2.3399999 -1.017 61 20 2
-5.671 2.382 -1.006 33 8 3
-5.6609998 2.3670001 -1.018 191 182 183
-5.678 2.3629999 -0.98299998 136 105 85
-5.6919999 2.3840001 -0.94300002 87 38 0
-5.6880002 2.3659999 -0.95899999 74 30 5
-5.6890001 2.3729999 -0.954 39 20 16
-5.6939998 2.369 -0.935 143 90 59
-5.6919999 2.3710001 -0.91600001 58 19 2
-5.6929998 2.3670001 -0.90600002 164 115 82
-5.6890001 2.368 -0.917 61 32 16
-5.6890001 2.3710001 -0.93599999 107 90 83
-5.6849999 2.3759999 -0.94999999 52 29 13
-5.6929998 2.398 -0.99000001 17 2 0
-5.7849998 2.4330001 -0.95200002 33 28 25
-5.8140001 2.457 -0.95499998 25 7 5
-5.7529998 2.3940001 -0.95599997 122 106 106
-5.7420001 2.3940001 -0.96600002 42 5 0
-5.7550001 2.3889999 -0.98000002 151 112 79
-5.756 2.405 -0.991 100 55 32
-5.789 2.3970001 -0.95700002 48 24 12
-5.777 2.4130001 -0.94999999 28 16 0
-5.7909999 2.398 -0.94999999 84 50 22
-5.7969999 2.3889999 -0.94700003 167 86 33
-5.7839999 2.4119999 -0.991 71 30 0
-5.7680001 2.408 -1.001 140 59 0
-5.7789998 2.4070001 -1.002 108 54 10
-5.7680001 2.4159999 -1.003 154 136 124
-5.7319999 2.4089999 -0.921 52 31 14
-5.7420001 2.4219999 -0.93699998 69 62 54
-5.8429999 2.431 -0.79400003 116 73 56
-5.8439999 2.4260001 -0.80199999 41 6 2
-5.7449999 2.4159999 -0.80400002 45 17 3
-5.7519999 2.3829999 -0.898 254 203 148
-5.7670002 2.385 -0.89099997 165 116 84
-5.744 2.382 -0.88700002 99 81 71
-5.744 2.3859999 -0.89399999 64 19 0
-5.849 2.4219999 -0.82999998 37 2 0
-5.8249998 2.444 -0.85799998 27 9 5
-5.8270001 2.4400001 -0.85100001 27 6 1
-5.8379998 2.404 -0.76999998 54 28 13
-5.8509998 2.4059999 -0.78299999 124 88 64
-5.7779999 2.323 -0.83499998 97 45 8
-5.7620001 2.382 -0.70599997 59 13 0
-5.756 2.381 -0.74299997 127 62 30
-5.7950001 2.3740001 -0.72899997 67 39 38
-5.7600002 2.319 -0.764 143 120 114
-5.7930002 2.3989999 -0.85900003 31 12 5
-5.7880001 2.4130001 -0.87300003 159 105 67
-5.7839999 2.402 -0.87300003 27 0 0
-5.7950001 2.408 -0.87300003 34 4 0
-5.7979999 2.4059999 -0.875 24 3 0
-5.7610002 2.382 -0.84200001 179 114 74
-5.7719998 2.375 -0.861 155 123 102
-5.7600002 2.3640001 -0.84799999 138 80 40
-5.8179998 2.4400001 -0.787 25 6 2
-5.8239999 2.4400001 -0.83200002 128 109 102
-5.8340001 2.4360001 -0.81900001 37 17 8
-5.8249998 2.441 -0.792 105 70 42
-5.8210001 2.4159999 -0.778 95 74 69
-5.8070002 2.434 -0.77600002 48 26 15
-5.8309999 2.4030001 -0.77700001 71 34 8
-5.823 2.4419999 -0.83999997 52 13 0
-5.8260002 2.438 -0.83600003 81 47 37
-5.8270001 2.4200001 -0.83399999 16 0 0
-5.7540002 2.388 -1.016 101 54 26
-5.7529998 2.3740001 -1.018 64 26 5
-5.7529998 2.3710001 -1.0190001 119 72 42
-5.691 2.3770001 -1.049 102 56 30
-5.6900001 2.3729999 -1.049 147 98 66
-5.7350001 2.388 -1.041 124 83 55
-5.7399998 2.3269999 -1.012 98 53 12
-5.7459998 2.3410001 -1.005 80 45 26
-5.848 2.4289999 -0.89200002 165 110 71
-5.869 2.4089999 -0.75800002 105 37 0
-5.8629999 2.4100001 -0.77899998 152 107 66
-5.8499999 2.3989999 -0.74800003 111 60 17
-5.816 2.3870001 -0.74400002 98 41 21
-5.8369999 2.45 -0.73000002 247 179 116
-5.842 2.447 -0.73000002 59 40 34
-5.6989999 2.3540001 -0.787 155 87 26
-5.7030001 2.3540001 -0.79299998 174 123 78
-5.7090001 2.352 -0.81400001 226 146 77
-5.711 2.349 -0.82700002 201 128 73
-5.71 2.3510001 -0.824 92 43 10
-5.7179999 2.3469999 -0.81699997 75 19 0
-5.7069998 2.3540001 -0.81900001 138 88 53
-5.7069998 2.3499999 -0.79699999 109 63 27
-5.7179999 2.3510001 -0.80500001 145 74 28
-5.7199998 2.3670001 -0.773 93 49 14
-5.7360001 2.3410001 -0.79100001 138 81 38
-5.8629999 2.404 -0.75800002 40 11 7
-5.8590002 2.402 -0.76099998 39 16 2
-5.8239999 2.3789999 -0.912 175 120 56
-5.8150001 2.3800001 -0.93199998 30 11 0
-5.8249998 2.3789999 -0.91299999 155 89 29
-5.7839999 2.418 -0.91000003 63 45 33
-5.7880001 2.4219999 -0.91600001 55 36 21
-5.7639999 2.359 -0.94300002 199 150 57
-5.7579999 2.3510001 -0.94800001 23 4 0
-5.7639999 2.359 -0.94 255 216 123
-5.7940001 2.4219999 -0.92500001 189 130 86
-5.829 2.395 -0.89499998 180 100 27
-5.835 2.402 -0.884 83 41 16
-5.8260002 2.3900001 -0.89300001 233 165 94
-5.8260002 2.395 -0.87400001 35 7 0
-5.8340001 2.3959999 -0.87400001 116 53 20
-5.8319998 2.398 -0.87699997 89 26 0
-5.8429999 2.3859999 -0.85500002 185 125 73
-5.7379999 2.339 -0.69800001 155 118 99
-5.7090001 2.3299999 -0.68300003 219 189 165
-5.7119999 2.332 -0.68900001 193 164 146
-5.7030001 2.3429999 -0.69300002 127 78 46
-5.711 2.3380001 -0.69599998 145 71 24
-5.7389998 2.325 -0.65499997 127 79 41
-5.73 2.3110001 -0.602 100 43 0
-5.7360001 2.3239999 -0.63 84 30 2
-5.7329998 2.3169999 -0.64600003 101 38 7
-5.7309999 2.3180001 -0.63599998 63 23 13
-5.7189999 2.323 -0.65100002 160 97 44
-5.7150002 2.3310001 -0.66000003 101 81 83
-5.7010002 2.3989999 -0.63999999 174 125 84
-5.6939998 2.3929999 -0.63200003 121 72 31
-5.6989999 2.3959999 -0.639 48 9 2
-5.7589998 2.348 -0.60900003 76 53 47
-5.6999998 2.352 -0.65200001 49 21 0
-5.7160001 2.323 -0.72500002 97 38 4
-5.7179999 2.3180001 -0.72899997 139 70 37
-5.7160001 2.322 -0.74199998 186 106 47
-5.79 2.3139999 -0.82499999 253 171 98
-5.7969999 2.325 -0.82999998 86 39 19
-5.7820001 2.3139999 -0.82099998 191 105 30
-5.7449999 2.3499999 -0.91500002 192 110 52
-5.744 2.349 -0.91600001 119 74 33
-5.7329998 2.3429999 -0.90700001 191 100 43
-5.7729998 2.336 -0.70700002 34 5 0
-5.7470002 2.326 -0.74699998 137 131 133
-5.7750001 2.3410001 -0.73000002 211 144 91
-5.7859998 2.3369999 -0.70999998 144 86 49
-5.7729998 2.332 -0.69800001 93 32 4
-5.783 2.3670001 -0.69300002 28 1 0
-5.776 2.411 -0.66600001 148 146 157
-5.79 2.4030001 -0.667 195 121 58
-5.8239999 2.4519999 -0.73100001 172 120 72
-5.8629999 2.421 -0.77999997 110 76 48
-5.8649998 2.427 -0.75700003 104 44 7
-5.723 2.319 -0.727 189 97 34
-5.7490001 2.3340001 -0.73000002 105 55 6
-5.7399998 2.3329999 -0.73000002 140 97 62
-5.7490001 2.3369999 -0.72100002 110 81 67
-5.783 2.3340001 -0.81300002 144 116 104
-5.7649999 2.3280001 -0.81300002 225 153 95
-5.7449999 2.3369999 -0.78299999 100 32 0
-5.77 2.369 -0.81900001 24 7 0
-5.7880001 2.322 -0.82099998 56 20 4
-5.796 2.323 -0.82999998 140 102 79
-5.7940001 2.336 -0.82800001 49 0 0
-5.7930002 2.3759999 -0.84500003 95 95 93
-5.7459998 2.4000001 -0.75700003 104 71 52
-5.7399998 2.4159999 -0.74299997 52 20 5
-5.7309999 2.418 -0.73900002 136 65 13
-5.744 2.392 -0.73799998 76 46 36
-5.7420001 2.3900001 -0.73299998 46 13 0
-5.7459998 2.411 -0.79699999 81 43 22
-5.789 2.346 -0.676 79 27 5
-5.796 2.3469999 -0.667 141 72 13
-5.8130002 2.4070001 -0.73000002 103 71 50
-5.7220001 2.3440001 -0.79699999 143 76 34
-5.7670002 2.3559999 -0.77899998 65 29 5
-5.7550001 2.3529999 -0.81 128 93 63
-5.7550001 2.3699999 -0.81199998 36 22 11
-5.7659998 2.372 -0.82300001 93 65 43
-5.724 2.369 -0.76599997 88 41 13
-5.7329998 2.402 -0.79400003 27 10 3
-5.7090001 2.4330001 -0.824 70 53 45
-5.717 2.4289999 -0.815 153 130 122
-5.6799998 2.3770001 -0.74900001 158 133 126
-5.6820002 2.372 -0.75400001 127 78 37
-5.6830001 2.3610001 -0.745 87 25 12
-5.7399998 2.332 -0.77600002 227 134 56
-5.7179999 2.3139999 -0.73100001 194 112 56
-5.71 2.3469999 -0.70700002 176 106 54
-5.7140002 2.325 -0.671 37 18 14
-5.7600002 2.323 -0.68199998 84 37 9
-5.723 2.3280001 -0.72399998 99 63 39
-5.717 2.3410001 -0.70999998 39 15 5
-5.7199998 2.323 -0.72500002 106 70 48
-5.7140002 2.3340001 -0.72299999 113 81 66
-5.711 2.339 -0.70099998 162 91 47
-5.7280002 2.339 -0.71600002 113 79 52
-5.6939998 2.3440001 -0.84500003 194 145 105
-5.7049999 2.3510001 -0.83999997 64 28 4
-5.7090001 2.3510001 -0.83099997 200 125 67
-5.7280002 2.336 -0.84100002 111 80 77
-5.7069998 2.3429999 -0.85799998 171 96 39
-5.6700001 2.3599999 -0.70700002 255 239 185
-5.6919999 2.4230001 -0.82499999 60 41 35
-5.6750002 2.404 -0.80699998 56 33 25
-5.678 2.4030001 -0.801 47 20 11
-5.6919999 2.4130001 -0.69400001 96 66 56
-5.6599998 2.391 -0.70300001 145 81 53
-5.6620002 2.402 -0.713 193 159 149
-5.6849999 2.3610001 -0.69800001 165 118 90
-5.6719999 2.392 -0.72899997 75 54 53
-5.6690001 2.3889999 -0.72399998 123 60 19
-5.6750002 2.3840001 -0.74000001 139 74 18
-5.6799998 2.3889999 -0.80699998 201 156 114
-5.6799998 2.369 -0.78899997 159 93 69
-5.6859999 2.362 -0.79699999 165 106 66
-5.7090001 2.388 -0.75999999 218 196 182
-5.71 2.3940001 -0.76300001 152 136 136
-5.7119999 2.3940001 -0.76300001 147 89 52
-5.698 2.398 -0.78200001 88 48 38
-5.7410002 2.4619999 -0.66600001 153 122 91
-5.724 2.441 -0.66399997 124 97 86
-5.8720002 2.4489999 -0.63499999 210 128 78
-5.8260002 2.4560001 -0.653 138 91 61
-5.8239999 2.431 -0.65399998 139 116 102
-5.7080002 2.3870001 -0.648 55 18 10
-5.7189999 2.375 -0.64499998 50 0 0
-5.7140002 2.3800001 -0.653 82 57 37
-5.658 2.375 -0.65799999 90 53 24
-5.6570001 2.382 -0.66299999 61 26 0
-5.6659999 2.3529999 -0.662 162 78 6
-5.664 2.365 -0.66399997 137 100 91
-5.6750002 2.4330001 -0.56099999 152 110 85
-5.6760001 2.4360001 -0.55900002 100 67 26
-5.6609998 2.418 -0.56199998 155 104 57
-5.698 2.4230001 -0.55000001 164 102 61
-5.7080002 2.4170001 -0.56199998 127 68 8
-5.6830001 2.4360001 -0.55800003 157 114 72
-5.684 2.428 -0.56400001 83 41 17
-5.6849999 2.4089999 -0.551 208 165 97
-5.7189999 2.4289999 -0.56999999 154 114 89
-5.7379999 2.473 -0.63 169 120 80
-5.7340002 2.4630001 -0.65399998 102 76 61
-5.7059999 2.4389999 -0.63300002 159 114 85
-5.75 2.4630001 -0.62400001 127 89 70
-5.6859999 2.4170001 -0.65600002 101 63 42
-5.744 2.4549999 -0.56999999 83 47 25
-5.7290001 2.4389999 -0.616 160 135 113
-5.7280002 2.4460001 -0.58200002 117 74 31
-5.7329998 2.441 -0.59200001 39 15 3
-5.7360001 2.4419999 -0.58700001 41 19 8
-5.756 2.427 -0.63099998 135 125 124
-5.6989999 2.415 -0.66900003 174 152 138
-5.6919999 2.4230001 -0.67699999 75 35 23
-5.7680001 2.4519999 -0.67000002 162 127 95
-5.7280002 2.4230001 -0.73100001 198 123 58
-5.7399998 2.431 -0.78299999 30 12 8
-5.7010002 2.424 -0.76999998 119 103 106
-5.7059999 2.425 -0.76499999 76 22 0
-5.737 2.4219999 -0.759 50 14 2
-5.7259998 2.437 -0.76700002 61 27 18
-5.7049999 2.4319999 -0.76999998 138 128 126
-5.8439999 2.4170001 -0.64099997 137 103 75
-5.8039999 2.339 -0.65600002 138 98 73
-5.8109999 2.3770001 -0.68000001 44 0 0
-5.8260002 2.392 -0.67500001 111 49 8
-5.7680001 2.365 -0.61699998 91 55 21
-5.7670002 2.3510001 -0.62 115 91 81
-5.7789998 2.336 -0.65799999 80 43 14
-5.763 2.336 -0.639 85 50 30
-5.783 2.336 -0.67500001 92 37 16
-5.77 2.3169999 -0.69300002 209 129 80
-5.7670002 2.325 -0.69400001 82 26 0
-5.7350001 2.4200001 -0.63200003 151 106 67
-5.7740002 2.3280001 -0.64099997 220 137 61
-5.7880001 2.3239999 -0.62599999 102 34 0
-5.7589998 2.3169999 -0.68199998 140 76 28
-5.7719998 2.325 -0.64499998 193 123 64
-5.7839999 2.323 -0.59100002 193 140 98
-5.7849998 2.3629999 -0.63200003 186 136 99
-5.8499999 2.4070001 -0.88800001 126 91 63
-5.8499999 2.431 -0.917 53 12 0
-5.849 2.4419999 -0.93000001 81 40 8
-5.8439999 2.4560001 -0.90600002 29 11 1
-5.8369999 2.4579999 -0.89899999 116 52 17
-5.8330002 2.4590001 -0.95700002 80 63 53
-5.8340001 2.4679999 -0.93000001 97 88 81
-5.8400002 2.464 -0.93900001 44 27 20
-5.8410001 2.4579999 -0.93000001 39 20 14
-5.8520002 2.447 -0.91600001 30 10 3
-5.8439999 2.45 -0.93000001 78 57 52
-5.7880001 2.4330001 -0.94800001 44 15 11
-5.8000002 2.438 -0.92699999 46 28 24
-5.8200002 2.4630001 -0.94199997 56 28 14
-5.875 2.408 -0.88999999 145 91 47
-5.8670001 2.414 -0.71499997 168 107 50
-5.8720002 2.4349999 -0.73699999 110 57 7
-5.875 2.4300001 -0.73500001 105 51 13
-5.849 2.4430001 -0.74199998 71 30 8
-5.8790002 2.4260001 -0.73299998 128 80 40
-5.8670001 2.4460001 -0.68000001 143 64 8
-5.8639998 2.4419999 -0.71200001 115 97 93
-5.8429999 2.4289999 -0.65600002 125 70 16
-5.829 2.4549999 -0.87699997 127 101 88
-5.8119998 2.4460001 -0.87099999 26 13 7
-5.8130002 2.447 -0.83700001 113 49 13
-5.8109999 2.421 -0.838 19 4 0
-5.8039999 2.438 -0.84799999 54 31 23
-5.8049998 2.4419999 -0.85000002 70 28 6
-5.7550001 2.414 -1 91 58 53
-5.7309999 2.415 -0.995 76 64 64
-5.7490001 2.4200001 -1.041 137 118 111
-5.7579999 2.4449999 -1.031 27 9 7
-5.7969999 2.4170001 -0.98799998 124 63 19
-5.665 2.385 -0.546 202 100 26
-5.6630001 2.3959999 -0.56699997 121 66 36
-5.6560001 2.3840001 -0.55000001 185 139 54
-5.6529999 2.3959999 -0.54799998 156 114 76
-5.6750002 2.398 -0.551 209 149 87
-5.7080002 2.441 -0.54799998 127 107 98
-5.737 2.451 -0.53399998 200 158 82
-5.8540001 2.4130001 -1.028 125 115 105
-5.8429999 2.4289999 -1.035 105 52 12
-5.8530002 2.4260001 -1.018 129 97 84
-5.8470001 2.404 -0.96799999 128 91 75
-5.8460002 2.421 -0.972 73 42 24
-5.8439999 2.4059999 -0.977 140 81 51
-5.842 2.421 -1.0039999 60 41 35
-5.8369999 2.415 -1.007 18 0 0
-5.8330002 2.3800001 -0.847 154 106 58
-5.8299999 2.3859999 -0.85299999 182 119 65
-5.8369999 2.3859999 -0.852 187 123 52
-5.7589998 2.365 -0.91600001 60 26 1
-5.8460002 2.395 -0.95899999 122 52 1
-5.8400002 2.428 -0.95099998 139 120 113
-5.8429999 2.4200001 -0.95300001 178 143 121
-5.849 2.4000001 -0.94700003 161 87 16
-5.8130002 2.4460001 -0.98100001 33 4 0
-5.842 2.441 -0.93699998 97 80 73
-5.8429999 2.4430001 -0.93699998 87 72 65
-5.7989998 2.388 -0.94800001 117 39 0
-5.803 2.388 -0.94700003 163 84 27
-5.8080001 2.398 -0.95899999 85 77 74
-5.835 2.4059999 -0.99199998 165 92 51
-5.724 2.4170001 -0.57599998 194 119 54
-5.7529998 2.372 -0.57800001 245 196 104
-5.7690001 2.3800001 -0.56999999 199 148 85
-5.737 2.4300001 -0.61900002 128 61 9
-5.7540002 2.3499999 -0.55199999 149 138 144
-5.7550001 2.355 -0.55299997 187 124 80
-5.7550001 2.4530001 -0.542 137 68 3
-5.7729998 2.381 -0.56800002 172 142 114
-5.7600002 2.3659999 -0.55599999 130 79 14
-5.7379999 2.358 -0.56 119 74 32
-5.7280002 2.365 -0.56 163 110 70
-5.7550001 2.381 -0.56099999 177 120 77
-5.7579999 2.3800001 -0.55800003 129 55 10
-5.75 2.378 -0.55900002 201 123 51
-5.743 2.4100001 -0.55299997 184 90 20
-5.7379999 2.454 -0.59100002 70 26 1
-5.7779999 2.461 -0.64700001 113 56 26
-5.7750001 2.464 -0.64200002 101 42 8
-5.7680001 2.4779999 -0.64200002 252 187 105
-5.77 2.47 -0.64300001 183 98 43
-5.77 2.4719999 -0.639 242 169 90
-5.776 2.467 -0.63599998 166 110 49
-5.763 2.4749999 -0.62900001 130 78 38
-5.7649999 2.4489999 -0.62 242 197 82
-5.7680001 2.448 -0.63099998 176 95 39
-5.7690001 2.4449999 -0.63099998 124 44 0
-5.7789998 2.444 -0.64099997 121 61 33
-5.7459998 2.4430001 -0.59799999 197 148 116
-5.7620001 2.4489999 -0.55800003 222 140 82
-5.756 2.428 -0.54400003 242 151 58
-5.763 2.4460001 -0.55800003 77 37 2
-5.756 2.4360001 -0.56300002 171 124 72
-5.7589998 2.434 -0.55000001 174 108 50
-5.7529998 2.4300001 -0.55299997 145 90 59
-5.7509999 2.434 -0.56300002 197 122 67
-5.7519999 2.438 -0.58200002 125 87 68
-5.7470002 2.4449999 -0.58899999 74 45 29
-5.7490001 2.428 -0.597 40 6 0
-5.7480001 2.4300001 -0.59200001 34 9 2
-5.7519999 2.4419999 -0.61199999 120 91 75
-5.7329998 2.4330001 -0.53899997 124 64 10
-5.7410002 2.4260001 -0.55599999 165 109 60
-5.744 2.4260001 -0.55400002 180 88 21
-5.7470002 2.431 -0.53500003 221 129 42
-5.7940001 2.3469999 -0.56599998 173 85 13
-5.7880001 2.358 -0.55299997 110 67 22
-5.789 2.358 -0.56099999 226 136 48
-5.7849998 2.3559999 -0.54900002 234 219 154
-5.829 2.3959999 -0.63499999 240 208 170
-5.8169999 2.3840001 -0.63800001 154 118 94
-5.8070002 2.3989999 -0.634 110 34 10
-5.8309999 2.3829999 -0.63099998 251 186 122
-5.7979999 2.3640001 -0.61400002 140 95 54
-5.79 2.362 -0.58700001 233 165 102
-5.8670001 2.4360001 -0.63700002 109 62 34
-5.8649998 2.4419999 -0.63800001 83 29 5
-5.7859998 2.3280001 -0.55400002 206 104 30
-5.7859998 2.3299999 -0.55299997 175 73 1
-5.823 2.3789999 -0.66799998 74 9 0
-5.8239999 2.3959999 -0.67400002 208 156 109
-5.8280001 2.381 -0.66100001 79 28 0
-5.7680001 2.319 -0.60000002 215 147 98
-5.756 2.322 -0.60900003 192 127 97
-5.7969999 2.3340001 -0.60399997 50 16 0
-5.8070002 2.3369999 -0.60699999 85 41 0
-5.7849998 2.329 -0.59600002 47 6 0
-5.7909999 2.3399999 -0.57599998 76 28 8
-5.803 2.349 -0.60500002 200 109 30
-5.8070002 2.3440001 -0.60699999 228 133 43
-5.783 2.4089999 -1.038 155 127 113
-5.757 2.4089999 -1.044 26 7 1
-5.7540002 2.404 -1.043 60 43 27
-5.7470002 2.4070001 -1.0420001 38 15 9
-5.7529998 2.408 -1.044 33 11 0
-5.7579999 2.4330001 -1.038 162 140 129
-5.7389998 2.4219999 -1.033 128 115 107
-5.7360001 2.405 -1.04 14 0 0
-5.7150002 2.398 -1.049 18 3 0
-5.7140002 2.402 -1.0470001 15 5 4
-5.802 2.3900001 -1.048 85 22 0
-5.803 2.388 -1.048 109 40 7
-5.8119998 2.4349999 -1.0319999 136 126 127
-5.802 2.4319999 -1.007 126 60 10
-5.8140001 2.4300001 -1.007 141 109 86
-5.8010001 2.3959999 -1.05 117 54 13
-5.7600002 2.325 -0.61900002 124 82 58
