ply
format ascii 1.0
comment PCL generated
element vertex 1249
property float x
property float y
property float z
property uchar red
property uchar green
property uchar blue
element camera 0
property float view_px
property float view_py
property float view_pz
property float x_axisx
property float x_axisy
property float x_axisz
property float y_axisx
property float y_axisy
property float y_axisz
property float z_axisx
property float z_axisy
property float z_axisz
property float focal
property float scalex
property float scaley
property float centerx
property float centery
property int viewportx
property int viewporty
property float k1
property float k2
end_header
3.973 -4.842 -0.80299997 71 41 15
3.8380001 -4.8979998 -0.95999998 16 1 0
3.8329999 -4.8720002 -0.94999999 19 5 5
3.8369999 -4.8740001 -0.958 47 28 22
3.8399999 -4.8870001 -0.958 127 96 68
3.8429999 -4.79 -0.89099997 36 22 19
3.8540001 -4.7870002 -0.89899999 163 78 39
3.865 -4.7880001 -0.91299999 68 12 0
3.8770001 -4.7979999 -0.90200001 76 50 27
3.8599999 -4.7859998 -0.91000003 26 8 6
3.865 -4.7849998 -0.926 113 97 82
3.8599999 -4.862 -0.84500003 70 44 29
3.882 -4.8000002 -0.89999998 219 161 111
3.8800001 -4.7950001 -0.89700001 91 54 27
3.9330001 -4.868 -0.89499998 34 9 2
3.9319999 -4.8610001 -0.89300001 86 50 28
3.9300001 -4.8720002 -0.89499998 127 98 80
3.882 -4.8150001 -0.90700001 85 43 19
3.8859999 -4.822 -0.903 27 7 0
3.8870001 -4.8280001 -0.917 99 52 26
3.8900001 -4.8299999 -0.94499999 13 8 4
3.8900001 -4.823 -0.949 5 0 1
3.891 -4.8330002 -0.91299999 66 44 33
3.8889999 -4.8309999 -0.91399997 32 15 5
3.8829999 -4.836 -0.921 31 14 6
3.9189999 -4.8140001 -0.898 41 17 5
3.908 -4.8099999 -0.87699997 87 58 42
3.914 -4.8099999 -0.87400001 22 5 0
3.915 -4.8639998 -0.89499998 232 180 143
3.921 -4.869 -0.89999998 113 76 58
3.9159999 -4.8039999 -0.88300002 90 70 46
3.7390001 -4.7789998 -0.95300001 11 1 0
3.7579999 -4.75 -0.97799999 18 0 0
3.7620001 -4.7509999 -0.96499997 69 54 49
3.7690001 -4.7480001 -0.96399999 19 8 14
3.7679999 -4.7550001 -0.96100003 30 22 20
3.7609999 -4.7859998 -0.94700003 41 31 29
3.7550001 -4.7800002 -0.94400001 31 22 15
3.77 -4.7849998 -0.93800002 21 6 0
3.724 -4.7259998 -0.94199997 50 36 25
3.7249999 -4.77 -0.95200002 17 0 0
3.7260001 -4.7729998 -0.94999999 16 2 1
3.724 -4.7659998 -0.935 10 0 0
3.7309999 -4.7519999 -0.96899998 16 0 0
3.737 -4.7589998 -0.96899998 18 8 6
3.7149999 -4.7480001 -0.903 98 85 77
3.7079999 -4.7449999 -0.90100002 82 47 28
3.717 -4.7509999 -0.90899998 30 21 16
3.777 -4.743 -0.92199999 30 12 0
3.777 -4.75 -0.926 14 6 4
3.766 -4.7579999 -0.92299998 37 19 9
3.766 -4.7509999 -0.91799998 14 3 0
3.835 -4.7979999 -0.912 17 0 0
3.8169999 -4.7930002 -0.963 52 28 24
3.8410001 -4.79 -0.91399997 42 8 0
3.819 -4.848 -0.94 85 40 17
3.813 -4.8330002 -0.95099998 19 1 0
3.747 -4.7740002 -0.91299999 41 16 9
3.7320001 -4.7740002 -0.92500001 74 60 60
3.7390001 -4.7690001 -0.91900003 18 8 6
3.8239999 -4.8010001 -0.85399997 11 1 0
3.829 -4.8060002 -0.85500002 44 16 4
3.8310001 -4.7859998 -0.84899998 100 63 47
3.763 -4.7140002 -0.84899998 69 32 24
3.7620001 -4.7129998 -0.84799999 76 40 24
3.7479999 -4.6950002 -0.85699999 37 8 2
3.7479999 -4.697 -0.85900003 25 4 1
3.7520001 -4.7179999 -0.83099997 106 39 0
3.7460001 -4.6929998 -0.85900003 57 27 17
3.7309999 -4.691 -0.86699998 60 42 18
3.7219999 -4.6939998 -0.852 138 68 9
3.8110001 -4.8979998 -0.86400002 31 11 4
3.802 -4.8699999 -0.84399998 74 29 0
3.721 -4.7880001 -0.81099999 39 22 12
3.74 -4.796 -0.81300002 61 20 2
3.7049999 -4.7309999 -0.88 110 46 10
3.8139999 -4.934 -0.79100001 166 122 83
3.803 -4.9390001 -0.80199999 52 31 14
3.8 -4.9400001 -0.79000002 76 61 58
3.7579999 -4.8769999 -0.78100002 108 55 24
3.757 -4.8899999 -0.77999997 146 106 80
3.753 -4.8779998 -0.78299999 111 53 7
3.7909999 -4.8909998 -0.73500001 150 78 38
3.7920001 -4.9099998 -0.73000002 78 22 0
3.7939999 -4.9039998 -0.73299998 90 67 33
3.789 -4.9099998 -0.73400003 152 111 81
3.8150001 -4.848 -0.81699997 127 66 3
3.8050001 -4.8429999 -0.81999999 32 8 0
3.78 -4.9450002 -0.76899999 95 58 42
3.793 -4.934 -0.75 45 16 8
3.8039999 -4.9109998 -0.75199997 48 12 0
3.802 -4.9120002 -0.74900001 99 56 39
3.799 -4.9359999 -0.76499999 20 2 2
3.7980001 -4.9359999 -0.764 91 68 50
3.7850001 -4.9330001 -0.77499998 26 1 0
3.783 -4.9369998 -0.77200001 25 1 0
3.757 -4.7199998 -0.87699997 25 10 5
3.7639999 -4.7270002 -0.86299998 24 5 0
3.8199999 -4.7859998 -0.86699998 94 72 51
3.825 -4.8179998 -0.912 17 0 0
3.829 -4.816 -0.903 14 0 0
3.823 -4.8280001 -0.912 29 11 1
3.8199999 -4.803 -0.94 5 0 3
3.8199999 -4.8039999 -0.93199998 25 11 8
3.823 -4.8010001 -0.93300003 1 1 1
3.8210001 -4.835 -0.93400002 54 36 22
3.7590001 -4.7140002 -0.921 33 11 0
3.753 -4.7189999 -0.92799997 58 43 48
3.7679999 -4.724 -0.92799997 8 0 0
3.756 -4.724 -0.935 14 0 0
3.7490001 -4.7140002 -0.93099999 66 42 32
3.7679999 -4.7649999 -0.94 6 2 1
3.766 -4.7859998 -0.93800002 34 16 14
3.7750001 -4.783 -0.93000001 64 50 41
3.767 -4.7670002 -0.92199999 12 2 1
3.75 -4.7659998 -0.89899999 7 0 0
3.7479999 -4.7649999 -0.90399998 14 4 3
3.7409999 -4.7610002 -0.89700001 49 21 17
3.7550001 -4.7150002 -0.91299999 8 0 0
3.7520001 -4.7150002 -0.90700001 69 32 13
3.944 -4.829 -0.86699998 25 7 5
3.8859999 -4.8569999 -0.903 64 23 1
3.8859999 -4.8579998 -0.90100002 58 23 1
3.8239999 -4.9200001 -0.89099997 18 9 10
3.973 -4.8319998 -0.745 135 74 11
3.9790001 -4.8280001 -0.73500001 85 19 0
3.9579999 -4.8249998 -0.78799999 53 18 12
3.9649999 -4.829 -0.78899997 159 101 55
3.944 -4.823 -0.81400001 126 64 25
3.9389999 -4.8260002 -0.824 108 47 19
3.9400001 -4.8280001 -0.81199998 96 51 20
3.95 -4.8239999 -0.81099999 69 31 22
3.8729999 -4.836 -0.77999997 83 45 26
3.8670001 -4.8369999 -0.77600002 53 10 1
3.9430001 -4.8330002 -0.77200001 32 10 0
3.8670001 -4.8610001 -0.77399999 91 55 21
3.925 -4.8509998 -0.79799998 164 98 40
3.9230001 -4.8439999 -0.80199999 222 163 119
3.918 -4.8429999 -0.80500001 128 73 43
3.931 -4.8330002 -0.80500001 83 48 26
3.915 -4.823 -0.81599998 55 5 0
3.9200001 -4.8340001 -0.80800003 76 39 23
3.9189999 -4.835 -0.80699998 52 37 6
3.9159999 -4.836 -0.80800003 73 26 6
3.891 -4.823 -0.84100002 136 77 47
3.8900001 -4.8249998 -0.84500003 40 8 0
3.8970001 -4.8249998 -0.83899999 48 29 22
3.8640001 -4.8140001 -0.86799997 14 4 2
3.8469999 -4.8039999 -0.85399997 81 25 0
3.7780001 -4.75 -0.85100001 40 22 22
3.783 -4.7490001 -0.85100001 55 28 19
3.7850001 -4.7360001 -0.85399997 53 30 22
3.8199999 -4.7849998 -0.833 25 5 0
3.832 -4.7820001 -0.85399997 68 45 27
3.79 -4.7420001 -0.84500003 51 31 22
3.7980001 -4.7690001 -0.84899998 14 0 0
3.813 -4.777 -0.86000001 55 36 21
3.813 -4.783 -0.85500002 12 2 0
3.7780001 -4.7220001 -0.81900001 72 38 29
3.766 -4.7399998 -0.829 74 38 12
3.7750001 -4.7309999 -0.83200002 54 39 42
3.7809999 -4.7259998 -0.82700002 29 11 0
3.773 -4.7189999 -0.82200003 101 44 1
3.78 -4.7160001 -0.80900002 112 66 43
3.779 -4.7129998 -0.80900002 172 149 135
3.77 -4.711 -0.82499999 60 43 27
3.7639999 -4.711 -0.83600003 51 1 0
3.7709999 -4.7160001 -0.824 25 8 1
3.704 -4.698 -0.875 41 23 13
3.7030001 -4.7010002 -0.87699997 6 1 0
3.7249999 -4.7119999 -0.83099997 134 80 44
3.724 -4.7179999 -0.833 83 40 8
3.7190001 -4.7150002 -0.85299999 49 26 8
3.717 -4.6939998 -0.85699999 168 87 31
3.7130001 -4.698 -0.85900003 58 38 14
3.76 -4.7490001 -0.85500002 33 13 4
3.776 -4.7389998 -0.83099997 68 27 5
3.7590001 -4.7529998 -0.83600003 43 25 13
3.809 -4.8439999 -0.82700002 131 95 73
3.8010001 -4.8530002 -0.82099998 37 20 13
3.8 -4.8610001 -0.83899999 49 37 15
3.8280001 -4.79 -0.82800001 108 68 43
3.855 -4.803 -0.82099998 39 20 5
3.8340001 -4.8699999 -0.79900002 70 23 0
3.825 -4.8800001 -0.80000001 77 40 14
3.8269999 -4.8709998 -0.801 77 19 0
3.8369999 -4.8769999 -0.79900002 51 0 0
3.819 -4.9200001 -0.84600002 10 0 0
3.8169999 -4.9330001 -0.83399999 8 0 0
3.8139999 -4.9400001 -0.81699997 15 4 2
3.806 -4.9130001 -0.81900001 61 15 0
3.802 -4.901 -0.81400001 36 16 9
3.7920001 -4.9109998 -0.81099999 64 35 17
3.8080001 -4.9000001 -0.82499999 23 4 0
3.813 -4.928 -0.82800001 18 0 0
3.8150001 -4.9359999 -0.82700002 14 0 0
3.8429999 -4.8759999 -0.79000002 96 45 18
3.842 -4.8779998 -0.79400003 227 170 141
3.842 -4.8740001 -0.79299998 98 47 20
3.849 -4.895 -0.79699999 52 29 15
3.8510001 -4.8870001 -0.79799998 15 0 0
3.8499999 -4.8829999 -0.80199999 18 0 0
3.8529999 -4.8870001 -0.796 19 4 1
3.8280001 -4.915 -0.88700002 9 0 0
3.842 -4.8639998 -0.83899999 24 3 0
3.829 -4.8699999 -0.82599998 63 17 0
3.852 -4.8639998 -0.82599998 87 54 37
3.8169999 -4.901 -0.88599998 39 5 0
3.832 -4.8150001 -0.88999999 8 0 0
3.832 -4.8189998 -0.89700001 28 1 0
3.8759999 -4.823 -0.86699998 22 6 16
3.858 -4.8260002 -0.85399997 87 51 35
3.869 -4.8330002 -0.86500001 81 61 50
3.8699999 -4.8379998 -0.85100001 24 0 0
3.8859999 -4.829 -0.87199998 20 5 2
3.835 -4.8049998 -0.82099998 130 95 73
3.8280001 -4.8140001 -0.84500003 63 47 47
3.7049999 -4.6960001 -0.87400001 109 62 32
3.717 -4.6929998 -0.861 173 102 50
3.7279999 -4.7579999 -0.90899998 30 10 1
3.723 -4.757 -0.91500002 9 4 1
3.724 -4.7529998 -0.90799999 16 8 6
3.7079999 -4.7140002 -0.87800002 12 2 3
3.737 -4.7319999 -0.97000003 143 105 92
3.8789999 -4.8410001 -0.95300001 9 0 1
3.8870001 -4.8400002 -0.95300001 3 0 0
3.8759999 -4.8649998 -0.954 23 9 6
3.895 -4.8299999 -0.96200001 168 149 132
3.891 -4.836 -0.96600002 24 6 4
3.8429999 -4.796 -0.95499998 44 17 6
3.8410001 -4.7870002 -0.94999999 46 22 10
3.8329999 -4.789 -0.95700002 37 7 0
3.8469999 -4.8010001 -0.95599997 21 6 3
3.8469999 -4.7810001 -0.94599998 48 27 22
3.8499999 -4.7800002 -0.93800002 99 74 44
3.7880001 -4.756 -0.93199998 5 0 0
3.7850001 -4.7410002 -0.94300002 66 41 19
3.829 -4.8049998 -0.96899998 13 3 1
3.8540001 -4.8060002 -0.96499997 28 11 4
3.7780001 -4.7119999 -0.98799998 80 39 19
3.8139999 -4.9180002 -0.87099999 27 7 0
3.8239999 -4.921 -0.88700002 9 0 1
3.8269999 -4.8579998 -0.97000003 33 14 8
3.822 -4.8520002 -0.97000003 36 19 9
3.822 -4.8260002 -0.963 59 39 28
3.825 -4.8179998 -0.95099998 9 0 0
3.8239999 -4.8070002 -0.96799999 17 6 2
3.8199999 -4.8000002 -0.96700001 12 3 0
3.819 -4.8429999 -0.97000003 90 84 88
3.8099999 -4.842 -0.97100002 44 28 39
3.852 -4.848 -0.97100002 10 0 0
3.839 -4.8260002 -0.97299999 20 1 0
3.835 -4.8309999 -0.97299999 15 0 0
3.7550001 -4.7150002 -0.97799999 17 7 5
3.779 -4.7199998 -0.96600002 77 41 17
3.7850001 -4.7340002 -0.95300001 22 2 0
3.7809999 -4.7350001 -0.94099998 83 47 21
3.8900001 -4.836 -0.96399999 6 3 0
3.8929999 -4.8210001 -0.97000003 52 31 10
3.724 -4.7659998 -0.93000001 33 22 18
3.724 -4.7639999 -0.93099999 79 63 37
3.753 -4.711 -0.94999999 103 84 70
3.724 -4.7119999 -0.93900001 95 75 66
3.74 -4.7069998 -0.93099999 66 21 0
3.7249999 -4.71 -0.921 27 0 0
3.7260001 -4.7090001 -0.92199999 35 4 1
3.7260001 -4.711 -0.92900002 49 19 11
3.721 -4.7150002 -0.93400002 21 6 0
3.7219999 -4.7010002 -0.91000003 45 17 3
3.71 -4.6999998 -0.89999998 102 54 32
3.7639999 -4.7090001 -0.972 17 6 0
3.7490001 -4.71 -0.963 140 122 110
3.737 -4.6919999 -0.91299999 30 2 0
3.7360001 -4.691 -0.91000003 68 41 32
3.733 -4.6960001 -0.91299999 37 4 0
3.7190001 -4.7220001 -0.93099999 8 0 0
3.7190001 -4.717 -0.93300003 15 0 0
3.7049999 -4.711 -0.88700002 25 14 18
3.7079999 -4.7069998 -0.88999999 33 17 2
3.717 -4.7259998 -0.91500002 9 3 3
3.7709999 -4.717 -0.96499997 83 41 16
3.7690001 -4.7470002 -0.96399999 112 70 30
3.777 -4.7090001 -0.97799999 74 36 17
3.776 -4.71 -0.972 17 8 3
3.7539999 -4.7480001 -0.98100001 15 1 0
3.733 -4.7069998 -0.95899999 29 10 4
3.7290001 -4.711 -0.95200002 17 1 1
3.744 -4.7049999 -0.94499999 41 19 8
3.737 -4.7080002 -0.949 36 16 7
3.734 -4.7090001 -0.954 23 10 17
3.7320001 -4.71 -0.95200002 66 45 24
3.8770001 -4.7969999 -0.95700002 14 2 4
3.924 -4.8709998 -0.91399997 18 0 0
3.927 -4.8730001 -0.91100001 12 2 1
3.938 -4.829 -0.884 29 12 4
3.9300001 -4.8610001 -0.88599998 49 31 27
3.9300001 -4.8540001 -0.88599998 33 19 16
3.9679999 -4.8470001 -0.81999999 22 2 0
3.9660001 -4.8460002 -0.83499998 41 7 0
3.9660001 -4.8470001 -0.833 141 104 86
3.964 -4.849 -0.838 97 70 59
3.8599999 -4.902 -0.94599998 49 23 8
3.859 -4.9029999 -0.96100003 91 60 32
3.8559999 -4.9029999 -0.963 71 45 28
3.8570001 -4.8779998 -0.93900001 40 14 13
3.8139999 -4.9229999 -0.903 17 0 0
3.842 -4.8800001 -0.94300002 30 3 0
3.8440001 -4.875 -0.93800002 24 3 0
3.8570001 -4.8969998 -0.963 160 113 85
3.852 -4.9000001 -0.96899998 20 0 6
3.868 -4.796 -0.89099997 38 15 0
3.875 -4.8140001 -0.87 34 16 14
3.9000001 -4.8049998 -0.89700001 16 1 0
3.941 -4.8280001 -0.847 46 14 1
3.9630001 -4.8449998 -0.84100002 43 14 8
3.8399999 -4.901 -0.88300002 26 8 6
3.852 -4.868 -0.898 41 21 14
3.8640001 -4.8720002 -0.889 66 42 30
3.845 -4.8699999 -0.917 102 88 88
3.8440001 -4.875 -0.91100001 102 86 87
3.848 -4.8779998 -0.93800002 90 64 41
3.9749999 -4.8249998 -0.76899999 83 39 10
3.9760001 -4.8150001 -0.759 92 51 23
3.9130001 -4.8470001 -0.80900002 77 50 29
3.8800001 -4.8340001 -0.80000001 90 57 42
3.7969999 -4.9169998 -0.73199999 89 35 7
3.7969999 -4.9159999 -0.73500001 93 36 9
3.7980001 -4.915 -0.73900002 123 95 56
3.8410001 -4.9029999 -0.80299997 151 111 86
3.852 -4.902 -0.792 48 33 0
3.8410001 -4.9039998 -0.80699998 99 45 17
3.8410001 -4.9089999 -0.81 42 14 11
3.8340001 -4.914 -0.796 39 21 9
3.8210001 -4.927 -0.79000002 107 86 59
3.8199999 -4.9229999 -0.78899997 78 35 28
3.8740001 -4.901 -0.86900002 13 2 0
3.868 -4.9070001 -0.86699998 55 20 1
3.868 -4.9050002 -0.86199999 15 1 1
3.8699999 -4.9089999 -0.87599999 50 13 0
3.8740001 -4.8889999 -0.86900002 17 3 2
3.8740001 -4.8940001 -0.861 24 0 0
3.8729999 -4.8969998 -0.866 19 9 10
3.872 -4.9000001 -0.86900002 24 10 10
3.8759999 -4.888 -0.85900003 89 55 46
3.869 -4.9039998 -0.87300003 15 1 0
3.8670001 -4.908 -0.87199998 9 0 0
3.869 -4.9060001 -0.87400001 33 19 18
3.915 -4.849 -0.86500001 51 28 14
3.9230001 -4.8449998 -0.85799998 17 1 1
3.9059999 -4.8740001 -0.88599998 34 15 8
3.9719999 -4.8330002 -0.796 114 62 38
3.9719999 -4.8270001 -0.78299999 41 7 0
3.9560001 -4.8569999 -0.77600002 134 86 63
3.9560001 -4.8319998 -0.81400001 38 1 0
3.938 -4.8239999 -0.82700002 190 136 100
3.9400001 -4.848 -0.82599998 126 84 68
3.951 -4.862 -0.82599998 103 65 44
3.9619999 -4.8590002 -0.83099997 32 4 0
3.9449999 -4.8270001 -0.80800003 198 148 125
3.9449999 -4.8330002 -0.75 128 67 13
3.799 -4.9330001 -0.77899998 52 30 16
3.9619999 -4.8590002 -0.81900001 14 0 0
3.961 -4.8629999 -0.81800002 15 0 0
3.858 -4.9130001 -0.85799998 115 80 60
3.839 -4.895 -0.97000003 23 4 0
3.8380001 -4.8979998 -0.958 95 59 23
3.8410001 -4.8930001 -0.949 63 36 7
3.859 -4.7849998 -0.90600002 25 1 0
3.9119999 -4.8319998 -0.82099998 171 121 94
3.9030001 -4.8379998 -0.824 75 24 0
3.927 -4.8410001 -0.84200001 32 1 0
3.8729999 -4.7979999 -0.92199999 18 0 0
3.8559999 -4.7800002 -0.93199998 127 107 82
3.882 -4.8309999 -0.921 23 8 3
3.8800001 -4.8369999 -0.926 41 24 16
3.888 -4.8249998 -0.94499999 9 4 0
3.902 -4.8379998 -0.90200001 24 6 2
3.9300001 -4.809 -0.88700002 150 108 84
3.914 -4.8189998 -0.89700001 48 28 19
3.8989999 -4.8179998 -0.89999998 47 25 2
3.924 -4.8169999 -0.89700001 27 9 5
3.924 -4.8369999 -0.89600003 43 31 31
3.918 -4.8080001 -0.875 39 20 13
3.9089999 -4.8000002 -0.89499998 26 1 0
3.9130001 -4.803 -0.88200003 45 25 14
3.8959999 -4.8299999 -0.90700001 56 38 24
3.763 -4.7649999 -0.95700002 18 4 3
3.7709999 -4.7540002 -0.949 57 23 11
3.7190001 -4.7459998 -0.92299998 33 13 4
3.717 -4.7509999 -0.91299999 8 0 0
3.72 -4.737 -0.91399997 5 0 0
3.71 -4.737 -0.90399998 59 14 8
3.7260001 -4.7399998 -0.92900002 10 0 0
3.7539999 -4.7670002 -0.96600002 15 1 1
3.724 -4.776 -0.95300001 52 29 21
3.7279999 -4.75 -0.97299999 16 8 6
3.783 -4.7470002 -0.92299998 19 1 0
3.8369999 -4.8000002 -0.90700001 6 1 0
3.8399999 -4.783 -0.935 40 20 13
3.839 -4.7800002 -0.94199997 67 32 12
3.832 -4.7820001 -0.93800002 2 1 0
3.836 -4.7880001 -0.93599999 5 1 0
3.8269999 -4.8299999 -0.89300001 57 34 26
3.816 -4.8369999 -0.94999999 25 12 19
3.7379999 -4.7789998 -0.93599999 14 2 2
3.8210001 -4.7989998 -0.85100001 12 0 0
3.7279999 -4.6919999 -0.90499997 42 15 4
3.74 -4.6939998 -0.898 48 21 14
3.714 -4.6960001 -0.898 56 13 0
3.757 -4.7119999 -0.85600001 123 86 68
3.727 -4.6880002 -0.87199998 60 41 11
3.7449999 -4.697 -0.875 51 37 28
3.7119999 -4.7080002 -0.86299998 133 118 85
3.7720001 -4.7129998 -0.83899999 71 41 30
3.766 -4.7150002 -0.84600002 40 15 11
3.779 -4.9169998 -0.74000001 113 47 12
3.776 -4.9260001 -0.75099999 112 46 12
3.7809999 -4.9159999 -0.75300002 82 63 67
3.7750001 -4.9260001 -0.75400001 130 72 24
3.773 -4.9359999 -0.74900001 96 42 4
3.7839999 -4.9429998 -0.75999999 26 5 0
3.7460001 -4.6939998 -0.85799998 86 50 38
3.724 -4.6929998 -0.85600001 60 35 15
3.8099999 -4.9060001 -0.82700002 49 22 5
3.8069999 -4.8979998 -0.84899998 100 78 67
3.8039999 -4.8940001 -0.84399998 19 1 0
3.698 -4.7670002 -0.83200002 85 49 33
3.698 -4.7719998 -0.83099997 72 32 20
3.698 -4.7680001 -0.82800001 85 49 35
3.7090001 -4.756 -0.85399997 39 14 9
3.6989999 -4.7589998 -0.866 178 126 102
3.7060001 -4.7490001 -0.85799998 73 21 0
3.7090001 -4.7459998 -0.85600001 84 37 9
3.714 -4.7600002 -0.84200001 57 18 19
3.704 -4.7480001 -0.86199999 81 49 26
3.6989999 -4.7589998 -0.86799997 114 60 34
3.704 -4.7509999 -0.86699998 67 29 18
3.707 -4.743 -0.87300003 99 83 50
3.71 -4.744 -0.86400002 31 10 7
3.71 -4.743 -0.87599999 111 69 45
3.707 -4.737 -0.88099998 89 53 39
3.7090001 -4.7379999 -0.87599999 20 0 0
3.756 -4.7670002 -0.87900001 35 20 13
3.743 -4.8049998 -0.83499998 41 15 2
3.7460001 -4.8070002 -0.83099997 59 32 15
3.7390001 -4.8080001 -0.83600003 98 71 41
3.704 -4.7810001 -0.84100002 151 94 65
3.6989999 -4.7789998 -0.829 56 13 6
3.7079999 -4.7969999 -0.83999997 51 33 21
3.8050001 -4.9400001 -0.79799998 9 0 0
3.802 -4.9310002 -0.80800003 62 40 27
3.789 -4.9359999 -0.78100002 26 0 1
3.786 -4.9029999 -0.741 24 5 0
3.776 -4.9289999 -0.73500001 255 195 105
3.753 -4.881 -0.78500003 102 47 8
3.7520001 -4.8839998 -0.78500003 89 32 0
3.7550001 -4.8940001 -0.78200001 57 16 0
3.7609999 -4.901 -0.77999997 58 6 0
3.7509999 -4.895 -0.79100001 33 11 0
3.76 -4.8940001 -0.77999997 78 31 1
3.7590001 -4.8990002 -0.78399998 36 13 5
3.7880001 -4.9060001 -0.75099999 38 20 16
3.79 -4.9130001 -0.75800002 21 0 5
3.7909999 -4.895 -0.76099998 69 42 21
3.7449999 -4.7909999 -0.82200003 83 51 26
3.7490001 -4.7870002 -0.81699997 86 51 29
3.7509999 -4.7880001 -0.82800001 14 0 0
3.744 -4.7719998 -0.81300002 107 75 54
3.76 -4.7410002 -0.82599998 59 30 16
3.7579999 -4.743 -0.83399999 59 25 13
3.737 -4.8010001 -0.83999997 40 16 6
3.7379999 -4.802 -0.82800001 69 43 30
3.7379999 -4.8039999 -0.83200002 109 77 62
3.8099999 -4.8499999 -0.81800002 58 32 17
3.819 -4.8569999 -0.81199998 94 50 21
3.8150001 -4.8629999 -0.81300002 115 65 32
3.802 -4.9109998 -0.74800003 35 12 0
3.8169999 -4.9120002 -0.77999997 129 92 73
3.812 -4.9260001 -0.77100003 110 65 42
3.812 -4.9219999 -0.77100003 64 22 0
3.799 -4.9349999 -0.77100003 64 43 26
3.8099999 -4.927 -0.76999998 105 60 39
3.7690001 -4.908 -0.787 92 58 30
3.753 -4.8959999 -0.796 55 32 24
3.7679999 -4.723 -0.85799998 72 44 20
3.7709999 -4.7340002 -0.85699999 8 0 0
3.7590001 -4.7249999 -0.88200003 80 53 42
3.7839999 -4.7709999 -0.926 37 26 32
3.819 -4.7969999 -0.95700002 8 0 0
3.8329999 -4.7870002 -0.949 23 0 0
3.7679999 -4.7249999 -0.93000001 178 141 115
3.7650001 -4.7329998 -0.94300002 4 0 0
3.777 -4.7340002 -0.93900001 33 13 4
3.7920001 -4.7600002 -0.95899999 196 155 137
3.8269999 -4.8130002 -0.91799998 31 6 2
3.8280001 -4.809 -0.90700001 21 6 0
3.8199999 -4.8169999 -0.92400002 19 11 9
3.77 -4.7729998 -0.92500001 29 10 6
3.7360001 -4.7659998 -0.88599998 26 3 0
3.7349999 -4.7579999 -0.90100002 15 7 5
3.7390001 -4.7600002 -0.90200001 32 3 0
3.7409999 -4.7680001 -0.912 71 56 49
3.7609999 -4.717 -0.90100002 58 36 23
3.859 -4.862 -0.90100002 18 2 2
3.8870001 -4.8670001 -0.88300002 18 0 0
3.8800001 -4.8649998 -0.88700002 13 0 0
3.8959999 -4.8610001 -0.88 42 16 3
3.865 -4.8779998 -0.88300002 38 20 20
3.848 -4.9050002 -0.94599998 41 22 18
3.8310001 -4.8660002 -0.95599997 37 18 11
3.95 -4.8439999 -0.77499998 88 59 55
3.9489999 -4.8449998 -0.78399998 86 41 22
3.954 -4.8499999 -0.78200001 28 0 0
3.9460001 -4.8390002 -0.764 45 0 0
3.9489999 -4.8410001 -0.77399999 99 58 54
3.9679999 -4.8179998 -0.76800001 57 23 11
3.9579999 -4.8239999 -0.78500003 43 3 1
3.9690001 -4.8390002 -0.77399999 81 35 9
3.9489999 -4.822 -0.81099999 50 16 4
3.9430001 -4.8249998 -0.81400001 77 23 0
3.9219999 -4.8299999 -0.81800002 64 36 14
3.9549999 -4.8260002 -0.792 65 22 6
3.928 -4.8200002 -0.84200001 84 58 43
3.8469999 -4.8080001 -0.81099999 113 83 57
3.8069999 -4.8439999 -0.82200003 119 107 67
3.8640001 -4.8590002 -0.77200001 96 55 35
3.8659999 -4.849 -0.773 51 11 0
3.872 -4.848 -0.78500003 62 44 32
3.8740001 -4.8559999 -0.792 89 60 44
3.862 -4.8730001 -0.77700001 78 50 36
3.927 -4.8540001 -0.875 41 22 7
3.8629999 -4.8559999 -0.833 88 64 54
3.8499999 -4.8629999 -0.838 24 11 3
3.862 -4.8140001 -0.85399997 43 20 6
3.872 -4.835 -0.87 48 27 10
3.904 -4.8340001 -0.83399999 63 26 0
3.8989999 -4.8369999 -0.83200002 52 23 5
3.8269999 -4.7880001 -0.83099997 77 53 51
3.8039999 -4.7649999 -0.84500003 102 88 87
3.8010001 -4.7719998 -0.84600002 51 29 18
3.8099999 -4.7849998 -0.85000002 16 2 1
3.7780001 -4.723 -0.83999997 46 24 3
3.767 -4.7189999 -0.84899998 28 0 0
3.773 -4.7199998 -0.824 51 9 0
3.707 -4.6939998 -0.87800002 245 194 147
3.8080001 -4.796 -0.83999997 14 4 3
3.8 -4.862 -0.84399998 38 23 26
3.803 -4.8660002 -0.838 98 89 92
3.8429999 -4.8730001 -0.79400003 69 19 0
3.806 -4.8850002 -0.838 11 0 0
3.8080001 -4.8600001 -0.833 34 16 12
3.8269999 -4.9320002 -0.85000002 4 0 0
3.8150001 -4.927 -0.83399999 14 0 0
3.8210001 -4.9380002 -0.833 10 0 0
3.816 -4.9390001 -0.82800001 9 0 0
3.7969999 -4.9070001 -0.81 50 27 11
3.796 -4.8990002 -0.801 65 30 10
3.809 -4.9349999 -0.81800002 21 3 0
3.8210001 -4.927 -0.82700002 59 39 38
3.826 -4.9109998 -0.81900001 88 47 27
3.8529999 -4.8699999 -0.77600002 55 40 35
3.858 -4.862 -0.77399999 125 107 83
3.855 -4.8670001 -0.778 20 0 0
3.865 -4.8649998 -0.76899999 97 60 33
3.8540001 -4.862 -0.824 43 13 2
3.858 -4.8720002 -0.79400003 50 27 21
3.872 -4.8569999 -0.80000001 93 56 37
3.8280001 -4.8839998 -0.83099997 78 37 19
3.839 -4.8660002 -0.84200001 46 28 16
3.8299999 -4.9099998 -0.889 9 1 0
3.8570001 -4.8829999 -0.85000002 21 6 1
3.858 -4.8899999 -0.85100001 23 8 3
3.8410001 -4.8940001 -0.838 26 1 0
3.8610001 -4.888 -0.85299999 66 46 37
3.875 -4.8889999 -0.85500002 35 8 0
3.8629999 -4.895 -0.85600001 67 31 9
3.8440001 -4.869 -0.84299999 95 78 68
3.8410001 -4.8720002 -0.84600002 21 10 6
3.8369999 -4.8909998 -0.83200002 84 57 38
3.825 -4.8470001 -0.83999997 29 10 3
3.816 -4.849 -0.82700002 139 77 40
3.8299999 -4.8590002 -0.93400002 74 53 34
3.8199999 -4.9089999 -0.89700001 75 60 53
3.8659999 -4.8569999 -0.87199998 36 16 15
3.8670001 -4.8670001 -0.86199999 13 3 1
3.8889999 -4.8299999 -0.84399998 85 66 51
3.858 -4.8119998 -0.84100002 51 29 18
3.852 -4.8169999 -0.80599999 156 94 57
3.858 -4.8150001 -0.81300002 93 44 14
3.855 -4.8130002 -0.81099999 97 44 10
3.849 -4.8299999 -0.81599998 62 43 45
3.8410001 -4.8210001 -0.81900001 81 48 33
3.8640001 -4.8280001 -0.81800002 33 11 0
3.8610001 -4.8369999 -0.79900002 49 11 2
3.865 -4.8169999 -0.815 87 64 70
3.869 -4.835 -0.787 48 12 0
3.826 -4.8150001 -0.83200002 91 57 48
3.822 -4.8060002 -0.83200002 9 0 0
3.7179999 -4.6900001 -0.86500001 17 8 3
3.7190001 -4.691 -0.861 238 174 130
3.7179999 -4.6890001 -0.87099999 90 36 2
3.71 -4.743 -0.87 17 0 0
3.7149999 -4.743 -0.88499999 12 2 1
3.875 -4.8449998 -0.97299999 24 11 5
3.868 -4.8449998 -0.96600002 9 0 0
3.8710001 -4.835 -0.96899998 9 0 3
3.875 -4.8660002 -0.94400001 46 34 22
3.8710001 -4.8499999 -0.95599997 10 0 0
3.8740001 -4.8449998 -0.95300001 6 0 0
3.885 -4.835 -0.94199997 24 13 7
3.8829999 -4.8390002 -0.92000002 41 21 12
3.836 -4.7839999 -0.95200002 39 11 0
3.8399999 -4.7820001 -0.94599998 58 31 14
3.8469999 -4.7800002 -0.94 62 42 35
3.8280001 -4.783 -0.94199997 2 1 0
3.8310001 -4.8649998 -0.94800001 47 20 13
3.8299999 -4.9219999 -0.875 14 8 8
3.812 -4.9169998 -0.86500001 34 7 0
3.812 -4.9130001 -0.852 117 77 52
3.8180001 -4.8319998 -0.96700001 101 53 39
3.829 -4.8369999 -0.97100002 8 0 0
3.823 -4.8520002 -0.96600002 27 3 0
3.8210001 -4.8470001 -0.96600002 115 82 65
3.823 -4.8379998 -0.95300001 95 57 44
3.76 -4.723 -0.97799999 14 3 9
3.786 -4.7420001 -0.949 26 7 1
3.7820001 -4.7509999 -0.93400002 18 11 3
3.898 -4.8210001 -0.96899998 77 46 25
3.72 -4.7199998 -0.92199999 22 1 0
3.7709999 -4.7529998 -0.95200002 10 0 5
3.723 -4.7649999 -0.926 16 2 0
3.7249999 -4.7639999 -0.92199999 43 26 19
3.7249999 -4.7690001 -0.93199998 18 6 6
3.7490001 -4.7069998 -0.94499999 77 53 41
3.733 -4.7090001 -0.93800002 28 11 4
3.7409999 -4.7069998 -0.93099999 64 17 1
3.7249999 -4.7129998 -0.92900002 29 0 0
3.7320001 -4.698 -0.91900003 44 19 12
3.744 -4.7080002 -0.97100002 24 10 10
3.7679999 -4.7080002 -0.97799999 102 59 40
3.7219999 -4.7150002 -0.91900003 29 5 3
3.7290001 -4.7090001 -0.96799999 10 0 1
3.7379999 -4.7080002 -0.94400001 74 49 44
3.9360001 -4.829 -0.88800001 100 55 34
3.9330001 -4.8309999 -0.88999999 77 31 7
3.9300001 -4.8660002 -0.88200003 98 75 44
3.925 -4.868 -0.88099998 10 0 0
3.924 -4.8410001 -0.90100002 36 17 13
3.9630001 -4.8540001 -0.83899999 30 10 9
3.858 -4.8759999 -0.93400002 45 31 20
3.846 -4.868 -0.921 35 8 1
3.846 -4.9039998 -0.94700003 40 21 17
3.8499999 -4.8839998 -0.94400001 121 90 62
3.855 -4.8870001 -0.94400001 31 2 0
3.921 -4.8049998 -0.87699997 79 58 37
3.8670001 -4.7919998 -0.89200002 62 30 15
3.9030001 -4.802 -0.89399999 38 15 9
3.964 -4.849 -0.84200001 23 2 1
3.9100001 -4.8260002 -0.83399999 64 18 2
3.911 -4.8179998 -0.838 47 30 23
3.915 -4.8239999 -0.83700001 108 55 23
3.925 -4.8239999 -0.83600003 86 60 47
3.9430001 -4.8239999 -0.84600002 32 14 12
3.8310001 -4.9050002 -0.89499998 9 0 0
3.836 -4.8649998 -0.92299998 66 37 23
3.8429999 -4.862 -0.91500002 25 1 0
3.974 -4.829 -0.74699998 79 49 0
3.9119999 -4.8390002 -0.815 123 104 71
3.908 -4.8400002 -0.81999999 15 0 0
3.9100001 -4.8520002 -0.81199998 151 93 55
3.924 -4.8509998 -0.80699998 115 79 53
3.848 -4.8699999 -0.787 68 20 8
3.8640001 -4.8969998 -0.85699999 115 74 52
3.8210001 -4.9250002 -0.79299998 81 32 0
3.8829999 -4.8779998 -0.84100002 34 4 0
3.881 -4.8779998 -0.847 97 68 62
3.8840001 -4.869 -0.83499998 37 0 0
3.885 -4.8759999 -0.83999997 59 32 23
3.8559999 -4.8779998 -0.79699999 21 7 7
3.8699999 -4.902 -0.86400002 20 6 6
3.869 -4.8990002 -0.86000001 128 88 63
3.865 -4.908 -0.86400002 8 0 0
3.859 -4.9070001 -0.86500001 15 3 3
3.9230001 -4.8470001 -0.84200001 44 17 8
3.921 -4.848 -0.84100002 18 0 0
3.921 -4.848 -0.82700002 17 7 5
3.914 -4.8540001 -0.81699997 40 19 0
3.96 -4.8590002 -0.82599998 22 1 0
3.803 -4.928 -0.755 89 57 42
3.802 -4.934 -0.76499999 100 80 79
3.8050001 -4.9289999 -0.75700003 67 31 15
3.967 -4.8400002 -0.81099999 106 40 8
3.9560001 -4.8249998 -0.80299997 58 39 24
3.957 -4.855 -0.79100001 122 75 47
3.951 -4.849 -0.79400003 125 102 86
3.842 -4.8979998 -0.96399999 27 10 3
3.9419999 -4.8319998 -0.83899999 32 3 0
3.918 -4.8470001 -0.85399997 60 39 36
3.9130001 -4.8530002 -0.83999997 72 43 25
3.8740001 -4.8039999 -0.93800002 12 4 1
3.8900001 -4.8150001 -0.95200002 89 49 24
3.8929999 -4.8449998 -0.91299999 13 2 0
3.882 -4.8470001 -0.91500002 64 32 21
3.8800001 -4.842 -0.921 19 1 0
3.8959999 -4.8369999 -0.87099999 25 0 0
3.8889999 -4.8429999 -0.87699997 30 10 0
3.8800001 -4.8670001 -0.84899998 16 2 0
3.8829999 -4.862 -0.84600002 255 192 138
3.925 -4.8049998 -0.88800001 25 1 0
3.9000001 -4.8239999 -0.90200001 54 25 11
3.911 -4.8649998 -0.88200003 23 4 0
3.9119999 -4.8759999 -0.89300001 20 2 0
3.766 -4.756 -0.958 17 8 1
3.767 -4.7610002 -0.94300002 20 7 0
3.721 -4.7410002 -0.91399997 119 97 84
3.757 -4.7649999 -0.96799999 104 77 68
3.78 -4.7389998 -0.92799997 52 26 9
3.7579999 -4.7259998 -0.94400001 12 1 0
3.846 -4.7849998 -0.935 74 47 38
3.826 -4.8499999 -0.92699999 36 11 7
3.8239999 -4.8410001 -0.91600001 81 66 59
3.7290001 -4.777 -0.94599998 23 0 0
3.7049999 -4.7800002 -0.84399998 108 54 30
3.823 -4.849 -0.93199998 53 13 3
3.74 -4.6890001 -0.88999999 114 82 61
3.753 -4.7090001 -0.85500002 71 36 14
3.7219999 -4.6869998 -0.87099999 72 35 16
3.721 -4.6869998 -0.87099999 104 47 18
3.7449999 -4.698 -0.875 69 33 11
3.767 -4.7150002 -0.84500003 83 62 57
3.7509999 -4.7090001 -0.88200003 45 29 16
3.756 -4.7540002 -0.88 56 28 17
3.7579999 -4.757 -0.88200003 44 20 16
3.763 -4.7399998 -0.861 35 15 6
3.763 -4.9000001 -0.77899998 156 95 67
3.7739999 -4.9330001 -0.75599998 68 30 11
3.72 -4.6929998 -0.85500002 172 105 60
3.8110001 -4.9050002 -0.847 93 70 54
3.8150001 -4.868 -0.86500001 30 11 0
3.8239999 -4.868 -0.88 16 2 0
3.8169999 -4.8559999 -0.87199998 70 61 32
3.714 -4.7589998 -0.86900002 27 9 0
3.7249999 -4.7740002 -0.87 61 42 25
3.7090001 -4.7589998 -0.86400002 96 72 46
3.7309999 -4.7779999 -0.81099999 31 3 0
3.757 -4.7680001 -0.89200002 243 170 102
3.76 -4.7610002 -0.884 59 31 19
3.75 -4.7610002 -0.86500001 52 33 29
3.7119999 -4.7399998 -0.85299999 223 178 147
3.7179999 -4.7550001 -0.83200002 86 22 0
3.7249999 -4.7410002 -0.84100002 102 57 38
3.724 -4.7309999 -0.85000002 46 3 0
3.7190001 -4.7480001 -0.84200001 29 0 0
3.7969999 -4.9250002 -0.73900002 173 119 81
3.789 -4.9159999 -0.73199999 120 59 40
3.8 -4.9200001 -0.745 63 36 7
3.8039999 -4.9400001 -0.80000001 45 30 23
3.7920001 -4.9260001 -0.79799998 56 50 24
3.79 -4.9250002 -0.80199999 48 26 12
3.7939999 -4.9330001 -0.78899997 64 29 0
3.786 -4.9239998 -0.796 141 110 89
3.786 -4.8899999 -0.75599998 77 56 37
3.7880001 -4.902 -0.74299997 106 46 20
3.7839999 -4.914 -0.74800003 23 6 0
3.79 -4.8909998 -0.74699998 97 66 35
3.78 -4.882 -0.75800002 54 32 18
3.79 -4.9050002 -0.73699999 118 74 45
3.773 -4.934 -0.741 62 41 20
3.756 -4.882 -0.78299999 139 85 49
3.773 -4.927 -0.741 43 17 0
3.7780001 -4.9390001 -0.76599997 28 0 0
3.777 -4.9299998 -0.76800001 20 0 0
3.776 -4.9120002 -0.77499998 112 84 70
3.7750001 -4.9039998 -0.77700001 190 154 128
3.7969999 -4.8790002 -0.764 110 65 8
3.7950001 -4.8829999 -0.74699998 69 42 23
3.7449999 -4.7849998 -0.82099998 106 60 27
3.733 -4.7709999 -0.81300002 101 73 69
3.7390001 -4.7750001 -0.81099999 92 55 46
3.744 -4.7309999 -0.81999999 86 60 43
3.7390001 -4.7509999 -0.833 92 64 53
3.734 -4.7589998 -0.81999999 63 10 2
3.757 -4.7389998 -0.82800001 59 33 16
3.733 -4.8010001 -0.81800002 69 41 29
3.7360001 -4.796 -0.81599998 14 0 0
3.7969999 -4.9089999 -0.73799998 99 71 34
3.796 -4.9109998 -0.73299998 59 13 0
3.8069999 -4.8850002 -0.81099999 53 20 5
3.802 -4.8940001 -0.80400002 73 54 56
3.816 -4.8889999 -0.80400002 61 45 46
3.812 -4.8590002 -0.81800002 106 52 8
3.8080001 -4.8600001 -0.81999999 117 93 69
3.8080001 -4.8930001 -0.76099998 45 1 0
3.806 -4.9060001 -0.76300001 38 13 6
3.809 -4.9130001 -0.77200001 95 67 53
3.8150001 -4.895 -0.78399998 55 20 0
3.7909999 -4.9109998 -0.75700003 57 30 9
3.8199999 -4.901 -0.78600001 38 0 0
3.819 -4.9000001 -0.78600001 93 55 34
3.806 -4.921 -0.764 88 59 45
3.7780001 -4.927 -0.77200001 25 1 0
3.777 -4.9229999 -0.77200001 21 1 0
3.7720001 -4.73 -0.85100001 32 16 1
3.839 -4.7979999 -0.92199999 126 102 92
3.8310001 -4.8080001 -0.92299998 35 17 15
3.8239999 -4.816 -0.94099998 18 9 0
3.766 -4.783 -0.92299998 15 6 11
3.74 -4.7610002 -0.903 22 1 0
3.7360001 -4.777 -0.93599999 26 12 11
3.7390001 -4.7649999 -0.90899998 28 11 1
3.859 -4.8870001 -0.87699997 28 0 0
3.835 -4.8709998 -0.95700002 87 69 65
3.829 -4.862 -0.95599997 68 42 25
3.9590001 -4.823 -0.78200001 42 0 0
3.971 -4.8460002 -0.78399998 176 111 55
3.951 -4.8509998 -0.79900002 71 34 16
3.9360001 -4.849 -0.80500001 151 88 53
3.9449999 -4.8470001 -0.80199999 116 89 70
3.9489999 -4.8470001 -0.79299998 71 49 35
3.928 -4.8340001 -0.81099999 101 69 56
3.914 -4.8299999 -0.82200003 49 9 0
3.8380001 -4.8140001 -0.81599998 137 93 64
3.8499999 -4.802 -0.81199998 102 50 28
3.865 -4.8470001 -0.76999998 41 6 0
3.8629999 -4.8540001 -0.78500003 67 41 24
3.859 -4.8590002 -0.778 31 5 4
3.9300001 -4.8369999 -0.80500001 90 54 28
3.8629999 -4.8670001 -0.78500003 64 41 35
3.905 -4.8400002 -0.85799998 66 14 1
3.924 -4.842 -0.84799999 22 1 0
3.875 -4.848 -0.86199999 17 0 0
3.868 -4.8210001 -0.82800001 92 61 40
3.869 -4.8210001 -0.82499999 70 32 11
3.717 -4.71 -0.85900003 58 36 22
3.7190001 -4.7150002 -0.85900003 25 11 8
3.72 -4.717 -0.85600001 27 13 4
3.7249999 -4.7160001 -0.83600003 178 132 99
3.7279999 -4.7119999 -0.84299999 120 60 24
3.7249999 -4.7160001 -0.84899998 78 22 0
3.72 -4.7049999 -0.85299999 17 4 0
3.733 -4.7059999 -0.83700001 103 44 14
3.7590001 -4.7550001 -0.84399998 71 51 50
3.7539999 -4.7529998 -0.847 76 51 31
3.7279999 -4.7579999 -0.89300001 26 3 0
3.835 -4.816 -0.82099998 62 38 34
3.836 -4.829 -0.82200003 73 45 33
3.8299999 -4.8280001 -0.82200003 78 50 39
3.8310001 -4.836 -0.82300001 57 40 32
3.8310001 -4.8369999 -0.83899999 96 79 53
3.835 -4.8309999 -0.83999997 76 54 31
3.8210001 -4.8940001 -0.78799999 98 56 40
3.8399999 -4.8899999 -0.78500003 97 71 44
3.832 -4.8909998 -0.79500002 79 45 33
3.8099999 -4.8829999 -0.847 15 7 5
3.8169999 -4.9260001 -0.83700001 15 3 3
3.8139999 -4.9190001 -0.83600003 19 1 1
3.819 -4.941 -0.82700002 16 0 0
3.813 -4.9400001 -0.815 10 0 0
3.8099999 -4.9400001 -0.81 8 0 0
3.8150001 -4.9380002 -0.81400001 10 0 0
3.8099999 -4.9320002 -0.81800002 97 73 63
3.822 -4.934 -0.829 20 0 1
3.8280001 -4.8979998 -0.78399998 81 63 39
3.8039999 -4.8909998 -0.75599998 89 59 23
3.8010001 -4.882 -0.759 136 100 76
3.858 -4.8610001 -0.76899999 76 44 31
3.855 -4.8720002 -0.77499998 75 43 30
3.858 -4.8629999 -0.77899998 59 35 35
3.8740001 -4.8540001 -0.81 98 47 26
3.8740001 -4.8540001 -0.80699998 125 67 29
3.8740001 -4.8559999 -0.81099999 67 18 3
3.8710001 -4.8540001 -0.81699997 160 123 96
3.8710001 -4.8579998 -0.81699997 81 30 3
3.8559999 -4.8790002 -0.78500003 81 58 50
3.8559999 -4.8769999 -0.77899998 83 55 43
3.8469999 -4.888 -0.80199999 87 69 67
3.836 -4.8899999 -0.838 31 3 0
3.8440001 -4.9029999 -0.86900002 51 26 22
3.836 -4.9180002 -0.87300003 19 8 6
3.8440001 -4.8829999 -0.847 86 43 9
3.8239999 -4.8249998 -0.85299999 30 19 25
3.8139999 -4.8400002 -0.86199999 26 13 0
3.812 -4.8400002 -0.85799998 65 40 33
3.8239999 -4.9169998 -0.89499998 9 0 0
3.898 -4.842 -0.83099997 16 2 2
3.8599999 -4.8070002 -0.833 21 7 4
3.8410001 -4.8709998 -0.81400001 59 22 16
3.8340001 -4.888 -0.80800003 61 11 2
3.855 -4.8400002 -0.80599999 39 12 3
3.852 -4.8270001 -0.81400001 65 37 26
3.8299999 -4.8109999 -0.82700002 57 23 14
3.7179999 -4.6890001 -0.87300003 113 57 20
3.71 -4.7399998 -0.89600003 69 37 16
3.8770001 -4.8639998 -0.949 16 2 0
3.8710001 -4.8559999 -0.954 8 0 0
3.869 -4.8569999 -0.95499998 24 9 4
3.8759999 -4.816 -0.94400001 36 17 3
3.881 -4.8249998 -0.94099998 20 11 6
3.8440001 -4.79 -0.949 28 0 0
3.8759999 -4.8150001 -0.92400002 62 41 24
3.832 -4.9219999 -0.87300003 14 6 4
3.8340001 -4.9190001 -0.875 9 0 0
3.819 -4.8319998 -0.97100002 205 153 116
3.8410001 -4.835 -0.972 52 22 12
3.849 -4.7950001 -0.921 28 14 13
3.845 -4.7930002 -0.91500002 30 17 0
3.776 -4.75 -0.949 92 42 5
3.79 -4.7480001 -0.95899999 12 3 0
3.786 -4.7389998 -0.96200001 90 53 27
3.73 -4.711 -0.94999999 16 5 0
3.724 -4.7150002 -0.926 28 7 2
3.7579999 -4.711 -0.977 47 25 37
3.721 -4.7140002 -0.91600001 37 12 7
3.7179999 -4.7119999 -0.89899999 15 6 9
3.7130001 -4.7290001 -0.898 48 1 0
3.7130001 -4.7189999 -0.89499998 34 16 2
3.7219999 -4.7129998 -0.95599997 11 0 0
3.938 -4.8179998 -0.88099998 51 11 0
3.8710001 -4.8600001 -0.93800002 25 11 2
3.839 -4.8979998 -0.94800001 154 115 72
3.941 -4.8169999 -0.85699999 27 6 3
3.928 -4.8249998 -0.83499998 61 39 28
3.9289999 -4.8210001 -0.83899999 47 20 0
3.8559999 -4.868 -0.889 78 64 63
3.8770001 -4.862 -0.88599998 23 4 0
3.8499999 -4.8720002 -0.91100001 9 1 0
3.842 -4.8769999 -0.89899999 11 2 3
3.8429999 -4.8720002 -0.89999998 9 0 0
3.8440001 -4.8649998 -0.903 94 82 82
3.835 -4.8559999 -0.91399997 43 18 11
3.8329999 -4.8610001 -0.92799997 56 34 20
3.9790001 -4.8270001 -0.74900001 76 19 0
3.973 -4.8299999 -0.74900001 255 195 141
3.8559999 -4.8839998 -0.78799999 42 28 15
3.8499999 -4.8930001 -0.78899997 27 7 0
3.9030001 -4.8460002 -0.815 86 60 47
3.878 -4.842 -0.801 108 71 45
3.8800001 -4.8390002 -0.80199999 42 24 14
3.8759999 -4.8330002 -0.79400003 82 47 28
3.845 -4.8909998 -0.80199999 34 16 12
3.826 -4.8730001 -0.80699998 93 58 38
3.825 -4.8740001 -0.81999999 75 46 30
3.8640001 -4.8460002 -0.787 36 7 3
3.8610001 -4.8499999 -0.79500002 29 0 0
3.845 -4.8709998 -0.79500002 104 48 13
3.848 -4.8730001 -0.78600001 35 0 0
3.869 -4.8600001 -0.81 38 1 0
3.862 -4.8629999 -0.79299998 39 16 10
3.855 -4.8829999 -0.88099998 10 0 0
3.8299999 -4.8839998 -0.88 21 6 1
3.839 -4.8930001 -0.86900002 26 0 0
3.836 -4.8979998 -0.80900002 20 2 0
3.8369999 -4.8979998 -0.80800003 40 6 0
3.829 -4.8990002 -0.81800002 28 0 0
3.836 -4.895 -0.80900002 100 63 37
3.846 -4.901 -0.84500003 58 41 25
3.865 -4.901 -0.85900003 43 9 0
3.858 -4.9050002 -0.85799998 46 7 0
3.858 -4.9029999 -0.85799998 90 46 21
3.852 -4.9089999 -0.85799998 53 22 4
3.862 -4.8969998 -0.85699999 121 74 44
3.8210001 -4.934 -0.81199998 43 23 12
3.872 -4.895 -0.85799998 73 36 17
3.823 -4.9260001 -0.833 25 1 0
3.835 -4.9109998 -0.84399998 106 79 60
3.8800001 -4.8769999 -0.84200001 40 6 0
3.97 -4.829 -0.787 38 3 0
3.9449999 -4.842 -0.74800003 74 20 0
3.9230001 -4.8509998 -0.81999999 125 97 86
3.938 -4.8470001 -0.824 87 64 70
3.9189999 -4.8499999 -0.82700002 83 53 29
3.944 -4.8559999 -0.81199998 98 57 39
3.947 -4.8530002 -0.833 61 33 19
3.9119999 -4.8530002 -0.82300001 25 8 0
3.9489999 -4.8390002 -0.78500003 42 21 4
3.9460001 -4.836 -0.778 46 29 21
3.796 -4.9320002 -0.74299997 42 16 0
3.826 -4.9260001 -0.852 7 1 1
3.9460001 -4.8369999 -0.74800003 170 106 42
3.9419999 -4.8309999 -0.74900001 131 65 5
3.9400001 -4.8270001 -0.755 194 136 96
3.819 -4.9299998 -0.792 53 17 1
3.8510001 -4.8990002 -0.96899998 21 6 3
3.938 -4.8390002 -0.80500001 116 53 20
3.941 -4.8429999 -0.80400002 63 42 25
3.921 -4.8470001 -0.84399998 15 0 0
3.8610001 -4.7870002 -0.91299999 150 73 43
3.8610001 -4.7880001 -0.91600001 190 111 72
3.8840001 -4.829 -0.94099998 30 19 15
3.9230001 -4.8249998 -0.89200002 75 30 11
3.908 -4.8060002 -0.87900001 113 48 8
3.9089999 -4.8600001 -0.87900001 57 36 31
3.8989999 -4.8499999 -0.87900001 42 17 12
3.8959999 -4.8449998 -0.87699997 20 0 0
3.723 -4.7379999 -0.92699999 73 47 30
3.72 -4.7550001 -0.91900003 13 5 3
3.7460001 -4.7719998 -0.963 52 20 7
3.7720001 -4.73 -0.926 249 208 180
3.763 -4.7290001 -0.95300001 13 0 0
3.767 -4.7270002 -0.958 136 108 94
3.7420001 -4.7719998 -0.87699997 47 28 21
3.7360001 -4.7800002 -0.86400002 76 39 20
3.724 -4.697 -0.90799999 45 21 9
3.74 -4.7030001 -0.90100002 165 142 126
3.7479999 -4.7020001 -0.88599998 14 3 0
3.7119999 -4.7059999 -0.89700001 11 1 0
3.7160001 -4.6939998 -0.86199999 50 30 19
3.7049999 -4.6999998 -0.87400001 110 67 35
3.717 -4.7010002 -0.85600001 18 5 0
3.7690001 -4.7150002 -0.84299999 26 8 0
3.7639999 -4.743 -0.88 25 12 3
3.7750001 -4.9229999 -0.76499999 107 75 54
3.7839999 -4.9190001 -0.75999999 64 22 0
3.8110001 -4.8979998 -0.84200001 38 23 16
3.7060001 -4.75 -0.86799997 54 26 22
3.7379999 -4.7789998 -0.81099999 83 49 40
3.7349999 -4.7870002 -0.81199998 76 49 30
3.7509999 -4.7589998 -0.87400001 51 26 22
3.7490001 -4.776 -0.85500002 46 32 29
3.747 -4.7610002 -0.861 71 47 43
3.7160001 -4.7709999 -0.824 175 98 52
3.717 -4.7459998 -0.84600002 35 0 1
3.7850001 -4.9089999 -0.73799998 33 13 2
3.8 -4.9130001 -0.74299997 66 40 15
3.8010001 -4.9109998 -0.74599999 56 13 0
3.78 -4.9229999 -0.73699999 188 106 56
3.7920001 -4.9130001 -0.76999998 42 18 6
3.7869999 -4.9169998 -0.76200002 23 0 1
3.796 -4.9159999 -0.81 36 3 0
3.7709999 -4.8959999 -0.79400003 43 17 2
3.767 -4.9029999 -0.79400003 26 7 0
3.783 -4.9109998 -0.80400002 43 14 8
3.786 -4.9039998 -0.79699999 45 27 17
3.7639999 -4.8889999 -0.78299999 91 57 32
3.7550001 -4.8800001 -0.78399998 101 47 11
3.7750001 -4.9310002 -0.75 84 25 9
3.79 -4.8889999 -0.74800003 31 12 0
3.789 -4.888 -0.75199997 65 44 27
3.8050001 -4.8870001 -0.76300001 155 91 20
3.8 -4.8829999 -0.76800001 153 92 35
3.799 -4.881 -0.76300001 77 58 60
3.7449999 -4.7800002 -0.83200002 24 15 10
3.7420001 -4.737 -0.82599998 38 18 11
3.7360001 -4.7550001 -0.82999998 51 23 11
3.7349999 -4.7519999 -0.83200002 34 1 0
3.7939999 -4.8930001 -0.79000002 29 0 0
3.8069999 -4.888 -0.824 39 17 0
3.8080001 -4.881 -0.83399999 30 3 0
3.8150001 -4.8569999 -0.81599998 91 64 43
3.8 -4.8629999 -0.81999999 47 22 2
3.8080001 -4.8740001 -0.82300001 49 30 13
3.8069999 -4.8730001 -0.82700002 17 0 0
3.8010001 -4.8979998 -0.796 86 29 12
3.7939999 -4.8889999 -0.78799999 43 9 0
3.8050001 -4.9029999 -0.78100002 71 24 8
3.806 -4.9289999 -0.76300001 198 151 109
3.8269999 -4.823 -0.935 136 109 98
3.822 -4.8200002 -0.91799998 114 91 83
3.7320001 -4.7600002 -0.91100001 16 8 6
3.733 -4.7750001 -0.93699998 47 31 32
3.8150001 -4.8449998 -0.87 75 54 33
3.8269999 -4.8330002 -0.87199998 35 17 7
3.8210001 -4.8509998 -0.87599999 25 12 4
3.8169999 -4.849 -0.86299998 38 18 9
3.8640001 -4.8979998 -0.87199998 22 8 7
3.8789999 -4.869 -0.86500001 45 30 25
3.875 -4.8720002 -0.861 38 25 17
3.823 -4.8530002 -0.94300002 108 63 42
3.9679999 -4.8210001 -0.77200001 34 5 0
3.967 -4.822 -0.77399999 51 18 9
3.9679999 -4.8439999 -0.764 48 2 0
3.9449999 -4.842 -0.80000001 48 26 12
3.925 -4.8280001 -0.833 82 56 43
3.8499999 -4.803 -0.81199998 201 141 107
3.8540001 -4.8080001 -0.81400001 104 54 19
3.858 -4.8060002 -0.81599998 73 52 33
3.869 -4.8509998 -0.77999997 59 42 24
3.869 -4.8530002 -0.78100002 84 55 37
3.8670001 -4.855 -0.77700001 81 50 32
3.948 -4.8390002 -0.77600002 42 20 9
3.9059999 -4.836 -0.84399998 56 23 6
3.904 -4.8439999 -0.82599998 13 0 0
3.8859999 -4.8709998 -0.85100001 24 4 3
3.8940001 -4.8579998 -0.84200001 38 10 6
3.904 -4.8499999 -0.83600003 28 13 8
3.9100001 -4.849 -0.84299999 13 0 0
3.888 -4.8579998 -0.83700001 63 19 0
3.9070001 -4.8509998 -0.82700002 14 0 0
3.875 -4.8470001 -0.85299999 107 64 45
3.852 -4.8309999 -0.83999997 50 16 7
3.721 -4.7199998 -0.85699999 90 37 0
3.7130001 -4.7259998 -0.87599999 25 11 0
3.7190001 -4.7220001 -0.86500001 12 2 3
3.737 -4.7659998 -0.91299999 35 16 10
3.7360001 -4.7670002 -0.91799998 4 0 0
3.7460001 -4.7919998 -0.83399999 67 39 27
3.8180001 -4.8439999 -0.82499999 120 67 35
3.8410001 -4.9039998 -0.80199999 60 37 29
3.8150001 -4.855 -0.82800001 36 14 3
3.813 -4.8629999 -0.83399999 56 31 27
3.8139999 -4.9099998 -0.84100002 17 0 0
3.8099999 -4.9390001 -0.81300002 12 2 1
3.8069999 -4.9099998 -0.81800002 37 9 0
3.8139999 -4.9330001 -0.82599998 19 3 3
3.8280001 -4.8940001 -0.81900001 91 57 47
3.825 -4.8870001 -0.81400001 108 65 58
3.848 -4.8930001 -0.78500003 53 38 19
3.855 -4.882 -0.773 63 33 23
3.852 -4.881 -0.778 71 34 16
3.8540001 -4.8709998 -0.77499998 58 35 27
3.823 -4.8850002 -0.80000001 102 48 24
3.8369999 -4.8839998 -0.80400002 67 18 3
3.825 -4.8800001 -0.80400002 51 16 0
3.8180001 -4.8790002 -0.815 99 76 68
3.825 -4.8449998 -0.83899999 27 6 5
3.8310001 -4.8140001 -0.85299999 42 14 2
3.8269999 -4.8309999 -0.86799997 44 21 13
3.8269999 -4.914 -0.89300001 28 13 6
3.8670001 -4.8439999 -0.84399998 47 9 0
3.8469999 -4.8509998 -0.81999999 78 61 43
3.845 -4.849 -0.81900001 94 55 40
3.8559999 -4.8449998 -0.80299997 129 118 98
3.858 -4.8540001 -0.80199999 65 39 16
3.8610001 -4.8449998 -0.79799998 55 27 16
3.8529999 -4.8449998 -0.81400001 61 27 15
3.7160001 -4.6929998 -0.86900002 26 9 1
3.707 -4.7059999 -0.875 8 2 2
3.721 -4.75 -0.90499997 10 0 0
3.872 -4.8530002 -0.94800001 36 23 14
3.8770001 -4.842 -0.95200002 5 0 1
3.8329999 -4.915 -0.86500001 9 0 0
3.8380001 -4.908 -0.86500001 61 33 22
3.7750001 -4.7480001 -0.95999998 142 115 98
3.777 -4.7379999 -0.96899998 84 40 3
3.7950001 -4.7519999 -0.96399999 8 2 2
3.7249999 -4.7119999 -0.94 44 23 18
3.72 -4.723 -0.86199999 16 2 1
3.7219999 -4.7259998 -0.85799998 24 9 2
3.76 -4.711 -0.97799999 94 53 35
3.776 -4.7249999 -0.97399998 44 10 1
3.8759999 -4.8509998 -0.92400002 51 27 15
3.849 -4.901 -0.94199997 32 0 0
3.927 -4.8060002 -0.87599999 30 9 0
3.8340001 -4.8610001 -0.92500001 156 134 113
3.858 -4.8759999 -0.78600001 48 34 21
3.858 -4.875 -0.787 34 11 3
3.855 -4.881 -0.79299998 16 0 0
3.8759999 -4.8439999 -0.80900002 40 22 12
3.8770001 -4.8369999 -0.80599999 79 56 48
3.8729999 -4.823 -0.81300002 82 56 33
3.8759999 -4.8530002 -0.796 107 61 27
3.8139999 -4.868 -0.81699997 136 89 59
3.855 -4.8629999 -0.80900002 34 10 0
3.842 -4.8720002 -0.80599999 143 101 87
3.849 -4.8759999 -0.78399998 24 4 3
3.862 -4.8639998 -0.79000002 71 51 42
3.8599999 -4.8660002 -0.80000001 33 14 10
3.8659999 -4.9060001 -0.861 14 0 0
3.8499999 -4.9000001 -0.87 82 40 24
3.839 -4.8740001 -0.87800002 42 18 8
3.8410001 -4.8759999 -0.89700001 99 88 86
3.819 -4.9330001 -0.80199999 45 24 21
3.8369999 -4.9039998 -0.84200001 112 96 80
3.822 -4.9190001 -0.82999998 18 0 0
3.822 -4.9310002 -0.83399999 18 0 0
3.826 -4.9200001 -0.83999997 20 0 0
3.9449999 -4.842 -0.75 79 30 0
3.957 -4.8379998 -0.76099998 52 27 22
3.9460001 -4.8520002 -0.81699997 58 38 29
3.9260001 -4.8499999 -0.81599998 67 21 0
3.8859999 -4.8699999 -0.83999997 96 53 47
3.947 -4.8309999 -0.78100002 37 20 12
3.947 -4.8379998 -0.79299998 76 50 33
3.832 -4.915 -0.84799999 50 21 15
3.8150001 -4.915 -0.77600002 75 34 12
3.918 -4.849 -0.84299999 207 170 152
3.9189999 -4.8470001 -0.84600002 32 5 0
3.8710001 -4.7940001 -0.91600001 30 12 0
3.855 -4.789 -0.912 150 60 23
3.8929999 -4.8520002 -0.87699997 104 72 51
3.727 -4.7309999 -0.935 25 1 0
3.7309999 -4.737 -0.93699998 5 0 1
3.7279999 -4.7360001 -0.94800001 18 1 0
3.7320001 -4.7399998 -0.94599998 51 27 25
3.7509999 -4.7680001 -0.97399998 21 12 5
3.7820001 -4.737 -0.93300003 27 3 0
3.7780001 -4.7340002 -0.94400001 42 24 14
3.7579999 -4.7189999 -0.95700002 31 9 0
3.825 -4.835 -0.93000001 74 31 14
3.826 -4.8340001 -0.92799997 68 22 6
3.8310001 -4.8260002 -0.89999998 23 6 0
3.753 -4.7729998 -0.89499998 175 92 26
3.737 -4.7750001 -0.86699998 36 24 26
3.7130001 -4.796 -0.84100002 21 4 0
3.7320001 -4.7940001 -0.84600002 50 31 17
3.7490001 -4.7789998 -0.86400002 32 6 5
3.826 -4.8470001 -0.92699999 31 13 3
3.8299999 -4.8369999 -0.903 59 26 9
3.835 -4.842 -0.91000003 40 25 18
3.8269999 -4.8340001 -0.88599998 103 92 88
3.8369999 -4.8569999 -0.89499998 108 79 63
3.7409999 -4.6960001 -0.89499998 90 45 12
3.767 -4.7179999 -0.84799999 97 65 52
3.7639999 -4.7340002 -0.86199999 28 14 13
3.76 -4.7329998 -0.87900001 34 24 23
3.776 -4.9289999 -0.76599997 24 0 0
3.777 -4.934 -0.76200002 25 1 0
3.734 -4.7179999 -0.81900001 181 136 107
3.733 -4.7220001 -0.82300001 25 6 0
3.8150001 -4.8759999 -0.86299998 15 3 3
3.819 -4.8969998 -0.87 57 25 12
3.8080001 -4.8730001 -0.85699999 11 0 0
3.72 -4.777 -0.81099999 159 92 49
3.7190001 -4.7810001 -0.815 132 68 32
3.721 -4.7750001 -0.81199998 157 94 59
3.7060001 -4.783 -0.83099997 100 72 60
3.7079999 -4.7779999 -0.83099997 102 59 27
3.72 -4.783 -0.81800002 94 50 23
3.7160001 -4.7859998 -0.82800001 130 81 48
3.7079999 -4.7459998 -0.86299998 64 37 30
3.7249999 -4.77 -0.81400001 149 102 74
3.7379999 -4.789 -0.815 32 17 12
3.7509999 -4.7550001 -0.875 24 3 0
3.743 -4.7620001 -0.85900003 156 76 25
3.7130001 -4.763 -0.838 86 24 1
3.7049999 -4.777 -0.83999997 115 61 25
3.721 -4.7690001 -0.81699997 152 80 32
3.7309999 -4.7319999 -0.83700001 84 46 33
3.734 -4.723 -0.81900001 38 17 12
3.7980001 -4.9070001 -0.74299997 97 73 45
3.7869999 -4.9250002 -0.78600001 55 22 3
3.776 -4.9260001 -0.74400002 119 46 3
3.7839999 -4.9159999 -0.80500001 86 46 20
3.779 -4.9130001 -0.79100001 87 44 12
3.7980001 -4.9359999 -0.79400003 68 47 30
3.776 -4.9169998 -0.778 43 9 0
3.803 -4.9369998 -0.79100001 107 83 71
3.7850001 -4.8889999 -0.76800001 57 35 21
3.7720001 -4.8920002 -0.78299999 108 75 56
3.7809999 -4.8829999 -0.76999998 54 33 16
3.7939999 -4.8940001 -0.741 56 35 18
3.7909999 -4.8930001 -0.741 111 76 38
3.7909999 -4.8909998 -0.73799998 146 76 42
3.7950001 -4.888 -0.74400002 41 18 2
3.7950001 -4.8829999 -0.75599998 60 31 15
3.79 -4.882 -0.76300001 28 3 0
3.7520001 -4.8870001 -0.787 139 85 47
3.7780001 -4.9380002 -0.764 35 15 14
3.803 -4.8920002 -0.75300002 147 77 5
