ply
format ascii 1.0
comment PCL generated
element vertex 1196
property float x
property float y
property float z
property uchar red
property uchar green
property uchar blue
element camera 0
property float view_px
property float view_py
property float view_pz
property float x_axisx
property float x_axisy
property float x_axisz
property float y_axisx
property float y_axisy
property float y_axisz
property float z_axisx
property float z_axisy
property float z_axisz
property float focal
property float scalex
property float scaley
property float centerx
property float centery
property int viewportx
property int viewporty
property float k1
property float k2
end_header
-8.9820004 5.9569998 -0.85399997 109 49 0
-8.9809999 5.9629998 -0.829 225 163 76
-8.9809999 5.9619999 -0.83499998 159 89 40
-8.9879999 5.9650002 -0.838 203 141 82
-9.0389996 5.9390001 -0.93400002 164 116 68
-9.0299997 5.941 -0.93400002 140 80 43
-9.0389996 5.9349999 -0.94 141 70 16
-9.04 5.9450002 -0.926 163 102 58
-9.0389996 5.987 -0.73100001 206 122 49
-9.0439997 5.9910002 -0.736 175 88 19
-9.0419998 5.9959998 -0.73400003 155 73 0
-9.0459995 6.0019999 -0.73400003 255 201 118
-9.0360003 5.9959998 -0.73199999 202 146 89
-8.8889999 5.947 -1.066 56 19 0
-8.8900003 5.9520001 -1.066 78 40 19
-8.8889999 5.9499998 -1.068 83 46 30
-8.8909998 5.9520001 -1.064 108 62 38
-9.0640001 5.9580002 -0.96399999 131 61 0
-9.0690002 5.948 -0.94499999 255 214 96
-9.066 5.9390001 -0.94999999 172 141 110
-9.0270004 5.9439998 -0.935 120 56 21
-9.0290003 5.941 -0.94800001 119 51 6
-9.0279999 5.9450002 -0.95300001 139 80 40
-9.052 5.9369998 -0.954 132 63 6
-9.0550003 5.9359999 -0.94599998 217 160 71
-9.0450001 5.9910002 -0.73699999 194 130 68
-9.0459995 5.9990001 -0.73799998 193 141 91
-8.9720001 5.961 -0.85900003 70 31 0
-8.9069996 5.9450002 -1.085 220 145 88
-8.8959999 5.9460001 -1.084 70 25 0
-8.8970003 5.941 -1.068 167 126 72
-9.0419998 6.0219998 -1.081 139 57 7
-9.0450001 6.0089998 -1.082 190 128 67
-9.0509996 6.013 -1.0700001 127 95 70
-8.8900003 5.9460001 -1.069 65 29 13
-8.8870001 5.9590001 -1.085 124 81 49
-8.8909998 5.948 -1.064 97 55 33
-8.8920002 5.9429998 -1.063 139 103 41
-8.9639997 5.9629998 -0.85699999 89 49 13
-8.9689999 5.9640002 -0.85500002 103 58 25
-8.9729996 5.9640002 -0.83499998 205 142 91
-8.9560003 5.9770002 -0.82700002 237 171 85
-9.0059996 5.9819999 -0.74599999 245 190 134
-9.0089998 5.9990001 -0.736 224 173 126
-9.0120001 5.987 -0.73799998 169 90 24
-9.0089998 5.9949999 -0.74000001 240 171 94
-9.0100002 5.9980001 -0.73699999 198 109 49
-8.8909998 5.9439998 -1.067 96 60 38
-8.9700003 6.0100002 -0.85399997 99 58 36
-8.9619999 6 -0.87199998 173 126 98
-8.96 6.006 -0.852 181 139 97
-8.9589996 5.9980001 -0.866 146 92 56
-8.8909998 5.9619999 -1.021 222 170 97
-8.8889999 5.9460001 -1.033 215 138 68
-8.8850002 5.9530001 -1.03 182 139 88
-8.8970003 5.9530001 -1.026 226 154 82
-9.0699997 6.0349998 -0.87699997 143 83 20
-9.0670004 6.0359998 -0.87099999 156 102 66
-9.0579996 6.0510001 -0.87800002 140 105 86
-8.9160004 5.961 -1.046 88 35 4
-8.9020004 5.9530001 -1.039 176 112 76
-8.9130001 5.9619999 -1.039 138 61 7
-9.0380001 6.026 -1.02 44 26 12
-9.0310001 6.027 -1.013 95 75 66
-9.0360003 6.0279999 -1.003 124 76 38
-9.0229998 6.02 -1.025 204 140 79
-9.0340004 6.0190001 -1.035 128 61 6
-9.0179996 6.0209999 -1.024 61 34 23
-9.0710001 5.9990001 -0.99599999 112 57 3
-9.0710001 6 -1 240 180 120
-9.0699997 5.9959998 -1.002 181 121 59
-9.0760002 5.9949999 -1.021 40 12 1
-9.0439997 6.0549998 -0.88800001 109 78 60
-9.0369997 6.0580001 -0.884 205 172 155
-9.0600004 6.0430002 -0.89600003 127 55 5
-9.0699997 6.0219998 -0.87800002 135 77 27
-9.0740004 6.0300002 -0.884 255 189 116
-9.0679998 6.033 -0.87199998 106 52 18
-9.0629997 5.9559999 -0.95599997 216 150 74
-9.0640001 5.9400001 -0.93900001 170 143 100
-8.9820004 5.9619999 -0.84500003 160 79 23
-9.0360003 5.9419999 -0.93199998 124 72 25
-9.0500002 5.9400001 -0.93300003 165 98 43
-9.0500002 5.948 -0.92699999 154 100 26
-9.0570002 5.9460001 -0.93199998 249 176 107
-8.9119997 5.9520001 -1.059 131 60 16
-8.9180002 5.9429998 -1.082 247 173 78
-8.9940004 5.9959998 -1.096 122 56 0
-8.9849997 5.9959998 -1.1 218 161 106
-8.9799995 6.0009999 -1.102 115 41 0
-8.9779997 6.0079999 -0.84299999 184 102 42
-8.8920002 5.9520001 -1.069 71 35 19
-9.0279999 5.994 -0.72899997 218 153 111
-9.0209999 5.993 -0.73699999 226 173 93
-9.026 5.9860001 -0.73699999 217 155 96
-9.0430002 5.9879999 -0.74000001 230 149 42
-9.0310001 5.9770002 -0.74000001 248 214 166
-9.0159998 5.9860001 -0.73799998 194 119 54
-8.9569998 5.9970002 -0.86000001 138 82 47
-8.9560003 6.0009999 -0.847 71 33 12
-8.9440002 5.9910002 -0.85299999 237 198 169
-8.8940001 5.9710002 -1.025 140 66 3
-8.8959999 5.973 -1.029 153 110 78
-8.9040003 5.9699998 -1.025 245 200 159
-8.8909998 5.9689999 -1.0319999 161 106 65
-8.8900003 5.967 -1.029 168 97 35
-8.9049997 5.9590001 -1.034 228 157 91
-8.9029999 5.9569998 -1.033 82 26 1
-8.9049997 5.9660001 -1.025 183 127 76
-8.9099998 5.9629998 -1.034 199 141 93
-8.9379997 5.9720001 -1.043 182 126 75
-8.9390001 5.9619999 -1.043 234 161 108
-8.9370003 5.9699998 -1.043 159 106 74
-9.059 6.046 -0.884 235 164 108
-9.0579996 6.0440001 -0.889 199 129 78
-9.0699997 6.0349998 -0.89300001 164 102 43
-9.0640001 6.039 -0.87300003 102 45 0
-9.0790005 6.0359998 -0.90100002 193 110 42
-8.8970003 5.9520001 -1.036 170 120 85
-8.8999996 5.9510002 -1.039 172 117 53
-8.8900003 5.9559999 -1.035 93 30 0
-8.9049997 5.9590001 -1.035 161 112 54
-8.9989996 5.993 -0.94199997 241 218 166
-8.9980001 5.9860001 -0.93900001 191 89 15
-9.0010004 5.9920001 -0.949 166 141 77
-8.9919996 6 -0.92299998 106 50 13
-8.8979998 5.9720001 -1.0319999 175 117 35
-8.9040003 5.9699998 -1.04 134 77 32
-8.9499998 5.98 -1.108 161 81 30
-8.9420004 5.9829998 -1.107 183 101 43
-8.96 5.9990001 -1.1109999 178 95 29
-8.9639997 6 -1.104 174 113 46
-8.9560003 5.9749999 -1.096 207 148 92
-8.9659996 6.0029998 -1.1109999 148 95 45
-9.0139999 6.02 -1.0190001 90 54 40
-9.0179996 6.0209999 -1.022 143 113 102
-9.0480003 6.0180001 -1.001 228 200 153
-9.0419998 6.0250001 -0.991 154 106 68
-9.0620003 5.994 -1.029 151 107 78
-9.0719995 6 -1.023 73 40 31
-9.0649996 5.9829998 -1.012 142 85 18
-9.0459995 5.9749999 -1.018 124 58 8
-9.0629997 5.9660001 -1.0089999 188 126 69
-9.0369997 6.0159998 -1.053 79 49 21
-9.0430002 6.0110002 -1.052 172 160 162
-9.0530005 6.04 -0.926 68 31 5
-9.0480003 6.0500002 -0.91799998 71 40 20
-9.0570002 6.0419998 -0.917 112 46 0
-9.0609999 6.0349998 -0.926 230 172 126
-9.0389996 6 -0.83999997 144 91 60
-9.0369997 5.9959998 -0.83899999 93 39 5
-9.0439997 5.9990001 -0.85000002 82 36 3
-9.0389996 6.0040002 -0.85500002 226 187 146
-9.0459995 6.0019999 -0.861 250 213 171
-9.052 6.0320001 -0.86900002 183 104 47
-9.0570002 6.0229998 -0.86699998 135 86 56
-9.0579996 6.0409999 -0.866 157 111 78
-9.0550003 5.9499998 -0.96499997 214 134 85
-9.0670004 5.9660001 -0.93900001 234 183 102
-9.0509996 5.9429998 -0.95999998 133 62 20
-9.0200005 5.9809999 -0.77499998 209 169 120
-9.026 5.9749999 -0.76800001 124 68 21
-9.0170002 5.9809999 -0.77600002 132 66 8
-9.0360003 5.9899998 -0.84100002 212 158 84
-9.0150003 5.98 -0.74699998 212 160 103
-8.9980001 5.9819999 -0.76099998 177 126 83
-9.0220003 5.9790001 -0.75999999 159 99 49
-9.0190001 5.9790001 -0.764 225 162 108
-9.0360003 5.973 -0.74599999 204 132 74
-9.0190001 5.9780002 -0.76999998 250 207 152
-9.007 5.9819999 -0.76200002 219 171 125
-9.0059996 5.9819999 -0.764 168 119 78
-9.0010004 5.9860001 -0.76700002 139 84 30
-8.9569998 5.9970002 -0.85299999 184 95 29
-8.9759998 5.9629998 -0.84500003 250 149 61
-8.9799995 5.9629998 -0.84100002 85 51 26
-9.0430002 5.9419999 -0.95899999 158 95 42
-9.0419998 5.9429998 -0.95899999 122 60 3
-9.0550003 5.947 -0.93099999 210 145 89
-9.0579996 5.948 -0.93099999 181 131 80
-9.0530005 5.9380002 -0.93599999 234 142 55
-9.0489998 5.9390001 -0.93800002 141 70 14
-9.0559998 5.9380002 -0.94199997 229 166 69
-8.9560003 5.9749999 -1.103 73 37 11
-8.9549999 5.974 -1.102 191 128 87
-8.9090004 5.9580002 -1.05 116 81 53
-8.9020004 5.9499998 -1.05 88 52 20
-8.8959999 5.9520001 -1.045 103 52 25
-8.8999996 5.9419999 -1.068 117 100 90
-9.0319996 6.0100002 -1.096 130 69 4
-9.0530005 5.973 -1.096 254 194 131
-9.0500002 5.973 -1.119 201 124 46
-9.0500002 5.9640002 -1.1109999 134 84 49
-9.0509996 5.9590001 -1.096 168 114 50
-9.0249996 5.9629998 -1.076 180 98 25
-9.0410004 5.9580002 -1.091 228 181 113
-9.0229998 5.9460001 -1.086 215 158 87
-9.0439997 5.9650002 -1.082 169 134 76
-9.0340004 5.967 -1.085 138 71 0
-9.0310001 5.9569998 -1.1109999 187 128 62
-9.0369997 5.9530001 -1.104 190 131 73
-9.0410004 5.9549999 -1.1160001 179 100 34
-9.04 5.9549999 -1.109 165 85 22
-9.0139999 6.0159998 -1.102 105 37 0
-9.026 6.0209999 -1.098 129 65 27
-9.0209999 6.0250001 -1.087 146 76 27
-9.0190001 5.994 -1.1059999 130 55 0
-9.0229998 6.0089998 -1.098 156 80 20
-9.0150003 5.9990001 -1.102 120 69 14
-9.0240002 6.026 -1.084 255 212 170
-9.0439997 6.0079999 -0.73299998 184 132 75
-9.0170002 6.0019999 -0.73699999 251 177 102
-9.0340004 6.02 -1.089 213 143 94
-9.0080004 5.9770002 -1.112 255 180 104
-9.0039997 5.9819999 -1.099 170 97 46
-9.0109997 5.9720001 -1.112 128 75 25
-8.9799995 5.9889998 -1.1109999 162 110 60
-8.9940004 5.9959998 -1.115 216 141 74
-8.9779997 6.006 -1.123 95 61 51
-8.9720001 6.0100002 -1.119 118 58 0
-8.9790001 6.0190001 -1.119 181 117 71
-8.8889999 5.9650002 -1.034 114 49 11
-8.8889999 5.967 -1.036 96 45 16
-8.8900003 5.948 -1.069 83 47 31
-8.9040003 5.954 -1.099 88 32 0
-8.8900003 5.9629998 -1.0930001 71 37 12
-8.8970003 5.9549999 -1.087 105 36 3
-8.901 5.9699998 -1.043 212 132 43
-8.9160004 5.9640002 -1.046 171 127 66
-9.0220003 5.9889998 -0.73699999 191 114 46
-9.0389996 5.9780002 -0.745 229 149 36
-9.0469999 5.9829998 -0.74800003 131 74 5
-9.0500002 5.9829998 -0.75199997 128 67 10
-9.0389996 5.9780002 -0.75099999 235 152 48
-9.0279999 5.987 -0.76899999 135 100 60
-9.033 5.9970002 -0.77700001 87 34 3
-9.0279999 5.98 -0.741 242 190 140
-9.0220003 5.9809999 -0.74800003 214 153 96
-9.059 6.0409999 -0.86900002 109 59 24
-9.059 6.0430002 -0.87300003 143 65 3
-9.0559998 6.0489998 -0.87699997 160 123 97
-8.9020004 5.9569998 -1.031 101 52 22
-8.8990002 5.9629998 -1.025 110 68 43
-8.9020004 5.9569998 -1.028 84 40 5
-9.0649996 6.0380001 -0.87 76 26 0
-8.8929996 5.9510002 -1.038 125 67 3
-8.8959999 5.9520001 -1.041 207 133 72
-8.8900003 5.96 -1.0369999 196 123 54
-8.9040003 5.9569998 -1.04 201 133 68
-9.0019999 6 -0.93099999 128 70 33
-9.0019999 6 -0.92799997 121 63 26
-9.0139999 6.02 -0.92799997 103 61 39
-9.0089998 6.0050001 -0.93400002 155 94 50
-9.0089998 6.0029998 -0.935 172 111 67
-9.0129995 6.006 -0.94400001 141 87 53
-9.0030003 5.9829998 -1.0470001 255 217 138
-9 5.9970002 -1.05 170 113 60
-8.9960003 5.9970002 -1.034 180 124 73
-9.0019999 5.9910002 -1.036 182 85 16
-9.0019999 5.9829998 -1.0319999 206 156 105
-9.0010004 5.9899998 -1.033 218 173 106
-8.8929996 5.9699998 -1.0369999 132 79 37
-9.0010004 6.0050001 -1.045 122 96 63
-9.0059996 6.0029998 -1.0599999 229 178 125
-8.9969997 5.993 -1.066 191 144 102
-8.9989996 6.0009999 -1.08 211 144 74
-8.9870005 5.9200001 -1.077 99 58 4
-8.9870005 5.9310002 -1.075 100 63 19
-8.9829998 5.9180002 -1.081 249 173 95
-8.9829998 5.927 -1.084 247 203 130
-8.9890003 5.9330001 -1.089 108 73 35
-9.0109997 5.9229999 -1.076 162 103 33
-9.0109997 5.9320002 -1.08 203 147 72
-9.0170002 5.9169998 -1.075 161 119 79
-9.0570002 5.9720001 -1.008 134 93 49
-8.9980001 5.9860001 -0.83099997 134 91 57
-8.9860001 5.974 -0.83099997 154 98 61
-9.0019999 5.9840002 -0.83200002 135 96 63
-9.0150003 5.9749999 -0.86199999 209 134 53
-9.0080004 5.9749999 -0.85600001 170 88 4
-9.0039997 5.9759998 -0.86299998 208 119 39
-8.967 5.9640002 -0.86400002 191 128 74
-9.0290003 6.0229998 -1.0190001 201 157 112
-9.0389996 6.0240002 -1.0089999 129 97 82
-9.0710001 6.0019999 -1.0089999 52 26 13
-9.0050001 6.013 -1.043 213 145 98
-9.0089998 6.006 -1.0549999 91 47 20
-9.0200005 6.0149999 -1.04 154 107 61
-9.0360003 6.0139999 -1.025 92 60 37
-9.0469999 5.987 -1.029 146 68 6
-9.0480003 6.0089998 -1.064 178 124 64
-9.0439997 5.9970002 -1.052 181 115 55
-9.0419998 6.0310001 -0.926 147 79 30
-9.0459995 6.0300002 -0.93900001 66 34 21
-9.0439997 6.0469999 -0.917 78 43 21
-9.0459995 6.0310001 -0.92900002 149 103 80
-9.0579996 6.026 -0.94300002 238 166 90
-9.0579996 5.9679999 -0.97000003 112 45 2
-9.0489998 5.967 -0.98299998 92 51 19
-9.0550003 5.9829998 -0.98100001 166 94 35
-9.0559998 5.98 -0.99800003 143 83 29
-9.0629997 5.9720001 -1.0039999 211 151 89
-9.0530005 5.9910002 -0.98500001 155 79 29
-9.0570002 5.9920001 -0.99599999 173 104 37
-9.0699997 6.0149999 -0.875 126 51 0
-9.0319996 6.0409999 -0.88999999 51 15 1
-9.0319996 6.0339999 -0.88099998 165 112 62
-9.0319996 6.0560002 -0.87900001 46 14 0
-9.0349998 6.0380001 -0.87699997 153 107 73
-9.0369997 6.0040002 -0.78899997 103 90 56
-9.0340004 5.9899998 -0.80199999 173 112 68
-9.0389996 5.9990001 -0.80800003 109 63 4
-9.0530005 6.0380001 -0.87099999 230 160 91
-9.0389996 6.0159998 -0.87 182 103 46
-9.0749998 6.026 -0.88599998 230 147 77
-9.0319996 6.0289998 -0.889 216 174 134
-9.0220003 6.0170002 -0.88 151 71 10
-9.0410004 6.0289998 -0.87199998 155 59 0
-9.0229998 6.0209999 -0.86699998 98 70 56
-9.04 6.0349998 -0.87300003 173 135 96
-8.993 5.9759998 -0.91600001 126 79 53
-9.0030003 5.974 -0.93400002 50 22 11
-9.0570002 5.9580002 -0.96899998 194 137 94
-9.0670004 5.967 -0.935 140 78 27
-9.0579996 5.9720001 -0.94300002 159 113 53
-8.9949999 5.974 -0.838 212 119 39
-9.0120001 5.98 -0.83999997 163 72 0
-8.993 5.9920001 -0.755 194 140 96
-8.9890003 5.993 -0.76200002 207 165 117
-9.0109997 5.994 -0.76899999 153 100 56
-9.0159998 6.0110002 -0.86500001 164 105 47
-8.9919996 6.0149999 -0.86400002 186 131 75
-9.0100002 6.007 -0.86900002 121 71 44
-9.0139999 6.0149999 -0.87099999 107 52 11
-9.0100002 5.9809999 -0.75199997 156 94 43
-8.9799995 5.96 -0.85399997 148 79 22
-9.0139999 5.98 -0.84399998 201 138 59
-8.9949999 5.967 -0.852 184 127 84
-8.9870005 5.9619999 -0.85100001 173 111 64
-9.0530005 5.9380002 -0.94300002 253 157 71
-9.0349998 5.9879999 -0.86299998 123 72 27
-9.0629997 5.96 -0.93699998 191 111 38
-9.0469999 5.9520001 -0.92400002 94 44 9
-9.0159998 5.9439998 -1.092 238 156 74
-9.0100002 5.9559999 -1.086 218 177 149
-9.0220003 5.961 -1.085 86 30 0
-8.9860001 5.9840002 -1.089 86 36 9
-8.9809999 5.9850001 -1.089 168 104 58
-9.0159998 5.941 -1.08 244 156 59
-9.0209999 5.9580002 -1.081 208 141 98
-8.9820004 5.9239998 -1.082 255 176 101
-8.9069996 5.9429998 -1.069 147 76 20
-8.9289999 5.9549999 -1.067 124 82 57
-8.9020004 5.9489999 -1.064 137 94 59
-9.0469999 5.9549999 -1.095 230 180 111
-9.0290003 5.9899998 -1.109 147 66 11
-9.0439997 5.9780002 -1.118 223 141 55
-9.0290003 5.9910002 -1.117 143 77 17
-9.0450001 5.9790001 -1.098 241 154 83
-9.0380001 5.9689999 -1.137 191 131 68
-9.026 5.9949999 -1.127 127 75 25
-9.0229998 5.9879999 -1.1210001 242 192 143
-9.0369997 5.987 -1.092 189 138 91
-9.0279999 5.9889998 -1.099 132 51 0
-9.0489998 5.973 -1.112 221 142 67
-9.0459995 5.961 -1.1160001 233 153 54
-9.0170002 5.9590001 -1.006 87 52 33
-9.0190001 5.9629998 -1.007 234 199 171
-9.0120001 5.9590001 -1.001 129 95 70
-9.0220003 5.9720001 -1.012 111 58 6
-9.0170002 5.9850001 -1.006 145 101 74
-9.0340004 5.9569998 -1.095 179 117 34
-8.9969997 6.0009999 -1.098 108 43 5
-9.0229998 6.0219998 -1.0930001 148 71 29
-9.0340004 6.0180001 -1.0700001 85 53 42
-9.0299997 6.0190001 -1.0700001 80 48 37
-9.0310001 6.0170002 -1.062 73 39 12
-9.0150003 6.0139999 -1.067 164 76 13
-9.0380001 6.013 -1.084 119 41 0
-8.9200001 5.9590001 -1.114 116 36 3
-8.9160004 5.9619999 -1.117 170 91 34
-8.9200001 5.9520001 -1.1210001 116 32 0
-8.9180002 5.9660001 -1.108 156 80 28
-8.9189997 5.961 -1.1109999 107 73 36
-9.0019999 5.9840002 -1.1059999 162 109 55
-8.9680004 6.0019999 -1.1059999 184 104 41
-8.967 5.993 -1.109 154 116 105
-8.9790001 5.9920001 -1.103 254 180 93
-8.8909998 5.9679999 -1.038 120 68 44
-9.007 6.0079999 -0.73199999 162 139 98
-9.0369997 6.0139999 -0.73100001 180 102 27
-8.8940001 5.947 -1.077 116 61 7
-8.9359999 5.9689999 -1.048 112 61 32
-8.9390001 5.9749999 -1.05 174 122 83
-8.9370003 5.9629998 -1.054 195 103 36
-8.8940001 5.967 -1.094 61 26 0
-8.8909998 5.9590001 -1.087 81 45 19
-9.0459995 5.9899998 -0.74000001 139 73 0
-9.0319996 5.9770002 -0.75700003 176 114 67
-9.0059996 5.9879999 -0.74800003 243 186 119
-9.0080004 6.0009999 -0.74400002 239 169 83
-8.9650002 5.9660001 -0.85799998 189 114 56
-8.9700003 5.9689999 -0.833 203 145 97
-8.9630003 5.9770002 -0.82700002 249 194 103
-8.9680004 5.9889998 -0.82599998 197 157 122
-8.9659996 5.993 -0.82999998 251 206 164
-8.9729996 5.9780002 -0.87300003 125 75 40
-8.9779997 5.9790001 -0.889 184 129 88
-8.9729996 5.98 -0.88499999 119 68 25
-9.059 6.0430002 -0.87900001 192 137 81
-8.8959999 5.9710002 -1.04 147 111 89
-8.8959999 5.967 -1.043 76 34 18
-9.033 6.0419998 -0.89099997 83 51 38
-9.0319996 6.0310001 -0.89899999 124 73 44
-9.0059996 5.9850001 -0.96399999 187 130 87
-9.0080004 5.9850001 -0.96899998 99 50 17
-9.0059996 5.9860001 -0.977 185 135 98
-9.0129995 5.994 -0.96100003 237 144 75
-9.0170002 6.013 -0.898 111 85 52
-9.0290003 6.0240002 -0.91000003 167 115 76
-8.9090004 5.9679999 -1.038 147 72 15
-8.8950005 5.9650002 -1.023 236 189 133
-8.9060001 5.96 -1.03 134 52 0
-8.8909998 5.9619999 -1.028 165 86 17
-9.0249996 5.9559999 -0.94800001 92 46 22
-9.0299997 5.9450002 -0.94700003 143 99 70
-8.9960003 5.9819999 -0.92500001 135 82 42
-9.0469999 5.9749999 -0.98699999 229 160 105
-9.0109997 6 -0.95300001 234 183 130
-9.0019999 5.9829998 -0.94499999 139 88 43
-9.0019999 5.9920001 -1.03 235 180 116
-9.0050001 6.0019999 -1.0549999 140 103 85
-8.9919996 5.9689999 -1.077 230 167 114
-8.9940004 5.9790001 -1.076 223 150 82
-9.0059996 5.9790001 -1.082 150 111 82
-8.9969997 5.961 -1.075 142 81 34
-9.0059996 5.961 -1.08 130 65 27
-9.0010004 5.9829998 -1.064 246 188 115
-8.9980001 5.9770002 -1.063 189 149 124
-9.0039997 5.98 -1.053 187 138 97
-9 5.947 -1.0650001 154 119 81
-8.9899998 5.947 -1.0700001 156 92 46
-8.9960003 5.9460001 -1.061 129 86 52
-8.9870005 5.927 -1.0779999 233 178 88
-9.0349998 5.9980001 -0.83099997 80 30 7
-9.0279999 5.9850001 -0.83999997 184 121 68
-9.0380001 5.994 -0.81300002 175 128 86
-9.0550003 5.9980001 -0.75199997 255 196 133
-9.0459995 5.9879999 -0.76200002 187 111 59
-9.0270004 6.006 -0.838 95 67 43
-8.9720001 5.9980001 -0.83099997 215 121 49
-9.0170002 6.0209999 -0.94 73 40 23
-9.0220003 6.0300002 -0.93400002 131 98 79
-9.0159998 6.013 -0.93400002 253 183 111
-9.0699997 5.9959998 -1.008 205 159 110
-9.0200005 6.0170002 -1.05 108 65 30
-9.0100002 6.013 -1.038 194 116 54
-9.0139999 6.0149999 -1.036 202 149 97
-9.0129995 6.0139999 -1.033 119 69 34
-9.0050001 6 -1.066 103 62 40
-9.0500002 5.9770002 -1.0829999 204 142 65
-9.0489998 5.9679999 -1.0930001 136 91 26
-9.0459995 5.987 -1.022 151 73 9
-9.0369997 6.0219998 -0.995 53 28 21
-9.0229998 5.98 -1.017 83 33 0
-9.0139999 5.9899998 -1.02 114 104 102
-9.0150003 5.9829998 -0.99199998 154 68 11
-9.0179996 5.9749999 -0.99299997 73 43 19
-9.033 6.0120001 -1.0369999 118 60 12
-9.0469999 6.0479999 -0.91799998 114 82 59
-9.0430002 6.053 -0.91600001 81 52 38
-9.0459995 6.0469999 -0.91500002 210 175 147
-9.0279999 6.0229998 -0.91799998 131 99 76
-9.0749998 6.0300002 -0.90600002 136 94 69
-9.0620003 6.0310001 -0.912 141 63 1
-9.0609999 6.0289998 -0.91399997 131 51 0
-9.0620003 6.0370002 -0.91900003 112 55 12
-9.0670004 6.0240002 -0.93300003 205 136 69
-9.0500002 6.0300002 -0.93900001 50 17 2
-9.066 5.987 -1.002 117 58 2
-9.0649996 6.0279999 -0.87199998 203 150 98
-9.066 6.0209999 -0.87300003 219 149 61
-9.0690002 6.0209999 -0.87699997 169 90 13
-9.0600004 5.9660001 -0.94599998 124 84 23
-9.0530005 6.0479999 -0.884 125 56 17
-9.0530005 6.046 -0.88700002 95 71 59
-9.0380001 6.04 -0.87199998 144 105 88
-9.0489998 6.0430002 -0.87300003 241 150 77
-9.0380001 5.9959998 -0.87699997 150 118 105
-9.0469999 6.0019999 -0.87800002 217 115 41
-9.0469999 6.0089998 -0.74299997 190 124 66
-9.0489998 6.0029998 -0.75 239 182 101
-9.0539999 6 -0.92400002 228 153 88
-9.052 6.0089998 -0.91500002 104 53 10
-9.0620003 5.9990001 -0.92799997 158 93 35
-9.0620003 6.0139999 -0.921 242 176 98
-9.0600004 6.0120001 -0.93000001 126 64 7
-9.0629997 6.02 -0.93000001 149 91 28
-9.0430002 6.0050001 -0.86699998 109 56 6
-9.04 5.9860001 -0.92000002 255 169 89
-9.0430002 5.9959998 -0.92000002 232 165 84
-9.0469999 6.0120001 -0.87199998 254 181 113
-9.0780001 6.0320001 -0.90499997 225 143 83
-9.0710001 6.0180001 -0.88999999 247 178 111
-9.073 6.0310001 -0.89300001 222 136 51
-9.0710001 6.0339999 -0.88200003 198 130 65
-8.9759998 5.9970002 -0.90399998 139 85 51
-8.9689999 5.994 -0.89300001 172 125 95
-8.9680004 5.9920001 -0.90600002 183 98 34
-8.9729996 5.994 -0.898 154 105 73
-8.9799995 5.9959998 -0.90899998 137 77 41
-8.9849997 5.9780002 -0.90700001 202 127 69
-8.9989996 5.9650002 -0.90499997 122 57 15
-8.9899998 5.9829998 -0.91600001 88 47 29
-9.0579996 5.973 -0.96700001 157 108 52
-9.0530005 5.994 -0.96600002 95 68 47
-9.0179996 5.9920001 -0.82800001 99 71 32
-9.0340004 5.9910002 -0.80599999 148 81 38
-9.0170002 5.987 -0.83899999 99 51 11
-9.026 5.9959998 -0.80500001 170 125 83
-9.026 5.9910002 -0.83700001 146 59 0
-8.9580002 5.9990001 -0.84299999 145 97 61
-8.9549999 5.987 -0.83999997 234 158 74
-9.0100002 6.0110002 -0.88 123 72 41
-9.0150003 5.9780002 -0.85699999 102 67 37
-9.0080004 5.9759998 -0.85100001 156 90 32
-8.9659996 5.9759998 -0.86400002 104 49 19
-8.9569998 5.98 -0.85900003 90 37 3
-8.9639997 5.9819999 -0.86699998 87 43 8
-8.9919996 5.9710002 -0.83899999 90 56 29
-8.9960003 5.9720001 -0.84399998 182 116 56
-9.0240002 5.9780002 -0.85900003 249 189 103
-9.0270004 5.9809999 -0.86500001 222 154 69
-9.0220003 5.98 -0.86699998 196 92 7
-9.0609999 5.9520001 -0.935 225 149 63
-9.04 5.9549999 -0.92000002 118 68 33
-9.0109997 5.9349999 -1.084 215 146 68
-8.9879999 5.9580002 -1.059 225 154 100
-8.9860001 5.9590001 -1.0650001 213 175 104
-8.993 5.9499998 -1.061 137 86 41
-8.9209995 5.9590001 -1.067 101 35 9
-8.8970003 5.9569998 -1.051 77 30 4
-8.8929996 5.9590001 -1.043 110 49 20
-8.9230003 5.9530001 -1.108 144 64 15
-8.9200001 5.9520001 -1.114 127 43 6
-8.9860001 5.934 -1.0829999 255 213 128
-8.9169998 5.9520001 -1.062 120 79 59
-8.9099998 5.947 -1.071 144 80 42
-9.0290003 5.9910002 -1.119 183 104 47
-9.0319996 5.9809999 -1.102 126 90 68
-9.0410004 5.967 -1.128 163 110 56
-9.0360003 5.9679999 -1.136 179 155 145
-9.0349998 5.96 -1.108 175 96 27
-8.9969997 5.993 -1.113 155 105 56
-9.0430002 5.9920001 -1.0829999 193 117 41
-9.0480003 5.9710002 -1.107 191 132 72
-9.0109997 5.9559999 -1.068 200 120 21
-9.0410004 5.973 -1.075 226 178 132
-9.0209999 5.961 -1.0779999 243 174 96
-9.0190001 5.961 -1.007 173 137 111
-9.0459995 5.9590001 -1.113 225 167 94
-9.0179996 5.9439998 -1.09 244 160 70
-8.9840002 6.0120001 -1.124 101 49 2
-8.9829998 6.0159998 -1.126 129 79 28
-9.0179996 6.0229998 -1.084 216 168 130
-9.0240002 6.0229998 -1.081 158 117 97
-9.026 6.0219998 -1.091 103 39 1
-9.0419998 6.0149999 -0.73699999 151 85 33
-9.0480003 6.0050001 -0.74000001 170 115 35
-9.0270004 6.0190001 -1.074 55 25 14
-9.0290003 6.0190001 -1.072 61 29 18
-9.0459995 6.0139999 -1.064 97 65 40
-9.04 6.0159998 -1.074 175 129 70
-9.0100002 6.006 -1.058 126 78 40
-9.0170002 6.0159998 -1.068 101 63 40
-8.915 5.9549999 -1.1160001 170 129 85
-8.9110003 5.9549999 -1.105 120 46 1
-8.9700003 6.0029998 -1.1210001 190 106 44
-8.9799995 5.9899998 -1.098 102 63 48
-8.9860001 5.9879999 -1.09 187 127 64
-9.0229998 6.007 -0.73500001 216 144 72
-9.0190001 6.0190001 -0.73000002 174 113 59
-9.0080004 6.0019999 -0.76899999 106 76 52
-8.9069996 5.9590001 -1.101 94 57 48
-8.9230003 5.9710002 -1.086 192 135 68
-8.9160004 5.9619999 -1.097 211 135 83
-8.9379997 5.967 -1.05 171 89 39
-8.9130001 5.9650002 -1.114 90 58 45
-8.9119997 5.9619999 -1.089 121 53 18
-8.9139996 5.9629998 -1.085 144 89 25
-8.8950005 5.9640002 -1.0880001 60 23 0
-8.8970003 5.96 -1.08 48 23 18
-9.0419998 5.9819999 -0.75599998 213 150 79
-9.0349998 5.9759998 -0.74400002 255 191 121
-9.0430002 5.9860001 -0.74299997 174 114 42
-9.0469999 5.9910002 -0.74299997 251 198 120
-9.052 5.9949999 -0.745 237 171 110
-9.0270004 5.9840002 -0.73799998 188 122 70
-9.0299997 5.9780002 -0.75 238 157 42
-8.9680004 5.9780002 -0.866 157 77 16
-8.9709997 5.9809999 -0.87400001 87 43 8
-8.9770002 5.9809999 -0.87699997 158 108 71
-8.9960003 5.9759998 -0.86299998 143 89 43
-8.9840002 5.9840002 -0.86900002 150 96 52
-9.0579996 6.0469999 -0.87800002 85 41 6
-9.0319996 6.0250001 -0.91000003 93 58 30
-9.0340004 6.0279999 -0.91600001 133 96 77
-9.0439997 6.0349998 -0.912 107 60 32
-9.0109997 5.987 -0.97299999 102 53 20
-9.007 6.007 -0.912 130 97 78
-9.007 6.0100002 -0.90700001 157 112 79
-9.0120001 6.0100002 -0.91100001 188 145 110
-9.0059996 6.0120001 -0.90399998 116 80 48
-8.8929996 5.9530001 -1.068 90 49 29
-8.9040003 5.96 -1.061 100 64 50
-8.8979998 5.9559999 -1.068 97 55 31
-8.9060001 5.96 -1.067 73 32 12
-9.0270004 5.9559999 -0.954 186 114 42
-9.0310001 5.9499998 -0.95899999 106 48 0
-9.0270004 5.9619999 -0.96700001 190 147 128
-9.0139999 6.0139999 -0.92699999 132 96 72
-9.0109997 6.0079999 -0.92500001 135 85 50
-9.0200005 5.9689999 -0.96899998 118 68 33
-8.9940004 5.9860001 -0.92299998 68 24 0
-9.0220003 5.9710002 -1.001 181 128 78
-9.0150003 5.954 -1.001 66 35 17
-9.0159998 6.0029998 -0.95099998 227 162 104
-9.0120001 6.0040002 -0.94300002 183 129 95
-8.9879999 5.967 -1.074 140 86 50
-8.9879999 5.967 -1.071 194 142 102
-8.9840002 5.9640002 -1.071 199 131 70
-8.9960003 5.9959998 -1.0779999 97 57 31
-9.0039997 5.9910002 -1.059 255 218 140
-8.9949999 5.9759998 -1.0650001 215 152 81
-9.0030003 5.9980001 -1.054 107 49 11
-9.0089998 5.9489999 -1.076 216 153 76
-8.9980001 5.9569998 -1.074 165 112 72
-9.0109997 5.9190001 -1.076 121 88 55
-9.0249996 5.9850001 -0.875 165 85 14
-9.04 6.0019999 -0.87199998 230 119 30
-9.0340004 5.9899998 -0.86699998 219 147 62
-9.0550003 5.9899998 -0.93199998 128 57 1
-9.0570002 5.9920001 -0.94199997 113 65 17
-9.0539999 6.0040002 -0.93900001 134 87 43
-9.0369997 5.9980001 -0.81400001 125 81 20
-9.0299997 5.9990001 -0.82599998 64 14 0
-9.0319996 6.0040002 -0.861 160 110 61
-9.0299997 6.0170002 -0.87099999 169 103 45
-9.0249996 6.013 -0.86799997 111 77 49
-8.9770002 5.9809999 -0.82499999 128 100 63
-8.9720001 5.9879999 -0.82800001 104 63 41
-8.9790001 5.994 -0.89499998 115 75 39
-8.9899998 5.9809999 -0.91299999 73 32 10
-9.0699997 6 -1.02 49 19 8
-9.0670004 6.0029998 -1.0089999 51 28 14
-9.0600004 6 -0.99699998 183 154 140
-9.0310001 6.02 -0.99199998 204 134 85
-9.0480003 5.9689999 -1.0089999 164 92 44
-9.0340004 5.967 -1.015 236 173 104
-9.0209999 5.9530001 -1.008 209 132 44
-9.0139999 6.0149999 -1.038 118 73 31
-9.0089998 6.0029998 -1.064 111 67 40
-9.0389996 6.0009999 -1.0369999 166 82 20
-9.0430002 5.9949999 -1.026 178 115 62
-9.0489998 6.0110002 -1.073 192 136 75
-9.007 5.9949999 -1.021 142 86 51
-9.0080004 6.0019999 -1.02 111 111 119
-9.0159998 5.9780002 -0.98100001 243 189 115
-9.0120001 5.9860001 -0.98699999 94 40 14
-9.0150003 5.9899998 -1.006 127 113 110
-9.0159998 5.987 -0.995 69 18 0
-9.0410004 5.9889998 -1.044 151 87 49
-9.0389996 5.9829998 -1.046 167 116 73
-9.0380001 5.9840002 -1.026 192 124 63
-9.073 6.0359998 -0.90499997 149 108 76
-9.0579996 6.026 -0.94 249 165 95
-9.0509996 6.0300002 -0.93699998 70 31 14
-9.033 6.027 -0.94 96 58 37
-9.0410004 6.027 -0.94199997 74 37 18
-9.0299997 6.0349998 -0.87099999 141 93 57
-8.993 6.0040002 -0.84200001 112 66 50
-8.9849997 6.0159998 -0.86299998 138 100 63
-9.0439997 6 -0.91900003 227 139 75
-9.0430002 6.0040002 -0.86799997 231 179 70
-9.0699997 6.0149999 -0.89200002 239 172 101
-9.0670004 6.0149999 -0.88200003 193 107 32
-9.0570002 5.9990001 -0.89300001 187 114 35
-9.0620003 6.02 -0.89600003 250 169 106
-9.0640001 6.0170002 -0.89200002 158 73 8
-9.0620003 6.0110002 -0.875 202 126 64
-9.073 6.0320001 -0.884 241 161 92
-8.993 5.9980001 -0.89600003 52 12 0
-8.9790001 5.9780002 -0.89200002 158 102 55
-9 5.9699998 -0.89499998 107 58 26
-9.007 5.967 -0.89899999 179 110 41
-9.0019999 5.9629998 -0.90399998 147 83 37
-8.9969997 5.987 -0.88300002 189 91 28
-9.0109997 5.9710002 -0.90100002 179 87 20
-9.0050001 5.974 -0.90100002 200 105 37
-8.9799995 5.987 -0.90499997 82 40 16
-9.0550003 5.9970002 -0.94999999 165 128 101
-9.0550003 5.9910002 -0.94700003 241 184 94
-9.0539999 5.9970002 -0.95599997 182 90 27
-9.0530005 6.0209999 -0.94800001 255 188 110
-9.0579996 5.9759998 -0.95099998 250 195 131
-9.0360003 5.9959998 -0.80500001 230 165 107
-9.0120001 5.994 -0.82999998 179 106 37
-9.0290003 5.9949999 -0.81400001 112 57 3
-8.9899998 5.987 -0.83200002 140 91 48
-9.0190001 6.0029998 -0.80900002 174 128 104
-9.0010004 6.006 -0.85000002 134 86 50
-8.9940004 6.006 -0.85799998 130 72 26
-9.0150003 5.994 -0.83499998 134 93 61
-9.0019999 6.006 -0.75 239 167 91
-8.9840002 6.0100002 -0.85399997 165 116 83
-8.9799995 6.0110002 -0.85699999 167 113 67
-8.9820004 6.0050001 -0.84600002 254 188 127
-8.9729996 6.0110002 -0.85500002 101 60 32
-8.9750004 6.0050001 -0.86400002 125 76 44
-9.0109997 6.0100002 -0.88800001 112 81 50
-8.9919996 6.0100002 -0.86500001 164 123 93
-9.0369997 6.0180001 -0.87199998 247 170 102
-9.0150003 5.9819999 -0.75400001 167 104 51
-8.9650002 5.9879999 -0.82999998 210 113 32
-8.9940004 5.9780002 -0.83700001 100 50 13
-8.9840002 5.9640002 -0.85500002 114 50 6
-8.9960003 5.9689999 -0.85399997 252 161 78
-8.9899998 5.9660001 -0.85399997 142 79 26
-8.96 5.9790001 -0.85900003 96 42 8
-8.9589996 5.9679999 -0.847 154 102 63
-8.9630003 5.967 -0.852 77 31 0
-9.0270004 5.9879999 -0.86000001 84 50 23
-9.0249996 5.9959998 -0.85399997 224 144 73
-9.0550003 5.96 -0.92900002 255 210 168
-9.0380001 5.9650002 -0.92000002 212 116 39
-9.0299997 5.9569998 -0.917 113 54 10
-9.0120001 5.9710002 -0.92400002 116 65 34
-8.9940004 5.947 -1.0599999 249 197 111
-8.9940004 5.954 -1.054 194 150 55
-9.0039997 5.9520001 -1.0549999 155 133 120
-8.9860001 5.9650002 -1.048 249 196 144
-8.8959999 5.9580002 -1.048 100 49 22
-8.901 5.96 -1.081 106 42 4
-8.934 5.9530001 -1.091 159 91 52
-8.9390001 5.9520001 -1.0930001 139 61 13
-8.9209995 5.9520001 -1.087 85 15 0
-8.9870005 5.9619999 -1.074 222 157 89
-8.9899998 5.9349999 -1.085 241 194 104
-8.9169998 5.9530001 -1.061 124 113 111
-9.0369997 5.9829998 -1.096 81 51 40
-9.0240002 5.9879999 -1.125 153 124 108
-9.0279999 5.987 -1.117 234 182 135
-9.0059996 5.994 -1.105 151 72 13
-8.9940004 5.9889998 -1.107 76 40 16
-9.0240002 6.0009999 -1.097 164 78 19
-9.0480003 5.9619999 -1.101 239 181 108
-9.0220003 5.9679999 -1.057 241 149 72
-9.0279999 5.973 -1.059 203 153 102
-8.9969997 5.9590001 -1.048 97 55 15
-9 5.947 -1.061 212 146 60
-9.0480003 5.9889998 -1.077 219 161 113
-9.007 5.9790001 -1.0930001 107 90 83
-9.0150003 5.973 -1.108 100 67 36
-9.0419998 5.954 -0.97000003 140 79 48
-9.0450001 5.961 -0.99000001 132 72 18
-9.0360003 5.96 -0.97399998 108 52 0
-9.0089998 6.013 -1.095 181 117 53
-9.007 6.0079999 -1.084 157 116 88
-9.033 6.02 -1.075 119 76 33
-9.0299997 6.0170002 -1.064 95 59 33
-9.026 6.0159998 -1.059 96 56 20
-9.0059996 6.0089998 -1.082 95 48 6
-8.9499998 5.9580002 -1.099 172 97 39
-8.941 5.961 -1.105 122 45 0
-8.9399996 5.9559999 -1.096 255 183 91
-8.9969997 5.9980001 -1.1059999 145 84 27
-8.8999996 5.9650002 -1.025 135 68 15
-9.0270004 6.0149999 -0.73199999 183 125 85
-9.0089998 6.0029998 -0.77100003 184 139 108
-9.0050001 6.0019999 -0.76200002 95 43 19
-9.0050001 6.0139999 -0.764 99 54 25
-9.0050001 6.0139999 -0.76099998 152 108 83
-9.0080004 6.0139999 -0.76599997 186 144 102
-9.0469999 6.0029998 -0.755 204 135 70
-8.9099998 5.9499998 -1.094 104 61 27
-8.9139996 5.954 -1.0930001 187 115 39
-8.941 5.9809999 -1.1059999 80 42 33
-8.9390001 5.9650002 -1.094 92 44 8
-8.9309998 5.9689999 -1.087 176 118 55
-8.9160004 5.9640002 -1.107 176 95 42
-8.9099998 5.9629998 -1.0599999 57 16 0
-8.9169998 5.9629998 -1.074 107 64 30
-9.0209999 5.9809999 -0.75 201 145 84
-9.0240002 5.9980001 -0.77600002 149 107 82
-9.0319996 5.994 -0.79299998 109 65 36
-9.0319996 5.9949999 -0.79699999 99 52 22
-9.0299997 5.9780002 -0.75800002 196 126 54
-9.0340004 5.9790001 -0.76200002 159 99 36
-9.033 5.9780002 -0.75800002 189 119 49
-9.0389996 5.98 -0.76300001 192 119 64
-8.9779997 5.9809999 -0.87900001 70 26 0
-8.9829998 5.9829998 -0.87900001 152 92 38
-8.993 5.9860001 -0.875 156 77 18
-9.0050001 5.9910002 -0.87699997 158 99 41
-9.0439997 6.0450001 -0.917 49 12 0
-9.0450001 6.0370002 -0.91799998 64 22 0
-9.04 6.0359998 -0.89700001 117 77 52
-9.0419998 6.0370002 -0.89600003 53 17 1
-9.0360003 6.0380001 -0.89499998 53 14 0
-9.0209999 6.0159998 -0.91500002 113 64 32
-9.0249996 6.0149999 -0.90700001 100 53 9
-8.8959999 5.96 -1.025 198 130 59
-9.0600004 6.033 -0.86799997 220 171 131
-8.9060001 5.947 -1.067 107 58 17
-8.8929996 5.9549999 -1.0650001 87 43 18
-8.9960003 5.9780002 -0.92000002 68 30 9
-8.9989996 5.9749999 -0.91799998 157 116 72
-9.0050001 5.9759998 -0.92699999 56 21 2
-9.0120001 6.0079999 -0.92199999 137 91 58
-9.0150003 6.0009999 -0.954 156 98 35
-9.0220003 5.9749999 -0.95999998 171 141 115
-9.0080004 5.9829998 -0.96399999 118 73 42
-9.0220003 5.9749999 -0.99900001 86 52 14
-9.0089998 5.9829998 -0.97000003 121 85 51
-9.0050001 6.0110002 -1.033 176 123 69
-9.0100002 6.006 -1.015 127 78 22
-8.9980001 5.9980001 -1.08 224 166 102
-9.0159998 5.9640002 -1.056 228 157 53
-9.0109997 5.9590001 -1.063 223 150 37
-9.0050001 5.9990001 -1.0700001 128 78 27
-9.0129995 5.9359999 -1.085 252 200 125
-9.0209999 5.9829998 -0.87300003 197 112 32
-9.0349998 5.9899998 -0.88 212 162 101
-8.9969997 6.0009999 -0.84399998 49 6 0
-9.0349998 5.9980001 -0.833 58 6 0
-8.9639997 6.0009999 -0.83999997 139 85 39
-8.9770002 5.993 -0.88300002 169 118 65
-8.9820004 5.9990001 -0.87699997 124 55 16
-8.9820004 5.9920001 -0.889 133 105 94
-8.9750004 5.993 -0.89399999 129 82 54
-8.993 5.9720001 -0.90600002 105 48 19
-9.0550003 6.007 -1.018 211 143 68
-9.0609999 6.0019999 -0.99800003 52 24 13
-9.0249996 6.0240002 -1.011 147 116 111
-9.0159998 6.0190001 -1.018 80 44 30
-9.04 5.967 -1.008 244 182 95
-9.007 5.9619999 -1.046 213 166 96
-9.0080004 5.9710002 -1.041 204 164 112
-9.0089998 5.9650002 -1.045 209 115 43
-9.0290003 6.0180001 -1.05 255 172 112
-9.0170002 6.0149999 -1.043 191 141 88
-9.0150003 6.0149999 -1.044 123 72 25
-9.0170002 6.0149999 -1.048 127 78 37
-9.0170002 6.0149999 -1.051 232 175 120
-9.0279999 6.0149999 -1.0420001 86 49 20
-9.0480003 5.9770002 -1.086 186 141 99
-9.0030003 5.9910002 -1.017 74 29 0
-9.0139999 6.0040002 -0.991 169 94 36
-9.0389996 5.9819999 -1.024 111 35 0
-9.0109997 5.9910002 -0.98100001 149 111 75
-9.04 6.0149999 -1.057 107 77 49
-9.0500002 6.046 -0.889 59 22 0
-9.0459995 6.04 -0.89300001 60 24 10
-9.0389996 6.0320001 -0.89999998 153 104 72
-9.0579996 6.0110002 -0.88999999 231 154 84
-9.0570002 6.0089998 -0.889 123 75 27
-9.0550003 6.007 -0.97600001 195 117 68
-9.0459995 6.026 -0.94199997 61 23 2
-9.0410004 6.0190001 -0.94700003 73 48 28
-9.0640001 5.9749999 -1.005 222 153 96
-9.0620003 5.954 -0.93800002 255 226 137
-8.9960003 5.9980001 -0.87300003 150 90 56
-9.0200005 5.987 -0.87400001 155 102 58
-9.0430002 6.039 -0.89399999 52 16 0
-9.0609999 6.0289998 -0.90600002 123 70 36
-9.0570002 6.026 -0.912 78 41 14
-9.052 5.9949999 -0.89099997 153 95 49
-9.033 5.9889998 -0.89300001 186 136 75
-9.0380001 5.994 -0.898 168 129 88
-9.0360003 5.9910002 -0.88200003 188 86 11
-9.0380001 6.0139999 -0.75 136 78 28
-9.0410004 6.0100002 -0.77399999 125 58 16
-9.0369997 6.0040002 -0.75999999 148 90 52
-9.0489998 6 -0.92299998 113 69 34
-9.0249996 6.02 -0.94099998 89 51 32
-9.033 6.0149999 -0.949 95 54 36
-9.0360003 6.0190001 -0.94800001 131 92 59
-9.0249996 6.0139999 -0.94700003 87 49 28
-9.0530005 6.0209999 -0.903 101 46 16
-9.0530005 6.0120001 -0.87400001 147 89 41
-9.059 6.0100002 -0.87800002 121 70 25
-9.0640001 6.0190001 -0.87300003 232 159 80
-8.974 6.006 -0.861 121 68 34
-8.9779997 6.0110002 -0.85699999 112 45 2
-9 5.9980001 -0.90899998 130 88 63
-8.9940004 5.9699998 -0.90399998 85 28 0
-8.9840002 5.98 -0.903 119 69 44
-8.9969997 5.9679999 -0.90600002 89 32 2
-9.0100002 5.9710002 -0.92500001 106 55 26
-8.9729996 5.9899998 -0.898 94 48 24
-8.9790001 5.987 -0.89999998 113 69 44
-9.0489998 5.9679999 -0.99800003 248 198 139
-9.0509996 5.9819999 -0.96700001 255 200 119
-9.0539999 5.993 -0.958 185 133 85
-9.0190001 6.0029998 -0.96499997 105 63 47
-9.0170002 5.9959998 -0.96399999 218 144 81
-9.0559998 5.948 -0.95599997 140 73 3
-9.0340004 6.0029998 -0.796 113 66 46
-9.033 5.9970002 -0.81800002 104 57 15
-9.0159998 6.0139999 -0.77100003 102 46 13
-9.0229998 6.0050001 -0.77499998 128 76 52
-9.0310001 6.0110002 -0.76899999 133 89 50
-9.0229998 6.0139999 -0.76599997 184 112 62
-9.0290003 5.9990001 -0.82099998 88 40 4
-9.0080004 6.0289998 -0.75 176 142 97
-9.0050001 6.007 -0.88 128 98 62
-8.9779997 5.9790001 -0.86199999 179 99 40
-8.9680004 5.9679999 -0.83899999 214 154 104
-8.9519997 5.973 -0.84500003 236 166 104
-8.9580002 5.9770002 -0.83700001 200 139 72
-8.9530001 5.9910002 -0.85500002 179 134 77
-8.9630003 5.9749999 -0.833 142 101 49
-9.0340004 5.9380002 -0.94400001 160 89 37
-9.0430002 5.9710002 -0.92799997 138 78 28
-9.0450001 5.9650002 -0.92900002 169 102 49
-9.0629997 5.9629998 -0.93400002 220 152 71
-9.0310001 5.9650002 -0.91900003 109 53 16
-9.0240002 5.9809999 -0.91100001 157 69 0
-9.0209999 5.9780002 -0.90399998 87 51 25
-9.0340004 5.96 -0.921 104 49 10
-8.9849997 5.967 -1.054 191 140 93
-8.9029999 5.96 -1.082 61 33 19
-8.9860001 5.9590001 -1.0700001 255 183 106
-8.9890003 5.9580002 -1.072 252 193 113
-8.9460001 5.9559999 -1.092 186 115 61
-8.9359999 5.9580002 -1.08 215 151 79
-8.9379997 5.954 -1.091 173 110 67
-8.9390001 5.9580002 -1.0880001 211 156 92
-8.941 5.9629998 -1.0829999 190 131 71
-8.993 5.9580002 -1.076 168 119 76
-9.0229998 5.9720001 -1.092 218 153 85
-9.0190001 5.9689999 -1.084 216 130 57
-9.0439997 5.9580002 -1.1059999 237 163 66
-9.033 5.9790001 -1.044 209 148 93
-9.0150003 5.9660001 -1.0650001 255 172 93
-9.0170002 5.9619999 -1.052 63 21 0
-9.0209999 5.967 -1.048 148 101 71
-9.0179996 5.9660001 -1.048 199 132 43
-8.9910002 5.9679999 -1.043 201 153 107
-9.0349998 5.9759998 -1.022 228 159 94
-9.0410004 5.9780002 -1.057 225 170 106
-9.0459995 5.954 -0.96700001 117 55 14
-9.033 6.0050001 -0.73500001 151 116 86
-9.0039997 6.006 -0.736 111 60 13
-9.0439997 6.007 -1.0779999 133 86 30
-9.0139999 6.0079999 -1.097 209 139 77
-9.0080004 6.006 -1.079 111 43 8
-9.0349998 6.0089998 -0.77200001 166 109 64
-9.0380001 6.0079999 -0.77600002 161 124 106
-9.0369997 6.0040002 -0.77700001 158 102 55
-9.0419998 6 -0.76700002 129 47 0
-8.927 5.9640002 -1.0930001 148 88 36
-8.9259996 5.96 -1.068 113 73 47
-9.0430002 5.9829998 -0.759 139 104 85
-8.9790001 5.9840002 -0.82800001 194 151 117
-8.9829998 5.987 -0.83099997 207 118 36
-8.9759998 5.9850001 -0.88099998 66 27 12
-8.9799995 5.9829998 -0.87599999 168 113 72
-9.052 6.0190001 -0.94400001 204 133 55
-8.8990002 5.9559999 -1.066 93 49 22
-9.0290003 5.9889998 -0.889 73 44 12
-8.993 5.98 -0.91799998 59 22 4
-9.0170002 6.007 -0.94599998 224 171 101
-9.0500002 5.9850001 -0.93199998 188 122 62
-9.0430002 5.9619999 -1.002 114 61 9
-9.0340004 5.9580002 -1 125 68 15
-9.026 5.9530001 -0.99400002 234 189 147
-9.0209999 5.9590001 -0.99800003 171 137 112
-9.0120001 5.9819999 -0.97399998 167 133 95
-9.0139999 5.9790001 -0.94700003 139 95 48
-8.9960003 5.9510002 -1.057 135 92 49
-9.0100002 5.9569998 -1.0599999 255 200 113
-9.0129995 5.974 -1.039 101 55 3
-9.0100002 5.947 -1.085 138 78 16
-9.0319996 5.9879999 -0.89499998 168 100 19
-9.0319996 5.9899998 -0.87 131 75 40
-9.0190001 5.9770002 -0.95499998 189 120 78
-9.0279999 5.9629998 -0.949 44 7 0
-9 5.974 -0.84500003 232 149 71
-9.0290003 5.9949999 -0.83399999 179 146 113
-9.026 5.9980001 -0.84100002 87 36 7
-9.0270004 5.9980001 -0.84399998 86 39 11
-9.0279999 6.0040002 -0.84299999 116 90 65
-9.0360003 6.0180001 -0.74900001 108 55 13
-9.0369997 6.0209999 -0.741 163 128 98
-8.9680004 5.9980001 -0.83600003 151 102 61
-8.9639997 6.0009999 -0.84299999 147 105 81
-8.9890003 5.993 -0.88700002 127 69 31
-8.9860001 5.9840002 -0.90899998 61 21 0
-8.9870005 5.9809999 -0.90899998 65 23 1
-9.0649996 6.0009999 -1.003 56 30 17
-9.0159998 6.0139999 -1.001 157 76 29
-9.0319996 6.0250001 -1.005 39 14 7
-9.0220003 6.0159998 -1.054 99 59 23
-9.0129995 6.0079999 -1.0549999 41 6 4
-9.0450001 5.9980001 -1.022 101 58 23
-9.0349998 6.0050001 -1.028 146 69 15
-9.0459995 5.994 -1.0779999 67 24 0
-9.0080004 5.9920001 -1.013 94 36 0
-9.0430002 5.9809999 -1.021 113 61 1
-9.0459995 6.053 -0.88700002 169 137 124
-9.0509996 6.0370002 -0.90399998 127 87 51
-9.0430002 6.0050001 -0.91399997 204 158 122
-9.0469999 6.0079999 -0.95499998 165 80 25
-9.0469999 6.0089998 -0.97399998 141 93 53
-9.0480003 6.0089998 -0.94700003 243 166 86
-9.0480003 6.0279999 -0.94099998 56 20 4
-9.0600004 5.9819999 -1.01 135 73 26
-9.0629997 5.9580002 -0.94499999 237 157 84
-9.0109997 5.993 -0.89099997 116 60 25
-9.04 6.0409999 -0.89200002 65 32 17
-9.0279999 6.0209999 -0.89700001 146 86 50
-9.0530005 6.0019999 -0.88300002 114 78 46
-9.0299997 6.0170002 -0.73199999 167 110 65
-9.0179996 6.0229998 -0.935 115 74 56
-9.0600004 6.0120001 -0.884 106 48 11
-9.0500002 6.0240002 -0.87199998 255 206 102
-9.0410004 6.053 -0.88200003 52 22 12
-9 6 -0.92000002 95 48 20
-9.0019999 5.9990001 -0.90499997 91 52 13
-9.0019999 5.9990001 -0.89499998 113 58 19
-8.9829998 5.9819999 -0.90200001 96 51 28
-8.9899998 5.9749999 -0.90100002 131 89 39
-8.9879999 5.9840002 -0.88099998 151 71 22
-8.9899998 5.9840002 -0.889 184 91 30
-8.9860001 5.9819999 -0.88700002 125 51 6
-8.9840002 5.98 -0.88800001 182 130 82
-9.0089998 5.9749999 -0.90899998 152 102 65
-9.0010004 5.9689999 -0.91000003 76 19 0
-9.0480003 5.9689999 -0.99400002 169 121 75
-9.052 6.0110002 -0.94099998 146 73 20
-9.0179996 6 -0.97600001 132 93 54
-9.0249996 6.0079999 -0.96899998 47 16 0
-9.033 6.0040002 -0.80699998 56 25 0
-9.0150003 5.987 -0.84399998 159 89 30
-9.0340004 5.9949999 -0.81400001 143 94 51
-9.0290003 5.9990001 -0.81800002 112 63 23
-9.0039997 5.9759998 -0.86299998 208 119 39
-9.0089998 6.0240002 -0.75700003 94 35 0
-9.0120001 6.033 -0.75 166 113 63
-9.0159998 6.0279999 -0.75199997 220 136 74
-8.96 5.994 -0.838 139 112 91
-8.9980001 5.9980001 -0.87800002 151 106 77
-8.9610004 5.9840002 -0.833 171 109 34
-8.9960003 5.9879999 -0.833 91 53 34
-8.9790001 5.9679999 -0.85699999 180 111 46
-8.96 5.9749999 -0.85399997 205 158 116
-8.9420004 5.9819999 -0.85100001 135 103 90
-8.9580002 5.9749999 -0.83600003 111 64 20
-9.033 5.9520001 -0.96100003 128 111 95
-9.0530005 5.9710002 -0.93199998 165 95 43
-8.9429998 5.9549999 -1.0930001 219 146 91
-8.9429998 5.961 -1.094 140 89 26
-9.0229998 5.9790001 -1.1160001 123 118 114
-8.9969997 5.9860001 -1.096 225 177 111
-9.0270004 5.9689999 -1.052 152 119 78
-9.0220003 5.9720001 -1.046 255 228 191
-9.0310001 5.9790001 -1.044 176 125 78
-9.0220003 5.9759998 -1.045 180 114 28
-9.0190001 5.9790001 -1.041 153 90 36
-9.0360003 5.9720001 -1.02 212 146 94
-9.0439997 5.9889998 -1.059 220 151 47
-9.0150003 5.9770002 -1.0880001 126 74 14
-9.0139999 6.0240002 -0.74000001 134 57 15
-9.0270004 6.0219998 -0.73100001 156 77 36
-9.0039997 6.0139999 -0.73500001 146 96 43
-9.0270004 6.0170002 -1.067 163 108 54
-9.033 6.026 -0.736 159 120 91
-9.026 6.0019999 -0.78600001 61 24 5
-9.0270004 6.0040002 -0.79799998 200 159 137
-9.033 5.9970002 -0.77399999 170 108 71
-9.0050001 6.006 -0.75599998 199 157 99
-9.0500002 5.9949999 -0.75400001 230 160 91
-9.0459995 5.9970002 -0.75599998 205 148 95
-8.9119997 5.9640002 -1.079 184 142 126
-8.9119997 5.9489999 -1.073 71 28 0
-8.9429998 5.9689999 -1.058 168 93 53
-8.9350004 5.954 -1.0880001 170 114 55
-8.9820004 5.9809999 -0.884 109 64 31
-8.9870005 5.9759998 -0.89499998 196 141 102
-8.9049997 5.96 -1.064 64 26 7
-9.0200005 5.98 -0.90100002 133 57 0
-8.993 5.9780002 -0.917 152 99 55
-9.0200005 6.0159998 -0.917 168 120 80
-9.0450001 5.9819999 -0.93000001 152 90 39
-9.0150003 5.9720001 -0.93300003 85 47 28
-9.0170002 5.9660001 -0.995 193 158 116
-9.0209999 5.9710002 -0.986 126 106 53
-9.0290003 5.9640002 -0.97299999 121 98 80
-9.0430002 5.9629998 -0.99900001 221 151 66
-9.033 5.9590001 -1.0039999 239 164 73
-9.0270004 5.961 -1.0089999 162 102 14
-9.0349998 5.9640002 -0.991 104 59 18
-9.0039997 5.9530001 -1.0599999 216 160 77
-8.9879999 5.9710002 -1.048 73 28 0
-8.9980001 5.9650002 -1.045 151 86 30
-9.0290003 5.9829998 -1.027 74 39 17
-9.0159998 5.9749999 -1.04 123 55 0
-9.0279999 5.967 -1.018 190 115 50
-9.0299997 5.9650002 -1.013 161 87 12
-9.0100002 5.9689999 -1.043 73 42 11
-9.0249996 5.9850001 -0.90100002 163 92 14
-9.0270004 5.9949999 -0.833 121 81 56
-9.0290003 6.0240002 -0.75400001 125 81 56
-9.0369997 6.0159998 -0.74900001 98 43 2
-9.0550003 6.007 -1.008 250 188 101
-9.0579996 6.0040002 -1.012 54 26 14
-9.0579996 6.0040002 -1.015 43 13 3
-9.026 6.0089998 -0.98799998 101 60 32
-9.0109997 6.0100002 -1.008 168 115 81
-9.0170002 6 -1.006 119 75 30
-9.033 6.0240002 -1.001 52 29 21
-9.0129995 6.0139999 -1.044 180 128 81
-9.0139999 5.9850001 -1.034 97 47 0
-9.0249996 6.0139999 -1.0369999 94 50 23
-9.0270004 6.0149999 -1.044 124 86 49
-9.0150003 5.9980001 -1.0089999 254 223 169
-9.0150003 6 -0.991 106 67 26
-9.0600004 6.0250001 -0.93599999 236 155 89
-9.052 6.0440001 -0.89099997 152 118 91
-9.04 6.006 -0.903 112 48 10
-9.04 5.9949999 -0.91900003 116 68 28
-9.0360003 5.993 -0.917 158 97 43
-9.0439997 6.0190001 -0.98500001 159 111 73
-9.0369997 6.0120001 -0.95200002 72 27 4
-9.0360003 6.0229998 -0.94300002 153 83 31
-9.0319996 6.0089998 -0.96700001 58 36 23
-9.0310001 5.9590001 -0.94199997 211 147 85
-9.0439997 6.007 -0.95999998 196 116 57
-9.0459995 6.0159998 -0.94800001 137 78 38
-9.0439997 6.0089998 -0.954 138 85 45
-9.0319996 6.0089998 -0.95499998 88 45 26
-9.0450001 6.0349998 -0.903 63 20 1
-9.0430002 6.0040002 -0.87099999 239 162 90
-9.0530005 5.9980001 -0.88499999 178 99 22
-9.0279999 6.02 -0.73100001 175 122 80
-9.052 6.046 -0.87300003 230 179 136
-9.0100002 5.9749999 -0.90700001 154 105 65
-9.0570002 5.9650002 -0.96499997 147 72 17
-9.0459995 5.9450002 -0.96200001 75 44 16
-9.0249996 6.0240002 -0.759 131 98 79
-9.0299997 6.0149999 -0.75800002 168 118 81
-8.9580002 5.9899998 -0.83600003 189 146 103
-8.9890003 5.9679999 -0.85500002 225 146 90
-8.9630003 5.973 -0.83600003 195 84 2
-8.9530001 5.9759998 -0.85000002 248 183 129
-8.941 5.9850001 -0.85500002 125 77 39
-9.0319996 5.961 -0.96700001 133 91 69
-9.0439997 5.9559999 -0.92500001 163 104 62
-9.0349998 5.9640002 -1.1 205 146 76
-9.0419998 5.994 -1.058 237 178 102
-9.04 5.9809999 -1.0549999 81 34 0
-9.0319996 6.0029998 -0.73500001 137 97 61
-9.0349998 6.0050001 -0.73500001 208 134 69
-9.007 6.0139999 -0.75099999 197 151 102
-9.0369997 5.9990001 -1.081 122 57 0
-9.0430002 6.0029998 -1.0700001 125 78 22
-9.026 6.0019999 -0.79000002 66 23 7
-9.0369997 5.9990001 -0.77100003 130 59 5
-8.9259996 5.9569998 -1.081 61 24 5
-8.9329996 5.967 -1.084 122 83 54
-8.9329996 5.9650002 -1.082 130 93 67
-9.0509996 5.994 -0.75300002 151 90 23
-9.0290003 6.0040002 -0.77999997 133 82 55
-9.026 6.0019999 -0.78299999 74 36 17
-8.9820004 5.98 -0.88700002 132 84 48
-8.9829998 5.9819999 -0.88300002 178 119 75
-9.0240002 5.9899998 -0.89499998 209 146 92
-9.0129995 5.9790001 -0.903 117 75 25
-9.0159998 5.98 -0.95300001 165 98 53
-9.0109997 5.9840002 -0.95099998 149 82 30
-9.0159998 5.98 -0.95599997 158 90 41
-9.0100002 5.973 -0.92799997 117 75 51
-9.0340004 5.9650002 -1.012 108 39 0
-9.0389996 5.9619999 -1.0039999 231 170 77
-9.033 5.9879999 -0.91399997 143 85 48
-9.0340004 5.993 -0.90100002 171 129 87
-8.9790001 5.9910002 -0.83099997 104 63 35
-9.0270004 6 -0.84200001 87 37 10
-9.0209999 6.0250001 -0.75300002 205 159 110
-9.033 6.0279999 -0.736 143 110 93
-8.9659996 5.9990001 -0.838 193 145 107
-9.0030003 5.9889998 -0.88999999 160 99 55
-9.0469999 6.0120001 -1.015 169 152 136
-9.0299997 6.0089998 -0.96700001 255 211 155
-9.0319996 6.0089998 -0.97299999 56 27 13
