ply
format ascii 1.0
comment PCL generated
element vertex 80
property float x
property float y
property float z
property uchar red
property uchar green
property uchar blue
element camera 1
property float view_px
property float view_py
property float view_pz
property float x_axisx
property float x_axisy
property float x_axisz
property float y_axisx
property float y_axisy
property float y_axisz
property float z_axisx
property float z_axisy
property float z_axisz
property float focal
property float scalex
property float scaley
property float centerx
property float centery
property int viewportx
property int viewporty
property float k1
property float k2
end_header
-1.408 17.448 -0.63700002 171 88 20
-1.399 17.452999 -0.63800001 179 127 88
-1.406 17.452 -0.63300002 182 88 18
-1.418 17.434999 -0.63599998 153 95 55
-1.415 17.436001 -0.63999999 209 129 44
-1.4170001 17.445999 -0.63200003 168 123 84
-1.413 17.462 -0.65700001 141 69 19
-1.397 17.459 -0.64499998 175 123 84
-1.408 17.455999 -0.66100001 99 54 48
-1.396 17.455999 -0.64499998 205 120 55
-1.405 17.445 -0.65499997 244 159 105
-1.49 17.448999 -0.68300003 76 37 4
-1.489 17.448999 -0.67699999 100 72 68
-1.482 17.450001 -0.68400002 144 79 25
-1.479 17.451 -0.68000001 185 108 52
-1.4960001 17.448999 -0.68099999 127 60 34
-1.415 17.441 -0.65600002 110 47 0
-1.421 17.455999 -0.66600001 114 75 44
-1.48 17.431999 -0.65200001 140 81 41
-1.482 17.438 -0.65399998 120 79 51
-1.479 17.431 -0.65499997 69 4 0
-1.475 17.43 -0.65200001 110 65 32
-1.428 17.436001 -0.64499998 191 111 58
-1.436 17.445999 -0.64300001 104 53 10
-1.455 17.474001 -0.66500002 127 67 31
-1.4529999 17.469999 -0.66799998 198 100 27
-1.461 17.469 -0.67000002 63 44 46
-1.461 17.455999 -0.66299999 180 101 45
-1.484 17.444 -0.67500001 198 98 46
-1.483 17.448999 -0.667 184 96 33
-1.41 17.451 -0.63999999 118 38 5
-1.467 17.455 -0.67699999 220 134 75
-1.4529999 17.444 -0.66799998 156 98 52
-1.418 17.457001 -0.66500002 196 161 141
-1.424 17.451 -0.65899998 128 46 0
-1.419 17.450001 -0.65799999 73 48 52
-1.419 17.459 -0.634 131 105 82
-1.4680001 17.447001 -0.653 190 131 89
-1.465 17.445 -0.65600002 125 69 22
-1.484 17.452999 -0.65600002 199 114 59
-1.472 17.436001 -0.662 145 48 0
-1.462 17.452 -0.65600002 200 103 35
-1.474 17.454 -0.65600002 125 79 45
-1.46 17.444 -0.662 156 87 30
-1.484 17.451 -0.66600001 178 122 87
-1.471 17.459 -0.667 172 118 82
-1.483 17.455999 -0.65700001 93 39 1
-1.4859999 17.441 -0.68099999 97 55 31
-1.472 17.444 -0.67500001 224 124 74
-1.408 17.445 -0.64899999 255 174 100
-1.472 17.454 -0.68000001 145 87 41
-1.469 17.450001 -0.676 101 71 63
-1.461 17.445 -0.667 219 118 46
-1.4170001 17.452999 -0.66000003 255 163 112
-1.431 17.459 -0.662 84 41 34
-1.4170001 17.451 -0.63300002 182 89 22
-1.425 17.445999 -0.639 105 63 49
-1.429 17.450001 -0.63599998 104 67 58
-1.482 17.441999 -0.662 147 80 28
-1.477 17.438 -0.66100001 68 22 0
-1.484 17.451 -0.66299999 156 56 6
-1.4680001 17.434 -0.66799998 168 111 66
-1.42 17.438 -0.64899999 228 144 74
-1.404 17.452999 -0.64600003 67 47 46
-1.475 17.473 -0.685 162 111 82
-1.4809999 17.476 -0.685 95 55 47
-1.48 17.476999 -0.68400002 161 108 74
-1.4299999 17.461 -0.65399998 121 75 60
-1.431 17.445999 -0.65799999 56 22 0
-1.42 17.445 -0.63700002 190 108 48
-1.477 17.438999 -0.66900003 125 81 42
-1.483 17.440001 -0.67400002 171 86 29
-1.484 17.452 -0.66000003 176 95 42
-1.474 17.450001 -0.65600002 163 89 24
-1.471 17.455999 -0.662 88 48 36
-1.4170001 17.459999 -0.65700001 164 114 77
-1.418 17.457001 -0.65499997 69 68 63
-1.4349999 17.448 -0.64700001 111 59 38
-1.429 17.455 -0.65600002 80 46 34
-1.433 17.451 -0.63700002 169 86 32
0 0 0 1 0 0 0 1 0 0 0 1 0 0 0 0 0 80 1 0 0
