ply
format ascii 1.0
comment PCL generated
element vertex 556
property float x
property float y
property float z
property uchar red
property uchar green
property uchar blue
element camera 1
property float view_px
property float view_py
property float view_pz
property float x_axisx
property float x_axisy
property float x_axisz
property float y_axisx
property float y_axisy
property float y_axisz
property float z_axisx
property float z_axisy
property float z_axisz
property float focal
property float scalex
property float scaley
property float centerx
property float centery
property int viewportx
property int viewporty
property float k1
property float k2
end_header
0.85799998 11.772 -0.73000002 157 63 11
0.86900002 11.789 -0.74000001 154 72 25
0.875 11.783 -0.74199998 167 76 19
0.87 11.792 -0.74000001 185 88 33
0.87599999 11.787 -0.74599999 143 54 0
0.88200003 11.778 -0.75700003 215 143 61
0.88 11.79 -0.755 248 170 88
0.87300003 11.778 -0.74299997 144 100 73
0.91600001 11.779 -0.949 154 65 5
0.91500002 11.788 -0.94800001 167 78 18
0.91500002 11.785 -0.92799997 218 121 53
0.86500001 11.806 -0.81699997 96 33 2
0.85500002 11.799 -0.81699997 83 38 17
0.86500001 11.806 -0.824 90 25 0
0.91000003 11.793 -0.97299999 147 51 0
0.90499997 11.787 -0.972 132 88 59
0.90600002 11.794 -0.97299999 211 108 39
0.90899998 11.792 -0.954 87 43 8
0.86699998 11.804 -0.792 78 31 1
0.861 11.814 -0.773 175 94 47
0.86500001 11.815 -0.77399999 165 96 57
0.91100001 11.788 -0.92000002 56 34 21
0.91799998 11.77 -0.91600001 98 54 27
0.85299999 11.77 -0.72500002 138 50 2
0.84200001 11.757 -0.72000003 222 177 138
0.84100002 11.77 -0.71700001 125 84 54
0.84500003 11.77 -0.72000003 157 77 28
0.84500003 11.777 -0.72299999 177 91 32
0.85699999 11.789 -0.741 139 87 39
0.903 11.736 -0.89999998 82 10 0
0.90600002 11.75 -0.88999999 164 80 20
0.89499998 11.731 -0.889 116 99 91
0.89899999 11.743 -0.88999999 91 81 80
0.898 11.776 -0.97000003 131 62 23
0.88999999 11.779 -0.97000003 46 2 0
0.89200002 11.774 -0.96899998 61 7 0
0.89600003 11.76 -0.972 130 50 0
0.88999999 11.732 -0.884 78 22 0
0.88999999 11.73 -0.88999999 92 33 3
0.88599998 11.729 -0.87599999 109 52 25
0.85699999 11.799 -0.76300001 124 75 42
0.866 11.812 -0.76700002 202 140 101
0.861 11.812 -0.76700002 164 73 28
0.87 11.793 -0.74299997 151 146 150
0.87400001 11.789 -0.74900001 157 86 40
0.86900002 11.79 -0.75999999 178 96 48
0.91100001 11.784 -0.935 38 16 5
0.88800001 11.784 -0.972 179 123 88
0.87699997 11.781 -0.74900001 199 113 30
0.86400002 11.8 -0.792 123 72 45
0.91600001 11.779 -0.954 163 70 11
0.91600001 11.778 -0.95899999 172 80 17
0.91600001 11.776 -0.96200001 179 85 24
0.89200002 11.795 -0.91799998 100 44 21
0.89600003 11.801 -0.90399998 68 11 0
0.90799999 11.787 -0.91600001 75 33 11
0.81699997 11.749 -0.90700001 137 72 30
0.81699997 11.74 -0.90899998 221 137 49
0.81599998 11.748 -0.91100001 167 105 64
0.85000002 11.764 -0.72500002 180 128 91
0.86299998 11.767 -0.74599999 123 79 54
0.85299999 11.762 -0.73100001 237 120 15
0.85000002 11.762 -0.727 153 50 0
0.85000002 11.759 -0.73500001 238 127 56
0.83999997 11.751 -0.73199999 108 53 22
0.91000003 11.749 -0.90799999 188 103 49
0.91000003 11.751 -0.90399998 137 54 0
0.82099998 11.743 -0.90899998 229 146 66
0.83399999 11.739 -0.89300001 227 153 92
0.81800002 11.751 -0.90700001 58 47 43
0.88200003 11.73 -0.89899999 139 84 63
0.89899999 11.75 -0.96399999 204 114 51
0.89300001 11.752 -0.94999999 214 123 53
0.88599998 11.751 -0.95099998 198 115 71
0.91000003 11.764 -0.95999998 189 121 76
0.90499997 11.758 -0.96700001 225 117 42
0.90899998 11.763 -0.94499999 213 118 64
0.90799999 11.769 -0.97000003 195 88 20
0.88599998 11.729 -0.87099999 162 101 72
0.87 11.736 -0.86199999 112 63 33
0.84899998 11.803 -0.76300001 94 44 11
0.84200001 11.773 -0.72000003 128 48 0
0.83399999 11.799 -0.73400003 171 107 72
0.83499998 11.803 -0.73100001 140 77 36
0.83700001 11.805 -0.73299998 148 59 3
0.83099997 11.805 -0.736 107 61 28
0.833 11.797 -0.73799998 98 34 9
0.85900003 11.785 -0.792 74 27 1
0.866 11.781 -0.77600002 107 57 22
0.86699998 11.795 -0.79400003 138 77 46
0.85900003 11.774 -0.792 95 67 46
0.91100001 11.79 -0.95099998 33 11 0
0.87800002 11.779 -0.75199997 145 110 88
0.85900003 11.798 -0.81199998 85 38 12
0.85299999 11.79 -0.80599999 80 49 21
0.86000001 11.789 -0.81900001 80 32 12
0.91100001 11.786 -0.95599997 192 92 30
0.89499998 11.776 -0.861 85 46 13
0.898 11.771 -0.83999997 128 102 89
0.89200002 11.78 -0.85900003 178 133 94
0.89600003 11.782 -0.87400001 30 16 7
0.89600003 11.783 -0.889 47 28 14
0.88800001 11.804 -0.89899999 86 43 11
0.889 11.786 -0.90100002 83 21 0
0.90899998 11.758 -0.89700001 193 114 47
0.90899998 11.757 -0.89200002 186 103 35
0.88700002 11.803 -0.90100002 89 29 5
0.90700001 11.783 -0.94599998 140 90 55
0.88999999 11.731 -0.88800001 92 33 1
0.82099998 11.751 -0.903 211 148 97
0.829 11.744 -0.89499998 255 171 81
0.82499999 11.743 -0.89999998 247 161 76
0.85100001 11.742 -0.82099998 153 106 78
0.85799998 11.749 -0.82499999 151 68 18
0.86500001 11.747 -0.82999998 118 83 61
0.852 11.787 -0.79699999 74 42 17
0.85100001 11.788 -0.77100003 108 44 8
0.85500002 11.788 -0.78799999 69 18 0
0.85299999 11.782 -0.79100001 76 29 3
0.85000002 11.774 -0.79900002 113 43 9
0.85100001 11.783 -0.80199999 53 19 0
0.84600002 11.754 -0.85000002 157 90 47
0.85100001 11.755 -0.86799997 75 42 27
0.85299999 11.76 -0.86199999 129 49 0
0.84600002 11.765 -0.847 87 33 5
0.84799999 11.765 -0.84899998 105 49 14
0.86900002 11.775 -0.83999997 80 49 28
0.86299998 11.773 -0.861 128 64 37
0.84899998 11.77 -0.847 87 26 5
0.87699997 11.778 -0.85000002 103 67 43
0.86699998 11.771 -0.759 204 186 174
0.87300003 11.773 -0.75999999 247 154 61
0.87699997 11.778 -0.76200002 231 155 69
0.88700002 11.779 -0.96700001 83 51 28
0.87800002 11.805 -0.97000003 126 89 60
0.87599999 11.801 -0.96499997 175 87 16
0.86199999 11.807 -0.96700001 120 57 13
0.86000001 11.789 -0.97000003 120 58 19
0.86000001 11.801 -0.963 96 70 57
0.85500002 11.782 -0.97100002 196 125 79
0.85600001 11.773 -0.97299999 184 114 63
0.82099998 11.743 -0.90499997 222 133 53
0.83899999 11.81 -0.74400002 170 100 64
0.83499998 11.81 -0.74599999 116 40 0
0.90499997 11.759 -0.972 169 66 0
0.90100002 11.757 -0.97100002 200 106 36
0.88700002 11.752 -0.95700002 191 101 51
0.884 11.732 -0.84600002 84 21 0
0.88200003 11.733 -0.84100002 136 60 0
0.87699997 11.731 -0.83899999 198 123 68
0.898 11.745 -0.82999998 142 62 0
0.83200002 11.769 -0.72299999 116 36 0
0.83499998 11.777 -0.72100002 103 30 0
0.85399997 11.776 -0.73699999 145 92 38
0.829 11.787 -0.74199998 126 34 0
0.83600003 11.806 -0.74800003 94 40 14
0.829 11.786 -0.73299998 147 69 5
0.82999998 11.778 -0.72399998 123 74 41
0.81900001 11.766 -0.73500001 162 124 87
0.85100001 11.777 -0.80599999 98 32 0
0.84500003 11.765 -0.81999999 104 70 45
0.84799999 11.777 -0.83099997 66 34 13
0.85299999 11.763 -0.74000001 243 125 29
0.84799999 11.762 -0.74900001 209 165 140
0.84899998 11.761 -0.745 242 127 36
0.85699999 11.768 -0.75 136 40 0
0.84799999 11.794 -0.76499999 98 62 38
0.83899999 11.776 -0.72100002 117 42 2
0.84899998 11.758 -0.73699999 182 131 76
0.84399998 11.756 -0.74599999 175 119 84
0.83099997 11.766 -0.74800003 101 53 30
0.83600003 11.769 -0.76099998 84 39 16
0.83399999 11.751 -0.755 129 100 92
0.83700001 11.755 -0.75300002 189 138 85
0.84500003 11.762 -0.75 186 80 4
0.83499998 11.751 -0.74900001 85 49 13
0.89300001 11.773 -0.84399998 115 70 29
0.89499998 11.769 -0.83399999 72 33 0
0.88800001 11.771 -0.83999997 109 80 62
0.89999998 11.76 -0.838 150 74 22
0.90399998 11.757 -0.84100002 93 78 75
0.90899998 11.757 -0.85500002 112 53 11
0.90600002 11.75 -0.83999997 213 145 98
0.89899999 11.754 -0.82999998 154 107 81
0.903 11.755 -0.83999997 94 58 36
0.86900002 11.773 -0.75099999 132 98 73
0.86000001 11.801 -0.81699997 68 23 4
0.85799998 11.788 -0.81099999 75 17 0
0.912 11.777 -0.94400001 146 52 0
0.903 11.777 -0.884 123 43 6
0.89499998 11.773 -0.86500001 100 45 25
0.90899998 11.754 -0.89999998 167 86 30
0.88599998 11.802 -0.97000003 112 77 47
0.88300002 11.802 -0.96600002 179 94 27
0.89899999 11.782 -0.93900001 189 136 104
0.912 11.773 -0.93900001 181 85 34
0.88700002 11.793 -0.917 119 60 30
0.86500001 11.804 -0.96200001 199 130 75
0.88599998 11.791 -0.912 64 11 0
0.89099997 11.735 -0.88 73 22 0
0.89200002 11.738 -0.87699997 91 46 17
0.898 11.746 -0.884 92 50 54
0.829 11.745 -0.89999998 245 164 75
0.833 11.747 -0.90100002 234 157 67
0.82999998 11.741 -0.89700001 248 185 131
0.838 11.744 -0.89499998 245 157 60
0.82499999 11.749 -0.89899999 255 202 146
0.829 11.748 -0.89499998 240 173 105
0.82700002 11.753 -0.89600003 253 201 144
0.852 11.767 -0.85500002 129 65 30
0.84299999 11.764 -0.838 104 72 51
0.84299999 11.754 -0.84500003 100 51 18
0.86699998 11.75 -0.82999998 134 93 73
0.85600001 11.789 -0.79699999 66 18 0
0.86400002 11.742 -0.838 90 52 33
0.87599999 11.739 -0.83600003 137 93 68
0.86900002 11.741 -0.83999997 77 47 49
0.85600001 11.741 -0.82999998 167 132 104
0.84799999 11.731 -0.83899999 127 90 63
0.89499998 11.774 -0.85600001 105 32 0
0.85000002 11.761 -0.73100001 211 100 29
0.86799997 11.775 -0.74000001 176 78 17
0.86199999 11.771 -0.73799998 187 81 21
0.86199999 11.783 -0.96899998 124 61 20
0.82200003 11.758 -0.90799999 209 114 46
0.829 11.756 -0.898 57 40 33
0.861 11.793 -0.963 137 73 25
0.86799997 11.788 -0.96200001 141 69 19
0.88999999 11.733 -0.89899999 161 95 60
0.87699997 11.779 -0.90499997 89 48 16
0.88200003 11.757 -0.958 152 67 26
0.861 11.768 -0.97100002 208 136 86
0.89700001 11.754 -0.95200002 222 120 54
0.89200002 11.761 -0.96899998 189 130 90
0.91399997 11.773 -0.958 154 86 41
0.86500001 11.74 -0.85500002 30 7 0
0.86900002 11.739 -0.85399997 143 92 61
0.866 11.739 -0.86000001 166 132 107
0.82999998 11.774 -0.72399998 103 33 0
0.82700002 11.768 -0.72899997 85 26 0
0.82499999 11.771 -0.74699998 112 96 83
0.82200003 11.761 -0.74000001 151 97 35
0.84600002 11.793 -0.75999999 109 83 70
0.84899998 11.787 -0.75599998 159 54 0
0.84299999 11.777 -0.75300002 225 140 85
0.85699999 11.788 -0.75700003 190 81 22
0.84100002 11.779 -0.72600001 130 81 41
0.84899998 11.775 -0.736 102 66 32
0.85699999 11.77 -0.796 108 53 14
0.85699999 11.768 -0.80500001 123 67 30
0.85799998 11.761 -0.79900002 107 52 13
0.85299999 11.763 -0.79900002 141 78 37
0.852 11.776 -0.77999997 106 51 12
0.84500003 11.759 -0.72799999 172 121 76
0.84899998 11.781 -0.75199997 98 95 104
0.861 11.787 -0.77100003 93 52 30
0.852 11.799 -0.76800001 106 61 28
0.87800002 11.732 -0.838 113 81 60
0.83999997 11.753 -0.73900002 113 62 7
0.83099997 11.764 -0.74599999 146 84 45
0.85299999 11.766 -0.76099998 173 119 81
0.85900003 11.796 -0.81599998 121 76 45
0.85600001 11.79 -0.81900001 51 9 0
0.90899998 11.766 -0.89999998 97 52 55
0.90799999 11.768 -0.89099997 211 126 61
0.90700001 11.759 -0.90499997 135 79 46
0.90799999 11.769 -0.90899998 144 129 126
0.89399999 11.777 -0.87 106 55 34
0.89700001 11.77 -0.87699997 108 38 2
0.90399998 11.772 -0.89200002 78 24 0
0.90399998 11.782 -0.90700001 97 43 15
0.90899998 11.782 -0.91399997 108 65 33
0.91299999 11.774 -0.91799998 42 15 6
0.88 11.746 -0.89899999 62 12 1
0.89099997 11.749 -0.912 88 42 8
0.88999999 11.787 -0.95899999 109 77 52
0.90799999 11.767 -0.94099998 159 68 23
0.90799999 11.768 -0.93699998 127 38 0
0.84399998 11.768 -0.833 216 157 115
0.83999997 11.752 -0.833 177 86 33
0.84799999 11.755 -0.81800002 149 129 118
0.82999998 11.753 -0.89200002 192 118 55
0.84399998 11.743 -0.84500003 137 100 71
0.85799998 11.778 -0.86400002 108 33 1
0.88599998 11.731 -0.88099998 99 49 26
0.85100001 11.765 -0.88 142 80 39
0.84100002 11.758 -0.88999999 160 78 28
0.84799999 11.77 -0.889 102 55 11
0.90600002 11.747 -0.84399998 136 71 29
0.90399998 11.747 -0.84200001 59 26 7
0.89099997 11.743 -0.833 123 78 55
0.88200003 11.746 -0.83499998 66 19 1
0.85600001 11.739 -0.83399999 218 97 24
0.89399999 11.777 -0.861 96 34 11
0.88099998 11.78 -0.84299999 42 22 15
0.87300003 11.779 -0.83499998 208 145 92
0.88099998 11.777 -0.96399999 53 10 0
0.82599998 11.769 -0.90899998 83 51 30
0.82700002 11.754 -0.90200001 170 77 8
0.88999999 11.732 -0.89499998 109 44 12
0.90200001 11.755 -0.921 100 43 16
0.89200002 11.761 -0.92799997 93 42 13
0.90499997 11.759 -0.94400001 137 46 2
0.90499997 11.758 -0.93900001 120 38 1
0.90100002 11.757 -0.95300001 252 148 87
0.90399998 11.759 -0.96200001 198 113 59
0.86000001 11.778 -0.963 101 37 0
0.86000001 11.771 -0.96700001 226 152 103
0.90799999 11.767 -0.95099998 210 110 51
0.86299998 11.749 -0.89600003 79 41 18
0.86699998 11.751 -0.90100002 161 98 67
0.85900003 11.741 -0.86299998 217 167 134
0.86299998 11.746 -0.87199998 114 50 14
0.83999997 11.753 -0.83899999 145 53 6
0.85699999 11.754 -0.87199998 131 91 66
0.82800001 11.771 -0.72799999 163 65 4
0.83099997 11.782 -0.72899997 153 89 45
0.838 11.775 -0.75800002 117 73 46
0.83399999 11.797 -0.736 153 62 5
0.833 11.766 -0.72299999 121 65 6
0.82599998 11.763 -0.73400003 62 44 30
0.85600001 11.766 -0.73699999 207 99 35
0.86799997 11.775 -0.76200002 115 84 63
0.87099999 11.784 -0.76300001 193 155 132
0.861 11.793 -0.75999999 104 81 67
0.86299998 11.788 -0.764 205 135 86
0.84500003 11.757 -0.73900002 250 129 24
0.83399999 11.753 -0.73699999 198 148 89
0.84899998 11.764 -0.75 203 102 24
0.852 11.773 -0.77499998 118 58 21
0.84399998 11.77 -0.759 242 188 150
0.84200001 11.765 -0.755 237 176 131
0.90700001 11.754 -0.85299999 42 10 0
0.89899999 11.76 -0.847 75 33 11
0.86000001 11.777 -0.80699998 101 55 22
0.86500001 11.778 -0.82099998 116 43 10
0.85500002 11.787 -0.824 97 28 0
0.85500002 11.781 -0.81800002 76 16 0
0.85399997 11.783 -0.82599998 120 47 12
0.89999998 11.78 -0.93000001 145 94 65
0.90399998 11.765 -0.88499999 189 103 54
0.90700001 11.77 -0.88999999 161 104 75
0.88800001 11.735 -0.89899999 98 75 57
0.87900001 11.792 -0.96200001 98 76 62
0.88499999 11.788 -0.95899999 116 62 26
0.912 11.775 -0.93400002 212 115 60
0.90100002 11.787 -0.90600002 80 51 37
0.85399997 11.772 -0.82999998 96 37 3
0.86500001 11.757 -0.82800001 124 50 5
0.85600001 11.754 -0.82200003 146 65 18
0.85000002 11.749 -0.82099998 128 47 2
0.85799998 11.758 -0.82300001 108 63 40
0.84399998 11.743 -0.83600003 117 81 59
0.84299999 11.745 -0.838 183 79 26
0.83399999 11.751 -0.89200002 143 63 2
0.83700001 11.756 -0.89200002 101 70 52
0.83499998 11.758 -0.89499998 114 59 28
0.838 11.75 -0.89200002 187 106 53
0.84600002 11.749 -0.89600003 203 110 32
0.88999999 11.775 -0.889 67 6 0
0.87 11.775 -0.89099997 40 10 0
0.861 11.787 -0.86799997 79 47 24
0.86900002 11.784 -0.83099997 66 41 19
0.88599998 11.731 -0.86699998 117 56 28
0.898 11.739 -0.85900003 100 69 48
0.89499998 11.746 -0.87699997 98 33 0
0.88599998 11.734 -0.88599998 80 33 13
0.88200003 11.735 -0.83700001 50 5 0
0.89700001 11.752 -0.83399999 51 12 0
0.84600002 11.74 -0.82999998 176 140 108
0.85900003 11.785 -0.796 106 60 36
0.85600001 11.74 -0.838 216 92 18
0.87699997 11.735 -0.85500002 97 34 3
0.88300002 11.777 -0.85100001 144 86 49
0.88099998 11.764 -0.83999997 143 91 54
0.88999999 11.763 -0.838 152 71 24
0.87699997 11.756 -0.838 84 53 32
0.87300003 11.775 -0.75599998 221 124 21
0.87300003 11.777 -0.74800003 194 97 3
0.884 11.759 -0.96100003 202 144 104
0.87099999 11.767 -0.963 174 121 79
0.87800002 11.764 -0.96499997 89 35 11
0.889 11.788 -0.92500001 84 24 0
0.85699999 11.75 -0.89999998 78 33 14
0.85399997 11.749 -0.89600003 180 95 31
0.85000002 11.749 -0.89600003 197 108 40
0.86400002 11.754 -0.89999998 156 92 57
0.829 11.773 -0.90600002 151 89 42
0.83099997 11.774 -0.90799999 120 57 14
0.82999998 11.752 -0.89999998 198 142 83
0.83499998 11.758 -0.89700001 163 68 10
0.83399999 11.764 -0.89999998 240 208 185
0.89899999 11.781 -0.94700003 165 113 76
0.85799998 11.778 -0.88499999 45 16 0
0.85500002 11.777 -0.89099997 118 91 80
0.85900003 11.773 -0.87599999 114 48 16
0.86299998 11.787 -0.88499999 85 22 4
0.861 11.78 -0.87699997 142 86 59
0.90700001 11.755 -0.91299999 146 82 36
0.903 11.755 -0.917 120 56 18
0.89899999 11.751 -0.91100001 119 87 74
0.88800001 11.756 -0.94300002 158 77 24
0.90100002 11.754 -0.93300003 94 56 35
0.90499997 11.76 -0.949 144 46 0
0.85900003 11.785 -0.96499997 89 27 0
0.88099998 11.758 -0.95599997 114 80 53
0.88099998 11.765 -0.94599998 163 111 74
0.912 11.775 -0.94800001 192 97 39
0.85100001 11.737 -0.84200001 97 55 39
0.85000002 11.748 -0.85000002 123 84 67
0.85000002 11.756 -0.889 108 77 48
0.86799997 11.741 -0.87099999 104 49 19
0.87599999 11.743 -0.88 57 26 6
0.838 11.777 -0.72299999 176 84 19
0.829 11.773 -0.74800003 129 66 25
0.84100002 11.777 -0.759 161 90 46
0.838 11.775 -0.74599999 137 58 17
0.86199999 11.77 -0.755 157 60 7
0.86900002 11.787 -0.76200002 160 151 152
0.875 11.78 -0.764 131 90 70
0.84899998 11.772 -0.78100002 108 99 102
0.90600002 11.747 -0.84799999 94 31 0
0.90600002 11.75 -0.85399997 83 23 0
0.86000001 11.775 -0.81599998 77 27 0
0.898 11.742 -0.903 125 108 101
0.90899998 11.761 -0.92400002 80 49 29
0.912 11.777 -0.93000001 168 69 10
0.90200001 11.763 -0.88200003 89 26 0
0.87400001 11.745 -0.88700002 106 64 42
0.84299999 11.746 -0.84200001 108 71 53
0.83200002 11.745 -0.89399999 167 92 27
0.83700001 11.749 -0.89200002 213 120 17
0.85799998 11.763 -0.86900002 66 33 18
0.86000001 11.779 -0.87199998 72 15 0
0.87300003 11.777 -0.82999998 128 59 18
0.866 11.776 -0.82999998 101 78 62
0.884 11.732 -0.87599999 85 48 30
0.884 11.732 -0.86799997 93 56 40
0.884 11.737 -0.88499999 70 34 20
0.875 11.761 -0.83899999 189 130 90
0.86699998 11.768 -0.82800001 106 75 46
0.861 11.768 -0.82300001 115 48 6
0.866 11.771 -0.82700002 128 54 9
0.88700002 11.738 -0.84100002 111 38 0
0.88700002 11.737 -0.84600002 79 36 19
0.84799999 11.743 -0.82300001 156 65 12
0.85600001 11.741 -0.83999997 121 85 59
0.87800002 11.734 -0.84799999 104 73 52
0.87699997 11.734 -0.85900003 82 25 0
0.89999998 11.763 -0.86699998 60 11 0
0.898 11.767 -0.86000001 52 30 19
0.89999998 11.764 -0.85799998 96 38 18
0.90399998 11.759 -0.85799998 45 11 1
0.90100002 11.756 -0.86000001 79 26 8
0.89899999 11.755 -0.861 110 42 7
0.89499998 11.749 -0.87 128 96 73
0.84799999 11.766 -0.72399998 176 85 28
0.88300002 11.763 -0.92500001 79 38 16
0.87800002 11.77 -0.92199999 105 61 36
0.88 11.787 -0.95899999 149 91 53
0.889 11.784 -0.91799998 98 44 16
0.88499999 11.776 -0.917 90 33 6
0.84899998 11.762 -0.89999998 145 96 66
0.85900003 11.749 -0.89600003 202 122 61
0.875 11.753 -0.90100002 48 0 0
0.90899998 11.757 -0.91500002 183 96 43
0.90899998 11.762 -0.921 132 44 0
0.89399999 11.759 -0.93599999 129 76 44
0.86299998 11.786 -0.96100003 120 53 1
0.86400002 11.775 -0.96399999 115 47 2
0.85699999 11.745 -0.85699999 104 69 50
0.86199999 11.751 -0.889 88 44 19
0.86500001 11.746 -0.88 115 68 42
0.86400002 11.741 -0.866 100 37 0
0.82700002 11.784 -0.736 125 33 0
0.82700002 11.771 -0.74000001 124 95 89
0.82599998 11.77 -0.73799998 190 95 13
0.829 11.776 -0.72799999 154 95 53
0.85799998 11.771 -0.73400003 197 91 31
0.83499998 11.757 -0.73400003 200 162 126
0.85500002 11.763 -0.79500002 108 60 37
0.84799999 11.757 -0.82200003 124 50 15
0.86000001 11.783 -0.81699997 77 42 20
0.87199998 11.778 -0.87800002 71 34 18
0.87900001 11.773 -0.926 111 85 70
0.86900002 11.779 -0.95899999 131 68 17
0.90899998 11.765 -0.93000001 75 31 32
0.85799998 11.766 -0.81999999 80 58 45
0.84100002 11.745 -0.83399999 106 39 0
0.84500003 11.746 -0.84500003 121 85 61
0.884 11.733 -0.87099999 83 37 13
0.89700001 11.777 -0.87900001 106 87 73
0.898 11.739 -0.84899998 96 65 44
0.88700002 11.735 -0.85399997 62 17 0
0.88599998 11.733 -0.86299998 143 79 51
0.88499999 11.734 -0.85900003 78 31 5
0.86900002 11.756 -0.833 121 56 14
0.90499997 11.75 -0.847 53 19 7
0.88999999 11.774 -0.86500001 116 61 22
0.90499997 11.756 -0.88700002 205 119 62
0.89999998 11.752 -0.88 123 94 78
0.89600003 11.754 -0.87 78 33 36
0.88300002 11.764 -0.96399999 65 4 0
0.884 11.763 -0.94300002 113 45 10
0.88599998 11.772 -0.94099998 126 68 30
0.889 11.787 -0.95499998 142 80 31
0.89899999 11.782 -0.921 67 43 31
0.84899998 11.775 -0.90399998 90 36 0
0.87 11.759 -0.903 85 29 16
0.87400001 11.767 -0.90100002 43 3 1
0.861 11.768 -0.898 109 60 28
0.87199998 11.76 -0.903 42 21 2
0.85100001 11.763 -0.89899999 117 44 3
0.88 11.767 -0.91399997 101 60 38
0.85399997 11.758 -0.88099998 67 35 22
0.90100002 11.757 -0.95700002 245 141 68
0.85100001 11.741 -0.84399998 216 106 43
0.85000002 11.752 -0.85100001 174 74 14
0.83099997 11.763 -0.72899997 151 104 62
0.83399999 11.763 -0.72500002 172 118 74
0.87900001 11.773 -0.91100001 122 100 87
0.89200002 11.781 -0.875 83 37 4
0.86799997 11.776 -0.87 144 104 79
0.89999998 11.748 -0.90600002 153 87 35
0.86699998 11.751 -0.89899999 125 69 42
0.88999999 11.779 -0.92699999 68 9 0
0.889 11.777 -0.94400001 145 78 51
0.91600001 11.772 -0.91900003 172 75 4
0.90499997 11.757 -0.92500001 115 37 1
0.903 11.756 -0.92199999 113 53 17
0.912 11.774 -0.92500001 208 110 47
0.861 11.762 -0.82200003 115 83 60
0.84200001 11.749 -0.82800001 140 67 26
0.84399998 11.745 -0.81999999 189 153 119
0.84399998 11.744 -0.83099997 139 47 6
0.88700002 11.735 -0.85000002 90 47 30
0.87 11.767 -0.96100003 99 36 0
0.87400001 11.771 -0.958 76 24 2
0.87800002 11.77 -0.96200001 103 40 7
0.88499999 11.776 -0.949 158 80 32
0.85299999 11.78 -0.90200001 191 104 50
0.88499999 11.755 -0.90700001 51 23 11
0.86199999 11.753 -0.87800002 90 26 1
0.82999998 11.763 -0.73000002 159 77 27
0.83099997 11.756 -0.741 162 117 75
0.88200003 11.776 -0.91100001 63 16 0
0.87400001 11.782 -0.95700002 182 119 66
0.86000001 11.767 -0.82200003 173 100 59
0.84399998 11.743 -0.83200002 92 57 29
0.89499998 11.746 -0.875 76 34 9
0.852 11.758 -0.85799998 174 103 71
0.88300002 11.772 -0.95200002 82 45 16
0.85699999 11.777 -0.903 63 35 14
0.83099997 11.758 -0.74400002 191 140 109
0.88800001 11.754 -0.91000003 151 85 50
0.89899999 11.757 -0.94800001 220 131 75
0 0 0 1 0 0 0 1 0 0 0 1 0 0 0 0 0 556 1 0 0
