ply
format ascii 1.0
comment PCL generated
element vertex 1166
property float x
property float y
property float z
property uchar red
property uchar green
property uchar blue
element camera 0
property float view_px
property float view_py
property float view_pz
property float x_axisx
property float x_axisy
property float x_axisz
property float y_axisx
property float y_axisy
property float y_axisz
property float z_axisx
property float z_axisy
property float z_axisz
property float focal
property float scalex
property float scaley
property float centerx
property float centery
property int viewportx
property int viewporty
property float k1
property float k2
end_header
9.0790005 -0.31799999 -0.78399998 41 19 0
9.1079998 -0.27900001 -0.73699999 149 114 74
9.1040001 -0.352 -0.71799999 100 74 41
9.0939999 -0.34400001 -0.70999998 151 122 88
9.1029997 -0.271 -0.72500002 38 23 30
9.1110001 -0.30700001 -0.69199997 140 90 57
9.1169996 -0.29699999 -0.68800002 72 36 10
9.1059999 -0.317 -0.70099998 143 118 87
9.1149998 -0.175 -0.64600003 206 180 155
9.1199999 -0.17299999 -0.64700001 143 128 121
9.1169996 -0.168 -0.65799999 255 212 146
9.1359997 -0.208 -0.639 218 194 182
9.125 -0.168 -0.70599997 101 73 52
9.1199999 -0.178 -0.713 110 94 81
9.1569996 -0.229 -0.70099998 100 77 43
9.1540003 -0.228 -0.69999999 154 128 111
9.0050001 -0.45500001 -0.69199997 168 143 103
9.1630001 -0.33199999 -0.85100001 94 75 61
9.177 -0.32800001 -0.83700001 32 10 0
9.1669998 -0.31600001 -0.83099997 121 98 82
9.1870003 -0.41600001 -0.86799997 18 2 2
9.1339998 -0.405 -0.83700001 135 111 101
9.1429996 -0.396 -0.83999997 34 12 1
9.1370001 -0.31900001 -0.79799998 139 112 91
9.1520004 -0.30599999 -0.81300002 121 104 94
9.1529999 -0.317 -0.79900002 97 71 44
9.151 -0.30700001 -0.81400001 68 35 18
9.1219997 -0.245 -0.80800003 163 135 85
9.1289997 -0.243 -0.81400001 143 99 70
9.1230001 -0.245 -0.80900002 146 119 100
9.1379995 -0.27200001 -0.727 120 55 13
9.1339998 -0.32100001 -0.77700001 82 52 16
9.1379995 -0.32300001 -0.79000002 68 37 9
9.1300001 -0.31400001 -0.78100002 85 54 34
9.1330004 -0.32699999 -0.77200001 87 28 0
9.1350002 -0.329 -0.76499999 98 66 43
9.1520004 -0.336 -0.78299999 132 106 83
9.1420002 -0.30700001 -0.69199997 70 50 39
9.0869999 -0.322 -0.80500001 136 91 60
9.1730003 -0.389 -0.85399997 38 19 23
9.1820002 -0.405 -0.85900003 113 107 117
9.1829996 -0.37599999 -0.83200002 38 22 9
9.1920004 -0.25999999 -0.85500002 103 64 33
9.1940002 -0.25400001 -0.85600001 53 18 0
9.243 -0.366 -0.67900002 41 16 0
9.1759996 -0.26800001 -0.83499998 65 35 24
9.1750002 -0.259 -0.84399998 128 118 119
9.1780005 -0.259 -0.84500003 59 31 20
9.1800003 -0.25600001 -0.84600002 37 24 8
9.1219997 -0.377 -0.65399998 209 184 130
9.1199999 -0.37599999 -0.653 36 16 17
9.1090002 -0.37 -0.66399997 40 21 23
9.125 -0.39500001 -0.65100002 64 30 2
9.1070004 -0.389 -0.71700001 65 43 29
9.2180004 -0.377 -0.713 100 74 57
9.2130003 -0.373 -0.722 46 14 1
9.2080002 -0.373 -0.71700001 83 55 43
9.2060003 -0.37900001 -0.71399999 70 50 39
9.1300001 -0.28400001 -0.75400001 147 114 79
9.1219997 -0.28600001 -0.75400001 107 94 86
9.1219997 -0.31799999 -0.75400001 107 57 30
9.1140003 -0.35100001 -0.676 46 19 0
9.1120005 -0.354 -0.68199998 34 13 0
9.1090002 -0.36899999 -0.68199998 185 161 115
9.1300001 -0.34999999 -0.68300003 65 49 34
9.198 -0.43700001 -0.833 55 41 38
9.1929998 -0.44299999 -0.83600003 10 0 0
9.1929998 -0.42500001 -0.838 40 21 23
9.1870003 -0.42399999 -0.81900001 26 7 1
9.1890001 -0.435 -0.815 88 65 51
9.2119999 -0.44999999 -0.85799998 80 72 70
9.1940002 -0.45199999 -0.84399998 16 0 0
9.1920004 -0.44600001 -0.833 65 19 0
9.2360001 -0.46599999 -0.75700003 6 0 0
9.0620003 -0.47 -0.63800001 88 47 27
9.0649996 -0.47600001 -0.64200002 139 111 100
9.0570002 -0.46599999 -0.63200003 37 19 9
9.0159998 -0.46599999 -0.67900002 116 65 34
9.0369997 -0.67799997 -0.616 117 74 42
9.1199999 -0.43900001 -0.67400002 87 53 44
9.118 -0.44100001 -0.66799998 90 69 42
9.1190004 -0.45199999 -0.68000001 85 57 43
9.1090002 -0.44299999 -0.67400002 26 9 2
9.1160002 -0.44299999 -0.67400002 255 243 210
9.1890001 -0.42300001 -0.65700001 52 33 18
9.1719999 -0.428 -0.66000003 198 171 142
9.191 -0.42399999 -0.65200001 131 133 146
9.1850004 -0.42199999 -0.65600002 146 129 113
9.1829996 -0.417 -0.662 138 128 126
9.1800003 -0.46900001 -0.68599999 16 1 0
9.1899996 -0.47799999 -0.66500002 153 119 84
9.1990004 -0.47799999 -0.66799998 136 108 87
9.1780005 -0.47499999 -0.68900001 48 34 21
9.1820002 -0.465 -0.69800001 96 65 37
9.1689997 -0.45300001 -0.71100003 66 34 19
9.1619997 -0.456 -0.71899998 114 97 89
9.1829996 -0.477 -0.69400001 122 99 81
9.1879997 -0.48699999 -0.66500002 104 78 53
9.2010002 -0.491 -0.66900003 125 82 50
9.1879997 -0.49900001 -0.67299998 74 36 17
9.1999998 -0.47600001 -0.71200001 104 91 75
9.1529999 -0.41299999 -0.61299998 89 54 24
9.1370001 -0.41 -0.61699998 147 116 121
9.165 -0.41499999 -0.61199999 120 119 133
9.1569996 -0.41600001 -0.61900002 64 29 9
9.1149998 -0.45699999 -0.67699999 109 77 52
9.1160002 -0.44999999 -0.67699999 37 16 0
9.0699997 -0.47099999 -0.648 50 16 14
9.1820002 -0.39899999 -0.60399997 101 51 14
9.1750002 -0.39700001 -0.602 121 103 103
9.1809998 -0.41999999 -0.64499998 125 127 140
9.1809998 -0.412 -0.64600003 118 99 85
9.1739998 -0.40900001 -0.64099997 122 105 97
9.165 -0.412 -0.63200003 45 25 24
9.1759996 -0.414 -0.61900002 94 91 100
9.0900002 -0.45699999 -0.69 108 85 67
9.0950003 -0.461 -0.69599998 115 97 77
9.1040001 -0.46799999 -0.69999999 171 154 138
9.0819998 -0.46200001 -0.69800001 183 153 127
9.0179996 -0.49599999 -0.73100001 189 168 147
9.0120001 -0.49399999 -0.72299999 46 9 1
9.0150003 -0.49000001 -0.73299998 61 24 6
9.1090002 -0.31799999 -0.787 88 34 0
9.1260004 -0.315 -0.78100002 208 183 161
9.125 -0.32100001 -0.75999999 80 47 40
9.1289997 -0.32600001 -0.77499998 56 36 37
9.1409998 -0.34400001 -0.78299999 206 182 146
9.1090002 -0.38800001 -0.68599999 134 126 139
9.1079998 -0.36700001 -0.69099998 255 228 180
9.085 -0.39500001 -0.68300003 71 49 28
9.0930004 -0.39300001 -0.68800002 111 82 66
9.0690002 -0.368 -0.65399998 113 85 48
9.0609999 -0.38699999 -0.64999998 70 52 50
9.0600004 -0.41999999 -0.74400002 110 73 46
9.0360003 -0.43000001 -0.74299997 116 82 47
9.0600004 -0.43200001 -0.722 42 10 0
9.0649996 -0.43399999 -0.722 109 72 46
9.0550003 -0.426 -0.72899997 160 109 66
9.0600004 -0.43000001 -0.72600001 148 102 66
9.0579996 -0.442 -0.71799999 65 33 0
9.066 -0.39199999 -0.69599998 68 46 33
9.0600004 -0.39300001 -0.69800001 79 48 56
9.0450001 -0.419 -0.73500001 128 98 70
9.0459995 -0.42199999 -0.74400002 46 16 5
9.0640001 -0.42399999 -0.73199999 67 39 28
9.0649996 -0.42500001 -0.74599999 138 123 116
9.059 -0.37799999 -0.69700003 96 69 52
9.0670004 -0.35800001 -0.69599998 245 231 222
9.0640001 -0.36899999 -0.69099998 82 55 34
9.066 -0.36899999 -0.69599998 93 68 48
9.1110001 -0.461 -0.69099998 173 155 135
9.1140003 -0.396 -0.70099998 88 55 36
9.1560001 -0.43200001 -0.75300002 17 2 0
9.1529999 -0.43099999 -0.76099998 39 13 0
9.1520004 -0.426 -0.75700003 49 35 34
9.151 -0.41999999 -0.74299997 28 9 2
9.1269999 -0.391 -0.81699997 220 202 178
9.1079998 -0.36899999 -0.72600001 149 134 129
9.1280003 -0.35800001 -0.78399998 178 132 98
9.1300001 -0.36000001 -0.78399998 54 25 9
9.1450005 -0.382 -0.83099997 22 1 0
9.1520004 -0.34799999 -0.83499998 106 106 98
9.1610003 -0.37200001 -0.81900001 118 98 91
9.1619997 -0.38100001 -0.82999998 107 93 92
9.1520004 -0.34799999 -0.83899999 31 31 21
9.1420002 -0.34400001 -0.84600002 48 30 20
9.052 -0.428 -0.77899998 98 76 62
9.1230001 -0.331 -0.755 44 24 23
9.1300001 -0.33700001 -0.74000001 43 26 10
9.1099997 -0.33899999 -0.78600001 63 38 18
9.0719995 -0.35800001 -0.70700002 175 157 147
9.0780001 -0.34599999 -0.69 240 231 198
9.0740004 -0.34999999 -0.69 156 130 95
9.066 -0.36000001 -0.67799997 130 103 76
9.052 -0.44600001 -0.71200001 77 48 14
9.0159998 -0.44600001 -0.736 53 19 7
9.007 -0.44100001 -0.71600002 85 44 22
9.1090002 -0.44800001 -0.68000001 158 128 102
8.9960003 -0.47 -0.60600001 81 53 39
8.993 -0.47600001 -0.60399997 53 20 3
9.0299997 -0.47499999 -0.68000001 136 107 75
9.033 -0.47299999 -0.685 103 93 94
9.0419998 -0.48300001 -0.69199997 226 210 177
9.0050001 -0.491 -0.68000001 108 89 75
9.0100002 -0.48899999 -0.69199997 51 25 2
9.0389996 -0.45500001 -0.85699999 155 144 138
9.0430002 -0.45199999 -0.84899998 255 217 155
9.0419998 -0.449 -0.85399997 139 90 57
9.0469999 -0.449 -0.86500001 159 125 97
9.0109997 -0.48199999 -0.704 43 23 14
8.9460001 -0.58499998 -0.74400002 41 19 8
8.9460001 -0.58999997 -0.745 77 47 36
8.9709997 -0.616 -0.76800001 145 131 131
9.0579996 -0.38 -0.66799998 65 38 43
9.0620003 -0.38699999 -0.68599999 49 30 32
9.1599998 -0.235 -0.71899998 51 24 13
9.1529999 -0.233 -0.70499998 106 83 69
9.1309996 -0.294 -0.67299998 213 179 133
9.132 -0.29899999 -0.66799998 196 165 118
9.1440001 -0.237 -0.70899999 59 28 7
9.1309996 -0.145 -0.62199998 255 194 131
9.1169996 -0.14399999 -0.625 105 71 44
9.1099997 -0.15700001 -0.63700002 111 82 64
9.1230001 -0.161 -0.63999999 166 125 103
9.1210003 -0.161 -0.65399998 168 148 115
9.1190004 -0.16500001 -0.64600003 227 202 172
9.1239996 -0.15899999 -0.65899998 214 194 157
9.1230001 -0.16500001 -0.65100002 121 90 61
9.0349998 -0.65899998 -0.634 90 77 61
9.033 -0.65899998 -0.62900001 97 70 51
9.033 -0.64300001 -0.69800001 110 74 42
9.0539999 -0.65600002 -0.76099998 152 131 104
9.0179996 -0.634 -0.70899999 77 49 35
9.0240002 -0.46399999 -0.63800001 93 78 81
9.0200005 -0.46900001 -0.63999999 90 62 48
9.0559998 -0.463 -0.63099998 121 78 46
9.052 -0.46399999 -0.639 84 68 71
9.0500002 -0.48199999 -0.63599998 30 15 8
9.052 -0.48100001 -0.64399999 38 23 18
9.0430002 -0.49200001 -0.64499998 28 17 13
9.0480003 -0.491 -0.64999998 40 15 0
9.033 -0.49200001 -0.62400001 36 14 1
9.0220003 -0.48699999 -0.61799997 38 18 9
9.0209999 -0.47799999 -0.61299998 61 27 17
9.0229998 -0.46000001 -0.61400002 104 83 80
8.993 -0.498 -0.55800003 165 120 99
8.9910002 -0.493 -0.54799998 84 47 28
9.0089998 -0.65399998 -0.56199998 148 114 87
9.0299997 -0.662 -0.565 45 19 6
9.0430002 -0.477 -0.52700001 53 29 19
8.9919996 -0.50800002 -0.54400003 31 11 10
8.9960003 -0.50199997 -0.55299997 165 104 73
9.0109997 -0.48899999 -0.51700002 129 110 95
9.0089998 -0.49599999 -0.53500003 135 69 21
9.0030003 -0.50999999 -0.53600001 171 103 42
9.0150003 -0.479 -0.51599997 91 54 36
9.026 -0.65700001 -0.67699999 16 2 1
9.0249996 -0.65499997 -0.69499999 46 17 0
9.0139999 -0.68699998 -0.71100003 51 41 32
9.04 -0.50599998 -0.57800001 47 18 0
9.0290003 -0.65399998 -0.671 50 21 3
9.0340004 -0.65600002 -0.61900002 199 135 71
9.0410004 -0.66100001 -0.61900002 133 98 70
9.0120001 -0.64899999 -0.63200003 48 22 9
9.0319996 -0.505 -0.62900001 37 18 4
9.0279999 -0.50599998 -0.62800002 48 26 15
9.0380001 -0.51099998 -0.69099998 11 0 0
9.0369997 -0.47099999 -0.69599998 206 178 154
8.9919996 -0.48800001 -0.61199999 54 38 41
8.9960003 -0.479 -0.60699999 73 22 1
9.0030003 -0.648 -0.63800001 116 63 23
9.0389996 -0.51099998 -0.58700001 27 13 0
9.0290003 -0.50999999 -0.60600001 51 33 21
9.0039997 -0.47400001 -0.58999997 97 58 29
9.0010004 -0.47099999 -0.59399998 72 50 36
9.0369997 -0.50199997 -0.59299999 79 27 5
8.993 -0.66799998 -0.68300003 57 30 13
8.9899998 -0.67400002 -0.69499999 50 24 9
8.9910002 -0.65799999 -0.66799998 92 66 51
9.0109997 -0.66799998 -0.68599999 41 21 12
9.0039997 -0.671 -0.69499999 83 67 54
8.9720001 -0.64200002 -0.69599998 56 25 33
8.974 -0.66100001 -0.68000001 232 185 139
8.9809999 -0.66000003 -0.69199997 96 77 70
8.9820004 -0.64399999 -0.67699999 143 112 92
8.9790001 -0.64600003 -0.69300002 61 37 37
8.9770002 -0.64399999 -0.69800001 59 18 0
8.9829998 -0.653 -0.70099998 85 66 59
9.0190001 -0.44499999 -0.51300001 124 92 69
9.0410004 -0.458 -0.50599998 120 89 68
9.0139999 -0.66900003 -0.648 70 53 37
9.007 -0.66399997 -0.67400002 76 41 19
9.2030001 -0.43399999 -0.69199997 69 32 14
9.2040005 -0.435 -0.69700003 14 4 3
9.2150002 -0.42899999 -0.69199997 30 17 11
9.1940002 -0.45100001 -0.68800002 28 15 7
9.2110004 -0.42699999 -0.68699998 14 3 1
9.2370005 -0.382 -0.65799999 154 141 135
9.2379999 -0.37400001 -0.67299998 66 38 14
9.2340002 -0.38299999 -0.68800002 34 14 5
9.2309999 -0.38 -0.65399998 124 65 35
9.2159996 -0.389 -0.653 128 95 88
9.2150002 -0.382 -0.64700001 111 57 21
9.2229996 -0.40000001 -0.65600002 47 34 28
9.2200003 -0.39300001 -0.65700001 26 12 9
9.2130003 -0.40200001 -0.67199999 37 8 12
9.2159996 -0.41 -0.69499999 9 1 0
9.2159996 -0.41800001 -0.67699999 45 32 24
9.2209997 -0.46700001 -0.71600002 56 28 40
9.2110004 -0.46700001 -0.70999998 15 4 0
9.2189999 -0.465 -0.736 56 27 32
9.1990004 -0.49700001 -0.66500002 92 53 24
9.2349997 -0.46599999 -0.736 8 0 0
9.21 -0.43599999 -0.70599997 9 0 1
9.1969995 -0.449 -0.70099998 10 0 0
9.2159996 -0.428 -0.69599998 20 9 7
9.1940002 -0.45100001 -0.69199997 11 0 0
9.224 -0.44100001 -0.65100002 40 23 15
9.2119999 -0.40200001 -0.745 35 17 17
9.2139997 -0.398 -0.74900001 97 73 61
9.2040005 -0.41299999 -0.73299998 16 5 0
9.2370005 -0.46000001 -0.77100003 10 4 4
9.2360001 -0.45699999 -0.77999997 15 5 4
9.2340002 -0.458 -0.77100003 8 2 2
9.2340002 -0.458 -0.77499998 8 0 0
9.2360001 -0.456 -0.75099999 7 3 4
9.2419996 -0.43900001 -0.73799998 4 0 0
9.2270002 -0.43900001 -0.76300001 65 48 41
9.2150002 -0.45699999 -0.76200002 26 5 0
9.2119999 -0.44400001 -0.755 21 2 0
9.2309999 -0.44600001 -0.76300001 53 36 29
9.1929998 -0.44299999 -0.755 48 34 31
9.1940002 -0.44499999 -0.75300002 27 12 7
9.1789999 -0.44499999 -0.764 53 40 34
9.1789999 -0.45100001 -0.75199997 28 1 0
9.1639996 -0.44 -0.755 14 0 0
9.1750002 -0.454 -0.74400002 35 7 0
9.2309999 -0.46799999 -0.74000001 43 6 0
9.1630001 -0.41 -0.699 26 6 0
9.1300001 -0.31900001 -0.69800001 196 132 86
9.1759996 -0.391 -0.69400001 26 11 16
9.1800003 -0.389 -0.69099998 21 1 0
9.1850004 -0.38800001 -0.69700003 50 29 28
9.1700001 -0.39899999 -0.69999999 46 26 17
9.1379995 -0.34799999 -0.68400002 72 39 20
9.1359997 -0.34599999 -0.68800002 49 22 3
9.1370001 -0.34099999 -0.68300003 132 96 74
9.1619997 -0.40099999 -0.69 36 12 0
9.1239996 -0.31400001 -0.66399997 214 182 131
9.1309996 -0.31099999 -0.67000002 88 52 18
9.125 -0.315 -0.66600001 58 37 16
9.1440001 -0.30000001 -0.84799999 106 76 42
9.1540003 -0.31 -0.83700001 40 23 15
9.151 -0.322 -0.84399998 66 28 9
9.1619997 -0.308 -0.83200002 84 51 32
9.1739998 -0.347 -0.84899998 106 92 81
9.1789999 -0.37599999 -0.84100002 60 25 5
9.1730003 -0.373 -0.83999997 126 107 93
9.1669998 -0.30599999 -0.833 50 19 0
9.1960001 -0.25400001 -0.84500003 60 24 8
9.1560001 -0.296 -0.866 33 18 15
9.1639996 -0.29899999 -0.85900003 28 19 10
9.1730003 -0.27500001 -0.84600002 73 41 20
9.2040005 -0.301 -0.59799999 174 158 145
9.2019997 -0.30500001 -0.59399998 195 182 173
9.1459999 -0.36199999 -0.60100001 221 196 199
9.1549997 -0.35100001 -0.55699998 67 44 28
9.1549997 -0.35800001 -0.56800002 105 67 44
9.1169996 -0.361 -0.542 226 189 163
9.2110004 -0.38299999 -0.47499999 155 101 73
9.2320004 -0.292 -0.551 90 81 76
9.2320004 -0.30899999 -0.56 46 26 17
9.2259998 -0.31 -0.565 244 185 117
9.1440001 -0.333 -0.56 252 242 250
9.1230001 -0.347 -0.546 188 149 116
9.132 -0.36700001 -0.56800002 94 47 5
9.1199999 -0.36300001 -0.56999999 213 160 116
9.1529999 -0.336 -0.54299998 104 82 68
9.1719999 -0.34 -0.55699998 37 15 18
9.2010002 -0.40700001 -0.59200001 109 84 79
9.2040005 -0.43799999 -0.58700001 100 97 106
9.2069998 -0.45199999 -0.58700001 129 121 98
9.2139997 -0.43799999 -0.59399998 65 33 34
9.2040005 -0.43399999 -0.58999997 79 48 28
9.1949997 -0.43799999 -0.58099997 93 56 40
9.1780005 -0.41999999 -0.57700002 123 96 87
9.1820002 -0.42399999 -0.59299999 53 31 33
9.2110004 -0.447 -0.58700001 84 28 1
9.2309999 -0.40200001 -0.58200002 103 69 34
9.2299995 -0.417 -0.58200002 147 109 88
9.2460003 -0.41100001 -0.57999998 139 101 82
9.2399998 -0.42199999 -0.57499999 65 40 20
9.2370005 -0.42399999 -0.56999999 48 26 13
9.1540003 -0.40400001 -0.59500003 83 59 21
9.2010002 -0.40700001 -0.60699999 73 55 41
9.118 -0.391 -0.56300002 160 91 49
9.132 -0.39300001 -0.55599999 104 52 30
9.1309996 -0.37200001 -0.55599999 94 46 23
9.1289997 -0.36899999 -0.54799998 126 89 70
9.1110001 -0.40099999 -0.58499998 42 26 13
9.1099997 -0.39399999 -0.59299999 144 118 105
9.1479998 -0.366 -0.52600002 137 83 36
9.1459999 -0.34799999 -0.53299999 75 43 20
9.1379995 -0.34999999 -0.52499998 255 242 208
9.1169996 -0.368 -0.546 69 38 0
9.0889997 -0.36700001 -0.64300001 94 61 44
9.1049995 -0.37099999 -0.65499997 89 57 36
9.1009998 -0.361 -0.59100002 195 148 104
9.1020002 -0.36199999 -0.58700001 216 164 114
9.1070004 -0.35600001 -0.58499998 255 251 248
9.1520004 -0.21600001 -0.62800002 254 234 199
9.1459999 -0.242 -0.60500002 76 38 0
9.1569996 -0.252 -0.60299999 124 62 1
9.1709995 -0.236 -0.61900002 171 147 113
9.1800003 -0.23999999 -0.60900003 71 24 0
9.1230001 -0.35600001 -0.52899998 254 237 191
9.0039997 -0.44100001 -0.51700002 130 93 74
9.007 -0.43599999 -0.52200001 157 113 66
9.1079998 -0.30000001 -0.67699999 138 102 80
9.1040001 -0.30700001 -0.66799998 141 114 84
9.1350002 -0.168 -0.63499999 78 64 61
9.0319996 -0.449 -0.514 161 91 39
9.1829996 -0.27200001 -0.58999997 101 72 38
9.2189999 -0.28799999 -0.55000001 132 98 61
9.1590004 -0.35699999 -0.58999997 163 144 140
9.2049999 -0.30000001 -0.57499999 59 36 20
9.1949997 -0.292 -0.583 154 131 100
9.2299995 -0.273 -0.55900002 255 240 224
9.2259998 -0.27599999 -0.56400001 244 246 243
9.2279997 -0.27900001 -0.55000001 77 42 10
9.2209997 -0.28099999 -0.56400001 251 253 250
9.2220001 -0.28400001 -0.56699997 247 246 241
9.1780005 -0.25999999 -0.59500003 51 24 5
9.198 -0.26699999 -0.59500003 171 151 127
9.2030001 -0.27700001 -0.58700001 64 46 44
9.1990004 -0.303 -0.58999997 168 136 98
9.1920004 -0.32499999 -0.58700001 252 250 251
9.1759996 -0.36000001 -0.61500001 249 232 216
9.1730003 -0.359 -0.61000001 84 54 30
9.1800003 -0.36500001 -0.616 108 65 30
9.1590004 -0.43200001 -0.76999998 34 7 0
9.1470003 -0.433 -0.778 104 82 69
9.0819998 -0.493 -0.73299998 30 0 0
9.165 -0.46000001 -0.727 77 55 44
9.177 -0.461 -0.72799999 29 9 0
9.1700001 -0.458 -0.72299999 31 6 0
9.1289997 -0.42899999 -0.80599999 103 93 102
9.1370001 -0.43099999 -0.78299999 81 62 56
9.1370001 -0.426 -0.778 105 90 85
9.1289997 -0.42699999 -0.78399998 90 70 61
9.1370001 -0.42699999 -0.76800001 61 34 15
9.1859999 -0.442 -0.81 122 110 94
9.1890001 -0.43799999 -0.81 68 49 35
9.1739998 -0.43599999 -0.80599999 49 15 5
9.1759996 -0.43399999 -0.80699998 110 98 86
9.0559998 -0.50700003 -0.69800001 30 1 0
9.0550003 -0.49200001 -0.70999998 16 5 1
9.1149998 -0.37900001 -0.66299999 39 13 0
9.1560001 -0.40200001 -0.671 60 30 6
9.1599998 -0.40900001 -0.68400002 55 36 29
9.1879997 -0.44800001 -0.69099998 103 83 76
9.0649996 -0.42500001 -0.755 75 34 16
9.066 -0.45500001 -0.75199997 93 57 43
9.0220003 -0.5 -0.57700002 42 19 11
9.0270004 -0.505 -0.57800001 55 33 20
9.0080004 -0.50099999 -0.565 110 55 16
9.0120001 -0.50199997 -0.56800002 101 74 63
9.0369997 -0.43799999 -0.53899997 84 32 11
9.0340004 -0.44400001 -0.54500002 42 15 0
9.0120001 -0.46599999 -0.52100003 103 40 5
9.0159998 -0.46399999 -0.58600003 83 54 48
9.132 -0.37799999 -0.51999998 126 90 42
9.0100002 -0.43200001 -0.528 113 68 45
9.007 -0.435 -0.52600002 98 66 51
9.1059999 -0.37 -0.588 107 71 35
9.1079998 -0.38100001 -0.58899999 109 64 31
9.1129999 -0.37 -0.59899998 160 113 71
9.0740004 -0.38800001 -0.64099997 56 24 0
9.0690002 -0.375 -0.648 105 70 42
9.0769997 -0.382 -0.64899999 53 27 2
8.9689999 -0.68099999 -0.60900003 106 73 54
8.9790001 -0.68400002 -0.58700001 45 14 0
9.007 -0.65200001 -0.59100002 159 145 142
8.9890003 -0.68199998 -0.59899998 132 88 49
9.0139999 -0.505 -0.537 110 61 20
9.0139999 -0.49700001 -0.53399998 87 51 27
9.0089998 -0.5 -0.537 86 42 7
9.0089998 -0.523 -0.54299998 112 75 46
9.0279999 -0.49000001 -0.53899997 90 76 73
9.0389996 -0.47499999 -0.53899997 129 54 12
9.0279999 -0.48199999 -0.53799999 90 56 29
9.0080004 -0.49200001 -0.53799999 65 35 11
9.0030003 -0.456 -0.55000001 67 31 15
9.0109997 -0.454 -0.54900002 48 19 3
9.0100002 -0.47799999 -0.53399998 68 39 25
9.0229998 -0.46000001 -0.57200003 84 43 11
9.0179996 -0.5 -0.55199999 73 42 22
9.0150003 -0.495 -0.546 118 59 15
9.0109997 -0.486 -0.55400002 62 37 17
9.0139999 -0.48300001 -0.54699999 94 29 9
8.974 -0.64399999 -0.72600001 62 29 36
8.967 -0.64099997 -0.72600001 90 72 72
9.0139999 -0.68000001 -0.727 19 0 0
9.0120001 -0.67699999 -0.71200001 82 70 58
9.0179996 -0.67400002 -0.71100003 74 43 23
8.9980001 -0.676 -0.71200001 95 59 35
8.9589996 -0.662 -0.75700003 17 0 0
8.9709997 -0.662 -0.759 82 66 51
9.0240002 -0.65700001 -0.61699998 119 88 67
8.9899998 -0.62 -0.82499999 70 47 55
8.9899998 -0.61900002 -0.82300001 49 20 6
8.9879999 -0.61799997 -0.81599998 47 29 19
8.9910002 -0.62599999 -0.81300002 64 45 39
8.993 -0.62300003 -0.82499999 109 82 61
8.9560003 -0.60500002 -0.77700001 46 27 13
8.9870005 -0.61699998 -0.81400001 49 23 32
8.9890003 -0.59299999 -0.77399999 35 18 8
9.0080004 -0.50400001 -0.65600002 33 23 22
9.0039997 -0.49599999 -0.653 53 31 18
8.9689999 -0.63 -0.70099998 41 14 0
8.9689999 -0.64200002 -0.71799999 168 140 118
8.9530001 -0.59299999 -0.741 65 34 42
8.9490004 -0.59100002 -0.74000001 15 5 4
8.9589996 -0.62400001 -0.71499997 54 35 21
8.9530001 -0.62 -0.722 131 113 113
8.948 -0.65499997 -0.741 51 23 2
8.9569998 -0.64899999 -0.74199998 49 26 12
8.9530001 -0.64300001 -0.741 53 21 0
8.9469995 -0.58600003 -0.74000001 8 0 0
9.0139999 -0.634 -0.73299998 31 1 0
9.0209999 -0.63999999 -0.72399998 144 124 100
8.9989996 -0.62199998 -0.74199998 80 51 35
9.0019999 -0.61699998 -0.73900002 70 45 40
9.026 -0.61199999 -0.71100003 79 44 12
9.0209999 -0.5 -0.77899998 53 35 23
9.0229998 -0.51200002 -0.76899999 43 31 33
9.0459995 -0.53899997 -0.75400001 33 16 9
9.052 -0.528 -0.77499998 67 56 54
9.0100002 -0.61400002 -0.72100002 37 9 0
8.9829998 -0.65100002 -0.65200001 65 43 29
9.0109997 -0.65499997 -0.61000001 181 110 48
8.9799995 -0.65600002 -0.61199999 251 190 136
8.9790001 -0.65200001 -0.60000002 97 54 11
8.9940004 -0.62699997 -0.67900002 126 69 26
8.9949999 -0.484 -0.67799997 56 37 23
9.0059996 -0.484 -0.67000002 62 34 23
8.9989996 -0.48199999 -0.68900001 46 21 25
9.0019999 -0.48300001 -0.64999998 46 19 24
9.0109997 -0.49900001 -0.648 50 36 35
9.0120001 -0.50300002 -0.65399998 8 2 6
8.9829998 -0.64999998 -0.60299999 100 53 27
8.9770002 -0.64899999 -0.59200001 137 90 46
9.0209999 -0.51700002 -0.60100001 54 30 18
9.007 -0.51599997 -0.59299999 45 25 14
8.993 -0.65200001 -0.625 83 55 31
9.0030003 -0.648 -0.63300002 128 73 32
8.9940004 -0.64700001 -0.574 90 67 36
9.0010004 -0.64099997 -0.57300001 131 87 50
9.0050001 -0.64700001 -0.583 192 129 78
9.0019999 -0.509 -0.57700002 60 32 10
9.0089998 -0.56800002 -0.79100001 66 45 28
9.0170002 -0.574 -0.77700001 44 7 0
9.0159998 -0.57200003 -0.787 147 129 119
9.0240002 -0.56 -0.81099999 103 76 67
9.0299997 -0.56800002 -0.80800003 105 92 83
9.0270004 -0.55800003 -0.81400001 74 48 33
9.0129995 -0.55199999 -0.80699998 144 128 115
9.0159998 -0.55900002 -0.80500001 87 59 38
8.9919996 -0.60399997 -0.85900003 154 131 115
8.9989996 -0.61000001 -0.86699998 125 95 61
8.9720001 -0.597 -0.77600002 56 17 2
8.967 -0.59100002 -0.77100003 71 44 53
8.96 -0.583 -0.76200002 47 16 0
8.9770002 -0.58499998 -0.75199997 64 41 27
9.0100002 -0.61299998 -0.741 111 85 60
9.0059996 -0.61299998 -0.73400003 57 15 1
9.0240002 -0.50199997 -0.81800002 74 36 23
9.0209999 -0.495 -0.824 61 38 20
9.0200005 -0.49700001 -0.829 176 163 173
9.0170002 -0.54299998 -0.80400002 87 75 75
9.0129995 -0.55599999 -0.79299998 64 45 31
9.0120001 -0.54900002 -0.80400002 58 47 45
9.0220003 -0.493 -0.829 58 40 30
9.0159998 -0.509 -0.86000001 23 5 1
9.026 -0.505 -0.866 128 105 91
9.0240002 -0.49900001 -0.87 173 160 170
9.0290003 -0.50099999 -0.87 144 125 119
9.0530005 -0.465 -0.86299998 71 44 35
8.9709997 -0.61900002 -0.77700001 55 17 6
8.967 -0.639 -0.764 55 18 26
8.9799995 -0.63599998 -0.76499999 58 23 30
9.0059996 -0.62 -0.74199998 85 55 29
9.0139999 -0.56900001 -0.80000001 34 14 13
9.0509996 -0.61199999 -0.84200001 37 15 1
9.052 -0.60500002 -0.83999997 33 9 0
9.059 -0.611 -0.84600002 33 15 15
9.0410004 -0.61500001 -0.80800003 31 12 5
9.0469999 -0.61400002 -0.81099999 84 71 54
9.0459995 -0.60799998 -0.80199999 29 6 0
9.0240002 -0.639 -0.76899999 152 118 90
9.0159998 -0.639 -0.773 125 96 62
8.9949999 -0.62800002 -0.75099999 76 43 26
8.9980001 -0.62900001 -0.76599997 72 42 16
9.0010004 -0.63200003 -0.76099998 55 21 9
9.2370005 -0.463 -0.78600001 31 4 0
9.2320004 -0.46799999 -0.78500003 22 1 0
9.1350002 -0.421 -0.82599998 26 16 25
9.0600004 -0.44400001 -0.85100001 126 77 45
9.0629997 -0.44999999 -0.86400002 93 56 27
9.0629997 -0.44499999 -0.84399998 32 5 0
9.0480003 -0.43900001 -0.85399997 158 129 111
9.0539999 -0.43700001 -0.84500003 86 50 36
9.1169996 -0.42300001 -0.78799999 50 24 7
9.0550003 -0.43900001 -0.83899999 176 140 82
9.1169996 -0.35699999 -0.80699998 93 82 78
9.1359997 -0.36700001 -0.80199999 54 41 35
9.0439997 -0.45100001 -0.81699997 254 225 183
9.0360003 -0.491 -0.77999997 26 6 0
9.0450001 -0.43900001 -0.77600002 37 20 10
9.0459995 -0.42899999 -0.78500003 120 97 81
9.0459995 -0.435 -0.77999997 52 32 21
9.0480003 -0.433 -0.78399998 77 31 7
9.0620003 -0.456 -0.81 24 5 1
9.0629997 -0.46399999 -0.81099999 47 22 2
9.0489998 -0.47 -0.79900002 110 83 53
9.0200005 -0.49399999 -0.792 112 75 56
9.0200005 -0.49700001 -0.79100001 61 21 9
9.0229998 -0.493 -0.78799999 57 46 40
9.0179996 -0.49599999 -0.77600002 77 48 32
9.0290003 -0.50300002 -0.77499998 111 98 92
9.0279999 -0.493 -0.78200001 56 33 17
9.0740004 -0.46900001 -0.84100002 119 90 72
9.0780001 -0.47400001 -0.83700001 57 31 18
9.0559998 -0.479 -0.84799999 64 42 5
9.0209999 -0.51099998 -0.75800002 25 9 9
9.0220003 -0.514 -0.75999999 59 30 22
9.0190001 -0.505 -0.73900002 33 6 0
9.0229998 -0.50400001 -0.72399998 49 30 34
9.0430002 -0.61699998 -0.81400001 27 7 8
9.0410004 -0.64399999 -0.76499999 77 30 12
9.0349998 -0.64300001 -0.76599997 112 86 49
9.0430002 -0.639 -0.76999998 90 47 30
9.0579996 -0.602 -0.81800002 63 33 23
9.0679998 -0.60699999 -0.81599998 17 3 0
9.066 -0.60799998 -0.82700002 82 52 41
9.0539999 -0.58499998 -0.85500002 56 28 17
9.0410004 -0.583 -0.86400002 48 22 23
9.0649996 -0.56999999 -0.85299999 81 59 48
9.0620003 -0.56699997 -0.83600003 57 38 24
9.1759996 -0.45300001 -0.829 55 37 25
9.1859999 -0.45300001 -0.829 32 15 8
9.059 -0.52499998 -0.77499998 26 13 7
9.0690002 -0.60100001 -0.83700001 42 20 9
9.1859999 -0.46700001 -0.852 190 180 168
9.0100002 -0.60900003 -0.72399998 74 35 18
9.0249996 -0.55400002 -0.74299997 124 84 59
9.0209999 -0.55699998 -0.74800003 85 39 13
9.0360003 -0.52700001 -0.72799999 14 9 13
8.9809999 -0.574 -0.75300002 108 80 69
9.0089998 -0.54799998 -0.75300002 65 34 42
8.96 -0.57499999 -0.73799998 74 55 48
9.0089998 -0.49599999 -0.70700002 45 7 0
9.0150003 -0.49200001 -0.69300002 55 20 0
9.0209999 -0.49700001 -0.68900001 106 83 69
9.0209999 -0.50599998 -0.65200001 6 0 2
9.04 -0.50099999 -0.68900001 64 52 28
9.0450001 -0.50199997 -0.69499999 238 211 184
9.0690002 -0.50599998 -0.72100002 48 11 0
8.9890003 -0.68099999 -0.57499999 92 17 0
9.0310001 -0.676 -0.60100001 156 106 83
8.9840002 -0.66000003 -0.77200001 63 27 13
9.0170002 -0.62199998 -0.727 76 41 21
9.0109997 -0.63700002 -0.77999997 23 4 0
9.0559998 -0.54000002 -0.75 14 4 3
9.0480003 -0.54100001 -0.73199999 68 31 12
9.026 -0.53500003 -0.73799998 208 163 122
9.0799999 -0.48699999 -0.736 86 59 42
9.0690002 -0.495 -0.74299997 51 14 0
9.0719995 -0.49000001 -0.73299998 43 16 9
9.2320004 -0.46799999 -0.78100002 18 1 0
9.2329998 -0.46700001 -0.77700001 27 12 5
9.2049999 -0.43700001 -0.75099999 66 47 40
9.1999998 -0.43799999 -0.75300002 29 16 8
9.224 -0.433 -0.74199998 42 20 6
9.2299995 -0.42699999 -0.74299997 46 23 7
9.1680002 -0.37599999 -0.82599998 58 36 25
9.1719999 -0.37599999 -0.83200002 56 33 25
9.0290003 -0.45699999 -0.69800001 66 34 21
9.0279999 -0.52499998 -0.73900002 61 37 25
9.0270004 -0.52999997 -0.74000001 61 38 22
9.0710001 -0.477 -0.727 76 45 27
9.0360003 -0.493 -0.76599997 77 51 38
9.2580004 -0.39500001 -0.58899999 45 12 0
9.2580004 -0.39300001 -0.58999997 182 143 112
9.2290001 -0.34299999 -0.57800001 80 50 40
9.2209997 -0.34400001 -0.58600003 76 67 58
9.2159996 -0.32800001 -0.588 250 249 247
9.1940002 -0.294 -0.58200002 102 72 48
9.2069998 -0.30599999 -0.56800002 242 216 179
9.2080002 -0.30599999 -0.56300002 153 115 79
9.1739998 -0.336 -0.579 195 152 107
9.1669998 -0.34299999 -0.57300001 140 130 120
9.1870003 -0.329 -0.57999998 158 123 81
9.1879997 -0.331 -0.58600003 254 252 253
9.1949997 -0.331 -0.55800003 55 40 37
9.2620001 -0.366 -0.61199999 254 233 214
9.2119999 -0.315 -0.59399998 237 229 218
9.1940002 -0.354 -0.60900003 253 241 227
9.2159996 -0.35699999 -0.62900001 84 41 7
9.2270002 -0.36399999 -0.61400002 55 38 48
9.2209997 -0.403 -0.54400003 51 19 4
9.2279997 -0.37400001 -0.63999999 81 65 66
9.2220001 -0.38999999 -0.60500002 122 93 89
9.2130003 -0.38999999 -0.60100001 81 50 58
9.2080002 -0.391 -0.60299999 97 46 19
9.1610003 -0.31799999 -0.79500002 53 19 10
9.1599998 -0.32499999 -0.79400003 85 56 38
9.1499996 -0.329 -0.79299998 137 107 83
9.1700001 -0.26800001 -0.79900002 51 23 1
9.1689997 -0.255 -0.79400003 86 75 73
9.1619997 -0.25299999 -0.80299997 58 25 6
9.165 -0.26100001 -0.80199999 60 42 28
9.1730003 -0.26800001 -0.82800001 107 58 28
9.1709995 -0.27000001 -0.81900001 21 3 0
9.1730003 -0.27500001 -0.81699997 82 66 66
9.1750002 -0.414 -0.85500002 135 134 150
9.1800003 -0.41600001 -0.85000002 159 156 167
9.1499996 -0.435 -0.81599998 26 12 3
9.1660004 -0.44499999 -0.82599998 22 3 0
9.1599998 -0.44299999 -0.82800001 69 42 25
9.25 -0.41499999 -0.51700002 55 37 23
9.2469997 -0.41600001 -0.50400001 73 56 48
9.2510004 -0.419 -0.51599997 31 13 0
9.2460003 -0.41999999 -0.50199997 37 20 10
9.2559996 -0.414 -0.47799999 109 97 99
9.2290001 -0.377 -0.52700001 97 51 27
9.1990004 -0.26800001 -0.60000002 254 231 197
9.1899996 -0.27200001 -0.60799998 36 14 3
9.2670002 -0.41800001 -0.44999999 157 112 57
9.2089996 -0.301 -0.597 222 181 125
9.2360001 -0.27900001 -0.565 252 237 216
9.2349997 -0.27500001 -0.55900002 219 213 213
9.1850004 -0.34299999 -0.56300002 171 159 159
9.1899996 -0.34799999 -0.56300002 77 45 22
9.1949997 -0.34 -0.56 152 117 97
9.2399998 -0.41299999 -0.55000001 56 17 0
9.2580004 -0.41499999 -0.44999999 154 94 42
9.2629995 -0.40599999 -0.45500001 96 56 20
9.2410002 -0.417 -0.59100002 86 34 12
9.2690001 -0.44 -0.59299999 165 148 122
9.1700001 -0.368 -0.57200003 123 105 91
9.125 -0.375 -0.52399999 68 40 36
9.191 -0.32100001 -0.55599999 247 207 172
9.1809998 -0.354 -0.56400001 97 69 45
9.1850004 -0.36300001 -0.56900001 131 122 115
9.1569996 -0.38600001 -0.57099998 149 112 86
9.2550001 -0.43399999 -0.58600003 137 132 138
9.2510004 -0.45100001 -0.57800001 107 85 62
9.2419996 -0.465 -0.57999998 55 26 8
9.2299995 -0.442 -0.57099998 77 56 37
9.2360001 -0.42899999 -0.56099999 41 22 16
9.2320004 -0.43099999 -0.56400001 26 6 0
9.2399998 -0.389 -0.43700001 183 141 91
9.2270002 -0.412 -0.46399999 63 29 28
9.2200003 -0.38299999 -0.44600001 162 127 63
9.3199997 -0.528 -0.611 58 44 33
9.3190002 -0.52399999 -0.625 127 107 108
9.3170004 -0.51999998 -0.60299999 67 44 36
9.3140001 -0.51800001 -0.602 25 5 0
9.2609997 -0.40400001 -0.58999997 72 37 15
9.2460003 -0.42899999 -0.454 142 110 85
9.2480001 -0.43099999 -0.45699999 183 154 138
9.3079996 -0.528 -0.62099999 108 67 39
9.3079996 -0.52899998 -0.616 104 73 55
9.3079996 -0.52600002 -0.60699999 56 45 43
9.3140001 -0.52600002 -0.60600001 112 92 81
9.2290001 -0.389 -0.463 52 24 23
9.2370005 -0.38299999 -0.45500001 144 68 19
9.2379999 -0.42399999 -0.52100003 116 66 31
9.2279997 -0.42500001 -0.52999997 85 48 30
9.2349997 -0.42500001 -0.54100001 26 6 0
9.2229996 -0.42399999 -0.537 161 108 68
9.2880001 -0.48500001 -0.59399998 80 53 24
9.3000002 -0.47999999 -0.59200001 65 44 25
9.3009996 -0.484 -0.59200001 86 66 42
9.25 -0.435 -0.46599999 69 38 17
9.2270002 -0.41499999 -0.48800001 35 9 0
9.2259998 -0.41100001 -0.491 42 19 13
9.2189999 -0.41600001 -0.50800002 67 37 11
9.2110004 -0.40700001 -0.50599998 52 29 23
9.2150002 -0.40900001 -0.44299999 71 50 45
9.2180004 -0.41100001 -0.44499999 167 135 112
9.217 -0.39199999 -0.44499999 158 119 86
9.2340002 -0.39700001 -0.47799999 97 57 32
9.2340002 -0.39700001 -0.45899999 71 35 13
9.1470003 -0.38499999 -0.52700001 74 40 5
9.1459999 -0.373 -0.52600002 112 60 10
9.1689997 -0.38999999 -0.51999998 46 17 3
9.1689997 -0.39199999 -0.52499998 105 70 68
9.1560001 -0.42300001 -0.64600003 135 118 111
9.158 -0.419 -0.653 31 0 0
9.1459999 -0.42699999 -0.65499997 252 237 208
9.165 -0.41999999 -0.65100002 121 121 133
9.217 -0.43399999 -0.67299998 46 10 0
9.2150002 -0.42399999 -0.68000001 13 2 0
9.2040005 -0.40599999 -0.65700001 59 17 3
9.2010002 -0.414 -0.65399998 74 33 13
9.2119999 -0.40700001 -0.65700001 23 12 8
9.132 -0.414 -0.63499999 193 188 195
9.0749998 -0.39700001 -0.64099997 102 71 42
9.085 -0.39899999 -0.65200001 109 80 84
9.0710001 -0.40099999 -0.65100002 70 41 46
9.0740004 -0.403 -0.66000003 221 197 171
9.1590004 -0.41800001 -0.66299999 96 77 60
9.1709995 -0.42500001 -0.66100001 251 234 216
9.1230001 -0.403 -0.667 187 159 145
9.1160002 -0.42399999 -0.64700001 90 67 49
9.1269999 -0.42300001 -0.64300001 97 59 36
9.1049995 -0.43399999 -0.65899998 76 47 17
9.1090002 -0.44100001 -0.66500002 113 90 74
9.1110001 -0.44600001 -0.66600001 50 23 6
9.0860004 -0.46200001 -0.67799997 64 46 36
9.0939999 -0.449 -0.67400002 27 12 5
9.1059999 -0.454 -0.67400002 140 114 81
9.2139997 -0.43000001 -0.64499998 117 102 97
9.2089996 -0.43799999 -0.63300002 100 55 14
9.2379999 -0.37900001 -0.65899998 132 86 50
9.2309999 -0.42300001 -0.63 64 47 31
9.2279997 -0.42899999 -0.62900001 33 17 1
9.2299995 -0.43399999 -0.62 31 2 0
9.2279997 -0.42899999 -0.625 36 20 4
9.2259998 -0.43000001 -0.64499998 19 4 0
9.2290001 -0.428 -0.61299998 55 38 22
9.2279997 -0.42899999 -0.61699998 45 28 12
9.2159996 -0.40000001 -0.65899998 29 18 16
9.2209997 -0.405 -0.65399998 111 94 78
9.2270002 -0.43000001 -0.64899999 13 0 0
9.2320004 -0.43200001 -0.61299998 25 8 0
9.2270002 -0.43700001 -0.61199999 33 0 0
9.217 -0.46200001 -0.57599998 97 80 70
9.2180004 -0.47 -0.58700001 60 40 41
9.2080002 -0.46200001 -0.583 61 38 32
9.2320004 -0.45899999 -0.602 75 53 30
9.2270002 -0.465 -0.60000002 85 69 17
9.2209997 -0.45899999 -0.602 96 51 28
9.2299995 -0.44800001 -0.60600001 59 33 10
9.2519999 -0.421 -0.47999999 60 24 0
9.2550001 -0.426 -0.47600001 131 78 47
9.2419996 -0.396 -0.59899998 130 110 112
9.2449999 -0.405 -0.59200001 187 136 105
9.2200003 -0.36300001 -0.64700001 60 20 8
9.2250004 -0.36300001 -0.66399997 93 50 31
9.2309999 -0.36500001 -0.65700001 85 72 66
9.2290001 -0.36000001 -0.667 103 64 31
9.0369997 -0.45500001 -0.54000002 79 62 44
9.0319996 -0.463 -0.55699998 32 14 0
9.1599998 -0.37799999 -0.634 77 45 20
9.1459999 -0.37599999 -0.61900002 96 73 57
9.1879997 -0.37799999 -0.66600001 127 89 66
9.1879997 -0.37099999 -0.66399997 89 55 43
9.1899996 -0.37 -0.67000002 44 25 27
9.1520004 -0.27000001 -0.84600002 82 54 33
9.1470003 -0.27000001 -0.83899999 40 13 0
9.1599998 -0.27399999 -0.861 59 40 34
9.1370001 -0.315 -0.83499998 88 50 31
9.118 -0.31200001 -0.81300002 119 94 74
9.125 -0.30899999 -0.78899997 165 140 100
9.1269999 -0.31200001 -0.78899997 185 158 113
9.092 -0.32300001 -0.77999997 65 35 9
9.0819998 -0.31600001 -0.78299999 71 19 0
9.1940002 -0.42500001 -0.741 94 69 75
9.1850004 -0.43200001 -0.75 71 60 64
9.1230001 -0.25799999 -0.72600001 244 224 217
9.1300001 -0.26100001 -0.72799999 170 139 110
9.1269999 -0.26300001 -0.72600001 50 33 43
9.1350002 -0.27700001 -0.73299998 181 137 100
9.1289997 -0.273 -0.72799999 115 82 49
9.1359997 -0.285 -0.74800003 178 144 106
9.1099997 -0.185 -0.727 241 225 199
9.1370001 -0.228 -0.63800001 255 241 228
9.0799999 -0.345 -0.71899998 168 119 76
9.1099997 -0.32699999 -0.71600002 51 25 8
9.1090002 -0.31600001 -0.736 25 6 8
9.092 -0.27700001 -0.736 130 105 83
9.0860004 -0.33199999 -0.69700003 208 151 98
9.1000004 -0.32600001 -0.70599997 133 111 64
9.099 -0.28600001 -0.75999999 120 76 47
9.1099997 -0.26800001 -0.73799998 78 51 30
9.1520004 -0.241 -0.74400002 68 45 13
9.165 -0.241 -0.76800001 128 97 79
9.1700001 -0.259 -0.77499998 69 45 33
9.1669998 -0.252 -0.76800001 74 63 57
9.1829996 -0.292 -0.82099998 66 44 31
9.1759996 -0.28799999 -0.81400001 78 56 43
9.1759996 -0.301 -0.81400001 152 124 103
9.177 -0.308 -0.81 58 27 9
9.1820002 -0.31799999 -0.80000001 69 55 46
9.1440001 -0.26899999 -0.83499998 41 13 1
9.1490002 -0.27399999 -0.84100002 63 21 0
9.1470003 -0.28200001 -0.861 73 45 24
9.1490002 -0.28 -0.866 130 107 101
9.099 -0.186 -0.73299998 155 145 135
9.1660004 -0.30500001 -0.80599999 67 40 31
9.0819998 -0.32600001 -0.78899997 223 191 166
9.1140003 -0.31200001 -0.72000003 153 125 86
9.1129999 -0.31799999 -0.72399998 24 5 9
9.1090002 -0.359 -0.72799999 71 36 17
9.1260004 -0.338 -0.68900001 86 68 48
9.1070004 -0.31200001 -0.69099998 210 155 116
9.1280003 -0.168 -0.64600003 115 81 54
9.125 -0.17 -0.64300001 169 153 153
9.1169996 -0.167 -0.69099998 134 101 86
9.1199999 -0.169 -0.68900001 120 106 93
9.1199999 -0.16599999 -0.69 154 113 69
9.1199999 -0.16500001 -0.69099998 95 66 36
9.1709995 -0.25400001 -0.62199998 117 95 84
9.1800003 -0.26300001 -0.61500001 177 155 142
9.1780005 -0.25299999 -0.616 67 53 52
9.125 -0.17 -0.69499999 120 104 89
9.0089998 -0.454 -0.69499999 176 107 52
9.1230001 -0.34999999 -0.81999999 63 44 40
9.151 -0.322 -0.85399997 33 13 12
9.1689997 -0.336 -0.85299999 106 83 75
9.1870003 -0.41600001 -0.875 17 1 1
9.1560001 -0.403 -0.84500003 122 119 130
9.1829996 -0.40099999 -0.84399998 46 14 3
9.1479998 -0.32100001 -0.80599999 70 42 28
9.1190004 -0.248 -0.81900001 80 67 59
9.1210003 -0.244 -0.81300002 155 127 105
9.151 -0.243 -0.77200001 156 112 73
9.1490002 -0.24600001 -0.76800001 79 63 50
9.1389999 -0.25099999 -0.76499999 248 228 177
9.1309996 -0.273 -0.72799999 205 176 146
9.1269999 -0.317 -0.755 100 72 35
9.1289997 -0.31999999 -0.759 63 37 2
9.1029997 -0.34799999 -0.80000001 90 63 52
9.0979996 -0.322 -0.80900002 57 28 12
9.1169996 -0.34900001 -0.792 92 59 42
9.1239996 -0.345 -0.79299998 255 225 188
9.1230001 -0.33199999 -0.78299999 73 27 1
9.1440001 -0.33899999 -0.745 163 136 115
9.1420002 -0.34099999 -0.75199997 26 9 2
9.1379995 -0.34900001 -0.75300002 41 21 10
9.1379995 -0.33199999 -0.74400002 115 91 79
9.1630001 -0.391 -0.75599998 107 88 74
9.158 -0.38999999 -0.73900002 67 48 52
9.177 -0.38999999 -0.74599999 111 84 65
9.1429996 -0.32300001 -0.79500002 137 109 87
9.1339998 -0.40200001 -0.838 15 1 0
9.1730003 -0.38299999 -0.84600002 65 38 19
9.184 -0.40900001 -0.86799997 20 0 4
9.1870003 -0.41 -0.86799997 14 0 0
9.1879997 -0.41 -0.87400001 24 7 0
9.1549997 -0.34799999 -0.83499998 70 32 11
9.1540003 -0.36199999 -0.80199999 173 138 110
9.1569996 -0.34 -0.78600001 125 95 71
9.1700001 -0.347 -0.815 31 6 12
9.1800003 -0.345 -0.80599999 132 101 81
9.1730003 -0.33399999 -0.80299997 42 15 20
9.1590004 -0.34400001 -0.79100001 146 115 97
9.1809998 -0.333 -0.80599999 124 104 95
9.1859999 -0.40599999 -0.76700002 34 15 0
9.1700001 -0.42500001 -0.76599997 19 0 0
9.1820002 -0.40700001 -0.75700003 23 11 11
9.1700001 -0.42199999 -0.77100003 94 61 44
9.1879997 -0.384 -0.81999999 59 38 21
9.2110004 -0.375 -0.72600001 97 69 57
9.2040005 -0.39399999 -0.75700003 123 93 55
9.1820002 -0.35699999 -0.78200001 33 6 0
9.1759996 -0.34799999 -0.78600001 163 132 111
9.1789999 -0.354 -0.778 33 10 0
9.1750002 -0.35299999 -0.78600001 114 84 60
9.1940002 -0.37200001 -0.78799999 37 13 3
9.2060003 -0.382 -0.78399998 51 22 8
9.2040005 -0.37900001 -0.78799999 16 0 0
9.184 -0.35600001 -0.79400003 162 129 112
9.1859999 -0.37 -0.80000001 127 91 67
9.1780005 -0.35100001 -0.801 68 39 33
9.1890001 -0.37400001 -0.80599999 99 69 58
9.1750002 -0.359 -0.82200003 59 36 22
9.125 -0.24699999 -0.82700002 158 113 74
9.1450005 -0.26899999 -0.80699998 33 15 11
9.1389999 -0.26899999 -0.80599999 129 100 82
9.2320004 -0.44 -0.76499999 99 82 74
9.2290001 -0.45500001 -0.77700001 42 22 15
9.2340002 -0.44 -0.76099998 40 22 12
9.2250004 -0.45899999 -0.78500003 27 13 2
9.224 -0.45899999 -0.77999997 73 60 54
9.198 -0.405 -0.83099997 36 0 0
9.1960001 -0.412 -0.82599998 72 51 50
9.1940002 -0.419 -0.84799999 32 10 0
9.1490002 -0.375 -0.65499997 119 89 63
9.1239996 -0.389 -0.64499998 109 78 60
9.118 -0.384 -0.63999999 63 42 37
9.1070004 -0.38800001 -0.722 63 39 13
9.2010002 -0.35699999 -0.67500001 54 35 31
9.21 -0.359 -0.67400002 83 68 61
9.1090002 -0.373 -0.68699998 183 165 127
9.1949997 -0.44600001 -0.81800002 30 10 0
9.2379999 -0.46900001 -0.75800002 9 0 0
9.2379999 -0.46900001 -0.76099998 13 0 0
9.2180004 -0.42699999 -0.704 96 78 78
9.2089996 -0.419 -0.708 21 11 10
9.2069998 -0.433 -0.71100003 95 82 66
9.0620003 -0.47 -0.648 99 64 44
9.0150003 -0.472 -0.67500001 54 11 0
9.0480003 -0.46799999 -0.63499999 173 127 93
9.0290003 -0.48699999 -0.63 11 0 0
9.0389996 -0.65799999 -0.61299998 129 67 18
9.1239996 -0.40700001 -0.69 123 122 130
9.1890001 -0.41800001 -0.66299999 9 0 0
9.1070004 -0.46700001 -0.69499999 155 132 114
9.1820002 -0.49900001 -0.662 51 34 27
9.1879997 -0.50199997 -0.66399997 93 75 73
9.2279997 -0.45100001 -0.64099997 26 20 24
9.2259998 -0.449 -0.63800001 33 19 6
9.2399998 -0.458 -0.60299999 95 74 53
9.1160002 -0.45899999 -0.69099998 54 30 18
9.1140003 -0.46200001 -0.69 87 67 66
9.1709995 -0.417 -0.61799997 107 106 120
9.092 -0.47299999 -0.69499999 120 87 54
9.085 -0.47 -0.685 47 25 27
9.1730003 -0.47999999 -0.64700001 118 88 62
9.1800003 -0.479 -0.65600002 45 7 0
9.1689997 -0.484 -0.64999998 100 55 22
9.2019997 -0.472 -0.71200001 45 32 16
9.1990004 -0.428 -0.62199998 46 17 21
9.2019997 -0.43200001 -0.61500001 113 112 126
9.2019997 -0.42699999 -0.63300002 24 4 0
9.1960001 -0.41600001 -0.61699998 59 40 25
9.1990004 -0.40099999 -0.60799998 83 48 16
9.2049999 -0.389 -0.60799998 89 51 15
9.1820002 -0.40700001 -0.59200001 155 137 137
9.1669998 -0.39700001 -0.602 76 44 23
9.0389996 -0.428 -0.73199999 47 17 0
9.0769997 -0.46599999 -0.71499997 142 114 93
9.085 -0.47099999 -0.70099998 36 19 12
9.0830002 -0.46200001 -0.69800001 138 112 87
9.1079998 -0.33000001 -0.78600001 61 39 42
9.132 -0.31799999 -0.773 141 112 68
9.1269999 -0.331 -0.76700002 28 12 13
9.1300001 -0.331 -0.759 52 20 0
9.1079998 -0.36000001 -0.69 228 206 157
9.0979996 -0.36899999 -0.70700002 62 49 41
9.0970001 -0.384 -0.70499998 255 233 223
9.0950003 -0.37599999 -0.69599998 145 122 104
9.0900002 -0.38999999 -0.69300002 244 224 189
9.0600004 -0.39300001 -0.65899998 74 47 52
9.0609999 -0.38800001 -0.65499997 50 29 26
9.0600004 -0.40099999 -0.65700001 114 96 92
9.0450001 -0.42899999 -0.73000002 47 5 0
9.0439997 -0.417 -0.755 68 41 24
9.0430002 -0.42199999 -0.75599998 46 10 0
9.0450001 -0.41600001 -0.75999999 98 68 58
9.0419998 -0.428 -0.75599998 60 17 0
9.0509996 -0.41 -0.75400001 107 83 45
9.059 -0.42699999 -0.72899997 80 44 22
9.0670004 -0.43200001 -0.727 70 43 32
9.0810003 -0.37200001 -0.71899998 52 38 37
9.1000004 -0.37900001 -0.72000003 66 57 60
9.1789999 -0.442 -0.76200002 35 1 0
9.1920004 -0.43900001 -0.75199997 63 48 45
9.1709995 -0.428 -0.76200002 25 7 3
9.2019997 -0.442 -0.75700003 164 149 144
9.1459999 -0.39500001 -0.759 52 18 6
9.1309996 -0.336 -0.78500003 76 27 0
9.0489998 -0.41600001 -0.76599997 155 120 101
9.0559998 -0.42300001 -0.764 60 22 3
9.1199999 -0.32600001 -0.74900001 27 10 2
9.1429996 -0.338 -0.75800002 52 21 3
9.1459999 -0.34299999 -0.78399998 152 125 96
9.125 -0.33500001 -0.74900001 71 49 38
9.125 -0.33700001 -0.69599998 107 85 61
9.1219997 -0.32699999 -0.70499998 41 23 19
9.1389999 -0.38800001 -0.792 39 16 0
9.1400003 -0.38600001 -0.796 43 22 5
9.1379995 -0.40200001 -0.78100002 101 67 42
9.0229998 -0.45500001 -0.73400003 98 70 56
9.026 -0.46599999 -0.73400003 118 73 50
9.0200005 -0.46900001 -0.72899997 96 65 47
9.0819998 -0.39500001 -0.67299998 253 230 188
9.0959997 -0.456 -0.68300003 51 25 2
8.9969997 -0.463 -0.61199999 41 18 2
9.0080004 -0.48699999 -0.69099998 50 24 7
9.0010004 -0.48100001 -0.69400001 80 66 63
9.04 -0.456 -0.85500002 118 80 61
8.9630003 -0.61299998 -0.75599998 82 38 11
9.0579996 -0.37099999 -0.68099999 96 70 43
9.0600004 -0.38100001 -0.68800002 61 31 41
9.132 -0.29899999 -0.67199999 163 123 71
9.1330004 -0.31 -0.67299998 141 83 45
9.1549997 -0.23899999 -0.71399999 151 87 41
9.1230001 -0.15000001 -0.63099998 138 114 90
9.1269999 -0.161 -0.63800001 192 176 151
9.1420002 -0.222 -0.61900002 124 100 66
9.1490002 -0.23899999 -0.61799997 119 81 60
9.1549997 -0.226 -0.639 208 189 157
9.0349998 -0.65700001 -0.62300003 98 82 85
9.0159998 -0.61799997 -0.71100003 65 34 6
9.0240002 -0.67799997 -0.72299999 9 0 0
9.0270004 -0.648 -0.71700001 23 6 0
9.0279999 -0.65100002 -0.70499998 63 35 24
9.0240002 -0.65399998 -0.71499997 103 86 68
8.9840002 -0.67000002 -0.699 103 67 43
9.0190001 -0.63599998 -0.72500002 191 174 156
9.0120001 -0.648 -0.72899997 106 85 64
9.0120001 -0.63200003 -0.68900001 85 63 42
9.0080004 -0.47099999 -0.63700002 57 25 10
9.0559998 -0.46900001 -0.63499999 41 22 8
9.0209999 -0.484 -0.62099999 45 30 11
9.0030003 -0.5 -0.61900002 66 49 39
9.0109997 -0.46200001 -0.61500001 38 15 9
8.9969997 -0.46799999 -0.59799999 110 70 44
9.0010004 -0.46700001 -0.61900002 175 151 125
9.007 -0.46900001 -0.62300003 87 58 44
9.0209999 -0.671 -0.57300001 90 69 24
9.04 -0.479 -0.537 96 40 7
9.04 -0.46799999 -0.53299999 99 52 26
9 -0.51300001 -0.53600001 134 69 3
9.0010004 -0.49900001 -0.53899997 49 20 4
9.0039997 -0.64300001 -0.653 68 21 3
9.026 -0.65700001 -0.68099999 27 9 7
9.0220003 -0.671 -0.71200001 122 109 93
9.0200005 -0.65700001 -0.67199999 21 8 2
9.0249996 -0.64899999 -0.65200001 57 36 19
9.0209999 -0.47 -0.67500001 161 119 94
9.0310001 -0.47400001 -0.65799999 28 6 0
9 -0.50400001 -0.56800002 40 17 3
9 -0.509 -0.56999999 56 21 0
9.0120001 -0.50800002 -0.62699997 33 10 0
9.0080004 -0.50099999 -0.634 27 2 0
9.0109997 -0.50199997 -0.63200003 53 35 33
9.0129995 -0.51599997 -0.61400002 125 101 89
8.9919996 -0.479 -0.61400002 54 22 11
9.0010004 -0.479 -0.602 98 53 32
9.0080004 -0.47600001 -0.59500003 148 91 48
9.033 -0.50300002 -0.59500003 87 67 66
8.993 -0.67000002 -0.68400002 51 25 10
8.9820004 -0.662 -0.68199998 152 105 61
8.974 -0.67400002 -0.68800002 92 66 53
8.9809999 -0.66900003 -0.69 79 52 41
9.0170002 -0.66799998 -0.69 64 27 9
9.0270004 -0.44999999 -0.54500002 45 9 0
9.0439997 -0.47499999 -0.50700003 57 9 0
9.0450001 -0.45899999 -0.528 101 47 11
9.0129995 -0.64700001 -0.653 58 27 6
9.0129995 -0.64700001 -0.65700001 103 75 51
9.0170002 -0.64999998 -0.66100001 85 64 43
9.0109997 -0.648 -0.66399997 38 12 0
9.224 -0.37900001 -0.68099999 56 19 0
9.2200003 -0.37799999 -0.67299998 121 81 55
9.2220001 -0.419 -0.69499999 12 0 0
9.224 -0.41800001 -0.69999999 10 0 0
9.2379999 -0.37900001 -0.68800002 42 20 9
9.2399998 -0.43599999 -0.73400003 7 2 0
9.2399998 -0.43599999 -0.73799998 8 2 2
9.2130003 -0.42500001 -0.64300001 124 107 91
9.2089996 -0.428 -0.634 46 21 14
9.2150002 -0.42399999 -0.62300003 49 30 15
9.2279997 -0.37599999 -0.66100001 89 50 17
9.1920004 -0.5 -0.66500002 121 111 112
9.1949997 -0.49900001 -0.65700001 55 32 16
9.1990004 -0.45199999 -0.704 132 110 87
9.2060003 -0.41100001 -0.73000002 23 12 8
9.2010002 -0.42399999 -0.73500001 70 54 39
9.2390003 -0.449 -0.73799998 124 119 125
9.2370005 -0.44299999 -0.74199998 122 121 129
9.2349997 -0.44800001 -0.75599998 60 49 43
9.2390003 -0.44100001 -0.73299998 4 0 0
9.2349997 -0.45699999 -0.75400001 5 1 0
9.2340002 -0.449 -0.75099999 48 39 34
9.2299995 -0.46599999 -0.75199997 9 0 0
9.1639996 -0.412 -0.69400001 49 34 37
9.1730003 -0.42199999 -0.69999999 113 87 96
9.1789999 -0.419 -0.68900001 80 54 39
9.1890001 -0.44299999 -0.70700002 238 223 200
9.198 -0.43799999 -0.70099998 13 0 0
9.1879997 -0.39399999 -0.64499998 174 139 99
9.1829996 -0.39399999 -0.62400001 255 228 184
9.2139997 -0.39199999 -0.65100002 125 110 105
9.1520004 -0.403 -0.736 64 42 31
9.1549997 -0.40400001 -0.69099998 44 30 19
9.1750002 -0.396 -0.69599998 46 29 22
9.1280003 -0.31999999 -0.67799997 107 84 52
9.1269999 -0.331 -0.676 28 4 0
9.1450005 -0.29899999 -0.85299999 134 89 56
