ply
format ascii 1.0
comment PCL generated
element vertex 82
property float x
property float y
property float z
property uchar red
property uchar green
property uchar blue
element camera 1
property float view_px
property float view_py
property float view_pz
property float x_axisx
property float x_axisy
property float x_axisz
property float y_axisx
property float y_axisy
property float y_axisz
property float z_axisx
property float z_axisy
property float z_axisz
property float focal
property float scalex
property float scaley
property float centerx
property float centery
property int viewportx
property int viewporty
property float k1
property float k2
end_header
-7.0609999 12.476 -0.68099999 114 76 53
-7.0510001 12.464 -0.66799998 174 125 92
-7.0479999 12.461 -0.67400002 130 77 27
-7.0669999 12.485 -0.67299998 153 101 61
-7.073 12.483 -0.68400002 150 110 85
-7.0479999 12.48 -0.66399997 179 120 88
-7.0510001 12.49 -0.66399997 140 92 46
-7.0170002 12.491 -0.67199999 163 119 80
-7.013 12.511 -0.67699999 85 47 26
-7.0120001 12.5 -0.68000001 128 57 5
-7.0159998 12.484 -0.67400002 186 135 88
-7.052 12.469 -0.68199998 82 51 22
-7.0469999 12.466 -0.67199999 175 125 90
-7.0419998 12.474 -0.66799998 176 124 87
-7.0250001 12.497 -0.66500002 201 120 54
-7.026 12.495 -0.66399997 145 106 65
-7.027 12.501 -0.65799999 156 80 28
-7.0640001 12.488 -0.67500001 151 104 74
-7.0679998 12.497 -0.69 160 133 66
-7.0430002 12.497 -0.65899998 129 96 77
-7.0440001 12.502 -0.66399997 153 104 72
-7.0669999 12.482 -0.68400002 141 92 51
-7.0430002 12.466 -0.69 175 119 70
-7.046 12.474 -0.69499999 132 93 64
-7.0510001 12.473 -0.69800001 81 56 26
-7.026 12.466 -0.69199997 87 49 36
-7.0320001 12.472 -0.69099998 117 61 26
-7.0279999 12.472 -0.68199998 127 108 102
-7.046 12.485 -0.69099998 147 127 116
-7.0349998 12.488 -0.69700003 116 80 56
-7.0549998 12.485 -0.66799998 139 97 59
-7.0560002 12.483 -0.67299998 170 122 82
-7.0440001 12.47 -0.67199999 133 82 35
-7.0159998 12.484 -0.68199998 155 135 126
-7.0219998 12.486 -0.69099998 217 158 100
-7.02 12.492 -0.68199998 138 88 51
-7.0250001 12.49 -0.69400001 202 100 28
-7.0580001 12.494 -0.67299998 199 103 17
-7.046 12.494 -0.67199999 105 46 4
-7.0250001 12.505 -0.66299999 114 85 53
-7.0549998 12.473 -0.69 147 87 37
-7.072 12.491 -0.69199997 127 82 51
-7.0549998 12.479 -0.69099998 156 117 86
-7.0619998 12.48 -0.68400002 79 60 53
-7.0539999 12.476 -0.67500001 137 90 46
-7.0450001 12.481 -0.66600001 160 105 74
-7.0320001 12.484 -0.66799998 201 146 107
-7.0229998 12.481 -0.67500001 166 119 73
-7.0229998 12.486 -0.66799998 121 73 24
-7.0250001 12.473 -0.68800002 222 178 139
-7.0320001 12.505 -0.65899998 158 121 95
-7.0279999 12.51 -0.667 113 56 27
-7.0310001 12.508 -0.66399997 138 104 69
-7.0209999 12.513 -0.67199999 96 91 98
-7.0219998 12.51 -0.676 77 48 30
-7.0250001 12.515 -0.676 94 62 39
-7.0349998 12.511 -0.66900003 157 87 27
-7.0669999 12.496 -0.69800001 105 67 46
-7.027 12.506 -0.69300002 105 40 8
-7.0320001 12.489 -0.66500002 212 159 109
-7.0359998 12.492 -0.66500002 243 163 92
-7.0310001 12.484 -0.66799998 250 208 160
-7.026 12.49 -0.667 142 69 18
-7.0430002 12.488 -0.667 161 103 66
-7.0409999 12.5 -0.662 100 46 0
-7.0229998 12.495 -0.66799998 255 200 157
-7.0580001 12.489 -0.67199999 161 85 23
-7.033 12.505 -0.69300002 96 77 71
-7.0380001 12.497 -0.68900001 194 176 104
-7.0359998 12.503 -0.69400001 152 118 108
-7.0310001 12.503 -0.69599998 120 79 59
-7.0300002 12.498 -0.66100001 182 138 93
-7.0310001 12.476 -0.67500001 221 183 136
-7.04 12.496 -0.67799997 164 113 86
-7.0430002 12.494 -0.68800002 109 36 1
-7.0549998 12.489 -0.68599999 104 84 85
-7.0469999 12.491 -0.68900001 193 135 95
-7.0489998 12.489 -0.68400002 230 160 100
-7.0349998 12.477 -0.69300002 155 103 55
-7.02 12.495 -0.68099999 99 70 38
-7.0419998 12.49 -0.69099998 94 50 21
-7.0549998 12.49 -0.69099998 121 47 12
0 0 0 1 0 0 0 1 0 0 0 1 0 0 0 0 0 82 1 0 0
