ply
format ascii 1.0
comment PCL generated
element vertex 117
property float x
property float y
property float z
property uchar red
property uchar green
property uchar blue
element camera 1
property float view_px
property float view_py
property float view_pz
property float x_axisx
property float x_axisy
property float x_axisz
property float y_axisx
property float y_axisy
property float y_axisz
property float z_axisx
property float z_axisy
property float z_axisz
property float focal
property float scalex
property float scaley
property float centerx
property float centery
property int viewportx
property int viewporty
property float k1
property float k2
end_header
8.3959999 7.9889998 -0.85699999 32 14 4
8.4040003 7.9749999 -0.852 60 40 33
8.4040003 7.9770002 -0.847 37 19 17
8.3959999 7.9860001 -0.85299999 51 31 32
8.3940001 7.9910002 -0.85100001 31 12 6
8.3439999 7.9460001 -0.85900003 44 23 18
8.3450003 7.941 -0.85799998 34 15 11
8.3479996 7.9489999 -0.87900001 54 34 25
8.3479996 7.9489999 -0.86500001 80 60 49
8.3439999 7.9520001 -0.83700001 157 134 128
8.3400002 7.9439998 -0.83499998 139 100 71
8.3479996 7.9450002 -0.83600003 60 36 24
8.3929996 7.9720001 -0.88099998 57 34 26
8.3870001 7.98 -0.884 48 20 9
8.375 7.9689999 -0.88599998 47 19 16
8.349 7.9549999 -0.87900001 99 74 67
8.3610001 7.954 -0.866 95 81 78
8.3649998 7.9349999 -0.86799997 68 47 42
8.3610001 7.914 -0.85299999 55 35 28
8.3730001 7.9200001 -0.86199999 93 70 62
8.3559999 7.9039998 -0.86900002 66 59 49
8.3640003 7.921 -0.86400002 51 31 24
8.3389997 7.9580002 -0.84600002 83 62 61
8.3380003 7.9590001 -0.84799999 132 79 39
8.3299999 7.9510002 -0.838 129 70 28
8.3590002 7.9650002 -0.86900002 35 14 9
8.3710003 7.9759998 -0.884 42 18 16
8.3760004 7.9780002 -0.87900001 28 7 4
8.3699999 7.941 -0.86699998 62 40 29
8.375 7.9390001 -0.875 43 23 12
8.3660002 7.9169998 -0.87900001 108 81 72
8.3859997 7.9229999 -0.88300002 55 31 27
8.382 7.9759998 -0.84899998 31 11 4
8.3649998 7.9219999 -0.85399997 105 73 50
8.3850002 7.927 -0.85900003 102 66 42
8.3789997 7.9320002 -0.85900003 67 38 32
8.375 7.9390001 -0.85000002 118 92 79
8.3590002 7.9260001 -0.84100002 163 121 83
8.3269997 7.9439998 -0.847 188 116 66
8.335 7.9499998 -0.84500003 57 36 33
8.3409996 7.934 -0.84799999 96 51 9
8.3330002 7.9380002 -0.84899998 146 93 59
8.3629999 7.9439998 -0.84899998 122 98 88
8.375 7.948 -0.85299999 101 53 17
8.3549995 7.941 -0.847 117 84 75
8.3450003 7.928 -0.85100001 62 42 35
8.3430004 7.9229999 -0.84899998 136 79 36
8.3439999 7.921 -0.85100001 92 68 56
8.3450003 7.9219999 -0.84500003 100 80 73
8.3540001 7.9130001 -0.847 103 61 36
8.3529997 7.9200001 -0.84399998 107 87 78
8.3559999 7.9200001 -0.847 56 37 30
8.3959999 7.98 -0.87099999 26 13 7
8.3920002 7.974 -0.86900002 66 48 38
8.3950005 7.9759998 -0.87599999 62 34 31
8.3859997 7.967 -0.866 74 49 44
8.3830004 7.928 -0.87800002 35 15 14
8.3850002 7.9310002 -0.875 107 81 68
8.3540001 7.9569998 -0.86699998 58 34 30
8.3599997 7.9650002 -0.86299998 58 37 34
8.3439999 7.9590001 -0.85299999 74 53 50
8.3879995 7.9780002 -0.87900001 35 16 10
8.3769999 7.9850001 -0.87400001 57 38 34
8.3789997 7.9860001 -0.86799997 70 50 49
8.3780003 7.9699998 -0.86799997 28 13 8
8.3330002 7.9429998 -0.85100001 95 39 2
8.3660002 7.9619999 -0.86900002 95 56 27
8.3690004 7.9130001 -0.88 46 39 29
8.3540001 7.9089999 -0.87400001 88 47 1
8.3710003 7.9190001 -0.87400001 130 103 94
8.3789997 7.9710002 -0.85500002 39 19 8
8.3900003 7.9450002 -0.86400002 99 74 67
8.3839998 7.921 -0.87099999 53 28 24
8.3640003 7.9190001 -0.85299999 50 31 27
8.3509998 7.948 -0.847 61 42 38
8.349 7.9050002 -0.86799997 119 63 28
8.3529997 7.9109998 -0.86400002 51 19 4
8.3500004 7.934 -0.85799998 101 70 67
8.3549995 7.9320002 -0.86000001 43 22 17
8.3459997 7.9219999 -0.85100001 78 58 49
8.349 7.9229999 -0.83999997 176 133 98
8.349 7.9190001 -0.84299999 34 19 16
8.3839998 7.9250002 -0.87199998 33 15 11
8.3459997 7.954 -0.86400002 38 21 14
8.382 7.9829998 -0.87199998 152 119 104
8.382 7.9650002 -0.86500001 113 90 82
8.3800001 7.9640002 -0.88 69 49 40
8.3809996 7.9190001 -0.87199998 134 113 108
8.3690004 7.9200001 -0.87 52 27 23
8.3809996 7.9200001 -0.87900001 37 19 17
8.3850002 7.9510002 -0.85900003 73 53 46
8.3310003 7.9419999 -0.84799999 171 124 78
8.3389997 7.948 -0.852 107 71 47
8.3430004 7.9499998 -0.85500002 39 20 14
8.3360004 7.9489999 -0.83899999 165 113 73
8.3529997 7.9549999 -0.85500002 61 41 34
8.349 7.9359999 -0.85900003 43 24 17
8.3620005 7.927 -0.86699998 96 51 18
8.3529997 7.9070001 -0.86000001 112 71 27
8.349 7.9169998 -0.85100001 44 24 15
8.335 7.9489999 -0.85000002 142 90 51
8.349 7.9549999 -0.87199998 78 55 49
8.3809996 7.98 -0.86799997 72 53 49
8.382 7.98 -0.86199999 51 31 30
8.3789997 7.9790001 -0.87400001 40 21 15
8.3859997 7.9879999 -0.86400002 33 15 15
8.4020004 7.973 -0.85100001 126 85 55
8.3839998 7.948 -0.85399997 144 103 75
8.382 7.9429998 -0.87 88 56 41
8.3559999 7.9580002 -0.86199999 70 49 44
8.3389997 7.9400001 -0.852 105 85 78
8.3509998 7.9120002 -0.85100001 84 65 58
8.3439999 7.9250002 -0.84299999 38 20 18
8.3809996 7.9759998 -0.85900003 40 20 13
8.3400002 7.9520001 -0.852 94 70 68
8.3859997 7.9749999 -0.85799998 138 96 71
8.382 7.98 -0.85600001 47 27 26
0 0 0 1 0 0 0 1 0 0 0 1 0 0 0 0 0 117 1 0 0
