ply
format ascii 1.0
comment PCL generated
element vertex 1016
property float x
property float y
property float z
property uchar red
property uchar green
property uchar blue
element camera 1
property float view_px
property float view_py
property float view_pz
property float x_axisx
property float x_axisy
property float x_axisz
property float y_axisx
property float y_axisy
property float y_axisz
property float z_axisx
property float z_axisy
property float z_axisz
property float focal
property float scalex
property float scaley
property float centerx
property float centery
property int viewportx
property int viewporty
property float k1
property float k2
end_header
-3.5610001 6.8319998 -0.97799999 211 172 133
-3.5469999 6.8280001 -0.977 204 162 114
-3.562 6.8270001 -0.98900002 161 84 4
-3.5450001 6.8470001 -0.97600001 165 116 84
-3.4219999 6.8850002 -1.026 194 150 103
-3.425 6.8850002 -1.048 130 126 125
-3.4319999 6.8800001 -1.035 219 166 114
-3.421 6.8839998 -1.041 72 54 50
-3.5599999 6.835 -0.98199999 212 169 124
-3.563 6.8330002 -0.98299998 153 110 67
-3.55 6.848 -0.98299998 163 152 148
-3.49 6.8590002 -0.75599998 83 46 17
-3.4879999 6.8569999 -0.74699998 144 105 74
-3.4809999 6.8730001 -0.74800003 200 161 132
-3.494 6.855 -0.75 96 63 28
-3.483 6.8439999 -0.74199998 95 52 10
-3.4530001 6.816 -1.0700001 243 167 79
-3.4579999 6.8200002 -1.069 199 149 112
-3.4690001 6.8189998 -1.0779999 154 111 68
-3.4820001 6.9000001 -0.88 179 146 113
-3.467 6.901 -0.87800002 44 12 0
-3.471 6.902 -0.89399999 170 143 116
-3.4690001 6.9000001 -0.89099997 55 17 4
-3.4749999 6.8569999 -0.74199998 114 62 23
-3.474 6.8559999 -0.741 193 115 43
-3.4760001 6.8629999 -0.74299997 158 110 72
-3.5409999 6.8239999 -0.98400003 112 60 12
-3.559 6.8309999 -0.98500001 152 107 65
-3.546 6.8299999 -0.99000001 220 166 120
-3.5179999 6.8239999 -0.764 137 81 30
-3.5050001 6.8270001 -0.76099998 137 82 51
-3.5039999 6.8319998 -0.764 247 175 103
-3.5320001 6.8189998 -0.77200001 230 178 128
-3.529 6.8260002 -0.77499998 104 33 1
-3.4130001 6.881 -1.033 194 130 82
-3.4100001 6.8790002 -1.034 78 33 4
-3.4170001 6.882 -1.044 186 111 43
-3.4130001 6.875 -1.04 150 96 68
-3.5239999 6.7989998 -0.78799999 165 62 4
-3.5239999 6.7969999 -0.77399999 143 107 93
-3.52 6.7909999 -0.792 190 109 56
-3.523 6.7979999 -0.77899998 122 91 63
-3.5190001 6.8060002 -0.79799998 228 142 85
-3.526 6.8109999 -0.79000002 125 69 34
-3.48 6.8319998 -1.08 142 99 54
-3.4749999 6.8330002 -1.08 138 93 54
-3.4579999 6.8239999 -1.079 181 129 90
-3.467 6.823 -1.0779999 182 137 98
-3.5020001 6.8179998 -0.76099998 215 124 19
-3.5079999 6.8210001 -0.76200002 122 46 0
-3.5109999 6.8189998 -0.76099998 249 161 64
-3.53 6.8600001 -0.98900002 191 133 83
-3.5439999 6.848 -0.99400002 163 102 39
-3.487 6.8249998 -0.93000001 133 66 23
-3.487 6.8299999 -0.93000001 246 166 93
-3.4949999 6.8390002 -0.91900003 196 145 92
-3.516 6.7989998 -0.77499998 234 183 117
-3.517 6.7950001 -0.778 176 137 82
-3.4779999 6.8130002 -1.024 227 158 103
-3.4849999 6.8140001 -1.022 187 148 119
-3.4779999 6.8130002 -1.03 131 99 78
-3.5339999 6.8299999 -0.98299998 106 61 19
-3.536 6.8179998 -0.986 232 175 122
-3.4130001 6.875 -1.029 107 51 4
-3.4820001 6.8670001 -0.958 78 17 0
-3.483 6.8779998 -0.958 120 69 38
-3.484 6.8769999 -0.95300001 165 80 13
-3.4860001 6.8649998 -0.94099998 242 156 71
-3.49 6.849 -0.92799997 237 157 68
-3.4909999 6.869 -0.926 155 121 86
-3.438 6.8839998 -1.016 243 178 114
-3.4260001 6.869 -1.021 237 187 138
-3.4779999 6.8969998 -0.89700001 170 112 72
-3.4530001 6.8410001 -1.073 225 173 125
-3.4519999 6.8439999 -1.074 246 199 153
-3.454 6.842 -1.0700001 212 169 126
-3.4630001 6.8449998 -1.073 225 184 156
-3.411 6.8579998 -1.023 169 116 72
-3.5250001 6.822 -0.77200001 186 129 84
-3.4360001 6.868 -0.76999998 156 122 97
-3.4400001 6.8759999 -0.76999998 106 101 107
-3.441 6.8699999 -0.77399999 210 136 73
-3.4389999 6.8699999 -0.76800001 115 93 82
-3.4530001 6.8330002 -1.071 198 144 97
-3.4519999 6.8330002 -1.074 190 132 82
-3.4549999 6.823 -1.068 229 176 126
-3.4519999 6.8210001 -1.0779999 231 159 75
-3.448 6.8239999 -1.079 177 116 69
-3.454 6.8299999 -1.075 33 15 3
-3.454 6.8189998 -1.074 244 185 125
-3.51 6.8249998 -0.76300001 231 193 148
-3.5120001 6.8150001 -0.76099998 182 126 67
-3.5139999 6.816 -0.75999999 148 80 35
-3.5209999 6.8109999 -0.755 147 81 47
-3.503 6.8150001 -0.76099998 183 90 0
-3.5280001 6.8169999 -0.78399998 163 71 4
-3.5239999 6.8179998 -0.79000002 106 55 28
-3.53 6.8270001 -0.778 119 68 37
-3.494 6.802 -0.78899997 148 95 63
-3.4890001 6.7969999 -0.77899998 150 100 75
-3.48 6.8179998 -0.78500003 193 104 44
-3.4849999 6.8109999 -0.77999997 141 114 95
-3.506 6.7950001 -0.773 173 128 87
-3.473 6.8369999 -0.87300003 74 42 27
-3.4749999 6.8369999 -0.87 191 138 94
-3.4630001 6.842 -0.875 30 6 0
-3.457 6.8049998 -0.91299999 249 140 57
-3.4660001 6.803 -0.921 229 117 33
-3.464 6.8000002 -0.92299998 189 86 7
-3.447 6.8039999 -0.912 97 65 44
-3.4549999 6.809 -0.89999998 123 95 81
-3.471 6.8460002 -0.87099999 87 55 30
-3.5369999 6.8520002 -0.99400002 229 170 102
-3.513 6.868 -0.98400003 192 117 50
-3.5150001 6.8569999 -0.97299999 113 53 29
-3.517 6.8590002 -0.98100001 230 142 44
-3.523 6.8600001 -0.98699999 124 102 89
-3.5250001 6.849 -0.97399998 77 19 0
-3.5209999 6.849 -0.96899998 196 142 118
-3.494 6.8169999 -0.78799999 206 123 45
-3.483 6.8260002 -0.79699999 106 56 21
-3.444 6.809 -1.008 177 126 83
-3.4400001 6.8099999 -1.0039999 196 146 111
-3.434 6.8049998 -1.011 130 95 63
-3.4430001 6.809 -1.015 178 134 95
-3.4430001 6.8099999 -1.022 137 69 20
-3.517 6.8559999 -0.977 86 25 0
-3.438 6.8600001 -0.74699998 212 169 118
-3.457 6.8740001 -0.75099999 126 83 30
-3.457 6.8660002 -0.74599999 154 80 17
-3.448 6.8649998 -0.75 152 105 53
-3.48 6.8670001 -0.95999998 53 14 0
-3.48 6.8559999 -0.97299999 61 22 5
-3.506 6.8530002 -0.96899998 107 46 17
-3.484 6.8559999 -0.93800002 253 165 91
-3.4890001 6.8730001 -0.92299998 244 196 148
-3.4779999 6.8649998 -0.93599999 151 74 32
-3.5569999 6.835 -0.98000002 179 127 90
-3.5569999 6.836 -0.986 142 98 63
-3.5569999 6.8330002 -0.98699999 249 164 83
-3.5480001 6.8400002 -0.991 123 102 97
-3.5610001 6.8319998 -0.986 226 140 53
-3.5 6.882 -0.90399998 92 75 65
-3.503 6.8709998 -0.90200001 220 168 108
-3.5 6.8839998 -0.90100002 129 63 11
-3.487 6.8920002 -0.91000003 159 120 89
-3.4909999 6.8839998 -0.90499997 207 177 149
-3.49 6.8670001 -0.89399999 155 121 96
-3.49 6.8769999 -0.89999998 197 119 45
-3.48 6.8740001 -0.89300001 159 87 49
-3.4879999 6.8610001 -0.91900003 155 108 64
-3.4779999 6.8920002 -0.90799999 105 74 54
-3.474 6.8460002 -1.063 168 129 100
-3.4719999 6.823 -1.077 255 200 118
-3.484 6.8239999 -1.073 133 96 69
-3.411 6.8699999 -1.04 119 92 71
-3.4070001 6.8699999 -1.035 45 31 30
-3.4100001 6.8730001 -1.0369999 150 120 92
-3.4070001 6.8670001 -1.031 184 143 111
-3.5139999 6.8670001 -0.98900002 236 146 49
-3.5079999 6.8730001 -0.98500001 210 148 91
-3.415 6.8540001 -1.026 173 131 93
-3.427 6.8390002 -1.023 172 106 46
-3.428 6.8460002 -1.027 105 59 26
-3.523 6.8130002 -0.759 108 37 0
-3.52 6.8169999 -0.75999999 174 127 75
-3.526 6.8099999 -0.76599997 173 94 28
-3.529 6.8119998 -0.77399999 233 137 60
-3.4560001 6.901 -0.889 109 68 48
-3.4660001 6.8969998 -0.89499998 42 4 0
-3.4200001 6.8379998 -0.91399997 98 42 7
-3.418 6.8210001 -0.91900003 83 35 23
-3.4219999 6.8309999 -0.90799999 107 60 34
-3.425 6.8200002 -0.921 111 59 19
-3.425 6.823 -0.92299998 98 58 33
-3.431 6.822 -0.926 90 48 26
-3.408 6.8509998 -1.023 32 22 13
-3.4289999 6.8449998 -1.023 88 64 40
-3.434 6.8530002 -1.01 178 91 14
-3.4219999 6.882 -1.026 207 164 96
-3.454 6.8379998 -1.073 182 128 81
-3.4579999 6.8379998 -1.072 212 159 115
-3.493 6.8400002 -0.75999999 217 156 109
-3.4549999 6.835 -1.068 202 155 113
-3.4560001 6.8340001 -1.067 240 168 66
-3.4549999 6.8309999 -1.067 177 132 91
-3.4489999 6.8210001 -1.075 179 125 79
-3.4979999 6.8179998 -0.759 255 221 168
-3.4960001 6.8130002 -0.76499999 181 141 129
-3.497 6.8099999 -0.76499999 154 93 48
-3.5179999 6.8260002 -0.77100003 246 212 174
-3.516 6.823 -0.79799998 192 146 110
-3.523 6.8140001 -0.792 141 116 96
-3.523 6.8189998 -0.79000002 124 81 72
-3.5250001 6.8200002 -0.78799999 164 120 95
-3.5109999 6.8330002 -0.84100002 86 64 53
-3.513 6.8280001 -0.82700002 125 98 77
-3.5079999 6.8390002 -0.83099997 93 46 18
-3.5079999 6.835 -0.85399997 123 89 52
-3.5 6.8210001 -0.838 150 106 71
-3.5009999 6.8340001 -0.847 142 92 59
-3.5 6.8270001 -0.847 128 97 68
-3.5050001 6.8239999 -0.83200002 123 74 31
-3.5090001 6.8140001 -0.81300002 141 86 45
-3.497 6.7979999 -0.787 234 178 131
-3.5 6.8010001 -0.79900002 127 90 71
-3.4760001 6.8369999 -0.84500003 81 21 0
-3.484 6.8369999 -0.847 109 78 58
-3.4679999 6.8449998 -0.84600002 190 121 43
-3.4649999 6.8429999 -0.84299999 111 77 52
-3.4690001 6.8400002 -0.82599998 182 109 64
-3.487 6.8390002 -0.86199999 38 6 0
-3.4790001 6.8410001 -0.84799999 165 107 61
-3.5020001 6.842 -0.87400001 106 81 61
-3.4979999 6.8460002 -0.884 158 128 100
-3.5020001 6.842 -0.87800002 65 39 12
-3.4549999 6.8109999 -0.90499997 237 135 51
-3.493 6.8559999 -0.76700002 88 35 3
-3.4920001 6.848 -0.76300001 238 168 117
-3.5020001 6.8200002 -0.815 157 103 69
-3.49 6.8270001 -0.80800003 191 112 56
-3.4960001 6.8270001 -0.82800001 86 40 7
-3.497 6.8130002 -0.78899997 185 107 24
-3.5009999 6.8140001 -0.79299998 140 73 30
-3.54 6.8260002 -0.99199998 226 183 128
-3.523 6.8540001 -0.98299998 148 93 54
-3.5239999 6.8530002 -0.98299998 145 91 53
-3.543 6.8330002 -0.98000002 202 152 101
-3.5209999 6.8530002 -0.97899997 173 109 63
-3.4630001 6.862 -0.74599999 237 210 157
-3.4719999 6.8660002 -0.745 173 95 12
-3.441 6.8740001 -0.75999999 91 49 24
-3.4489999 6.8769999 -0.76700002 118 94 94
-3.4489999 6.8800001 -0.76099998 136 105 77
-3.5139999 6.848 -0.97000003 91 36 6
-3.5079999 6.842 -0.972 218 167 110
-3.497 6.8369999 -0.96399999 199 148 95
-3.51 6.8400002 -0.97600001 234 188 129
-3.487 6.8460002 -0.94800001 95 40 9
-3.493 6.8439999 -0.96899998 176 144 123
-3.4749999 6.875 -0.94499999 133 97 71
-3.4820001 6.8730001 -0.94800001 75 34 14
-3.444 6.875 -1.031 54 21 2
-3.4489999 6.8800001 -1.024 113 78 58
-3.4790001 6.8590002 -0.98400003 103 46 19
-3.4890001 6.862 -0.98400003 68 38 14
-3.477 6.8590002 -0.98799998 56 23 4
-3.5450001 6.8460002 -0.99299997 185 113 55
-3.497 6.8769999 -0.90499997 152 119 86
-3.4860001 6.869 -0.91900003 158 78 19
-3.497 6.8449998 -0.89399999 132 94 55
-3.4960001 6.8400002 -0.88499999 145 50 0
-3.4790001 6.8940001 -0.89499998 211 129 71
-3.4790001 6.8930001 -0.89099997 146 111 83
-3.494 6.8779998 -0.90100002 156 130 105
-3.4809999 6.895 -0.88200003 168 140 118
-3.477 6.888 -0.87800002 246 161 80
-3.4909999 6.8590002 -1.0549999 168 118 83
-3.483 6.862 -1.059 191 111 42
-3.49 6.862 -1.061 85 50 22
-3.48 6.8439999 -1.064 166 113 79
-3.477 6.8270001 -1.045 123 72 29
-3.484 6.8249998 -1.053 201 150 105
-3.474 6.8270001 -1.062 195 160 141
-3.461 6.829 -1.069 207 161 125
-3.467 6.8309999 -1.067 176 124 87
-3.4719999 6.8239999 -1.071 251 186 106
-3.4820001 6.8249998 -1.063 206 158 74
-3.4089999 6.8660002 -1.0369999 196 159 114
-3.421 6.8629999 -1.036 222 142 79
-3.4189999 6.8579998 -1.025 214 158 107
-3.4200001 6.875 -1.027 152 107 68
-3.4260001 6.8779998 -1.025 199 159 63
-3.4649999 6.8200002 -0.98000002 161 114 32
-3.464 6.816 -0.986 245 210 144
-3.477 6.8179998 -0.98299998 107 84 76
-3.526 6.8080001 -0.77100003 245 158 65
-3.4809999 6.8520002 -0.745 249 174 81
-3.527 6.8140001 -0.78399998 154 96 56
-3.4400001 6.8439999 -0.93900001 106 50 13
-3.4530001 6.8559999 -0.949 77 39 28
-3.447 6.8499999 -0.93800002 73 31 19
-3.4360001 6.8460002 -0.92000002 124 64 27
-3.437 6.8670001 -0.92400002 96 59 32
-3.4360001 6.869 -0.921 165 123 99
-3.4449999 6.8590002 -0.91799998 118 114 105
-3.4719999 6.8829999 -0.98199999 136 84 37
-3.471 6.8899999 -0.97899997 111 69 31
-3.471 6.8920002 -0.98000002 149 114 92
-3.46 6.8940001 -0.977 56 10 0
-3.4590001 6.895 -0.97299999 110 69 47
-3.464 6.8909998 -0.97299999 59 18 0
-3.4719999 6.8979998 -0.89700001 126 99 72
-3.4300001 6.8179998 -0.92199999 137 87 52
-3.437 6.8099999 -0.92199999 96 68 67
-3.4360001 6.816 -0.92400002 60 37 19
-3.4330001 6.8140001 -0.91500002 170 113 70
-3.4519999 6.8130002 -0.98400003 148 116 95
-3.4400001 6.8449998 -1.01 204 133 77
-3.4419999 6.8390002 -1.0089999 176 114 63
-3.4400001 6.8270001 -1.012 186 132 85
-3.4419999 6.829 -1.023 240 161 104
-3.444 6.849 -1.035 96 51 12
-3.4719999 6.8340001 -1.0549999 199 135 89
-3.467 6.8400002 -1.04 180 100 31
-3.5250001 6.8060002 -0.77899998 194 100 10
-3.526 6.8099999 -0.78200001 148 44 0
-3.51 6.8109999 -0.80699998 178 121 78
-3.5079999 6.802 -0.79699999 128 63 9
-3.4960001 6.8309999 -0.76300001 114 50 12
-3.494 6.8260002 -0.76099998 190 88 4
-3.516 6.822 -0.76200002 244 194 145
-3.4849999 6.8099999 -0.76899999 164 78 5
-3.48 6.8179998 -0.77600002 112 90 76
-3.4679999 6.8260002 -0.759 206 122 26
-3.4790001 6.8260002 -0.759 255 165 77
-3.4660001 6.8270001 -0.75400001 244 162 63
-3.4909999 6.823 -0.75700003 224 132 31
-3.487 6.8369999 -0.75800002 89 59 51
-3.5139999 6.8270001 -0.81300002 121 47 0
-3.5109999 6.8330002 -0.79900002 69 31 20
-3.5079999 6.8319998 -0.82700002 138 67 25
-3.506 6.8249998 -0.824 133 110 92
-3.4679999 6.8439999 -0.829 132 94 49
-3.4619999 6.8520002 -0.838 81 57 47
-3.513 6.796 -0.78799999 137 78 48
-3.494 6.862 -0.89399999 130 89 57
-3.4849999 6.8579998 -0.87699997 203 176 149
-3.487 6.848 -0.90899998 99 59 24
-3.487 6.8559999 -0.88700002 115 76 45
-3.4960001 6.8390002 -0.84899998 92 37 6
-3.47 6.849 -0.852 214 143 65
-3.4679999 6.8990002 -0.87699997 47 9 0
-3.471 6.8979998 -0.87800002 187 114 35
-3.4749999 6.8959999 -0.87699997 200 125 70
-3.493 6.829 -0.84899998 200 109 36
-3.493 6.829 -0.852 128 85 51
-3.4400001 6.8109999 -0.90700001 227 149 75
-3.4430001 6.8109999 -0.90700001 216 102 14
-3.4449999 6.809 -0.91900003 119 63 26
-3.4430001 6.8109999 -0.921 250 142 69
-3.4389999 6.8109999 -0.92299998 156 108 72
-3.49 6.8369999 -0.85699999 61 27 15
-3.49 6.8369999 -0.86199999 42 9 0
-3.4909999 6.836 -0.85799998 41 11 0
-3.4890001 6.8379998 -0.87099999 45 7 0
-3.487 6.836 -0.87599999 217 128 60
-3.4690001 6.8530002 -0.85699999 134 79 38
-3.467 6.8540001 -0.85100001 161 106 67
-3.477 6.8239999 -0.917 218 163 106
-3.4690001 6.8210001 -0.91399997 202 143 83
-3.4679999 6.8150001 -0.92199999 200 149 92
-3.4749999 6.8179998 -0.92500001 196 153 98
-3.4679999 6.816 -0.92799997 145 135 136
-3.4660001 6.8179998 -0.94099998 76 25 0
-3.4749999 6.8800001 -0.88599998 120 59 12
-3.5209999 6.822 -0.787 85 35 10
-3.5109999 6.8330002 -0.79500002 115 71 46
-3.5150001 6.829 -0.78100002 148 92 55
-3.5220001 6.8270001 -0.77999997 130 86 59
-3.49 6.8610001 -0.764 135 107 83
-3.4820001 6.8720002 -0.76499999 208 116 33
-3.5079999 6.8369999 -0.77100003 222 173 132
-3.477 6.8390002 -0.82800001 138 65 20
-3.4489999 6.8720002 -0.76899999 143 119 107
-3.437 6.8140001 -0.90200001 99 51 39
-3.437 6.816 -0.89999998 176 84 19
-3.434 6.8179998 -0.90399998 237 143 73
-3.4879999 6.881 -0.90700001 75 39 7
-3.5139999 6.8010001 -0.77200001 235 178 99
-3.5220001 6.802 -0.764 198 134 73
-3.5239999 6.8070002 -0.76700002 148 95 53
-3.5009999 6.8210001 -0.80599999 236 215 196
-3.5109999 6.802 -0.76200002 223 167 108
-3.503 6.7950001 -0.773 252 198 152
-3.477 6.8189998 -0.991 249 221 171
-3.497 6.8210001 -0.98699999 227 186 132
-3.4909999 6.8239999 -0.98900002 122 78 29
-3.5320001 6.822 -0.98699999 232 171 116
-3.5250001 6.8179998 -0.99199998 136 82 35
-3.4990001 6.842 -1.053 240 158 74
-3.497 6.8390002 -1.058 255 168 81
-3.5009999 6.8340001 -1.0549999 238 155 75
-3.4860001 6.8239999 -1.057 161 100 45
-3.454 6.8829999 -0.75999999 125 121 122
-3.467 6.8759999 -0.759 136 61 0
-3.4630001 6.8530002 -0.74299997 158 141 97
-3.4530001 6.8460002 -0.74900001 232 170 59
-3.4549999 6.8400002 -0.74699998 198 102 16
-3.4549999 6.8499999 -0.74900001 231 202 144
-3.447 6.8569999 -0.75099999 178 131 85
-3.4419999 6.868 -0.75400001 162 84 18
-3.441 6.8629999 -0.75099999 195 149 100
-3.487 6.8319998 -0.97000003 223 170 104
-3.4860001 6.8509998 -0.97100002 176 106 57
-3.497 6.8509998 -0.97799999 249 201 163
-3.484 6.8559999 -0.94300002 230 142 70
-3.4790001 6.8579998 -0.95899999 65 33 10
-3.4849999 6.8600001 -0.94999999 79 34 13
-3.441 6.8759999 -1.029 143 132 128
-3.4330001 6.8569999 -1.01 106 47 7
-3.4549999 6.8990002 -0.97799999 50 12 0
-3.4530001 6.8990002 -0.97399998 91 54 28
-3.4790001 6.8559999 -0.97000003 73 38 10
-3.5480001 6.8330002 -0.98900002 169 112 57
-3.5480001 6.8449998 -0.98699999 177 140 113
-3.4979999 6.8779998 -0.90200001 116 86 58
-3.4890001 6.848 -0.917 138 64 0
-3.4849999 6.8530002 -0.91000003 95 81 72
-3.4890001 6.8870001 -0.90399998 150 89 35
-3.4820001 6.8800001 -0.89899999 77 44 25
-3.484 6.8449998 -1.053 103 62 34
-3.464 6.836 -1.072 195 140 99
-3.4200001 6.8699999 -1.0420001 142 75 23
-3.427 6.8610001 -1.0369999 87 45 21
-3.503 6.862 -0.99900001 128 51 0
-3.4909999 6.8629999 -0.99400002 132 111 92
-3.4879999 6.8629999 -1.011 100 95 102
-3.5109999 6.8210001 -0.995 195 158 114
-3.5150001 6.8239999 -0.99000001 181 131 72
-3.428 6.8579998 -1.035 181 146 124
-3.5280001 6.8109999 -0.77600002 221 132 40
-3.4260001 6.829 -0.92199999 199 155 130
-3.434 6.8449998 -0.921 170 112 66
-3.497 6.8639998 -0.99000001 219 131 44
-3.4630001 6.8909998 -0.97500002 60 15 0
-3.457 6.8930001 -0.89099997 84 48 26
-3.457 6.8920002 -0.88599998 177 135 111
-3.454 6.875 -0.92299998 149 83 48
-3.4530001 6.8740001 -0.91600001 120 57 14
-3.4549999 6.875 -0.91500002 203 128 63
-3.427 6.8210001 -0.91000003 156 111 80
-3.434 6.823 -0.89899999 136 85 40
-3.431 6.8280001 -0.93000001 195 160 141
-3.4630001 6.823 -0.977 180 148 65
-3.4460001 6.822 -0.97100002 126 87 48
-3.441 6.822 -0.97000003 186 149 96
-3.437 6.8130002 -0.97799999 143 123 112
-3.4360001 6.8150001 -0.977 175 145 91
-3.437 6.8150001 -1.003 100 63 57
-3.438 6.8150001 -1.002 123 48 0
-3.437 6.8179998 -0.991 244 161 85
-3.4419999 6.8140001 -0.99299997 218 148 88
-3.4360001 6.8189998 -1.02 194 113 34
-3.4360001 6.8130002 -1.012 213 162 115
-3.4579999 6.8299999 -1.068 196 151 112
-3.4690001 6.8340001 -1.0420001 209 130 71
-3.4549999 6.8390002 -1.031 161 88 33
-3.45 6.8260002 -1.0700001 211 158 114
-3.4560001 6.8169999 -1.028 128 83 44
-3.5239999 6.8179998 -0.76800001 245 152 72
-3.5250001 6.8189998 -0.76999998 230 198 160
-3.474 6.8280001 -0.77999997 249 173 97
-3.4719999 6.836 -0.78200001 168 79 19
-3.464 6.829 -0.77999997 136 61 6
-3.4530001 6.8330002 -0.755 88 48 22
-3.454 6.8330002 -0.75199997 209 146 77
-3.451 6.8369999 -0.755 184 137 91
-3.441 6.849 -0.75700003 221 155 61
-3.454 6.8249998 -0.764 178 117 54
-3.4560001 6.8319998 -0.77399999 153 117 85
-3.4449999 6.8410001 -0.77200001 190 139 96
-3.451 6.8369999 -0.75599998 232 168 78
-3.434 6.8559999 -0.77399999 246 183 130
-3.467 6.8330002 -0.741 114 70 31
-3.5090001 6.8319998 -0.82999998 139 122 106
-3.51 6.8270001 -0.82700002 108 70 47
-3.5090001 6.8280001 -0.833 164 143 124
-3.4890001 6.8150001 -0.76700002 220 112 24
-3.5150001 6.7919998 -0.78200001 148 109 78
-3.5039999 6.8000002 -0.79000002 154 93 38
-3.49 6.8610001 -0.89700001 105 77 56
-3.4879999 6.8509998 -0.898 103 39 0
-3.5 6.836 -0.85100001 180 110 58
-3.4949999 6.848 -0.86699998 179 158 141
-3.4909999 6.8410001 -0.85000002 67 30 11
-3.4660001 6.849 -0.84500003 84 43 13
-3.4679999 6.855 -0.85000002 127 69 29
-3.4679999 6.8540001 -0.84799999 168 100 29
-3.4679999 6.855 -0.85399997 129 71 31
-3.4630001 6.9000001 -0.88300002 119 87 72
-3.493 6.8299999 -0.84600002 131 88 54
-3.4649999 6.8400002 -0.88 105 72 53
-3.444 6.8150001 -0.90200001 157 78 11
-3.4649999 6.8509998 -0.87400001 70 42 30
-3.461 6.855 -0.87900001 93 60 45
-3.47 6.823 -0.94800001 115 72 29
-3.474 6.8249998 -0.94300002 202 149 107
-3.4489999 6.8140001 -0.93000001 150 101 60
-3.448 6.8109999 -0.921 146 104 80
-3.4419999 6.8080001 -0.917 232 125 45
-3.437 6.8130002 -0.91299999 141 109 94
-3.447 6.8649998 -0.90700001 111 71 59
-3.5239999 6.8429999 -0.97799999 174 117 97
-3.5020001 6.836 -0.801 116 73 41
-3.5020001 6.836 -0.80500001 156 110 77
-3.5050001 6.8319998 -0.81599998 138 96 72
-3.5050001 6.8330002 -0.77999997 142 79 12
-3.473 6.8600001 -0.83499998 73 38 32
-3.471 6.8590002 -0.81900001 165 105 45
-3.474 6.8569999 -0.82300001 203 137 87
-3.4809999 6.8509998 -0.824 216 177 138
-3.4560001 6.8520002 -0.82300001 135 76 34
-3.4649999 6.8439999 -0.82099998 241 170 124
-3.4560001 6.8520002 -0.81699997 115 60 19
-3.494 6.8379998 -0.84399998 63 25 4
-3.4790001 6.8470001 -0.83600003 61 24 6
-3.448 6.8660002 -0.773 125 78 60
-3.4760001 6.8509998 -0.81199998 89 37 13
-3.4749999 6.8530002 -0.81 69 35 10
-3.4330001 6.8150001 -0.912 143 96 66
-3.473 6.842 -0.81599998 173 133 97
-3.4860001 6.8260002 -0.79500002 161 90 34
-3.497 6.809 -0.78899997 119 74 43
-3.4879999 6.8330002 -1.024 113 71 47
-3.497 6.8299999 -1.035 169 115 87
-3.4949999 6.8280001 -1.036 234 153 72
-3.5 6.8369999 -1.053 175 123 84
-3.4860001 6.8239999 -1.058 229 182 128
-3.4909999 6.8280001 -1.057 209 161 113
-3.444 6.8099999 -1.012 217 169 129
-3.5380001 6.8509998 -0.98699999 167 139 117
-3.543 6.849 -0.98199999 206 150 91
-3.5369999 6.8439999 -0.98100001 199 153 101
-3.527 6.8449998 -0.97899997 77 22 0
-3.5179999 6.8309999 -0.98400003 219 156 89
-3.5239999 6.8390002 -0.98199999 191 92 7
-3.467 6.8759999 -0.75199997 168 111 42
-3.46 6.8769999 -0.75300002 235 167 96
-3.467 6.8959999 -0.87400001 190 115 58
-3.4460001 6.8600001 -0.75099999 245 204 150
-3.4809999 6.8340001 -0.94499999 125 43 0
-3.4809999 6.8309999 -0.94999999 132 89 44
-3.4809999 6.8340001 -0.949 138 57 4
-3.48 6.8299999 -0.95999998 218 161 108
-3.4920001 6.8330002 -0.96499997 226 171 114
-3.4820001 6.8319998 -0.96499997 227 171 112
-3.48 6.8299999 -0.95300001 154 101 57
-3.4790001 6.829 -0.94999999 192 139 97
-3.4519999 6.8249998 -0.97399998 254 232 159
-3.477 6.8260002 -0.97399998 240 184 125
-3.4779999 6.829 -0.96200001 171 128 85
-3.473 6.8829999 -0.95099998 141 110 89
-3.4779999 6.882 -0.96399999 127 42 0
-3.4760001 6.8740001 -0.96100003 136 54 0
-3.4779999 6.8829999 -0.95899999 179 96 30
-3.4590001 6.8759999 -0.96200001 101 40 0
-3.451 6.8769999 -0.95200002 229 154 87
-3.4530001 6.8639998 -0.97899997 173 141 120
-3.4560001 6.855 -0.97100002 161 124 98
-3.484 6.8579998 -0.98100001 177 117 67
-3.4879999 6.8439999 -0.93599999 100 61 32
-3.4879999 6.8400002 -0.92500001 222 138 66
-3.484 6.848 -0.96399999 74 11 0
-3.431 6.8720002 -1.039 129 114 109
-3.4779999 6.8590002 -0.98400003 70 33 15
-3.552 6.8369999 -0.98799998 206 149 96
-3.5439999 6.836 -0.99299997 243 149 77
-3.4879999 6.8520002 -0.92400002 203 126 58
-3.4949999 6.8400002 -0.88800001 164 73 26
-3.4690001 6.888 -0.91000003 65 32 15
-3.4679999 6.882 -0.917 79 47 26
-3.448 6.8379998 -1.027 139 57 0
-3.4590001 6.822 -1.028 100 55 32
-3.467 6.822 -1.0369999 107 62 21
-3.517 6.8629999 -0.99400002 118 92 77
-3.473 6.8660002 -1.0089999 102 41 0
-3.4849999 6.8610001 -1.01 187 136 93
-3.46 6.8740001 -1.021 193 109 47
-3.5380001 6.849 -1 141 113 99
-3.5239999 6.855 -0.99800003 161 99 40
-3.53 6.8499999 -0.99699998 129 96 81
-3.4949999 6.8429999 -1.003 157 103 59
-3.5020001 6.848 -0.99699998 113 95 85
-3.4949999 6.8540001 -0.99800003 160 83 27
-3.4890001 6.8600001 -1.012 50 22 0
-3.4820001 6.8280001 -0.75400001 193 94 11
-3.4400001 6.8569999 -0.759 107 79 68
-3.4489999 6.842 -0.75300002 216 119 25
-3.4419999 6.8280001 -0.95599997 62 25 16
-3.437 6.8319998 -0.93699998 191 149 125
-3.4319999 6.8309999 -0.97799999 178 107 53
-3.4319999 6.822 -0.97799999 236 155 66
-3.4549999 6.8249998 -0.95200002 108 93 86
-3.448 6.8280001 -0.96399999 115 97 85
-3.447 6.849 -0.97100002 149 100 59
-3.4389999 6.8400002 -0.97600001 113 66 38
-3.4389999 6.8499999 -0.98100001 196 136 86
-3.431 6.8379998 -0.91299999 155 106 66
-3.47 6.8909998 -0.97899997 135 94 72
-3.4590001 6.8920002 -0.89999998 161 102 70
-3.4260001 6.822 -0.91100001 171 110 63
-3.4349999 6.8330002 -0.93099999 126 90 58
-3.467 6.823 -0.97500002 196 160 128
-3.4679999 6.823 -0.95499998 190 134 87
-3.4319999 6.8189998 -0.986 176 91 8
-3.438 6.8410001 -0.98500001 207 142 78
-3.4419999 6.8309999 -0.96600002 211 180 151
-3.4489999 6.8319998 -0.95700002 70 24 0
-3.4400001 6.829 -1.005 149 92 47
-3.4400001 6.8309999 -0.99699998 184 101 23
-3.471 6.8340001 -1.061 125 66 24
-3.4679999 6.8270001 -1.039 124 81 47
-3.473 6.8330002 -1.0470001 143 62 0
-3.5139999 6.802 -0.796 104 59 26
-3.4890001 6.8449998 -0.75300002 245 171 108
-3.473 6.8249998 -0.77899998 163 96 44
-3.4809999 6.8319998 -0.75300002 191 88 11
-3.4749999 6.842 -0.741 154 102 45
-3.471 6.8520002 -0.74199998 180 113 35
-3.474 6.8439999 -0.74199998 170 125 70
-3.49 6.8369999 -0.833 67 34 17
-3.4860001 6.8379998 -0.82499999 91 40 9
-3.4879999 6.8210001 -0.76300001 255 175 73
-3.474 6.8319998 -0.89099997 196 149 107
-3.4849999 6.8319998 -0.90100002 112 96 96
-3.493 6.8369999 -0.88099998 113 84 50
-3.454 6.8239999 -0.89499998 78 56 58
-3.474 6.8330002 -0.88800001 222 177 136
-3.484 6.8569999 -0.85000002 228 168 118
-3.4779999 6.8639998 -0.85000002 173 154 147
-3.4760001 6.8540001 -0.85699999 108 91 75
-3.471 6.8790002 -0.87699997 185 113 54
-3.4690001 6.8769999 -0.88300002 174 111 58
-3.47 6.8709998 -0.88099998 86 40 17
-3.4760001 6.8720002 -0.88700002 97 32 0
-3.483 6.8280001 -0.926 207 155 97
-3.4860001 6.8319998 -0.91799998 184 115 74
-3.49 6.8410001 -0.89600003 156 78 32
-3.4860001 6.835 -0.912 198 147 100
-3.4630001 6.8189998 -0.912 176 116 56
-3.4960001 6.8340001 -0.866 122 55 2
-3.4400001 6.8200002 -0.89999998 187 102 37
-3.4389999 6.822 -0.89899999 149 98 55
-3.4660001 6.822 -0.95099998 161 107 63
-3.4619999 6.8140001 -0.92699999 113 57 8
-3.4549999 6.8049998 -0.91900003 194 83 2
-3.477 6.823 -0.93400002 188 138 87
-3.428 6.8319998 -0.90499997 60 27 20
-3.434 6.8369999 -0.903 78 32 8
-3.494 6.8330002 -0.81099999 51 7 0
-3.487 6.8369999 -0.80699998 116 49 6
-3.506 6.8309999 -0.79000002 133 82 39
-3.4660001 6.855 -0.81699997 185 106 50
-3.483 6.8379998 -0.84299999 62 29 10
-3.4549999 6.8400002 -0.77899998 182 104 55
-3.4690001 6.8499999 -0.79799998 72 47 40
-3.454 6.8699999 -0.76999998 69 14 0
-3.474 6.8569999 -0.80599999 145 78 10
-3.477 6.8379998 -0.82599998 91 20 0
-3.474 6.842 -0.81099999 124 80 55
-3.47 6.8470001 -0.81099999 174 133 101
-3.4779999 6.8800001 -0.89399999 124 62 23
-3.493 6.869 -0.90200001 171 133 97
-3.4960001 6.8379998 -0.801 160 111 70
-3.5020001 6.8070002 -0.76200002 181 130 83
-3.5209999 6.8210001 -0.99800003 93 45 9
-3.5239999 6.8249998 -0.99900001 88 47 17
-3.4909999 6.8270001 -1.041 240 162 88
-3.484 6.816 -1.0319999 185 112 57
-3.497 6.835 -1.051 231 149 67
-3.4960001 6.8309999 -1.036 169 124 95
-3.4979999 6.8379998 -1.051 248 157 68
-3.484 6.8249998 -1.0599999 220 166 94
-3.493 6.8379998 -1.061 172 120 80
-3.474 6.8140001 -1.029 187 131 80
-3.448 6.8130002 -1.021 174 132 94
-3.4449999 6.8119998 -1.006 171 121 88
-3.5339999 6.8540001 -0.99400002 236 161 80
-3.5409999 6.8499999 -0.98100001 161 150 148
-3.5020001 6.8379998 -0.97299999 188 138 75
-3.4760001 6.8909998 -0.87699997 246 158 71
-3.464 6.868 -0.76999998 55 13 0
-3.474 6.8610001 -0.76800001 110 64 48
-3.4660001 6.869 -0.76499999 86 42 13
-3.457 6.8740001 -0.76599997 61 20 2
-3.47 6.8579998 -0.829 98 73 66
-3.47 6.8579998 -0.83600003 42 10 0
-3.474 6.8600001 -0.85100001 66 46 35
-3.457 6.8579998 -0.74900001 180 136 75
-3.4820001 6.8309999 -0.97500002 200 148 72
-3.4809999 6.8340001 -0.954 180 100 47
-3.4619999 6.8260002 -0.972 119 80 41
-3.474 6.8860002 -0.95899999 142 62 13
-3.46 6.8920002 -0.96700001 56 14 0
-3.457 6.8889999 -0.96899998 54 16 0
-3.4590001 6.8660002 -0.97799999 128 87 59
-3.464 6.8590002 -0.986 50 17 0
-3.4549999 6.8660002 -0.98299998 163 114 71
-3.4579999 6.8730001 -0.95200002 36 16 15
-3.46 6.8629999 -0.94599998 49 24 19
-3.517 6.8540001 -0.97399998 94 68 45
-3.5120001 6.8569999 -0.98100001 218 127 34
-3.5009999 6.8540001 -0.98100001 232 177 97
-3.438 6.8709998 -1.0319999 54 21 4
-3.421 6.8670001 -1.025 148 92 43
-3.4549999 6.8400002 -1.031 131 50 3
-3.45 6.8540001 -1.029 136 56 0
-3.4430001 6.875 -1.0089999 83 30 0
-3.4489999 6.8769999 -1.012 214 129 64
-3.431 6.8759999 -1.022 255 208 118
-3.4679999 6.8559999 -0.97799999 184 135 102
-3.49 6.8460002 -0.91799998 230 155 98
-3.48 6.8699999 -0.92400002 201 128 77
-3.4749999 6.8390002 -1.039 116 94 83
-3.4760001 6.842 -1.031 241 162 93
-3.4809999 6.8249998 -1.044 114 103 97
-3.484 6.836 -1.067 52 33 26
-3.523 6.8610001 -0.98900002 202 142 80
-3.4809999 6.8449998 -1.028 74 34 9
-3.4949999 6.8470001 -1.048 86 64 51
-3.4879999 6.8379998 -1.04 79 36 17
-3.4879999 6.8400002 -1.045 76 51 44
-3.4649999 6.8670001 -1.02 67 32 12
-3.464 6.8670001 -1.015 105 67 44
-3.5179999 6.829 -1.001 171 99 27
-3.517 6.8340001 -0.99800003 220 150 64
-3.5090001 6.835 -1.003 108 58 25
-3.5120001 6.8260002 -0.99699998 169 129 80
-3.54 6.8379998 -0.99900001 156 90 42
-3.4289999 6.8579998 -1.035 230 154 96
-3.4579999 6.8470001 -1.023 177 113 52
-3.461 6.8569999 -1.021 123 63 27
-3.4809999 6.8239999 -0.76700002 183 137 104
-3.4649999 6.8499999 -0.74199998 179 137 95
-3.444 6.8579998 -0.77700001 98 69 55
-3.526 6.8109999 -0.78600001 147 47 0
-3.447 6.842 -0.94499999 101 48 14
-3.4389999 6.8390002 -0.89700001 87 38 6
-3.4519999 6.8530002 -0.90399998 131 87 38
-3.4460001 6.842 -0.89499998 128 83 41
-3.4360001 6.836 -0.92500001 91 47 34
-3.4389999 6.8410001 -0.90600002 49 24 4
-3.4619999 6.882 -0.90100002 88 55 40
-3.4560001 6.8759999 -0.898 95 59 47
-3.46 6.868 -0.89899999 130 73 18
-3.4619999 6.869 -0.89700001 78 51 22
-3.4630001 6.888 -0.889 169 116 64
-3.437 6.8260002 -0.93099999 100 60 35
-3.431 6.823 -0.99800003 92 38 0
-3.444 6.8390002 -1.002 86 27 0
-3.444 6.848 -1.005 174 117 62
-3.461 6.8169999 -0.98500001 232 190 118
-3.4649999 6.8260002 -1.034 66 20 0
-3.4660001 6.829 -0.77700001 146 62 2
-3.4519999 6.836 -0.77100003 135 94 72
-3.4519999 6.835 -0.76700002 167 103 39
-3.451 6.8369999 -0.76200002 95 68 61
-3.4519999 6.842 -0.75099999 160 114 64
-3.4719999 6.8330002 -0.74599999 179 137 89
-3.4690001 6.8319998 -0.74800003 153 97 48
-3.517 6.8119998 -0.80400002 187 112 55
-3.5109999 6.8239999 -0.815 77 13 0
-3.483 6.8369999 -0.83600003 191 120 74
-3.4719999 6.8270001 -0.90600002 241 193 147
-3.4909999 6.8379998 -0.89399999 173 99 54
-3.477 6.8530002 -0.833 176 116 79
-3.4719999 6.8569999 -0.84899998 164 108 71
-3.467 6.8429999 -0.824 187 110 28
-3.47 6.8699999 -0.88200003 120 73 43
-3.4690001 6.8870001 -0.87599999 173 101 43
-3.4690001 6.8930001 -0.875 122 85 58
-3.474 6.8540001 -0.85900003 156 100 63
-3.471 6.8579998 -0.87199998 102 42 0
-3.4760001 6.8540001 -0.87 99 78 61
-3.4679999 6.862 -0.87400001 115 73 48
-3.4690001 6.8639998 -0.87900001 142 95 53
-3.4890001 6.8340001 -0.92000002 191 139 82
-3.483 6.8340001 -0.912 66 20 0
-3.464 6.8400002 -0.884 85 48 29
-3.4560001 6.836 -0.89499998 136 89 45
-3.4660001 6.8499999 -0.87300003 81 53 42
-3.4630001 6.823 -0.90600002 203 151 104
-3.487 6.848 -0.87099999 117 51 0
-3.4779999 6.835 -0.88200003 238 159 92
-3.4820001 6.8369999 -0.88 189 96 35
-3.494 6.829 -0.85699999 96 53 21
-3.497 6.8340001 -0.86900002 151 78 23
-3.49 6.8369999 -0.875 56 19 1
-3.497 6.8340001 -0.86299998 115 49 0
-3.441 6.829 -0.89999998 99 64 44
-3.4489999 6.8260002 -0.89499998 83 39 28
-3.447 6.836 -0.898 68 34 6
-3.4549999 6.8119998 -0.92400002 165 107 59
-3.4590001 6.8130002 -0.926 123 82 52
-3.4949999 6.8260002 -0.80000001 89 28 0
-3.487 6.835 -0.81099999 78 35 18
-3.49 6.8309999 -0.81400001 73 37 25
-3.5 6.835 -0.77999997 100 64 52
-3.4630001 6.8530002 -0.81 233 160 117
-3.4619999 6.8499999 -0.81599998 204 129 71
-3.4660001 6.855 -0.81599998 171 101 50
-3.4690001 6.848 -0.78399998 98 64 39
-3.464 6.8470001 -0.77999997 185 139 103
-3.4719999 6.8569999 -0.78100002 58 27 0
-3.47 6.855 -0.80199999 101 46 15
-3.4679999 6.855 -0.79900002 81 30 1
-3.4679999 6.8540001 -0.796 120 67 35
-3.4519999 6.8649998 -0.773 83 56 29
-3.464 6.8590002 -0.80000001 95 39 12
-3.4779999 6.8470001 -0.80599999 116 62 26
-3.494 6.8070002 -0.76800001 224 121 42
-3.503 6.8000002 -0.77200001 146 67 0
-3.539 6.829 -0.99699998 225 201 189
-3.4890001 6.8270001 -1.053 177 131 82
-3.4949999 6.8309999 -1.049 205 150 111
-3.4920001 6.8299999 -1.049 236 145 64
-3.4690001 6.8169999 -1.026 200 152 104
-3.4890001 6.8299999 -1.002 189 120 65
-3.49 6.8330002 -1.0039999 203 142 59
-3.4790001 6.8249998 -1.015 179 109 58
-3.4530001 6.822 -1.025 134 101 70
-3.4630001 6.8179998 -1.003 167 125 85
-3.5139999 6.8590002 -0.99800003 162 85 39
-3.5120001 6.8639998 -0.99299997 86 42 5
-3.4530001 6.855 -0.93400002 91 20 0
-3.4560001 6.8559999 -0.94300002 102 59 24
-3.471 6.8940001 -0.875 199 165 127
-3.4630001 6.8670001 -0.74800003 125 83 45
-3.467 6.8699999 -0.74900001 239 184 81
-3.464 6.8730001 -0.76300001 125 59 7
-3.4630001 6.8759999 -0.75599998 121 102 95
-3.461 6.868 -0.76999998 108 43 11
-3.483 6.829 -0.94 163 112 67
-3.5079999 6.8260002 -0.98500001 241 189 116
-3.4809999 6.8309999 -0.95700002 186 130 81
-3.4590001 6.8280001 -0.96899998 206 169 62
-3.4749999 6.8239999 -0.95200002 90 35 4
-3.464 6.888 -0.95899999 94 43 12
-3.4590001 6.8839998 -0.95700002 23 5 1
-3.46 6.8800001 -0.94499999 167 113 75
-3.4679999 6.888 -0.97100002 84 51 32
-3.4560001 6.8839998 -0.95999998 197 155 143
-3.4619999 6.8709998 -0.94599998 88 30 10
-3.507 6.8559999 -0.98299998 76 44 33
-3.434 6.8610001 -1.0319999 56 22 10
-3.448 6.882 -1.02 254 215 146
-3.4419999 6.8340001 -0.99699998 197 145 88
-3.474 6.8569999 -0.96899998 106 39 0
-3.467 6.8740001 -0.96100003 62 29 0
-3.487 6.848 -0.912 121 78 44
-3.457 6.8590002 -0.90200001 90 53 37
-3.474 6.8769999 -0.926 155 107 67
-3.4749999 6.8769999 -0.921 165 94 48
-3.4790001 6.8390002 -1.036 177 94 26
-3.4749999 6.8249998 -1.0369999 220 177 134
-3.4790001 6.8390002 -1.046 182 102 33
-3.4719999 6.8610001 -1.013 81 40 18
-3.4849999 6.848 -1.018 64 37 18
-3.4779999 6.855 -1.011 102 58 21
-3.52 6.823 -0.99900001 185 144 116
-3.5280001 6.8410001 -0.995 160 97 43
-3.47 6.8400002 -1.029 68 45 27
-3.4630001 6.8569999 -1.02 50 12 0
-3.477 6.823 -0.77200001 141 59 3
-3.464 6.8270001 -0.76899999 161 120 92
-3.4719999 6.8499999 -0.79799998 88 65 47
-3.4389999 6.8520002 -0.778 135 76 18
-3.4489999 6.849 -0.77499998 133 80 36
-3.4690001 6.875 -0.92400002 75 33 11
-3.4460001 6.8600001 -0.92699999 169 100 58
-3.4530001 6.849 -0.954 80 32 0
-3.451 6.8410001 -0.95200002 81 30 0
-3.4649999 6.8850002 -0.90499997 80 47 30
-3.461 6.855 -0.88 95 62 47
-3.45 6.816 -0.93699998 125 93 80
-3.438 6.8330002 -0.98400003 199 139 89
-3.4349999 6.8189998 -1.0039999 111 52 10
-3.4460001 6.848 -0.98900002 209 134 66
-3.451 6.8579998 -1.006 100 78 57
-3.4360001 6.8189998 -0.99400002 224 145 76
-3.4860001 6.8390002 -0.77100003 138 88 63
-3.4849999 6.8309999 -0.78100002 163 91 43
-3.5120001 6.8210001 -0.81 139 70 29
-3.5009999 6.8330002 -0.83099997 83 12 0
-3.4679999 6.855 -0.83399999 63 13 0
-3.467 6.855 -0.824 182 111 47
-3.4679999 6.8429999 -0.82200003 171 133 96
-3.4779999 6.8390002 -0.81999999 113 66 36
-3.467 6.8930001 -0.87800002 129 84 63
-3.4809999 6.862 -0.87900001 106 38 0
-3.4690001 6.8369999 -0.88599998 152 106 70
-3.4990001 6.836 -0.87699997 138 65 14
-3.4449999 6.822 -0.89999998 158 110 64
-3.4419999 6.823 -0.93199998 149 61 13
-3.4400001 6.8260002 -0.935 152 69 19
-3.4430001 6.8379998 -0.93900001 124 93 65
-3.4809999 6.8829999 -0.90899998 183 143 107
-3.4719999 6.881 -0.91600001 125 52 7
-3.484 6.8369999 -0.81999999 56 22 10
-3.493 6.8330002 -0.79299998 121 62 22
-3.4979999 6.842 -0.76999998 167 88 21
-3.493 6.8319998 -0.83499998 123 48 6
-3.4649999 6.8590002 -0.80400002 91 34 5
-3.5409999 6.829 -0.99599999 176 133 101
-3.5409999 6.8309999 -0.99599999 214 123 52
-3.4960001 6.835 -1.057 211 147 85
-3.494 6.8449998 -1.058 60 41 24
-3.4760001 6.823 -1.01 163 92 48
-3.483 6.8270001 -0.99400002 221 181 132
-3.4979999 6.8400002 -1.003 123 78 39
-3.4920001 6.8270001 -1 183 123 86
-3.517 6.8499999 -0.99699998 88 54 42
-3.5190001 6.8400002 -0.995 76 46 12
-3.4809999 6.836 -0.94199997 169 83 22
-3.4679999 6.8670001 -0.74599999 223 155 54
-3.4760001 6.8709998 -0.74699998 123 72 43
-3.441 6.8509998 -0.76499999 189 143 109
-3.5009999 6.8249998 -0.98299998 238 190 116
-3.4579999 6.8260002 -0.97399998 170 99 35
-3.4719999 6.8260002 -0.97399998 251 206 125
-3.4660001 6.8850002 -0.954 191 145 112
-3.4690001 6.8860002 -0.95899999 124 72 33
-3.4660001 6.882 -0.95099998 171 117 79
-3.4660001 6.888 -0.96700001 61 19 3
-3.4300001 6.8629999 -1.035 78 26 5
-3.4519999 6.8699999 -1.025 112 71 39
-3.4360001 6.8759999 -1.0190001 195 131 31
-3.448 6.8670001 -1.029 77 72 79
-3.4400001 6.8639998 -1.013 133 91 49
-3.474 6.8610001 -0.99299997 154 105 65
-3.4820001 6.8390002 -1.036 78 37 19
-3.4820001 6.8410001 -1.029 61 35 18
-3.4860001 6.835 -1.026 118 83 63
-3.527 6.835 -0.99599999 107 75 62
-3.4960001 6.836 -0.97000003 235 184 121
-3.4579999 6.8720002 -1.016 161 96 42
-3.4579999 6.862 -0.98400003 175 114 47
-3.4579999 6.8439999 -1.025 121 113 100
-3.4860001 6.8460002 -1.012 197 133 62
-3.4779999 6.848 -0.79799998 140 96 59
-3.4719999 6.8530002 -0.78299999 174 93 40
-3.473 6.8400002 -0.78200001 136 60 0
-3.4649999 6.8509998 -0.78399998 107 80 59
-3.447 6.8559999 -0.77700001 121 56 16
-3.4630001 6.8759999 -0.75999999 159 90 33
-3.4560001 6.855 -0.78200001 173 110 59
-3.4660001 6.8759999 -0.921 123 60 9
-3.4590001 6.8720002 -0.926 146 87 43
-3.457 6.8649998 -0.93099999 133 93 68
-3.441 6.8699999 -0.926 133 103 77
-3.448 6.8449998 -0.90600002 130 87 42
-3.464 6.8590002 -0.89099997 121 57 11
-3.454 6.8449998 -0.89899999 151 106 67
-3.471 6.875 -0.926 91 34 4
-3.4530001 6.8390002 -0.96499997 98 63 35
-3.4660001 6.829 -1.035 181 145 113
-3.484 6.8559999 -0.77100003 59 26 0
-3.477 6.848 -0.77399999 177 130 76
-3.4489999 6.8429999 -0.759 212 126 17
-3.506 6.8150001 -0.80800003 126 66 30
-3.5090001 6.8189998 -0.81400001 89 30 0
-3.473 6.8579998 -0.84899998 237 201 169
-3.483 6.8390002 -0.82200003 52 15 7
-3.464 6.8940001 -0.88099998 120 68 29
-3.464 6.8130002 -0.92000002 122 64 18
-3.4879999 6.8390002 -0.88599998 151 63 13
-3.4990001 6.8299999 -0.85699999 187 110 54
-3.447 6.836 -0.94499999 83 36 10
-3.4489999 6.8280001 -0.94499999 121 102 87
-3.454 6.8260002 -0.94800001 142 124 110
-3.494 6.8319998 -0.81800002 45 7 0
-3.4890001 6.8330002 -0.815 65 25 15
-3.5120001 6.8369999 -0.99900001 196 140 91
-3.4890001 6.8429999 -1.0190001 69 28 10
-3.484 6.8330002 -1.0089999 110 61 28
-3.448 6.849 -0.75300002 252 190 77
-3.441 6.8540001 -0.76300001 193 149 100
-3.471 6.8280001 -0.97100002 249 217 118
-3.47 6.8860002 -0.963 108 30 0
-3.471 6.882 -0.96799999 99 50 18
-3.467 6.8870001 -0.963 84 35 0
-3.461 6.8699999 -0.95099998 134 71 18
-3.4300001 6.8579998 -1.035 213 132 67
-3.4530001 6.8740001 -1.013 135 83 23
-3.444 6.8800001 -1.022 203 143 73
-3.4630001 6.862 -1.02 62 25 7
-3.4579999 6.8649998 -1.028 72 53 36
-3.4349999 6.8610001 -1.016 86 83 92
-3.4319999 6.8699999 -1.021 226 174 126
-3.4660001 6.8410001 -1.026 71 16 0
-3.474 6.848 -0.78200001 154 105 65
-3.4430001 6.849 -0.76800001 194 92 18
-3.46 6.816 -0.93000001 130 76 30
-3.4530001 6.8140001 -0.99199998 172 136 102
-3.4519999 6.816 -0.99900001 148 96 36
-3.4579999 6.8179998 -1.002 143 91 41
-3.4860001 6.8379998 -0.88 186 124 77
-3.4400001 6.8270001 -0.93900001 106 55 28
-3.4660001 6.855 -0.81099999 101 27 0
-3.5420001 6.835 -0.99599999 120 70 37
-3.536 6.8319998 -0.99800003 228 201 182
-3.5350001 6.8400002 -0.99599999 78 45 30
-3.447 6.835 -0.96899998 181 145 111
-3.4719999 6.8839998 -0.96499997 193 162 142
-3.464 6.8839998 -0.97000003 48 25 9
-3.4389999 6.848 -1.026 145 126 122
-3.448 6.8800001 -1.017 155 86 8
-3.4349999 6.8720002 -1.02 211 155 104
-3.4489999 6.8639998 -1.029 46 13 0
-3.4430001 6.8600001 -1.01 99 32 0
-3.4530001 6.8670001 -1.0039999 180 151 135
-3.4590001 6.8200002 -1.021 181 172 175
-3.4690001 6.849 -1.016 184 152 127
-3.4549999 6.8660002 -0.77100003 84 22 1
-3.467 6.8730001 -0.92500001 102 33 4
-3.4560001 6.8610001 -0.773 113 39 2
-3.4430001 6.8260002 -0.93900001 121 42 0
-3.4820001 6.8390002 -1.0420001 90 48 24
-3.5079999 6.8270001 -0.99599999 178 144 98
-3.5039999 6.848 -0.99599999 213 153 99
-3.49 6.8309999 -0.98100001 234 179 99
-3.4549999 6.8639998 -1.001 206 171 151
-3.457 6.8709998 -1 143 97 64
-3.454 6.8140001 -1.006 131 86 55
-3.4790001 6.8379998 -1.049 230 150 81
0 0 0 1 0 0 0 1 0 0 0 1 0 0 0 0 0 1016 1 0 0
