ply
format ascii 1.0
comment PCL generated
element vertex 310
property float x
property float y
property float z
property uchar red
property uchar green
property uchar blue
element camera 1
property float view_px
property float view_py
property float view_pz
property float x_axisx
property float x_axisy
property float x_axisz
property float y_axisx
property float y_axisy
property float y_axisz
property float z_axisx
property float z_axisy
property float z_axisz
property float focal
property float scalex
property float scaley
property float centerx
property float centery
property int viewportx
property int viewporty
property float k1
property float k2
end_header
-8.5299997 -8.2869997 -0.94999999 58 15 0
-8.5340004 -8.2910004 -0.94300002 120 70 35
-8.5349998 -8.2910004 -0.94800001 75 24 3
-8.4860001 -8.2279997 -0.921 46 3 0
-8.4949999 -8.2340002 -0.92400002 81 36 17
-8.4890003 -8.2320004 -0.91399997 99 49 24
-8.4879999 -8.2299995 -0.91600001 114 46 1
-8.4849997 -8.2279997 -0.90799999 97 44 26
-8.4820004 -8.2259998 -0.92199999 130 82 44
-8.4840002 -8.2209997 -0.92199999 141 94 50
-8.5629997 -8.2150002 -0.93099999 138 93 60
-8.5600004 -8.2180004 -0.92699999 76 29 0
-8.5690002 -8.2189999 -0.93400002 112 51 7
-8.5649996 -8.2189999 -0.93199998 76 25 0
-8.5649996 -8.2080002 -0.986 117 61 26
-8.5640001 -8.2229996 -0.98299998 72 25 5
-8.5609999 -8.2200003 -0.97000003 108 61 31
-8.5670004 -8.2150002 -0.99800003 53 47 25
-8.5100002 -8.2049999 -1.007 34 3 0
-8.5019999 -8.2180004 -1.015 41 14 0
-8.5100002 -8.2119999 -1.02 65 38 21
-8.5150003 -8.2089996 -1.017 40 10 0
-8.5500002 -8.1890001 -1.01 126 100 73
-8.5299997 -8.1859999 -1.016 62 32 8
-8.552 -8.1890001 -1.024 55 21 9
-8.5310001 -8.184 -1.011 91 75 62
-8.5170002 -8.2559996 -0.99299997 94 66 52
-8.5159998 -8.276 -0.98699999 104 49 10
-8.5120001 -8.2600002 -0.98500001 27 0 0
-8.4949999 -8.2340002 -0.92799997 92 45 25
-8.4890003 -8.2290001 -0.926 53 10 3
-8.4910002 -8.2320004 -0.93800002 79 36 2
-8.4860001 -8.2259998 -0.93000001 52 21 0
-8.5410004 -8.2410002 -0.92299998 163 102 57
-8.5310001 -8.2329998 -0.91799998 62 16 0
-8.5349998 -8.2410002 -0.92799997 92 33 0
-8.5279999 -8.257 -0.93300003 165 115 78
-8.54 -8.2489996 -0.93000001 128 69 27
-8.526 -8.2469997 -0.93599999 116 59 14
-8.5500002 -8.2530003 -0.93400002 158 91 39
-8.5450001 -8.2530003 -0.93699998 111 51 14
-8.5450001 -8.2580004 -0.949 64 21 4
-8.5459995 -8.25 -0.94099998 81 27 0
-8.5469999 -8.2469997 -0.94599998 128 91 64
-8.552 -8.2399998 -0.93000001 144 108 92
-8.5640001 -8.2139997 -0.98900002 65 20 0
-8.559 -8.2010002 -0.99400002 70 38 23
-8.5439997 -8.1960001 -0.99199998 23 2 1
-8.5489998 -8.1969995 -1.0039999 62 26 14
-8.5620003 -8.2370005 -0.94999999 87 65 54
-8.5570002 -8.2399998 -0.95599997 74 30 3
-8.552 -8.2410002 -0.95099998 68 27 7
-8.4879999 -8.2259998 -0.90899998 136 69 17
-8.4870005 -8.2279997 -0.90499997 88 36 14
-8.4919996 -8.2229996 -0.921 129 86 54
-8.5600004 -8.2270002 -0.95599997 69 36 17
-8.5609999 -8.2180004 -0.93900001 69 24 3
-8.5579996 -8.2229996 -0.958 70 32 13
-8.4949999 -8.2410002 -0.98699999 63 28 26
-8.4989996 -8.2379999 -0.98400003 34 0 0
-8.4870005 -8.2440004 -0.98400003 31 0 0
-8.4949999 -8.2410002 -0.98299998 35 0 1
-8.5030003 -8.2159996 -0.95899999 69 44 37
-8.5089998 -8.2089996 -0.95899999 44 19 25
-8.5050001 -8.2150002 -0.97600001 96 57 50
-8.4969997 -8.2340002 -0.912 79 24 0
-8.5209999 -8.2650003 -0.93800002 76 26 3
-8.5089998 -8.2480001 -0.94499999 77 12 0
-8.5100002 -8.2480001 -0.94999999 58 28 28
-8.5360003 -8.2329998 -0.921 95 35 0
-8.559 -8.2360001 -0.97100002 61 32 18
-8.5439997 -8.25 -0.96399999 104 84 75
-8.552 -8.2419996 -0.95700002 50 12 3
-8.5220003 -8.2629995 -0.991 79 59 50
-8.5340004 -8.2810001 -0.986 118 87 66
-8.5220003 -8.2770004 -0.98500001 112 54 4
-8.5600004 -8.2159996 -0.98000002 108 60 37
-8.5600004 -8.2030001 -1.01 42 16 3
-8.5539999 -8.1929998 -1.022 120 96 70
-8.5509996 -8.1999998 -1.023 45 18 9
-8.5550003 -8.2130003 -1.022 57 33 31
-8.5579996 -8.2209997 -1.008 51 14 0
-8.5100002 -8.2209997 -0.92799997 60 19 13
-8.5220003 -8.2150002 -0.94099998 83 36 8
-8.526 -8.2200003 -0.93300003 89 45 32
-8.5240002 -8.2110004 -0.94199997 126 61 21
-8.5450001 -8.1969995 -1 44 9 0
-8.5279999 -8.2080002 -1.025 36 13 5
-8.5229998 -8.2089996 -1.02 36 13 0
-8.5150003 -8.21 -1.018 20 5 0
-8.5410004 -8.2010002 -1.025 22 1 0
-8.5290003 -8.2119999 -1.027 116 94 81
-8.5489998 -8.198 -1.026 102 98 99
-8.5439997 -8.21 -1.024 32 8 4
-8.5539999 -8.2299995 -0.93199998 140 99 69
-8.5459995 -8.2379999 -0.92699999 136 72 26
-8.5500002 -8.2449999 -0.92500001 109 64 41
-8.5539999 -8.217 -0.94099998 83 41 17
-8.5559998 -8.2270002 -0.949 81 49 34
-8.5430002 -8.2889996 -0.94599998 124 79 38
-8.5389996 -8.2880001 -0.949 76 33 1
-8.5150003 -8.2069998 -1.0039999 12 2 1
-8.5229998 -8.1969995 -0.99299997 16 0 0
-8.5109997 -8.2150002 -0.98199999 98 67 47
-8.5050001 -8.2250004 -1.021 34 12 0
-8.5080004 -8.2360001 -1.003 118 83 63
-8.5080004 -8.2309999 -1.026 153 115 92
-8.5200005 -8.2139997 -1.021 65 36 30
-8.5159998 -8.2600002 -0.93199998 58 12 0
-8.5200005 -8.2609997 -0.93699998 40 0 0
-8.5190001 -8.2550001 -0.93900001 100 61 32
-8.4919996 -8.2410002 -0.96100003 71 27 14
-8.493 -8.2259998 -0.95200002 91 55 39
-8.4949999 -8.2340002 -0.94099998 95 41 17
-8.5059996 -8.2189999 -0.93300003 110 70 35
-8.5489998 -8.2049999 -0.96100003 92 60 37
-8.54 -8.21 -0.94300002 142 108 81
-8.5539999 -8.2119999 -0.958 119 87 62
-8.4969997 -8.2229996 -0.95700002 37 10 3
-8.5010004 -8.2200003 -0.96200001 23 5 5
-8.5050001 -8.2189999 -0.95300001 88 49 20
-8.5030003 -8.2349997 -0.98500001 38 8 0
-8.5059996 -8.224 -1.006 50 34 37
-8.5059996 -8.2399998 -0.99000001 52 19 14
-8.5109997 -8.2209997 -0.99199998 56 16 0
-8.5120001 -8.2340002 -1.0140001 82 54 33
-8.5120001 -8.2370005 -1.0089999 130 99 79
-8.5299997 -8.2320004 -0.92199999 48 4 0
-8.5459995 -8.2519999 -0.95300001 40 3 0
-8.4919996 -8.2250004 -0.94700003 43 6 0
-8.54 -8.283 -0.94099998 126 92 64
-8.5469999 -8.2749996 -0.95200002 93 52 24
-8.5340004 -8.2770004 -0.93800002 124 66 28
-8.5410004 -8.2279997 -0.92199999 153 109 70
-8.5150003 -8.2530003 -0.99000001 54 25 21
-8.5200005 -8.257 -0.99199998 28 0 0
-8.5539999 -8.2110004 -1.017 52 19 2
-8.5649996 -8.2189999 -0.995 71 43 29
-8.5629997 -8.2279997 -0.98100001 96 52 17
-8.559 -8.2270002 -0.972 58 25 16
-8.5640001 -8.2349997 -0.958 81 53 31
-8.5459995 -8.2779999 -0.963 43 5 0
-8.5360003 -8.283 -0.97799999 93 67 66
-8.5349998 -8.2770004 -0.98000002 58 16 2
-8.5240002 -8.2810001 -0.95200002 52 12 2
-8.533 -8.2799997 -0.95499998 47 10 0
-8.5570002 -8.217 -1.007 68 43 38
-8.5579996 -8.2150002 -0.97000003 86 55 35
-8.5509996 -8.2049999 -0.977 83 56 35
-8.5480003 -8.1969995 -0.97100002 106 50 27
-8.5530005 -8.2110004 -0.96200001 73 53 62
-8.5480003 -8.1999998 -0.991 70 33 7
-8.5249996 -8.2049999 -1.0140001 84 60 48
-8.5179996 -8.2069998 -1.008 63 33 23
-8.533 -8.2040005 -1.021 58 39 24
-8.5389996 -8.1969995 -1.022 32 4 3
-8.5360003 -8.2139997 -1.02 34 1 0
-8.5629997 -8.2189999 -0.93599999 85 37 14
-8.5439997 -8.2150002 -0.95099998 95 63 40
-8.526 -8.2819996 -0.94499999 148 109 66
-8.5340004 -8.2840004 -0.95200002 90 50 25
-8.5270004 -8.2670002 -0.94400001 65 17 0
-8.5139999 -8.2130003 -0.96600002 57 21 5
-8.507 -8.2150002 -0.97000003 49 17 4
-8.5279999 -8.1969995 -0.97000003 40 3 0
-8.5290003 -8.1969995 -0.97399998 55 18 2
-8.5220003 -8.2110004 -0.99299997 131 84 58
-8.5139999 -8.217 -0.99900001 65 38 29
-8.4899998 -8.2399998 -0.96399999 65 25 13
-8.5190001 -8.2650003 -0.93300003 143 93 60
-8.5050001 -8.2460003 -0.95700002 134 73 44
-8.5150003 -8.2510004 -0.95200002 85 58 47
-8.493 -8.2329998 -0.93599999 176 124 100
-8.5039997 -8.2370005 -0.94099998 94 52 14
-8.4899998 -8.2290001 -0.93000001 64 21 12
-8.5089998 -8.21 -0.94700003 115 88 95
-8.4949999 -8.2220001 -0.92799997 35 0 0
-8.493 -8.2220001 -0.93099999 104 33 1
-8.5469999 -8.2030001 -0.97000003 68 38 14
-8.5600004 -8.2150002 -0.95300001 106 61 38
-8.526 -8.1940002 -0.995 32 10 0
-8.5290003 -8.191 -1.0039999 28 8 1
-8.5340004 -8.1940002 -0.99299997 21 1 0
-8.5389996 -8.1940002 -0.99800003 54 32 9
-8.5380001 -8.1949997 -0.986 36 6 0
-8.5050001 -8.2150002 -0.96499997 118 86 63
-8.5010004 -8.2229996 -0.96700001 20 0 0
-8.4989996 -8.2229996 -0.96200001 25 4 0
-8.5050001 -8.2180004 -0.97799999 80 49 29
-8.5039997 -8.2200003 -0.972 19 3 6
-8.5190001 -8.2460003 -1.006 79 53 40
-8.5500002 -8.2410002 -0.93800002 157 101 68
-8.5340004 -8.2209997 -0.921 182 137 96
-8.5270004 -8.2279997 -0.92900002 40 1 0
-8.5290003 -8.217 -0.93800002 93 52 32
-8.5389996 -8.2259998 -0.92500001 76 36 11
-8.54 -8.2150002 -0.94099998 70 30 4
-8.533 -8.2589998 -0.93900001 144 77 35
-8.5410004 -8.2589998 -0.949 58 11 0
-8.4879999 -8.2279997 -0.93199998 102 34 0
-8.5229998 -8.2229996 -0.93199998 62 32 8
-8.507 -8.2229996 -0.92400002 129 60 21
-8.5019999 -8.2349997 -0.92199999 76 29 9
-8.5100002 -8.2349997 -0.93099999 148 100 60
-8.5089998 -8.2390003 -0.935 163 83 30
-8.5570002 -8.2309999 -0.97500002 106 68 49
-8.5410004 -8.2580004 -0.972 57 32 25
-8.5459995 -8.2410002 -0.99900001 18 1 0
-8.5450001 -8.2419996 -0.98100001 121 63 26
-8.533 -8.2539997 -0.98699999 104 82 71
-8.5179996 -8.2720003 -0.98299998 100 50 15
-8.5120001 -8.2600002 -0.98400003 136 84 45
-8.5640001 -8.2209997 -0.986 68 22 0
-8.5489998 -8.2340002 -0.99400002 46 18 4
-8.552 -8.2019997 -0.986 80 39 19
-8.5439997 -8.1969995 -0.98100001 69 18 0
-8.5530005 -8.1940002 -1.01 35 11 9
-8.5200005 -8.2040005 -1.001 8 0 0
-8.5299997 -8.1960001 -1.0089999 69 21 0
-8.5380001 -8.2139997 -1.0190001 19 0 0
-8.552 -8.1929998 -1.0190001 76 48 26
-8.5559998 -8.2370005 -0.93800002 112 44 9
-8.526 -8.2080002 -0.98199999 86 64 51
-8.5369997 -8.1960001 -0.96899998 114 81 62
-8.5209999 -8.2159996 -1.023 32 4 3
-8.5100002 -8.2299995 -1.018 48 15 0
-8.4989996 -8.2279997 -0.96399999 80 32 10
-8.5 -8.2390003 -0.95700002 70 14 0
-8.5310001 -8.2690001 -0.95700002 67 8 0
-8.5139999 -8.2399998 -1.008 83 51 30
-8.5170002 -8.2419996 -1.007 74 41 34
-8.507 -8.2279997 -1.008 77 48 32
-8.5450001 -8.1999998 -0.96499997 111 85 62
-8.5279999 -8.1870003 -1.01 47 19 15
-8.533 -8.2690001 -0.94400001 127 59 22
-8.4879999 -8.2250004 -0.93000001 38 3 0
-8.5 -8.2229996 -0.93699998 30 0 0
-8.5030003 -8.2220001 -0.94099998 129 65 30
-8.4910002 -8.2250004 -0.94 134 79 38
-8.4910002 -8.2229996 -0.935 61 31 29
-8.4899998 -8.2250004 -0.935 38 3 0
-8.4879999 -8.2279997 -0.93400002 100 58 44
-8.5030003 -8.224 -0.926 39 2 0
-8.5129995 -8.2270002 -0.92799997 93 52 32
-8.4980001 -8.2399998 -0.917 149 100 59
-8.5579996 -8.2360001 -0.97100002 130 79 48
-8.5439997 -8.2690001 -0.95999998 117 75 50
-8.5279999 -8.2749996 -0.97500002 76 38 15
-8.5539999 -8.2220001 -1.013 21 1 0
-8.5240002 -8.2060003 -0.94700003 88 34 8
-8.5380001 -8.2069998 -0.95499998 162 110 63
-8.552 -8.1940002 -1.0089999 69 41 17
-8.5229998 -8.2679996 -0.93400002 94 38 1
-8.5279999 -8.2749996 -0.93599999 146 90 53
-8.5290003 -8.2770004 -0.93400002 171 143 129
-8.5430002 -8.2799997 -0.958 86 29 0
-8.5419998 -8.1949997 -0.98000002 83 44 15
-8.5340004 -8.198 -0.977 112 58 24
-8.5100002 -8.2119999 -1.02 65 38 21
-8.5159998 -8.2309999 -1.013 83 55 34
-8.5249996 -8.243 -1.006 60 22 11
-8.5209999 -8.2250004 -1.015 115 98 91
-8.5200005 -8.2449999 -1.006 40 16 4
-8.4969997 -8.2259998 -0.95700002 88 57 39
-8.4969997 -8.2340002 -0.96200001 42 10 0
-8.5039997 -8.2340002 -0.98199999 53 22 2
-8.5039997 -8.2399998 -0.95300001 60 20 0
-8.5279999 -8.2620001 -0.94599998 138 105 88
-8.5089998 -8.2089996 -0.94800001 34 0 0
-8.5 -8.2460003 -0.972 52 14 3
-8.4910002 -8.2290001 -0.93900001 72 28 15
-8.5489998 -8.2349997 -0.98699999 29 6 0
-8.5170002 -8.2530003 -0.95300001 156 95 50
-8.5509996 -8.217 -1.018 43 11 0
-8.5299997 -8.257 -0.98799998 45 19 6
-8.5279999 -8.2510004 -1.007 64 33 15
-8.5349998 -8.2410002 -0.99800003 37 15 2
-8.5150003 -8.2550001 -0.963 63 33 33
-8.5150003 -8.2530003 -0.97299999 44 6 0
-8.5410004 -8.2229996 -1.001 52 22 11
-8.5319996 -8.2370005 -1.003 33 0 0
-8.5290003 -8.1949997 -0.98900002 45 18 1
-8.5120001 -8.2060003 -0.94800001 50 16 6
-8.5340004 -8.2250004 -1.015 116 96 85
-8.5419998 -8.2200003 -1.0140001 23 0 0
-8.5480003 -8.2189999 -1.0140001 42 13 5
-8.5439997 -8.2189999 -0.93699998 139 78 33
-8.5019999 -8.2539997 -0.977 28 0 0
-8.507 -8.243 -0.94499999 59 31 9
-8.5170002 -8.2370005 -1.0089999 17 0 0
-8.5 -8.2379999 -0.96700001 65 30 0
-8.5489998 -8.2360001 -0.991 83 53 43
-8.533 -8.2700005 -0.98000002 79 48 28
-8.5310001 -8.2440004 -1.0039999 61 32 18
-8.526 -8.2010002 -0.95700002 160 125 97
-8.5100002 -8.2200003 -1.0190001 40 16 4
-8.5010004 -8.25 -0.977 29 0 0
-8.5010004 -8.2460003 -0.96399999 76 33 16
-8.552 -8.2279997 -0.99299997 55 23 12
-8.5220003 -8.2620001 -0.98000002 133 96 69
-8.526 -8.257 -0.97399998 67 36 18
-8.5310001 -8.2279997 -1.012 26 0 0
-8.533 -8.1999998 -0.95999998 99 81 71
-8.5050001 -8.25 -0.98100001 131 90 62
-8.5109997 -8.2480001 -0.98799998 32 1 0
-8.5419998 -8.2690001 -0.96100003 76 32 21
-8.5310001 -8.217 -1.0190001 19 1 1
-8.533 -8.198 -0.96700001 65 28 2
-8.5369997 -8.2720003 -0.96399999 87 46 24
-8.5340004 -8.2679996 -0.963 59 16 0
0 0 0 1 0 0 0 1 0 0 0 1 0 0 0 0 0 310 1 0 0
