ply
format ascii 1.0
comment PCL generated
element vertex 671
property float x
property float y
property float z
property uchar red
property uchar green
property uchar blue
element camera 1
property float view_px
property float view_py
property float view_pz
property float x_axisx
property float x_axisy
property float x_axisz
property float y_axisx
property float y_axisy
property float y_axisz
property float z_axisx
property float z_axisy
property float z_axisz
property float focal
property float scalex
property float scaley
property float centerx
property float centery
property int viewportx
property int viewporty
property float k1
property float k2
end_header
-9.8140001 -1.646 -1.027 134 83 36
-9.8059998 -1.65 -1.038 40 12 0
-9.816 -1.654 -1.039 46 16 6
-9.8889999 -1.5700001 -1.051 57 28 14
-9.8870001 -1.569 -1.052 52 20 5
-9.8970003 -1.575 -1.054 38 14 4
-9.8940001 -1.574 -1.054 38 11 2
-9.8149996 -1.637 -1.057 83 37 1
-9.816 -1.6390001 -1.057 74 23 4
-9.8070002 -1.648 -1.045 255 209 145
-9.8149996 -1.647 -1.029 143 102 40
-9.7690001 -1.605 -1.006 85 47 10
-9.7679996 -1.604 -1.008 66 27 0
-9.7740002 -1.608 -1.0089999 89 50 11
-9.7480001 -1.597 -1.005 241 202 123
-9.7519999 -1.602 -1.008 223 180 102
-9.8140001 -1.64 -1.052 70 25 0
-9.882 -1.641 -1.054 185 109 51
-9.8730001 -1.646 -1.049 197 155 130
-9.8769999 -1.6339999 -1.066 62 39 21
-9.7919998 -1.6339999 -1.034 249 197 139
-9.8430004 -1.5549999 -0.93400002 75 38 22
-9.8430004 -1.571 -0.94199997 65 19 4
-9.842 -1.569 -0.94700003 86 57 27
-9.8909998 -1.649 -1.0089999 133 64 7
-9.8940001 -1.652 -1.023 177 105 47
-9.8970003 -1.65 -1.015 177 87 35
-9.8649998 -1.636 -0.98100001 102 58 23
-9.8640003 -1.6440001 -0.98299998 64 12 0
-9.8620005 -1.6390001 -0.98299998 156 101 70
-9.8039999 -1.637 -1.0190001 75 26 0
-9.7480001 -1.597 -1.007 239 205 116
-9.783 -1.617 -1 153 106 64
-9.868 -1.5599999 -1.012 108 30 0
-9.8559999 -1.562 -1.0039999 91 49 11
-9.8620005 -1.562 -1.024 48 26 15
-9.8739996 -1.559 -1.011 107 72 42
-9.8959999 -1.568 -1.03 240 204 168
-9.8850002 -1.628 -1.057 108 69 38
-9.8979998 -1.645 -1.052 100 52 29
-9.8870001 -1.627 -1.0420001 121 69 32
-9.8950005 -1.648 -1.021 179 93 34
-9.8669996 -1.633 -1.063 202 143 101
-9.868 -1.63 -1.0650001 165 143 132
-9.8900003 -1.642 -0.82099998 64 29 1
-9.8900003 -1.623 -0.82599998 211 122 56
-9.8760004 -1.636 -0.815 174 112 65
-9.8830004 -1.6339999 -0.81999999 52 19 2
-9.8669996 -1.656 -0.829 86 49 22
-9.8620005 -1.65 -0.82099998 178 109 52
-9.8760004 -1.661 -0.824 159 96 43
-9.8660002 -1.653 -0.82599998 150 71 12
-9.8660002 -1.659 -0.83399999 159 96 43
-9.8699999 -1.663 -0.83600003 118 58 4
-9.8540001 -1.5829999 -1.007 59 7 0
-9.8610001 -1.579 -0.991 107 48 8
-9.8479996 -1.5779999 -1.0089999 76 36 10
-9.8380003 -1.635 -1.054 78 32 9
-9.7670002 -1.6160001 -1.038 149 99 48
-9.7659998 -1.615 -1.0420001 171 119 79
-9.7749996 -1.618 -1.045 233 195 124
-9.8050003 -1.64 -1.035 93 46 4
-9.7729998 -1.6160001 -1.02 210 161 103
-9.7690001 -1.614 -1.0190001 237 189 127
-9.7690001 -1.615 -1.0140001 255 205 137
-9.7910004 -1.628 -1.016 82 33 1
-9.7860003 -1.624 -1.016 116 64 25
-9.776 -1.608 -1.023 58 13 0
-9.783 -1.618 -1.006 162 111 58
-9.783 -1.62 -1.0089999 137 85 35
-9.7729998 -1.608 -1.018 92 48 11
-9.8900003 -1.656 -0.82200003 240 187 135
-9.8879995 -1.653 -0.81999999 224 167 114
-9.8889999 -1.651 -0.82800001 92 56 34
-9.8929996 -1.641 -0.83899999 106 60 26
-9.882 -1.656 -0.82599998 208 142 82
-9.8850002 -1.653 -0.82099998 191 130 76
-9.8999996 -1.641 -1.002 96 36 0
-9.8950005 -1.641 -1.008 178 121 76
-9.8889999 -1.581 -0.98199999 48 22 5
-9.8909998 -1.591 -0.995 82 28 0
-9.8920002 -1.574 -0.98900002 95 50 17
-9.8889999 -1.648 -0.84100002 143 83 47
-9.8839998 -1.558 -0.935 39 17 4
-9.8789997 -1.554 -0.92500001 61 19 0
-9.8660002 -1.5420001 -0.93099999 97 62 24
-9.8789997 -1.641 -0.93099999 87 30 3
-9.8760004 -1.646 -0.92199999 91 27 0
-9.8879995 -1.642 -0.93300003 162 109 57
-9.882 -1.641 -0.92000002 60 18 0
-9.8540001 -1.633 -0.93699998 68 24 0
-9.8590002 -1.623 -0.94199997 63 17 1
-9.8570004 -1.631 -0.93800002 150 103 47
-9.8610001 -1.617 -0.94 185 144 122
-9.8760004 -1.646 -0.972 187 146 118
-9.8760004 -1.647 -0.95700002 78 19 0
-9.8769999 -1.651 -0.96600002 110 66 27
-9.8780003 -1.641 -0.96399999 112 64 24
-9.8579998 -1.63 -0.94199997 112 80 42
-9.8610001 -1.626 -0.94400001 64 12 0
-9.8620005 -1.561 -0.93199998 153 104 61
-9.8549995 -1.562 -0.93599999 136 94 46
-9.8660002 -1.573 -0.94 95 52 20
-9.8459997 -1.556 -0.93400002 36 8 0
-9.8599997 -1.553 -0.91500002 59 29 5
-9.8920002 -1.65 -1.016 157 88 29
-9.8780003 -1.6059999 -1.051 156 113 81
-9.8540001 -1.566 -0.96499997 112 61 32
-9.8579998 -1.556 -0.95999998 78 25 0
-9.8520002 -1.5599999 -0.94999999 115 68 42
-9.849 -1.573 -0.94400001 143 100 49
-9.8660002 -1.589 -0.94199997 113 67 41
-9.8889999 -1.587 -0.98699999 173 124 84
-9.882 -1.594 -0.99800003 160 105 74
-9.7959995 -1.628 -1.005 254 206 124
-9.7959995 -1.625 -0.99800003 224 196 122
-9.7930002 -1.624 -0.99800003 189 151 68
-9.8430004 -1.617 -0.82200003 109 50 20
-9.849 -1.6109999 -0.824 146 110 94
-9.8409996 -1.612 -0.83399999 155 119 85
-9.8430004 -1.63 -0.83600003 202 128 67
-9.8459997 -1.62 -0.84500003 105 66 35
-9.8570004 -1.64 -0.81400001 195 124 70
-9.8520002 -1.645 -0.81300002 134 72 25
-9.8380003 -1.6339999 -0.80900002 172 80 17
-9.8669996 -1.645 -0.81999999 104 50 24
-9.8780003 -1.567 -0.99900001 111 53 29
-9.8879995 -1.5599999 -1.016 74 19 0
-9.8850002 -1.566 -1.01 86 48 12
-9.8979998 -1.5779999 -1.049 129 49 0
-9.8970003 -1.592 -1.048 109 80 64
-9.9020004 -1.594 -1.0420001 141 100 70
-9.8929996 -1.597 -1.044 195 130 76
-9.8839998 -1.601 -1.0470001 155 97 47
-9.8909998 -1.637 -1.021 163 121 71
-9.7880001 -1.622 -1.0039999 114 60 14
-9.783 -1.6210001 -1.007 107 54 10
-9.7889996 -1.6210001 -1.0039999 173 122 77
-9.8660002 -1.638 -1.0599999 132 119 111
-9.8540001 -1.645 -1.045 153 120 105
-9.8459997 -1.636 -1.051 105 54 33
-9.8879995 -1.6339999 -0.82300001 202 140 67
-9.8760004 -1.651 -0.81800002 172 110 53
-9.8559999 -1.651 -0.829 88 32 5
-9.8629999 -1.652 -0.82800001 168 118 65
-9.8479996 -1.648 -0.81900001 77 34 0
-9.8459997 -1.645 -0.81699997 96 34 0
-9.8479996 -1.6440001 -0.82599998 133 63 29
-9.842 -1.64 -0.81300002 156 84 34
-9.868 -1.6619999 -0.83899999 141 81 27
-9.8839998 -1.592 -1.052 107 58 18
-9.8719997 -1.648 -0.99299997 210 162 140
-9.823 -1.654 -1.041 77 36 0
-9.8190002 -1.652 -1.04 65 21 0
-9.8190002 -1.648 -1.033 172 124 76
-9.8450003 -1.642 -1.044 74 21 5
-9.8140001 -1.646 -1.044 178 135 101
-9.8100004 -1.632 -1.048 137 91 55
-9.8079996 -1.643 -1.04 119 65 37
-9.8039999 -1.637 -1.025 48 5 0
-9.7959995 -1.633 -1.035 130 81 41
-9.7620001 -1.6109999 -1.0190001 169 121 49
-9.7639999 -1.612 -1.012 251 201 138
-9.7880001 -1.6289999 -1.0319999 210 155 91
-9.7849998 -1.623 -1.012 131 82 41
-9.7919998 -1.627 -1.0089999 95 42 8
-9.7980003 -1.631 -1.01 153 99 35
-9.7980003 -1.633 -1.02 70 25 6
-9.7349997 -1.579 -1.008 163 131 82
-9.7309999 -1.576 -1.015 203 160 115
-9.7299995 -1.575 -1.012 132 88 39
-9.7449999 -1.586 -1.007 55 15 0
-9.7320004 -1.577 -1.007 156 120 70
-9.7729998 -1.6160001 -1.04 255 229 148
-9.7709999 -1.605 -1.023 86 39 9
-9.7629995 -1.6109999 -1.033 227 182 117
-9.8570004 -1.546 -0.88999999 94 57 41
-9.8590002 -1.546 -0.884 87 42 9
-9.8549995 -1.5470001 -0.87900001 114 65 32
-9.8620005 -1.557 -0.89300001 71 12 0
-9.8579998 -1.55 -0.88099998 139 93 60
-9.8900003 -1.6440001 -0.995 56 23 6
-9.8870001 -1.645 -0.98100001 95 54 24
-9.882 -1.64 -0.97399998 120 75 44
-9.8870001 -1.645 -0.96799999 225 145 74
-9.8809996 -1.6390001 -0.97500002 84 43 15
-9.8920002 -1.641 -0.99299997 160 102 52
-9.8889999 -1.65 -0.95300001 133 78 37
-9.8879995 -1.586 -0.98400003 150 84 49
-9.8909998 -1.645 -0.95700002 104 55 14
-9.8800001 -1.628 -0.93900001 54 22 0
-9.8859997 -1.633 -0.92299998 119 51 14
-9.8800001 -1.654 -0.84399998 213 143 109
-9.8859997 -1.649 -0.84299999 147 73 36
-9.8830004 -1.655 -0.833 192 84 19
-9.8780003 -1.5549999 -0.93800002 69 38 20
-9.8850002 -1.562 -0.95300001 87 50 34
-9.8780003 -1.573 -0.94599998 122 59 24
-9.8769999 -1.568 -0.94199997 83 58 27
-9.8780003 -1.648 -0.95499998 108 69 38
-9.8789997 -1.64 -0.935 79 17 0
-9.8669996 -1.631 -0.93000001 92 60 19
-9.882 -1.642 -0.91500002 76 20 0
-9.8719997 -1.655 -0.91399997 84 18 0
-9.8690004 -1.6339999 -0.91799998 107 45 8
-9.8760004 -1.643 -0.91399997 80 37 3
-9.8590002 -1.5549999 -0.93000001 65 33 18
-9.8450003 -1.556 -0.93800002 109 63 47
-9.8500004 -1.559 -0.94499999 129 79 56
-9.8760004 -1.623 -1.049 123 85 49
-9.868 -1.564 -0.977 74 45 31
-9.8559999 -1.566 -0.95899999 50 3 0
-9.8610001 -1.577 -0.95700002 55 12 0
-9.8599997 -1.5779999 -0.97899997 78 51 22
-9.8590002 -1.5779999 -0.98100001 109 79 53
-9.8620005 -1.582 -0.97799999 44 6 0
-9.8640003 -1.569 -0.98500001 73 47 24
-9.8710003 -1.566 -0.995 62 13 0
-9.8719997 -1.567 -0.98400003 88 51 33
-9.8699999 -1.623 -0.94499999 99 51 11
-9.868 -1.612 -0.94 91 55 39
-9.8620005 -1.608 -0.93900001 187 149 126
-9.7559996 -1.603 -1.011 221 176 108
-9.7709999 -1.6059999 -1.0140001 83 43 7
-9.7679996 -1.604 -1.016 86 38 2
-9.8409996 -1.636 -0.81800002 69 17 0
-9.7770004 -1.614 -1.002 207 157 98
-9.8500004 -1.61 -0.84200001 63 17 0
-9.849 -1.643 -0.81300002 127 57 6
-9.8470001 -1.636 -0.81599998 232 139 59
-9.8920002 -1.566 -1.0190001 170 119 74
-9.8909998 -1.566 -1.024 86 42 3
-9.8909998 -1.573 -1.006 33 7 0
-9.8990002 -1.582 -1.036 128 77 48
-9.8879995 -1.569 -0.977 72 34 23
-9.8850002 -1.568 -0.97799999 76 22 0
-9.8909998 -1.574 -1.002 69 22 12
-9.8839998 -1.572 -1.001 166 121 92
-9.8859997 -1.564 -1.028 137 84 34
-9.8800001 -1.562 -1.018 58 26 5
-9.8710003 -1.566 -1.021 100 44 9
-9.8789997 -1.561 -1.015 138 102 68
-9.882 -1.5650001 -1.024 38 11 2
-9.8509998 -1.584 -1.012 88 34 0
-9.8959999 -1.571 -1.035 69 15 0
-9.8920002 -1.572 -1.044 44 19 12
-9.8879995 -1.592 -1.008 160 111 68
-9.882 -1.5930001 -1.005 70 38 0
-9.8859997 -1.6339999 -1.023 131 75 28
-9.8789997 -1.628 -1.002 59 26 7
-9.8610001 -1.631 -1.058 139 62 10
-9.875 -1.651 -0.81900001 214 150 88
-9.8839998 -1.652 -0.81999999 253 187 135
-9.8629999 -1.587 -1.064 115 78 36
-9.8699999 -1.577 -1.0599999 122 87 67
-9.8699999 -1.586 -1.068 34 6 0
-9.8760004 -1.6 -1.068 33 6 0
-9.8590002 -1.609 -1.062 92 58 33
-9.8400002 -1.63 -1.048 91 57 30
-9.8450003 -1.642 -1.0369999 71 37 9
-9.849 -1.635 -1.038 133 75 27
-9.8599997 -1.635 -1.049 122 64 16
-9.8719997 -1.646 -1.031 158 147 143
-9.8629999 -1.643 -0.995 109 71 34
-9.8199997 -1.6440001 -1.049 97 48 16
-9.8140001 -1.641 -1.0420001 79 35 0
-9.8140001 -1.64 -1.0470001 65 22 0
-9.8920002 -1.647 -1.03 108 58 25
-9.8859997 -1.643 -1.033 167 109 59
-9.7989998 -1.632 -1.031 117 64 30
-9.7620001 -1.61 -1.027 230 192 111
-9.7620001 -1.61 -1.029 242 200 128
-9.7939997 -1.628 -1.008 112 58 12
-9.79 -1.624 -1.0039999 169 112 59
-9.7980003 -1.627 -1.01 178 126 76
-9.7309999 -1.577 -1.0089999 93 56 3
-9.7309999 -1.576 -1.011 111 70 16
-9.7360001 -1.58 -1.007 120 89 43
-9.7460003 -1.587 -1.006 66 20 0
-9.7700005 -1.6160001 -1.043 218 171 117
-9.7659998 -1.615 -1.04 124 71 27
-9.8610001 -1.552 -0.88800001 125 54 10
-9.8640003 -1.552 -0.88800001 104 39 1
-9.8760004 -1.5700001 -0.93599999 164 119 80
-9.868 -1.563 -0.935 108 65 33
-9.8669996 -1.557 -0.91399997 72 27 8
-9.8739996 -1.561 -0.91000003 149 106 64
-9.8690004 -1.612 -0.93400002 85 45 19
-9.8789997 -1.552 -0.917 103 53 26
-9.8719997 -1.55 -0.917 76 35 13
-9.8800001 -1.553 -0.90200001 96 44 5
-9.8800001 -1.546 -0.90899998 47 19 7
-9.8830004 -1.635 -0.81999999 219 164 99
-9.8850002 -1.6440001 -0.98199999 73 32 4
-9.8839998 -1.64 -0.958 100 47 16
-9.8800001 -1.638 -0.96700001 124 78 54
-9.8809996 -1.633 -0.95599997 135 109 76
-9.8929996 -1.64 -1.006 63 26 0
-9.8889999 -1.6390001 -1.002 86 46 11
-9.8839998 -1.654 -0.83099997 190 81 22
-9.8780003 -1.557 -0.94 95 57 38
-9.8859997 -1.567 -0.97100002 72 25 7
-9.882 -1.574 -0.95999998 55 20 0
-9.8730001 -1.581 -0.96499997 166 129 100
-9.8760004 -1.574 -0.95200002 172 115 60
-9.8699999 -1.577 -0.958 82 45 29
-9.8850002 -1.635 -0.91900003 102 33 0
-9.8620005 -1.63 -0.93199998 81 50 22
-9.8629999 -1.562 -0.93400002 75 33 9
-9.8520002 -1.562 -0.95099998 140 86 50
-9.8640003 -1.554 -0.94400001 137 91 58
-9.8610001 -1.554 -0.93900001 136 84 47
-9.8629999 -1.553 -0.93800002 144 96 56
-9.8599997 -1.553 -0.93599999 128 76 39
-9.8629999 -1.55 -0.93199998 74 31 12
-9.8690004 -1.5599999 -0.972 61 15 2
-9.8610001 -1.575 -0.98400003 60 24 12
-9.8730001 -1.568 -0.98500001 56 9 0
-9.8610001 -1.5700001 -0.972 68 19 0
-9.8669996 -1.637 -0.98100001 117 53 15
-9.882 -1.643 -0.98500001 122 69 25
-9.8780003 -1.635 -0.991 104 61 26
-9.8730001 -1.631 -0.99199998 166 117 87
-9.8439999 -1.614 -0.82800001 127 95 70
-9.8409996 -1.619 -0.82800001 229 168 101
-9.8459997 -1.63 -0.82599998 148 82 22
-9.757 -1.605 -1.01 206 157 88
-9.7650003 -1.6 -1.0190001 113 64 31
-9.7469997 -1.594 -1.008 218 176 104
-9.8710003 -1.552 -0.889 25 1 0
-9.842 -1.625 -0.81800002 158 126 105
-9.8529997 -1.619 -0.82200003 123 91 78
-9.8850002 -1.568 -0.97500002 92 60 39
-9.8909998 -1.575 -1.007 40 14 0
-9.8669996 -1.595 -1.0039999 162 117 94
-9.8629999 -1.58 -1.015 56 6 0
-9.8730001 -1.591 -0.99800003 90 27 9
-9.8640003 -1.592 -0.99599999 107 55 31
-9.8599997 -1.571 -1.015 43 16 5
-9.8549995 -1.564 -1.005 67 34 3
-9.8549995 -1.576 -1.011 47 13 1
-9.8739996 -1.587 -1.0190001 67 21 0
-9.8839998 -1.5930001 -1.02 96 47 17
-9.8879995 -1.569 -1.046 65 19 0
-9.8879995 -1.6390001 -1.048 81 33 11
-9.882 -1.632 -1.028 106 51 31
-9.8739996 -1.63 -1.02 200 130 71
-9.8850002 -1.636 -1.033 167 93 32
-9.8769999 -1.632 -1.013 124 58 8
-9.8620005 -1.599 -1.057 149 94 74
-9.842 -1.5880001 -1.058 70 11 0
-9.8699999 -1.6109999 -1.0650001 48 22 9
-9.8140001 -1.636 -1.0549999 82 34 0
-9.8629999 -1.627 -1.061 121 107 98
-9.8730001 -1.5700001 -1.041 70 42 20
-9.8640003 -1.577 -1.049 149 64 9
-9.8660002 -1.5779999 -1.056 91 41 6
-9.842 -1.5930001 -1.051 117 68 27
-9.8450003 -1.589 -1.0470001 186 106 53
-9.8389997 -1.5880001 -1.0470001 92 50 25
-9.8879995 -1.572 -1.053 120 85 66
-9.8889999 -1.584 -1.054 86 30 0
-9.8850002 -1.585 -1.056 92 28 1
-9.8780003 -1.581 -1.057 39 13 0
-9.8610001 -1.636 -1.025 127 69 19
-9.8549995 -1.64 -1.0369999 127 68 34
-9.8730001 -1.6440001 -1.012 165 143 130
-9.8660002 -1.6390001 -0.99199998 97 46 19
-9.8719997 -1.633 -0.99000001 124 54 20
-9.8590002 -1.569 -0.99800003 107 81 56
-9.8599997 -1.563 -1.011 98 38 4
-9.8120003 -1.64 -1.0420001 128 57 5
-9.8210001 -1.6440001 -1.0369999 249 154 64
-9.8889999 -1.643 -1.05 186 122 76
-9.8909998 -1.6440001 -1.03 174 79 25
-9.7969999 -1.632 -1.0319999 121 71 44
-9.7860003 -1.623 -1.008 92 40 3
-9.8050003 -1.633 -1.016 245 197 133
-9.8470001 -1.615 -0.852 94 76 54
-9.8470001 -1.618 -0.86199999 48 8 0
-9.8529997 -1.62 -0.875 49 13 0
-9.8520002 -1.622 -0.87099999 48 10 0
-9.8479996 -1.618 -0.88099998 99 42 15
-9.8660002 -1.635 -0.88200003 122 64 24
-9.849 -1.62 -0.87300003 77 34 15
-9.8610001 -1.551 -0.89899999 86 51 29
-9.8620005 -1.5470001 -0.89099997 118 82 68
-9.8699999 -1.5470001 -0.90399998 51 20 0
-9.875 -1.559 -0.926 64 27 8
-9.8710003 -1.586 -0.94 152 105 77
-9.8669996 -1.551 -0.91100001 114 80 68
-9.868 -1.549 -0.917 65 35 24
-9.8699999 -1.549 -0.91299999 228 184 145
-9.8780003 -1.5470001 -0.91000003 36 14 3
-9.8800001 -1.638 -0.81900001 157 89 42
-9.8850002 -1.643 -0.954 92 43 13
-9.8920002 -1.64 -0.99400002 70 31 0
-9.8839998 -1.636 -0.99800003 145 104 52
-9.8830004 -1.643 -0.98000002 130 79 36
-9.8760004 -1.635 -0.95599997 66 20 7
-9.8780003 -1.641 -0.949 95 49 15
-9.8769999 -1.635 -0.94400001 83 33 6
-9.8649998 -1.659 -0.84600002 116 50 15
-9.8649998 -1.659 -0.84500003 166 110 61
-9.8739996 -1.652 -0.84799999 74 11 0
-9.8649998 -1.655 -0.85000002 123 87 65
-9.8730001 -1.653 -0.90499997 100 22 0
-9.8620005 -1.549 -0.88499999 117 65 26
-9.8629999 -1.548 -0.88499999 99 48 3
-9.8780003 -1.5779999 -0.96700001 184 139 100
-9.8800001 -1.638 -0.93900001 80 15 0
-9.8800001 -1.6390001 -0.94199997 98 37 9
-9.8509998 -1.6210001 -0.87199998 65 23 9
-9.8470001 -1.618 -0.87300003 92 50 28
-9.8710003 -1.627 -0.92500001 62 16 0
-9.8800001 -1.633 -0.90600002 83 46 2
-9.8690004 -1.553 -0.93900001 74 32 8
-9.8559999 -1.557 -0.94099998 43 12 7
-9.8739996 -1.554 -0.94 110 67 33
-9.8610001 -1.605 -1.058 117 69 21
-9.8599997 -1.587 -1.03 105 58 12
-9.8780003 -1.625 -1.0549999 123 87 51
-9.8839998 -1.5599999 -0.95999998 52 20 0
-9.882 -1.567 -0.97399998 49 17 2
-9.8599997 -1.574 -0.96399999 57 21 9
-9.8660002 -1.5829999 -0.96700001 82 53 35
-9.8859997 -1.5700001 -0.98100001 78 58 33
-9.8690004 -1.59 -0.94300002 168 126 102
-9.8800001 -1.6390001 -0.977 63 25 2
-9.8789997 -1.638 -0.98500001 62 25 9
-9.8850002 -1.6440001 -0.98900002 77 38 21
-9.7519999 -1.601 -1.01 255 219 136
-9.75 -1.596 -1.015 209 175 114
-9.7449999 -1.5930001 -1.008 210 176 105
-9.8579998 -1.548 -0.88 144 90 54
-9.868 -1.615 -0.83499998 116 68 45
-9.8660002 -1.548 -0.89399999 58 18 6
-9.868 -1.6390001 -0.81800002 147 110 92
-9.8559999 -1.633 -0.82099998 32 13 0
-9.8649998 -1.618 -0.82599998 123 96 75
-9.8649998 -1.617 -0.829 68 48 24
-9.8739996 -1.62 -0.82700002 107 34 0
-9.8830004 -1.592 -1.012 110 65 34
-9.8769999 -1.566 -1.023 76 43 24
-9.882 -1.568 -1.035 38 9 1
-9.8850002 -1.563 -1.022 93 62 33
-9.8710003 -1.636 -1.001 107 49 12
-9.8929996 -1.584 -1.036 156 72 35
-9.8809996 -1.633 -1.033 99 76 44
-9.8769999 -1.632 -1.029 217 136 73
-9.8879995 -1.6440001 -1.021 120 64 29
-9.8850002 -1.6440001 -1.001 139 72 19
-9.882 -1.643 -1 103 51 12
-9.8690004 -1.632 -1.0369999 156 65 0
-9.8730001 -1.6059999 -1.045 137 120 90
-9.8859997 -1.641 -1.044 158 94 48
-9.8879995 -1.6390001 -0.84100002 82 42 6
-9.8830004 -1.636 -0.84500003 68 28 3
-9.8830004 -1.633 -0.83999997 84 39 0
-9.8509998 -1.627 -0.81999999 130 74 37
-9.8760004 -1.624 -1.062 143 99 72
-9.875 -1.61 -1.059 81 40 18
-9.8610001 -1.598 -1.045 211 126 59
-9.8360004 -1.594 -1.053 138 69 14
-9.842 -1.5880001 -1.052 118 49 10
-9.8800001 -1.568 -1.038 144 101 84
-9.8439999 -1.584 -1.049 57 25 0
-9.8629999 -1.581 -1.057 145 100 58
-9.868 -1.584 -1.063 37 8 0
-9.8850002 -1.5700001 -1.046 46 12 2
-9.849 -1.643 -1.038 98 45 11
-9.8690004 -1.562 -1.006 59 22 0
-9.8079996 -1.64 -1.026 55 8 0
-9.8959999 -1.6440001 -1.048 72 30 6
-9.7939997 -1.63 -1.027 101 50 19
-9.7709999 -1.605 -1.021 68 22 0
-9.7910004 -1.626 -1.01 84 33 2
-9.8579998 -1.646 -0.84500003 146 89 46
-9.8579998 -1.641 -0.847 209 171 158
-9.8520002 -1.637 -0.84100002 141 89 49
-9.8559999 -1.636 -0.85100001 141 104 75
-9.8470001 -1.636 -0.83499998 94 40 2
-9.8509998 -1.6390001 -0.83700001 143 80 45
-9.8500004 -1.6339999 -0.84100002 75 26 0
-9.8730001 -1.632 -0.898 77 30 0
-9.8769999 -1.633 -0.89300001 104 71 28
-9.8739996 -1.637 -0.91000003 131 82 41
-9.8760004 -1.6339999 -0.903 108 59 29
-9.8660002 -1.548 -0.898 111 63 49
-9.8739996 -1.558 -0.92299998 100 66 54
-9.8850002 -1.649 -0.81900001 218 148 97
-9.8789997 -1.641 -0.94499999 86 27 0
-9.8769999 -1.635 -0.94099998 75 28 0
-9.882 -1.64 -0.97100002 155 110 81
-9.8809996 -1.637 -0.95200002 78 24 0
-9.8789997 -1.636 -0.96499997 68 25 6
-9.8870001 -1.6390001 -0.89499998 116 84 69
-9.8809996 -1.642 -0.88599998 79 41 20
-9.8800001 -1.637 -0.88999999 110 74 62
-9.8760004 -1.556 -0.94700003 59 26 7
-9.8789997 -1.636 -0.94099998 83 33 6
-9.8479996 -1.619 -0.86500001 48 10 0
-9.8730001 -1.632 -0.91799998 116 74 24
-9.8769999 -1.635 -0.90899998 104 55 23
-9.8719997 -1.6210001 -0.93900001 82 39 20
-9.8730001 -1.632 -0.93599999 99 35 0
-9.8570004 -1.5549999 -0.93699998 68 21 3
-9.8649998 -1.632 -1.03 131 90 44
-9.8620005 -1.633 -1.041 169 93 33
-9.8660002 -1.577 -1.021 115 73 35
-9.8660002 -1.582 -1.034 102 73 59
-9.8769999 -1.554 -0.954 90 67 49
-9.882 -1.564 -0.95899999 99 47 0
-9.8769999 -1.566 -0.97500002 48 12 0
-9.8839998 -1.568 -0.96899998 89 55 28
-9.8579998 -1.559 -0.94599998 34 1 0
-9.8760004 -1.571 -0.98699999 59 12 0
-9.875 -1.589 -0.98400003 127 77 52
-9.8800001 -1.6390001 -0.98199999 67 31 15
-9.7510004 -1.592 -1.029 207 167 118
-9.7620001 -1.61 -1.024 186 148 65
-9.7620001 -1.61 -1.022 209 166 88
-9.8710003 -1.62 -0.82599998 34 6 0
-9.8739996 -1.619 -0.833 224 160 62
-9.882 -1.632 -0.82099998 191 123 52
-9.868 -1.63 -0.88800001 66 19 1
-9.8850002 -1.619 -0.83600003 79 49 25
-9.8800001 -1.627 -0.84600002 195 119 44
-9.8719997 -1.632 -0.82099998 51 4 0
-9.8629999 -1.626 -0.824 91 51 25
-9.8710003 -1.617 -0.838 53 25 4
-9.8809996 -1.576 -0.972 128 79 36
-9.8900003 -1.58 -1.002 71 16 9
-9.8809996 -1.562 -1.018 70 38 17
-9.8660002 -1.637 -1.018 172 116 67
-9.8850002 -1.636 -1.038 172 88 16
-9.8809996 -1.632 -1.039 175 99 37
-9.8809996 -1.637 -1.0140001 65 19 0
-9.8889999 -1.645 -1.025 127 72 41
-9.8789997 -1.601 -1.044 107 59 23
-9.8690004 -1.597 -1.046 192 118 53
-9.8640003 -1.632 -1.043 98 67 39
-9.8889999 -1.641 -0.83200002 140 60 7
-9.8559999 -1.652 -0.83999997 115 45 11
-9.8719997 -1.5930001 -1.0650001 42 18 6
-9.8699999 -1.592 -1.063 95 61 36
-9.868 -1.599 -1.059 147 74 23
-9.8789997 -1.597 -1.053 153 83 23
-9.8769999 -1.597 -1.061 235 200 172
-9.8529997 -1.59 -1.043 180 99 43
-9.8579998 -1.585 -1.044 107 31 0
-9.8629999 -1.62 -1.051 122 91 63
-9.8850002 -1.569 -1.044 66 24 2
-9.8839998 -1.569 -1.0420001 33 4 0
-9.882 -1.568 -1.0369999 38 11 0
-9.868 -1.5779999 -1.059 134 98 72
-9.8629999 -1.58 -1.051 99 69 58
-9.8620005 -1.582 -1.04 66 36 12
-9.8549995 -1.584 -1.0470001 165 122 90
-9.8500004 -1.581 -1.0140001 41 11 1
-9.8140001 -1.643 -1.0369999 129 85 40
-9.8929996 -1.642 -1.05 76 26 3
-9.79 -1.6289999 -1.031 108 60 12
-9.8800001 -1.638 -0.86000001 88 45 28
-9.8479996 -1.619 -0.85799998 63 23 13
-9.8479996 -1.617 -0.85799998 73 33 21
-9.8529997 -1.623 -0.86299998 91 32 2
-9.8529997 -1.62 -0.86400002 100 62 51
-9.8800001 -1.641 -0.89099997 79 38 16
-9.8660002 -1.548 -0.89600003 53 10 1
-9.8629999 -1.548 -0.89399999 45 7 0
-9.8649998 -1.559 -0.93000001 166 120 86
-9.8789997 -1.552 -0.90399998 112 59 28
-9.8760004 -1.551 -0.903 65 13 0
-9.8800001 -1.635 -0.95999998 70 26 0
-9.8789997 -1.636 -0.90799999 102 53 21
-9.8760004 -1.624 -0.93900001 64 24 12
-9.8660002 -1.569 -1.021 97 41 6
-9.8780003 -1.5549999 -0.95599997 74 21 0
-9.8629999 -1.5549999 -0.94400001 61 35 20
-9.8780003 -1.571 -0.98400003 54 20 8
-9.882 -1.6390001 -0.991 84 56 42
-9.8800001 -1.6390001 -0.98400003 58 21 5
-9.8529997 -1.632 -0.847 88 55 40
-9.8540001 -1.632 -0.84899998 79 32 6
-9.8500004 -1.62 -0.85699999 78 35 28
-9.8610001 -1.617 -0.82800001 136 106 70
-9.8669996 -1.615 -0.83700001 102 49 7
-9.8620005 -1.615 -0.84799999 59 18 0
-9.8769999 -1.617 -0.85100001 45 22 6
-9.8780003 -1.626 -0.82300001 116 40 0
-9.875 -1.552 -0.90100002 102 57 38
-9.8699999 -1.631 -0.89099997 93 45 25
-9.8579998 -1.624 -0.87 89 51 40
-9.8850002 -1.628 -0.83399999 148 67 14
-9.8920002 -1.573 -1.017 120 62 25
-9.8859997 -1.5880001 -1.016 188 129 69
-9.8879995 -1.579 -1.018 102 30 0
-9.8789997 -1.581 -0.977 160 114 78
-9.8760004 -1.58 -0.96799999 154 122 99
-9.8809996 -1.58 -0.977 141 107 80
-9.868 -1.641 -1.012 72 20 0
-9.8859997 -1.566 -1.033 81 36 0
-9.8850002 -1.641 -1.0420001 165 105 53
-9.882 -1.638 -1.012 70 24 0
-9.882 -1.638 -1.007 72 31 9
-9.8610001 -1.655 -0.83600003 56 34 21
-9.8739996 -1.587 -1.063 104 48 13
-9.8769999 -1.598 -1.064 85 41 14
-9.8629999 -1.581 -1.044 42 16 0
-9.8859997 -1.59 -1.0369999 149 91 27
-9.8809996 -1.637 -0.861 67 17 0
-9.8809996 -1.636 -0.86400002 64 27 8
-9.8780003 -1.641 -0.85500002 68 17 0
-9.8739996 -1.6339999 -0.88800001 61 19 7
-9.875 -1.633 -0.898 78 31 3
-9.8719997 -1.558 -0.92000002 105 65 53
-9.8800001 -1.636 -0.949 86 35 8
-9.8610001 -1.653 -0.84399998 143 92 47
-9.8620005 -1.646 -0.84799999 81 28 10
-9.8739996 -1.65 -0.90899998 85 13 0
-9.8719997 -1.625 -0.93199998 117 58 16
-9.8660002 -1.5549999 -0.92400002 115 68 40
-9.8739996 -1.589 -1.036 179 101 52
-9.8690004 -1.5549999 -0.96100003 57 21 0
-9.8830004 -1.567 -0.97100002 85 51 26
-9.7609997 -1.6 -1.035 234 199 161
-9.7580004 -1.603 -1.03 118 90 50
-9.7559996 -1.601 -1.025 182 155 102
-9.8479996 -1.619 -0.86000001 53 13 3
-9.8610001 -1.624 -0.85399997 102 55 37
-9.8739996 -1.549 -0.90399998 76 18 0
-9.8760004 -1.6339999 -0.88499999 104 70 58
-9.8549995 -1.63 -0.85399997 105 42 9
-9.8909998 -1.577 -1.01 40 12 0
-9.8769999 -1.5930001 -1.0650001 32 5 0
-9.8610001 -1.641 -0.85000002 66 17 0
-9.868 -1.631 -0.87900001 71 43 4
-9.882 -1.641 -0.852 106 45 16
-9.8789997 -1.632 -0.84899998 56 19 0
-9.8719997 -1.633 -0.889 78 32 17
-9.8739996 -1.563 -0.96600002 50 12 0
-9.8710003 -1.556 -0.94400001 126 85 53
-9.8800001 -1.6339999 -0.99800003 80 32 0
-9.757 -1.597 -1.029 249 215 178
-9.7530003 -1.602 -1.0140001 255 229 139
-9.8730001 -1.637 -0.85600001 58 15 0
-9.8800001 -1.63 -0.86199999 54 15 0
-9.8800001 -1.618 -0.84899998 169 98 46
-9.8809996 -1.628 -0.82300001 176 101 36
-9.882 -1.615 -0.84600002 131 108 92
-9.8620005 -1.6210001 -0.82599998 166 119 73
-9.8769999 -1.58 -0.97299999 123 87 55
-9.875 -1.5930001 -1.039 234 211 170
-9.8660002 -1.631 -0.85399997 70 46 10
-9.8669996 -1.648 -0.85500002 71 25 0
-9.8769999 -1.626 -0.85399997 90 26 0
-9.8660002 -1.5549999 -0.90799999 64 28 12
-9.8640003 -1.55 -0.90200001 99 62 43
-9.8809996 -1.573 -0.96700001 100 49 20
-9.7559996 -1.596 -1.0319999 148 109 66
-9.875 -1.58 -0.97000003 84 44 19
-9.8719997 -1.64 -1.0190001 216 160 111
-9.8660002 -1.554 -0.903 61 32 2
-9.8800001 -1.567 -0.97100002 72 36 14
-9.7580004 -1.602 -1.0319999 118 91 61
-9.8809996 -1.641 -1.024 112 61 16
-9.8629999 -1.641 -0.852 100 44 9
-9.8640003 -1.6339999 -0.852 88 36 14
-9.8649998 -1.636 -0.852 88 24 0
-9.8699999 -1.642 -0.85500002 69 21 0
0 0 0 1 0 0 0 1 0 0 0 1 0 0 0 0 0 671 1 0 0
