ply
format ascii 1.0
comment PCL generated
element vertex 1193
property float x
property float y
property float z
property uchar red
property uchar green
property uchar blue
element camera 0
property float view_px
property float view_py
property float view_pz
property float x_axisx
property float x_axisy
property float x_axisz
property float y_axisx
property float y_axisy
property float y_axisz
property float z_axisx
property float z_axisy
property float z_axisz
property float focal
property float scalex
property float scaley
property float centerx
property float centery
property int viewportx
property int viewporty
property float k1
property float k2
end_header
9.2399998 8.0500002 -0.391 114 85 53
9.1660004 8.0240002 -0.63800001 124 90 65
9.1669998 8.0209999 -0.648 193 162 142
9.1829996 8.0129995 -0.639 74 24 0
9.1300001 8.0360003 -0.57499999 87 43 14
9.1450005 8.0319996 -0.58999997 108 74 46
9.1420002 8.0360003 -0.59399998 71 46 26
9.125 8.0349998 -0.58399999 134 84 47
9.1260004 8.0410004 -0.57200003 68 42 17
9.2659998 8.0450001 -0.484 77 42 20
9.2600002 8.0620003 -0.47499999 76 47 39
9.2480001 8.0699997 -0.48699999 104 50 14
9.2410002 8.0539999 -0.50300002 113 63 28
9.1870003 8.0340004 -0.79799998 83 68 63
9.1920004 8.0360003 -0.81099999 152 137 132
9.1859999 8.0430002 -0.80900002 146 135 139
9.191 8.0369997 -0.81400001 87 50 41
9.1859999 8.0190001 -0.66100001 182 151 130
9.1809998 8.0179996 -0.66399997 168 91 35
9.191 8.0249996 -0.66299999 108 63 22
9.2139997 7.9790001 -0.68900001 119 68 37
9.2279997 7.9699998 -0.68699998 149 146 157
9.2309999 7.9689999 -0.69800001 109 82 73
9.2130003 7.98 -0.67500001 104 58 24
9.1639996 7.914 -0.62599999 197 136 92
9.158 7.9159999 -0.62400001 138 85 51
9.1639996 7.9159999 -0.625 116 71 32
9.2089996 8.0089998 -0.63300002 52 28 16
9.2119999 8.0129995 -0.625 47 23 13
9.217 8.0120001 -0.62400001 106 63 28
9.2019997 8.0139999 -0.62400001 86 62 52
9.2040005 8.007 -0.63599998 75 40 10
9.1949997 8.0170002 -0.653 88 47 25
9.1929998 8.0159998 -0.64999998 76 45 17
9.2019997 7.941 -0.87800002 127 117 116
9.1549997 7.9109998 -0.65100002 47 27 18
9.1709995 8.0360003 -0.85399997 144 131 125
9.1680002 8.0279999 -0.875 178 156 133
9.1809998 8.0270004 -0.87 28 4 2
9.1540003 8.0249996 -0.88 54 22 11
9.1789999 8.0419998 -0.80599999 104 59 28
9.1759996 8.0430002 -0.815 89 55 20
9.1829996 8.0410004 -0.82099998 57 47 48
9.1750002 8.0419998 -0.84399998 143 105 60
9.1829996 8.0349998 -0.83499998 50 22 11
9.1709995 8.0349998 -0.84600002 165 156 159
9.184 8.0310001 -0.85299999 95 48 18
9.1890001 8.0229998 -0.86400002 42 15 8
9.2049999 8.0139999 -0.84799999 180 160 149
9.1999998 8.007 -0.84899998 83 43 17
9.243 8.0240002 -0.40900001 53 24 0
9.25 8.0360003 -0.391 148 143 147
9.2440004 8.033 -0.42699999 146 88 51
9.092 8.026 -0.56999999 97 69 58
9.0950003 8.0410004 -0.56599998 58 41 34
9.0869999 8.0240002 -0.57599998 54 27 20
9.1040001 8.0220003 -0.56699997 69 46 38
9.0880003 8.0229998 -0.57599998 202 182 175
9.0819998 8.0220003 -0.583 72 36 14
9.1040001 8.0229998 -0.57800001 70 38 25
9.0930004 8.0290003 -0.57800001 135 63 23
9.0909996 8.0340004 -0.574 85 74 46
9.1000004 8.0410004 -0.57099998 164 138 115
9.1719999 7.9190001 -0.62099999 57 22 2
9.1669998 7.9229999 -0.62300003 188 163 156
9.177 7.9229999 -0.62400001 176 155 150
9.1940002 7.948 -0.60399997 147 107 71
9.1890001 7.9530001 -0.61199999 143 122 117
9.1990004 7.9590001 -0.60500002 186 136 101
9.224 7.9530001 -0.69800001 104 80 70
9.2259998 7.9569998 -0.70300001 53 25 14
9.1660004 7.9489999 -0.69400001 176 117 73
9.1689997 7.9489999 -0.68400002 120 67 27
9.1689997 7.9400001 -0.68599999 113 63 28
9.1700001 7.9460001 -0.68400002 159 154 158
9.1359997 8.0109997 -0.57700002 76 48 27
9.1479998 8.0089998 -0.57800001 185 163 149
9.1470003 8.0059996 -0.58399999 60 41 34
9.1190004 8.0509996 -0.546 50 31 24
9.1199999 8.0419998 -0.55900002 167 144 136
9.1210003 8.0419998 -0.56400001 94 64 53
9.125 8.0380001 -0.565 103 86 79
9.1239996 8.0369997 -0.56099999 171 141 115
9.1639996 8.007 -0.579 39 19 8
9.1890001 8.0279999 -0.484 140 77 42
9.184 8.0279999 -0.484 169 142 133
9.1859999 8.0299997 -0.48800001 185 177 175
9.1850004 8.0290003 -0.477 172 159 153
9.1280003 8.0209999 -0.55900002 140 115 108
9.1199999 8.04 -0.55500001 82 51 33
9.1049995 8.0319996 -0.89899999 90 61 45
9.1049995 7.9520001 -0.87400001 82 50 29
9.1079998 7.9460001 -0.87400001 76 41 22
9.1020002 7.9460001 -0.87 96 65 47
9.1099997 7.954 -0.87699997 68 47 44
9.1289997 7.9809999 -0.84399998 74 45 13
9.1370001 7.9910002 -0.83899999 52 35 28
9.1339998 7.98 -0.85600001 81 59 48
9.2539997 8.0290003 -0.391 203 176 159
9.2489996 8.0310001 -0.38999999 100 71 41
9.25 8.0229998 -0.412 59 46 40
9.2019997 7.9860001 -0.74400002 100 55 22
9.2189999 7.9809999 -0.73000002 33 22 20
9.224 7.9860001 -0.73500001 20 6 5
9.2180004 8.0120001 -0.62300003 105 71 61
9.2200003 8.0050001 -0.61799997 79 48 27
9.2229996 8.0129995 -0.61799997 101 57 18
9.2130003 8 -0.62599999 150 117 102
9.1680002 8.0209999 -0.66799998 37 14 6
9.1719999 8.0190001 -0.67400002 62 22 0
9.1730003 8.0209999 -0.67500001 113 64 21
9.1669998 8.0190001 -0.66299999 76 30 6
9.1239996 8.0380001 -0.616 85 56 42
9.1300001 8.0489998 -0.62199998 75 65 55
9.1219997 8.0380001 -0.61500001 142 74 27
9.158 7.928 -0.62300003 97 80 73
9.1599998 7.947 -0.63200003 90 54 30
9.1269999 8.0109997 -0.59899998 181 156 149
9.1789999 7.9499998 -0.62199998 157 139 137
9.1780005 7.9559999 -0.62199998 127 99 85
9.1700001 7.9549999 -0.62599999 56 32 22
9.2040005 7.9330001 -0.53600001 83 46 17
9.2069998 7.9439998 -0.54100001 70 40 29
9.2159996 7.9549999 -0.52899998 93 69 43
9.1169996 8.0500002 -0.53200001 51 29 16
9.1099997 8.0570002 -0.53299999 54 39 36
9.2209997 8.0489998 -0.40599999 74 60 57
9.2200003 8.0450001 -0.405 90 37 3
9.2279997 8.0430002 -0.38800001 167 154 148
9.2220001 8.0500002 -0.39700001 149 136 130
9.2349997 8.0340004 -0.38699999 154 108 72
9.2320004 8.0369997 -0.389 128 84 47
9.2650003 8.0480003 -0.477 60 23 0
9.2390003 8.0469999 -0.412 28 13 16
9.2460003 8.0690002 -0.47499999 117 84 53
9.1820002 8.0380001 -0.48100001 38 11 0
9.1920004 8.0310001 -0.484 101 76 69
9.2360001 8.0579996 -0.40400001 118 87 67
9.1719999 8.0080004 -0.63099998 62 38 34
9.1630001 8.0209999 -0.63599998 64 29 7
9.1730003 8.0109997 -0.61500001 80 47 32
9.1940002 7.9879999 -0.63300002 86 28 0
9.191 7.9749999 -0.64999998 68 27 5
9.1969995 7.994 -0.639 71 49 36
9.1809998 7.9829998 -0.648 133 78 21
9.184 7.9679999 -0.63700002 85 43 19
9.1859999 7.967 -0.64200002 130 81 41
9.2089996 8.0039997 -0.64099997 102 60 22
9.1429996 8.0290003 -0.616 94 58 44
9.1370001 8.0340004 -0.61699998 77 48 34
9.1409998 8.0360003 -0.611 151 131 122
9.224 8.033 -0.579 104 90 90
9.2270002 8.0389996 -0.56900001 70 58 60
9.2119999 8.0389996 -0.565 157 139 135
9.1379995 8.0319996 -0.588 125 76 35
9.2589998 8.0579996 -0.484 102 51 6
9.2290001 8.0539999 -0.47999999 81 44 18
9.2290001 8.052 -0.48500001 94 59 37
9.2130003 8.0480003 -0.491 95 36 2
9.2220001 8.0480003 -0.495 184 160 148
9.1190004 8.0310001 -0.579 150 130 123
9.1149998 8.0419998 -0.56800002 148 128 119
9.1330004 8.0410004 -0.61900002 87 69 59
9.2360001 8.0360003 -0.49700001 161 138 130
9.2530003 8.0360003 -0.48800001 136 109 98
9.2410002 8.0369997 -0.50199997 190 184 186
9.2150002 7.9489999 -0.59500003 118 97 92
9.2110004 7.9549999 -0.59200001 62 43 29
9.2040005 7.947 -0.59200001 187 165 151
9.2019997 7.9400001 -0.60799998 57 38 32
9.2189999 7.9549999 -0.60799998 77 52 45
9.2060003 7.9629998 -0.59500003 165 145 136
9.2019997 7.96 -0.60299999 44 21 3
9.1949997 7.9790001 -0.61299998 177 154 148
9.217 8.0010004 -0.61299998 126 84 59
9.2069998 7.9699998 -0.63499999 86 54 31
9.2349997 8.0649996 -0.484 132 105 96
9.2449999 8.0539999 -0.49700001 78 53 31
9.1879997 8.0279999 -0.80699998 73 44 28
9.1899996 8.0179996 -0.82300001 65 16 1
9.184 8.0159998 -0.80699998 68 15 0
9.198 8.0190001 -0.662 156 123 108
9.1960001 8.0170002 -0.65899998 85 45 10
9.1689997 8.0279999 -0.57300001 140 113 92
9.1850004 8.0319996 -0.56999999 128 74 40
9.1820002 8.0319996 -0.57300001 72 44 23
9.2320004 8.033 -0.56 161 140 135
9.2340002 8.0310001 -0.56 84 40 3
9.2299995 8.0290003 -0.55000001 152 131 126
9.2329998 8.0349998 -0.56900001 57 37 30
9.2209997 7.973 -0.71399999 106 77 59
9.2259998 7.9819999 -0.736 80 61 57
9.224 7.9710002 -0.70899999 84 39 16
9.2189999 7.974 -0.722 30 19 17
9.1639996 7.9089999 -0.63300002 187 160 153
9.1809998 8.0249996 -0.78200001 110 73 44
9.1850004 8.0220003 -0.78200001 78 42 30
9.1850004 8.026 -0.78500003 106 68 49
9.1850004 8.0179996 -0.78600001 73 28 0
9.1940002 8.0030003 -0.74199998 135 63 25
9.2010002 7.987 -0.74800003 58 14 1
9.1949997 8.0039997 -0.73699999 45 18 7
9.184 8.0039997 -0.74599999 47 20 0
9.1890001 7.9970002 -0.74000001 255 241 241
9.1859999 8.04 -0.81900001 74 41 24
9.1870003 8.0310001 -0.82800001 165 137 115
9.1850004 7.9980001 -0.81699997 51 14 0
9.1859999 8.0059996 -0.79900002 103 67 35
9.217 7.967 -0.87099999 53 34 28
9.217 7.9619999 -0.87800002 46 14 3
9.2209997 7.9699998 -0.86299998 21 0 0
9.1969995 8.0109997 -0.83600003 55 25 15
9.2060003 8.0240002 -0.83899999 87 37 14
9.1859999 8.0290003 -0.86400002 23 0 0
9.2119999 7.9619999 -0.51200002 135 122 114
9.217 7.96 -0.51700002 96 76 49
9.2119999 7.96 -0.51800001 108 91 84
9.2069998 7.948 -0.51499999 122 97 77
9.2089996 7.9419999 -0.51700002 117 84 69
9.21 7.9439998 -0.51899999 49 31 31
9.2089996 7.954 -0.523 116 75 45
9.2460003 8.0209999 -0.39700001 201 135 77
9.2460003 8.0220003 -0.40700001 163 96 51
9.2399998 8.0360003 -0.38699999 101 58 5
9.1110001 8.0539999 -0.53899997 102 75 66
9.1049995 8.0500002 -0.56199998 146 123 115
9.0979996 8.0349998 -0.55900002 113 64 31
9.1020002 8.0340004 -0.55699998 71 43 31
9.1059999 8.026 -0.56199998 114 62 14
9.1219997 8.0249996 -0.56199998 101 61 35
9.1560001 7.9190001 -0.653 74 42 29
9.158 7.9169998 -0.63200003 155 121 94
9.1820002 7.9330001 -0.61699998 200 180 173
9.21 7.9349999 -0.51700002 59 29 19
9.2089996 7.9439998 -0.52200001 151 111 75
9.177 7.9710002 -0.68000001 105 68 42
9.1739998 7.9679999 -0.67199999 86 55 37
9.177 7.9679999 -0.685 146 82 46
9.1339998 8.0120001 -0.58099997 51 17 5
9.1149998 8.0500002 -0.55000001 122 91 71
9.1169996 8.0489998 -0.53899997 83 56 47
9.1199999 8.0539999 -0.53600001 88 68 61
9.1149998 8.0290003 -0.55800003 125 97 85
9.1420002 8.0109997 -0.57099998 112 90 79
9.1359997 8.0120001 -0.57499999 113 72 44
9.1800003 8.0310001 -0.48199999 85 46 13
9.165 8.0299997 -0.84299999 78 56 42
9.1700001 8.0279999 -0.866 166 139 110
9.1569996 8.0190001 -0.875 162 152 153
9.1129999 8.0200005 -0.88599998 63 36 25
9.1040001 8.0310001 -0.88700002 152 123 105
9.1110001 8.0249996 -0.89300001 72 36 4
9.1339998 7.9840002 -0.83999997 62 27 0
9.1059999 8.0310001 -0.89300001 63 27 5
9.1780005 7.9629998 -0.64399999 67 31 19
9.1879997 7.9699998 -0.61900002 114 78 44
9.1940002 7.967 -0.61799997 135 84 41
9.1820002 7.9510002 -0.62099999 163 125 86
9.1309996 8.0439997 -0.62400001 113 53 25
9.165 8.0200005 -0.66399997 102 66 42
9.1300001 8.0010004 -0.64499998 105 89 90
9.1400003 7.9990001 -0.66299999 83 63 62
9.1330004 7.9910002 -0.653 52 34 30
9.1389999 7.9949999 -0.65700001 80 51 43
9.1370001 7.9879999 -0.65899998 133 89 52
9.1599998 7.9320002 -0.63300002 123 92 64
9.1529999 7.9250002 -0.63599998 75 46 32
9.1549997 7.927 -0.64099997 45 22 16
9.158 7.9239998 -0.65499997 54 26 12
9.1459999 7.974 -0.71200001 38 12 0
9.1549997 7.9899998 -0.699 92 72 71
9.1459999 7.9959998 -0.713 102 71 53
9.132 7.9860001 -0.64499998 57 23 11
9.1330004 7.9790001 -0.66100001 62 41 36
9.2089996 7.9429998 -0.53100002 151 133 133
9.2309999 8.0340004 -0.40900001 72 44 4
9.2299995 8.033 -0.39399999 96 73 41
9.2460003 8.0419998 -0.41499999 101 68 37
9.2539997 8.0229998 -0.412 135 123 123
9.25 8.0290003 -0.414 138 116 105
9.1800003 8.0100002 -0.61900002 108 61 31
9.21 8.0019999 -0.63099998 105 83 69
9.2019997 7.9899998 -0.65799999 189 133 96
9.1969995 7.9959998 -0.63999999 64 40 28
9.2010002 7.974 -0.65600002 208 166 128
9.1359997 8.0369997 -0.60500002 65 38 17
9.1829996 8.0100002 -0.62800002 54 18 0
9.1850004 8.0100002 -0.62099999 96 65 47
9.2270002 8.0349998 -0.565 122 102 77
9.1289997 8.0190001 -0.57599998 112 68 31
9.257 8.0649996 -0.48500001 95 62 47
9.2600002 8.0559998 -0.486 96 65 37
9.2580004 8.0570002 -0.48899999 108 82 67
9.1000004 8.0310001 -0.58099997 184 132 75
9.125 8.0279999 -0.58700001 89 63 48
9.2460003 8.04 -0.51200002 96 52 13
9.2419996 8.033 -0.51700002 143 117 102
9.2460003 8.0489998 -0.53200001 36 27 28
9.2440004 8.0469999 -0.523 126 120 120
9.2130003 7.9559999 -0.59500003 151 129 118
9.2139997 7.9580002 -0.60399997 56 34 20
9.2060003 7.9429998 -0.59899998 56 41 38
9.2060003 7.9629998 -0.61699998 131 92 63
9.1990004 7.9699998 -0.62 118 84 74
9.1990004 7.9809999 -0.61500001 74 59 52
9.1890001 8.0010004 -0.62 66 34 19
9.2110004 7.973 -0.67000002 54 22 9
9.1820002 7.927 -0.63099998 92 58 33
9.2130003 8.0489998 -0.495 116 52 14
9.2299995 8.0360003 -0.495 66 43 35
9.2370005 8.0600004 -0.49000001 100 69 40
9.2489996 8.0500002 -0.498 92 60 39
9.25 8.0690002 -0.48800001 90 63 54
9.2139997 8.0349998 -0.57200003 107 74 41
9.1599998 8.0290003 -0.63200003 182 147 127
9.1450005 8.0200005 -0.63099998 135 89 66
9.1450005 8.0310001 -0.597 113 71 47
9.1409998 8.0299997 -0.60100001 181 161 152
9.165 8.0270004 -0.57800001 60 43 35
9.1800003 8.0220003 -0.59399998 98 49 19
9.1780005 8.0319996 -0.51800001 163 134 116
9.1260004 8.0389996 -0.56800002 121 63 25
9.1260004 8.026 -0.56699997 137 87 54
9.1269999 8.0240002 -0.56199998 129 110 96
9.2229996 7.9710002 -0.69300002 37 9 0
9.2220001 7.9699998 -0.72500002 47 27 20
9.198 7.9489999 -0.88 110 72 49
9.1549997 7.9970002 -0.88499999 88 69 62
9.1680002 7.9879999 -0.88800001 161 132 118
9.1619997 7.9879999 -0.88200003 64 26 5
9.1490002 7.9980001 -0.88800001 90 67 53
9.1330004 8.0120001 -0.89499998 98 59 26
9.1309996 8.0100002 -0.89600003 72 36 24
9.184 8.0159998 -0.77899998 128 96 75
9.1870003 8.0299997 -0.796 149 138 136
9.1820002 8.0120001 -0.764 92 61 33
9.191 8.0030003 -0.75 167 124 89
9.1879997 8.0019999 -0.75199997 135 101 76
9.1619997 8.0059996 -0.70200002 100 63 37
9.158 8.0050001 -0.71200001 122 75 29
9.1630001 8.007 -0.708 67 40 10
9.1940002 8.0089998 -0.85000002 40 10 0
9.1750002 8.0150003 -0.86000001 163 128 106
9.191 8.0240002 -0.85600001 137 124 116
9.1730003 8.0200005 -0.85399997 144 132 132
9.1700001 8.033 -0.85399997 46 21 14
9.1730003 8.0170002 -0.76899999 58 31 1
9.1669998 8.0120001 -0.75999999 133 123 121
9.177 8.0039997 -0.72899997 163 151 151
9.1780005 7.9990001 -0.71700001 107 70 52
9.1859999 8.0080004 -0.72600001 158 108 83
9.1529999 8 -0.71200001 72 20 0
9.1560001 7.9980001 -0.70599997 91 58 43
9.1520004 7.9959998 -0.70499998 73 63 62
9.1470003 7.9970002 -0.71200001 163 119 80
9.198 8.0050001 -0.838 70 18 0
9.1999998 8.0170002 -0.83899999 55 17 0
9.1680002 7.9899998 -0.88599998 134 107 96
9.2019997 8.0240002 -0.84299999 149 138 132
9.2530003 8.0290003 -0.391 144 139 136
9.21 7.9520001 -0.52700001 55 30 23
9.2469997 8.0209999 -0.40400001 122 77 44
9.2390003 8.0279999 -0.391 71 28 11
9.2399998 8.026 -0.40599999 115 68 16
9.2419996 8.0279999 -0.41600001 186 135 92
9.2390003 8.0319996 -0.41999999 66 37 21
9.2250004 8.0489998 -0.47400001 161 136 129
9.2200003 8.0419998 -0.47799999 103 75 54
9.1090002 8.0539999 -0.56099999 128 102 79
9.0979996 8.0310001 -0.565 46 28 26
9.1560001 7.9120002 -0.64200002 51 28 20
9.1560001 7.9250002 -0.64300001 56 27 13
9.1870003 7.9390001 -0.70999998 31 8 0
9.2060003 7.9419999 -0.71499997 68 48 39
9.1829996 7.9380002 -0.71600002 91 41 16
9.2069998 7.9650002 -0.63599998 79 38 10
9.1590004 7.9190001 -0.64999998 46 18 7
9.1759996 7.9790001 -0.67400002 98 37 6
9.1709995 7.9549999 -0.68099999 88 49 18
9.1730003 7.9559999 -0.68400002 92 60 45
9.1719999 7.9549999 -0.67400002 125 96 80
9.1709995 7.9429998 -0.70200002 54 21 6
9.1709995 7.9330001 -0.68300003 74 48 35
9.1569996 7.947 -0.73500001 109 95 94
9.1560001 7.9530001 -0.73100001 42 24 20
9.1630001 7.9499998 -0.73100001 50 22 8
9.1639996 7.9549999 -0.727 107 99 88
9.1680002 7.973 -0.69300002 98 51 23
9.1599998 7.9790001 -0.66299999 101 45 12
9.1309996 8.0109997 -0.58999997 105 53 13
9.1160002 8.0489998 -0.53399998 166 121 88
9.125 8.0229998 -0.59500003 79 43 27
9.1330004 8.0319996 -0.59399998 53 28 8
9.1669998 8.0039997 -0.61199999 30 9 4
9.1689997 8.0050001 -0.60399997 100 79 74
9.165 7.9970002 -0.60799998 90 64 51
9.1590004 8.007 -0.58499998 88 71 64
9.1719999 7.9990001 -0.60299999 255 242 236
9.1619997 8.007 -0.58399999 70 40 30
9.1719999 8.0050001 -0.59100002 90 46 7
9.1809998 8.0319996 -0.48300001 144 117 100
9.2220001 8.0340004 -0.48100001 84 63 46
9.2189999 8.033 -0.47999999 59 35 31
9.2399998 8.0369997 -0.47099999 133 94 61
9.191 8.0310001 -0.491 62 35 26
9.1730003 8.0319996 -0.83700001 66 37 23
9.1199999 7.9790001 -0.87800002 110 91 77
9.1149998 7.9660001 -0.88200003 70 44 29
9.1210003 7.973 -0.88099998 140 102 83
9.1129999 8.0240002 -0.884 89 52 33
9.1190004 8.0209999 -0.88999999 175 152 138
9.1049995 7.9590001 -0.86699998 69 37 12
9.1300001 8.0170002 -0.88200003 53 17 3
9.1359997 8.0179996 -0.87800002 106 80 57
9.1389999 8.0100002 -0.87699997 74 52 41
9.1499996 8.0279999 -0.875 113 107 109
9.1560001 8.0209999 -0.866 131 114 106
9.1459999 8.0290003 -0.88300002 163 141 127
9.2080002 7.974 -0.74000001 75 49 34
9.2010002 7.9790001 -0.74699998 42 18 8
9.1540003 7.9790001 -0.70300001 61 35 22
9.184 7.9990001 -0.75999999 90 29 0
9.1470003 7.9829998 -0.64099997 177 165 167
9.1660004 7.9829998 -0.65700001 139 116 102
9.1739998 7.9980001 -0.60799998 59 32 23
9.1700001 7.9990001 -0.61299998 255 239 225
9.1890001 7.9679999 -0.625 50 25 21
9.1719999 7.9580002 -0.64399999 46 22 12
9.1759996 7.96 -0.62300003 125 83 58
9.165 7.9970002 -0.61799997 100 72 60
9.1780005 7.9990001 -0.61299998 106 54 14
9.1870003 7.9580002 -0.61699998 133 77 42
9.1330004 8.026 -0.62300003 86 56 45
9.132 8.0209999 -0.62599999 66 43 27
9.1350002 8.0200005 -0.62900001 34 19 22
9.1520004 8.0209999 -0.64200002 168 112 85
9.1499996 8.0229998 -0.639 150 134 135
9.151 8.0139999 -0.63700002 100 68 45
9.1409998 8.0249996 -0.616 49 36 27
9.1520004 7.9910002 -0.67000002 81 51 41
9.1520004 7.9990001 -0.67299998 47 26 23
9.1450005 7.9829998 -0.65700001 68 38 28
9.1479998 8.0170002 -0.65799999 116 76 40
9.151 8.0170002 -0.653 175 161 161
9.1420002 8.0190001 -0.64700001 102 73 65
9.1440001 8.0159998 -0.65600002 138 82 45
9.1420002 8.0109997 -0.65100002 111 49 24
9.132 8.0100002 -0.64499998 70 48 37
9.1719999 7.987 -0.64899999 74 53 48
9.1619997 7.9879999 -0.65600002 115 56 22
9.2010002 8.0179996 -0.67500001 162 130 105
9.1960001 8.0200005 -0.66600001 66 36 10
9.1940002 8.0190001 -0.66900003 66 42 32
9.158 7.927 -0.64300001 137 78 36
9.1619997 7.9320002 -0.639 168 116 76
9.1619997 7.9289999 -0.64300001 71 37 25
9.1680002 7.9400001 -0.63700002 106 50 15
9.1610003 7.9400001 -0.63300002 67 31 9
9.1899996 7.9580002 -0.64700001 119 83 59
9.198 7.967 -0.65600002 54 45 48
9.1969995 7.9629998 -0.64499998 170 91 32
9.1999998 7.9640002 -0.66399997 163 83 20
9.1700001 7.9889998 -0.685 91 66 59
9.1619997 7.9840002 -0.66500002 53 26 17
9.1440001 7.993 -0.63099998 182 167 164
9.1639996 7.993 -0.62800002 139 69 17
9.1339998 7.9780002 -0.64300001 46 19 10
9.2130003 7.9390001 -0.53799999 102 59 25
9.2440004 8.0600004 -0.47 100 86 86
9.2349997 8.0380001 -0.421 140 85 46
9.2469997 8.0290003 -0.419 145 108 82
9.1870003 8.0089998 -0.639 92 48 23
9.2060003 8.0019999 -0.62800002 158 146 148
9.1969995 8.0010004 -0.62599999 99 55 28
9.2049999 8.0039997 -0.64200002 127 96 68
9.2069998 8.0109997 -0.62599999 77 44 27
9.1940002 7.9899998 -0.67000002 170 131 102
9.132 8.033 -0.60100001 142 102 76
9.2150002 8.0139999 -0.62 109 56 24
9.2320004 8.033 -0.57700002 33 12 7
9.1169996 8.0240002 -0.57300001 141 106 84
9.1099997 8.0249996 -0.57200003 69 37 24
9.2559996 8.0419998 -0.47 117 88 70
9.1040001 8.0319996 -0.57200003 142 93 53
9.2290001 8.0360003 -0.48800001 65 42 34
9.1809998 7.9390001 -0.611 105 86 79
9.2060003 7.9629998 -0.60399997 174 156 146
9.2030001 7.9520001 -0.602 26 14 14
9.21 7.9689999 -0.65700001 125 78 36
9.1960001 7.948 -0.61799997 78 56 45
9.1990004 7.9499998 -0.61900002 162 132 122
9.2010002 7.947 -0.61400002 45 30 23
9.177 7.9219999 -0.63599998 104 76 52
9.1850004 7.9390001 -0.61900002 97 63 38
9.2030001 7.9569998 -0.616 181 145 133
9.2299995 8.0509996 -0.48800001 85 63 52
9.1929998 8.0319996 -0.82099998 163 152 150
9.1850004 8.0129995 -0.60600001 85 57 35
9.1949997 8.0159998 -0.60100001 84 60 48
9.2049999 8.0209999 -0.61799997 90 55 33
9.1429996 8.0279999 -0.62699997 98 66 43
9.1420002 8.0190001 -0.63499999 130 103 92
9.1420002 8.0349998 -0.59899998 174 117 74
9.1859999 8.0279999 -0.55400002 137 112 105
9.1669998 8.0220003 -0.56400001 153 122 102
9.2259998 8.0279999 -0.55599999 67 53 52
9.1429996 8.0279999 -0.583 172 145 124
9.1479998 8.0240002 -0.583 187 129 79
9.2069998 7.9720001 -0.71399999 65 34 16
9.2040005 7.9699998 -0.69700003 152 138 138
9.1999998 7.974 -0.70300001 115 71 42
9.2259998 7.9640002 -0.69300002 34 15 19
9.2159996 7.9619999 -0.68599999 131 68 33
9.2299995 7.9689999 -0.69700003 150 105 63
9.2220001 7.9689999 -0.71799999 59 32 21
9.1669998 7.961 -0.74000001 132 101 83
9.1739998 7.9530001 -0.73100001 148 133 130
9.1630001 7.9580002 -0.72899997 74 45 37
9.1619997 7.9689999 -0.713 97 37 3
9.2150002 7.9619999 -0.67699999 84 53 35
9.1660004 7.927 -0.65399998 63 28 9
9.1870003 7.947 -0.67000002 67 37 26
9.1829996 7.9439998 -0.662 57 41 41
9.1879997 7.9520001 -0.66500002 148 143 147
9.2180004 7.9650002 -0.86299998 93 58 38
9.2069998 7.9640002 -0.86400002 90 60 49
9.2030001 7.9510002 -0.87699997 41 22 16
9.1969995 7.9439998 -0.87699997 144 98 75
9.1499996 7.9200001 -0.63999999 127 96 76
9.1429996 7.9829998 -0.87099999 111 81 45
9.1269999 8.0179996 -0.89700001 74 52 41
9.1260004 8.0159998 -0.88800001 67 30 14
9.1820002 7.9910002 -0.81099999 182 161 158
9.1929998 7.9780002 -0.81800002 78 33 0
9.1829996 7.9879999 -0.80599999 70 31 16
9.21 7.9660001 -0.84100002 60 34 21
9.2060003 7.9660001 -0.83399999 51 18 0
9.1879997 8.0179996 -0.685 79 43 17
9.1899996 8.0190001 -0.67799997 166 156 155
9.1759996 7.9990001 -0.70300001 96 64 39
9.1879997 8.0109997 -0.69199997 62 33 19
9.1739998 8.0039997 -0.68900001 93 44 3
9.1870003 7.993 -0.69700003 85 51 41
9.1820002 7.9889998 -0.71399999 52 23 9
9.1899996 7.9840002 -0.713 180 128 89
9.1870003 8.0010004 -0.72500002 171 122 90
9.184 7.9879999 -0.72299999 151 114 87
9.1920004 8.0089998 -0.68800002 161 153 151
9.1960001 8.0050001 -0.685 84 52 41
9.1800003 7.9780002 -0.86699998 103 42 13
9.1859999 7.9759998 -0.87699997 54 26 4
9.191 7.9790001 -0.861 57 32 27
9.1789999 7.9780002 -0.87699997 85 24 0
9.1759996 8.026 -0.84600002 154 143 141
9.1680002 8.0290003 -0.85500002 49 26 12
9.1920004 8.0190001 -0.829 171 143 119
9.1730003 8.0360003 -0.82499999 37 11 0
9.1660004 8.0229998 -0.81300002 170 157 151
9.1759996 8.026 -0.82800001 60 33 22
9.177 8.0089998 -0.73500001 129 78 57
9.1719999 8.0019999 -0.73299998 95 75 66
9.158 7.9970002 -0.70300001 82 45 26
9.1540003 8.0109997 -0.77399999 131 88 46
9.1630001 8.0120001 -0.77600002 117 73 38
9.177 8.0360003 -0.80199999 126 109 101
9.1789999 8.0380001 -0.80400002 72 58 57
9.184 8.0299997 -0.79400003 86 42 15
9.2060003 7.967 -0.85699999 63 29 2
9.2060003 7.967 -0.85600001 74 38 22
9.1940002 7.9679999 -0.85500002 50 19 0
9.2229996 7.973 -0.85399997 28 7 4
9.1949997 7.9590001 -0.83999997 193 169 159
9.1899996 7.9530001 -0.83399999 95 54 32
9.165 7.9400001 -0.847 72 30 5
9.1689997 7.9369998 -0.84200001 96 82 81
9.165 7.9429998 -0.85500002 185 168 160
9.1809998 8.0340004 -0.84200001 51 24 15
9.2010002 8.0120001 -0.84299999 155 144 138
9.177 8.0190001 -0.87 67 29 6
9.1879997 8.0290003 -0.85699999 25 1 0
9.2419996 8.0290003 -0.38699999 129 83 34
9.2279997 8.0489998 -0.47099999 106 66 30
9.1160002 8.0439997 -0.56 123 89 61
9.1099997 8.0480003 -0.55299997 165 125 90
9.1029997 8.0439997 -0.55500001 116 84 69
9.1110001 8.0349998 -0.55400002 54 37 29
9.1129999 8.0299997 -0.574 133 96 67
9.1590004 7.9120002 -0.63800001 150 104 70
9.1750002 7.9460001 -0.69300002 87 55 40
9.1920004 7.967 -0.76499999 73 46 27
9.1850004 7.9720001 -0.76899999 160 111 81
9.1870003 7.9720001 -0.78100002 111 58 26
9.1890001 7.9549999 -0.778 66 40 17
9.1890001 7.961 -0.76700002 47 24 10
9.191 7.9530001 -0.75999999 82 51 31
9.1829996 7.9429998 -0.69 151 97 61
9.1730003 7.9390001 -0.68099999 65 35 24
9.1750002 7.9819999 -0.68599999 186 180 180
9.132 7.9460001 -0.84299999 90 59 38
9.118 7.954 -0.83399999 75 26 0
9.1169996 7.9530001 -0.83600003 135 112 98
9.1239996 7.954 -0.838 211 170 148
9.1289997 8.0200005 -0.58999997 110 64 28
9.1280003 8.0310001 -0.58999997 171 151 144
9.125 8.0249996 -0.58600003 79 36 4
9.1709995 8.007 -0.57800001 89 62 41
9.2329998 8.0360003 -0.50700003 146 126 119
9.1429996 8.0019999 -0.87599999 55 32 24
9.158 8.0080004 -0.85399997 86 71 66
9.1590004 8.0039997 -0.85100001 81 57 47
9.177 8.0150003 -0.83399999 41 21 12
9.177 8.0190001 -0.82800001 118 74 45
9.132 7.9679999 -0.86900002 118 72 39
9.1400003 7.9580002 -0.875 82 51 30
9.1420002 7.9790001 -0.87900001 96 78 68
9.1499996 7.9980001 -0.88499999 184 149 119
9.1359997 7.9720001 -0.85699999 93 58 39
9.1450005 7.974 -0.84399998 217 180 154
9.184 8.0190001 -0.81599998 174 140 113
9.1400003 7.9770002 -0.84500003 89 56 39
9.1099997 7.9419999 -0.86900002 120 58 17
9.1199999 7.941 -0.86000001 98 39 0
9.1110001 7.9400001 -0.86000001 94 58 34
9.1040001 7.9439998 -0.866 80 44 20
9.1070004 7.96 -0.86199999 70 41 25
9.1090002 7.967 -0.86799997 82 48 23
9.1120005 7.9640002 -0.85299999 146 117 101
9.1169996 7.9699998 -0.84899998 146 114 89
9.125 8.0159998 -0.88700002 47 23 13
9.1379995 8.0240002 -0.884 157 151 151
9.1120005 8.0310001 -0.889 43 21 10
9.1520004 8.0220003 -0.88 127 107 98
9.2010002 7.9720001 -0.74699998 58 39 33
9.2019997 7.9679999 -0.74400002 125 121 112
9.2069998 7.9759998 -0.72799999 93 62 31
9.1800003 7.9879999 -0.75599998 85 42 25
9.1829996 8.0050001 -0.75700003 90 49 29
9.1809998 7.9780002 -0.66399997 239 155 93
9.1660004 7.9499998 -0.634 41 17 7
9.21 7.9699998 -0.66500002 164 146 136
9.1780005 8.0019999 -0.60399997 74 51 45
9.1990004 7.9569998 -0.63599998 87 45 21
9.1940002 7.9499998 -0.62800002 112 75 56
9.1850004 7.9510002 -0.64899999 81 45 23
9.2010002 7.9580002 -0.62699997 70 34 12
9.165 7.9980001 -0.61299998 139 95 66
9.1850004 7.9590001 -0.61900002 165 142 134
9.1610003 8.0190001 -0.64300001 109 53 30
9.1700001 8.0100002 -0.616 95 64 43
9.1599998 8.0150003 -0.59100002 120 82 45
9.1730003 8.0129995 -0.60000002 64 36 22
9.1599998 8.0179996 -0.662 65 37 25
9.1560001 8.0159998 -0.66000003 59 39 30
9.151 8.0109997 -0.65899998 79 49 39
9.1630001 7.9889998 -0.69499999 192 184 182
9.1660004 7.994 -0.68900001 66 41 37
9.1669998 7.9860001 -0.69499999 61 37 25
9.1689997 7.9920001 -0.63300002 66 36 28
9.151 7.9899998 -0.63599998 132 92 67
9.184 7.9990001 -0.62599999 200 122 73
9.1850004 7.9980001 -0.62900001 66 38 24
9.1870003 8.0159998 -0.64999998 86 52 25
9.1870003 8.0249996 -0.66900003 82 59 51
9.1789999 8.0200005 -0.67699999 110 72 51
9.1929998 7.948 -0.62599999 193 157 141
9.1800003 7.9400001 -0.62599999 48 29 25
9.1739998 7.9390001 -0.67400002 71 38 19
9.1379995 7.9959998 -0.63599998 155 117 96
9.1389999 8.0129995 -0.63099998 91 74 67
9.1370001 8.0120001 -0.63300002 73 43 32
9.1420002 8.0080004 -0.63700002 95 57 34
9.1479998 7.9920001 -0.66299999 73 45 21
9.2209997 8.0380001 -0.398 108 66 28
9.243 8.0410004 -0.46900001 48 19 1
9.198 7.9980001 -0.662 133 99 72
9.1549997 8.0109997 -0.58899999 115 50 8
9.1269999 8.0290003 -0.597 179 123 66
9.2259998 8.0340004 -0.57599998 123 105 81
9.257 8.0439997 -0.47499999 143 105 84
9.2390003 8.052 -0.46799999 166 139 118
9.2390003 8.0469999 -0.51800001 183 161 150
9.2049999 7.9689999 -0.64399999 76 38 15
9.1689997 7.9289999 -0.64399999 157 121 97
9.2049999 7.948 -0.60799998 33 13 12
9.2360001 8.052 -0.49599999 86 72 71
9.1929998 8.0299997 -0.824 49 21 7
9.2069998 8.033 -0.57300001 60 43 36
9.2069998 8.0209999 -0.61900002 154 101 57
9.1379995 8.0310001 -0.62300003 151 98 56
9.1359997 8.0170002 -0.64200002 244 196 156
9.1420002 8.0209999 -0.58899999 162 127 105
9.1420002 8.026 -0.579 145 131 130
9.1780005 8.0240002 -0.56 102 65 39
9.1969995 8.0279999 -0.56300002 173 151 140
9.2130003 8.0360003 -0.56300002 135 108 81
9.198 8.0270004 -0.56300002 136 90 64
9.1890001 8.0190001 -0.56099999 158 135 127
9.1969995 7.9770002 -0.70200002 98 70 49
9.1949997 7.9840002 -0.69599998 101 69 56
9.2110004 7.9650002 -0.70300001 136 90 57
9.1929998 7.9809999 -0.71399999 46 34 12
9.2279997 7.967 -0.69700003 82 55 44
9.2200003 7.9559999 -0.70899999 109 84 77
9.1709995 7.9549999 -0.722 88 61 44
9.1639996 7.967 -0.73199999 59 34 29
9.165 7.9640002 -0.73299998 42 13 0
9.1610003 7.9250002 -0.65200001 102 58 21
9.1890001 7.9520001 -0.66799998 124 80 41
9.1969995 7.9569998 -0.67299998 137 88 58
9.1859999 7.941 -0.685 133 126 133
9.1899996 7.9439998 -0.69400001 71 43 29
9.2060003 7.9450002 -0.70300001 70 28 6
9.1949997 7.954 -0.68199998 137 97 71
9.1879997 7.948 -0.68199998 83 54 40
9.2080002 7.9640002 -0.852 57 28 14
9.2030001 7.9650002 -0.852 29 8 5
9.2010002 7.961 -0.85900003 113 107 109
9.2159996 7.96 -0.87300003 163 123 97
9.2010002 7.961 -0.87 59 53 53
9.1990004 7.9559999 -0.87900001 60 52 50
9.1960001 7.967 -0.88999999 53 22 2
9.1960001 7.9590001 -0.88099998 97 61 39
9.1929998 7.954 -0.85799998 32 13 9
9.1800003 7.9829998 -0.85600001 101 65 29
9.1940002 7.967 -0.84200001 56 35 32
9.1850004 7.974 -0.85500002 62 34 10
9.1420002 8.0030003 -0.736 187 176 174
9.1499996 8.0100002 -0.74299997 124 91 72
9.1389999 8.0059996 -0.74199998 39 15 3
9.1370001 8.0019999 -0.741 62 30 7
9.1420002 7.993 -0.72899997 133 85 45
9.1479998 7.9970002 -0.72299999 97 66 48
9.1459999 7.987 -0.72000003 153 138 135
9.1429996 8.0170002 -0.889 72 52 43
9.1370001 8.0100002 -0.88200003 173 146 116
9.158 8.0030003 -0.75700003 139 124 121
9.1639996 8.0050001 -0.755 110 72 59
9.2089996 7.9699998 -0.84200001 58 24 0
9.1999998 7.9720001 -0.81400001 43 10 1
9.1949997 7.967 -0.81900001 179 161 151
9.1949997 7.9590001 -0.81900001 184 164 157
9.1920004 7.9590001 -0.80500001 114 54 26
9.1820002 7.9980001 -0.722 152 75 31
9.1920004 8.0080004 -0.69599998 112 72 47
9.1850004 7.9980001 -0.69499999 73 25 2
9.1809998 8.0150003 -0.68300003 128 81 51
9.1820002 7.9780002 -0.884 124 99 58
9.1739998 8.0360003 -0.82800001 132 117 110
9.1709995 8.0299997 -0.81099999 109 76 61
9.1590004 7.9959998 -0.78500003 94 39 8
9.1479998 8 -0.77100003 71 34 15
9.1789999 8.0290003 -0.79299998 87 64 58
9.1750002 8.0279999 -0.79500002 67 29 0
9.158 8.0030003 -0.74699998 36 14 3
9.1639996 8.0089998 -0.764 107 63 34
9.2010002 7.9660001 -0.86199999 89 58 38
9.1870003 7.9499998 -0.838 54 35 28
9.1529999 7.9520001 -0.84399998 89 62 51
9.1400003 7.947 -0.84399998 67 42 35
9.1400003 7.948 -0.83899999 103 58 35
9.1459999 7.9759998 -0.875 166 134 121
9.2299995 8.033 -0.47999999 129 115 112
9.2390003 8.0360003 -0.48800001 122 87 59
9.1190004 8.0430002 -0.55599999 55 30 25
9.1059999 8.0349998 -0.56900001 75 49 36
9.1090002 8.0270004 -0.57800001 95 66 36
9.184 7.9790001 -0.77899998 78 22 0
9.1619997 7.9159999 -0.64700001 80 56 46
9.1890001 7.9419999 -0.76999998 74 41 22
9.1899996 7.9390001 -0.79100001 82 40 15
9.1920004 7.9460001 -0.79799998 61 34 23
9.1879997 7.9510002 -0.79000002 71 46 15
9.1899996 7.9520001 -0.79500002 151 105 71
9.191 7.9530001 -0.67699999 139 108 90
9.2119999 7.9590001 -0.69 115 86 70
9.2089996 7.9619999 -0.68400002 75 47 36
9.2069998 7.961 -0.68800002 103 57 23
9.1269999 7.9759998 -0.84299999 138 93 64
9.1370001 7.9780002 -0.82700002 119 82 63
9.1429996 7.9720001 -0.81800002 32 8 0
9.1330004 7.9660001 -0.82599998 59 34 14
9.1400003 7.9809999 -0.82800001 54 31 17
9.1700001 7.9320002 -0.81800002 88 60 46
9.184 7.9439998 -0.82099998 43 25 23
9.1660004 7.9289999 -0.82700002 233 202 182
9.1669998 7.934 -0.82099998 138 105 86
9.1689997 7.9349999 -0.81 52 20 5
9.1169996 8.0489998 -0.53799999 163 125 102
9.1140003 8.0430002 -0.54799998 93 64 46
9.1590004 8.0039997 -0.86000001 77 53 41
9.1280003 7.9770002 -0.852 148 102 69
9.1210003 7.9710002 -0.87800002 168 134 109
9.1739998 7.9660001 -0.85500002 91 40 0
9.1610003 7.9590001 -0.852 111 80 52
9.1669998 7.961 -0.84899998 54 26 14
9.1639996 7.9759998 -0.84100002 215 167 121
9.191 7.967 -0.84200001 60 24 0
9.1739998 7.973 -0.838 196 147 106
9.1709995 7.9790001 -0.83600003 58 11 0
9.1529999 7.9889998 -0.84200001 54 22 7
9.1219997 7.9489999 -0.86500001 242 187 131
9.1160002 7.9439998 -0.852 71 35 11
9.1120005 7.9629998 -0.84899998 120 76 49
9.1190004 7.9520001 -0.84799999 205 163 139
9.1350002 8.0200005 -0.88200003 165 143 120
9.1929998 7.961 -0.759 29 25 14
9.2089996 7.9520001 -0.71499997 99 88 86
9.2110004 7.954 -0.713 26 1 0
9.2069998 7.9650002 -0.72799999 125 77 39
9.198 7.9679999 -0.73400003 56 35 32
9.1940002 7.9679999 -0.75700003 65 42 28
9.1800003 7.994 -0.75999999 171 153 149
9.1940002 7.9749999 -0.75300002 66 40 23
9.1929998 7.98 -0.796 108 66 26
9.1809998 7.9980001 -0.77899998 87 35 11
9.184 7.9920001 -0.79100001 64 27 11
9.1800003 7.9840002 -0.78100002 45 15 5
9.1660004 8.0089998 -0.67400002 108 54 18
9.1689997 8.0100002 -0.67699999 37 13 1
9.1610003 8.007 -0.667 50 20 12
9.177 7.9499998 -0.63700002 74 55 49
9.1940002 7.9650002 -0.65899998 122 68 34
9.2150002 7.9679999 -0.676 135 125 133
9.224 8.026 -0.59100002 39 23 23
9.224 8.0220003 -0.57499999 74 54 43
9.1409998 8.0200005 -0.611 170 144 129
9.1350002 8.0209999 -0.62 180 149 129
9.1300001 8.0200005 -0.616 132 109 93
9.1309996 8.0200005 -0.60600001 75 52 36
9.1680002 8.0039997 -0.62099999 47 26 21
9.1680002 8.0059996 -0.634 93 60 43
9.1709995 8.0109997 -0.60500002 57 29 8
9.1529999 8.0200005 -0.583 113 55 18
9.165 8.0190001 -0.58499998 156 82 37
9.1379995 8.0120001 -0.64600003 177 145 124
9.1590004 8.0059996 -0.639 131 84 54
9.1470003 8.0059996 -0.65799999 144 95 54
9.1529999 8.0010004 -0.66500002 38 14 4
9.1560001 7.9990001 -0.67500001 134 95 62
9.1639996 8.0190001 -0.653 98 42 19
9.1700001 7.9990001 -0.62300003 153 117 95
9.177 8.0089998 -0.634 142 90 66
9.177 7.993 -0.634 174 158 158
9.1800003 7.954 -0.66299999 132 79 25
9.1800003 7.9450002 -0.662 65 30 10
9.1750002 7.9450002 -0.63300002 152 91 47
9.1309996 8.0039997 -0.639 63 29 17
9.1339998 7.9840002 -0.64399999 165 119 83
9.1450005 7.9840002 -0.65399998 39 12 1
9.1379995 8.0050001 -0.648 165 114 67
9.2449999 8.04 -0.47600001 105 62 20
9.2419996 8.0389996 -0.486 176 144 123
9.1999998 8.007 -0.67400002 168 140 118
9.1280003 8.0299997 -0.597 83 57 42
9.243 8.0380001 -0.49399999 120 75 36
9.2379999 8.0360003 -0.491 163 153 152
9.2550001 8.0410004 -0.47999999 87 56 38
9.2370005 8.0469999 -0.50800002 116 97 90
9.2399998 8.0459995 -0.528 111 87 85
9.1029997 8.0229998 -0.57599998 159 144 139
9.2049999 7.9590001 -0.61500001 124 75 42
9.1920004 8.0120001 -0.60600001 85 46 13
9.2089996 8.0240002 -0.59299999 62 40 29
9.1820002 8.0200005 -0.58899999 66 38 26
9.217 8.0139999 -0.60699999 137 88 47
9.1389999 8.0299997 -0.62099999 255 233 212
9.1700001 8.0129995 -0.56999999 92 72 65
9.1780005 8.0129995 -0.56900001 134 89 50
9.151 8.0209999 -0.57599998 173 138 119
9.1429996 8.0270004 -0.58099997 96 59 40
9.1750002 8.0159998 -0.56800002 154 93 46
9.184 8.0229998 -0.55400002 95 61 33
9.1859999 8.0190001 -0.56400001 84 44 18
9.1829996 8.0089998 -0.58399999 81 57 47
9.1850004 8.0150003 -0.59799999 93 44 12
9.2110004 7.9710002 -0.71700001 181 155 140
9.2250004 7.96 -0.70300001 171 123 87
9.1700001 7.9619999 -0.708 173 139 112
9.1809998 7.948 -0.71499997 119 60 30
9.1879997 7.9429998 -0.71399999 70 44 31
9.198 7.9460001 -0.713 174 164 165
9.1829996 7.9510002 -0.65600002 101 61 25
9.1630001 7.9689999 -0.72399998 114 58 31
9.1569996 7.974 -0.71899998 239 198 170
9.1549997 7.9749999 -0.722 36 15 12
9.165 7.9710002 -0.73100001 64 44 37
9.1610003 7.927 -0.64499998 138 85 33
9.1639996 7.9219999 -0.64999998 180 117 73
9.1969995 7.9439998 -0.708 153 144 147
9.2019997 7.9460001 -0.69800001 55 49 53
9.1960001 7.9549999 -0.86699998 115 67 44
9.177 7.9749999 -0.87699997 90 71 65
9.2030001 7.9569998 -0.87800002 113 67 44
9.1709995 7.9549999 -0.85799998 109 69 43
9.1920004 8.0089998 -0.83600003 174 152 141
9.177 8.0109997 -0.82599998 80 50 39
9.1780005 7.9759998 -0.86799997 87 67 60
9.1450005 7.9920001 -0.72500002 32 17 14
9.1470003 7.973 -0.71399999 37 13 9
9.1499996 7.9809999 -0.722 184 163 160
9.151 8.0030003 -0.71600002 62 38 26
9.1549997 8.0019999 -0.71799999 61 37 25
9.1599998 8 -0.71600002 105 69 47
9.1459999 8.007 -0.87900001 43 23 12
9.1850004 8.0170002 -0.79799998 124 85 54
9.1239996 7.96 -0.83399999 91 64 43
9.1490002 8.0019999 -0.75800002 179 165 164
9.1450005 8.0019999 -0.75999999 86 26 2
9.1429996 7.9949999 -0.74299997 68 23 0
9.1309996 7.9559999 -0.82800001 145 107 86
9.1370001 7.9580002 -0.83099997 64 32 17
9.1289997 7.9510002 -0.84100002 148 84 40
9.1459999 7.9970002 -0.75700003 75 33 9
9.1359997 8.0050001 -0.74900001 41 19 6
9.184 7.9450002 -0.82499999 65 38 27
9.1920004 7.9770002 -0.727 93 49 20
9.177 8.0100002 -0.68400002 144 113 95
9.1470003 7.994 -0.71600002 38 22 22
9.191 7.967 -0.889 97 32 0
9.1870003 8.0290003 -0.83600003 51 23 12
9.1680002 8.0120001 -0.78100002 152 140 142
9.1739998 8.0290003 -0.80199999 46 18 7
9.1759996 8.0389996 -0.81599998 109 69 34
9.1719999 8.0019999 -0.74699998 196 179 171
9.1610003 7.9980001 -0.73900002 59 23 7
9.1560001 8.0019999 -0.74400002 101 57 18
9.158 8.0030003 -0.76099998 45 23 10
9.1929998 7.9679999 -0.88099998 79 44 22
9.1630001 7.9349999 -0.82700002 71 52 48
9.191 7.954 -0.85500002 111 65 39
9.1529999 7.9549999 -0.847 86 49 22
9.1409998 7.9559999 -0.866 47 37 28
9.1400003 7.9619999 -0.86799997 93 47 21
9.1750002 7.9400001 -0.81900001 53 21 8
9.1780005 7.9369998 -0.77999997 122 90 67
9.1780005 7.948 -0.77100003 191 156 128
9.2049999 7.9619999 -0.68000001 134 83 36
9.198 7.987 -0.68400002 60 30 19
9.1090002 7.9590001 -0.87099999 103 81 70
9.1829996 7.9970002 -0.60900003 82 53 37
9.1420002 7.9889998 -0.83899999 55 31 19
9.1630001 8.0089998 -0.82700002 115 100 95
9.1590004 8.0089998 -0.81199998 36 23 17
9.1549997 8 -0.82599998 128 91 49
9.125 7.961 -0.87099999 172 101 55
9.1750002 7.9780002 -0.85600001 82 24 2
9.1899996 7.9650002 -0.83999997 204 176 162
9.1920004 7.967 -0.84899998 110 108 113
9.1149998 7.9510002 -0.85799998 149 107 83
9.125 7.9489999 -0.84399998 161 127 100
9.1149998 7.9710002 -0.87599999 153 108 79
9.1149998 7.9689999 -0.866 121 102 88
9.1339998 8.0120001 -0.88300002 169 134 104
9.1899996 7.9530001 -0.72799999 69 54 51
9.2019997 7.9590001 -0.71899998 49 24 17
9.1859999 7.973 -0.759 67 44 36
9.1890001 7.9770002 -0.81300002 46 19 8
9.1899996 7.96 -0.79799998 200 141 101
9.1879997 7.9710002 -0.80199999 157 134 120
9.1879997 7.9759998 -0.79500002 125 82 50
9.1809998 8.0080004 -0.76999998 93 56 29
9.1829996 7.9949999 -0.79100001 48 21 4
9.1820002 7.9980001 -0.79900002 72 27 4
9.1560001 8.0089998 -0.662 61 43 41
9.1709995 7.9549999 -0.64499998 55 17 0
9.2130003 8.0229998 -0.58600003 138 75 34
9.1969995 7.9850001 -0.61000001 120 85 65
9.184 8.0059996 -0.59899998 118 78 53
9.1389999 8.0129995 -0.58999997 98 75 61
9.1379995 8.0200005 -0.60900003 103 51 11
9.1680002 8.0089998 -0.61199999 77 49 35
9.1759996 8.0190001 -0.58399999 53 28 6
9.1709995 8.0150003 -0.58999997 62 35 8
9.1630001 7.9990001 -0.63300002 165 115 92
9.165 8.0010004 -0.68300003 48 27 22
9.1680002 8 -0.68900001 108 59 16
9.1730003 7.9990001 -0.70200002 105 67 46
9.158 8.0220003 -0.65499997 169 112 83
9.191 7.9439998 -0.62300003 69 41 19
9.1850004 7.947 -0.61799997 137 97 61
9.1789999 7.9460001 -0.667 48 12 0
9.1739998 7.934 -0.64200002 151 110 78
9.1730003 7.9450002 -0.67900002 25 7 3
9.1289997 8.0080004 -0.639 138 84 46
9.1309996 7.9959998 -0.64200002 142 91 46
9.2370005 8.0439997 -0.509 122 112 113
9.2390003 8.0360003 -0.523 169 160 163
9.2069998 7.947 -0.60000002 124 106 94
9.2559996 8.0419998 -0.49000001 95 66 50
9.2080002 8.0179996 -0.60399997 90 47 12
9.2069998 8.0229998 -0.58499998 86 40 6
9.2089996 7.9959998 -0.61299998 150 88 41
9.1990004 8.0059996 -0.60100001 72 44 30
9.2040005 8.0059996 -0.597 80 40 14
9.2119999 8.0080004 -0.60699999 69 52 45
9.2200003 8.0089998 -0.616 48 28 21
9.1610003 8.0139999 -0.57700002 103 60 28
9.1639996 8.0220003 -0.57599998 43 16 7
9.224 8.0200005 -0.55500001 107 97 96
9.1809998 8.026 -0.56300002 141 116 94
9.1750002 8.0249996 -0.56999999 36 21 14
9.177 7.947 -0.70999998 156 146 145
9.1850004 7.9499998 -0.727 96 54 29
9.1850004 7.9489999 -0.72100002 137 109 87
9.1800003 7.961 -0.74900001 95 68 57
9.1789999 7.9629998 -0.653 148 139 140
9.1859999 7.9580002 -0.65899998 116 63 23
9.2049999 7.96 -0.67199999 155 137 127
9.2030001 7.96 -0.86699998 175 122 82
9.1859999 7.9759998 -0.866 56 28 7
9.1750002 7.96 -0.875 84 65 61
9.1809998 7.9990001 -0.82200003 59 8 0
9.1940002 8.0100002 -0.84299999 47 17 6
9.1440001 8 -0.75 44 26 16
9.1470003 7.9809999 -0.71499997 62 44 42
9.1490002 7.9879999 -0.745 91 61 51
9.158 7.9889998 -0.727 112 72 46
9.1630001 7.9840002 -0.727 93 47 11
9.1560001 7.98 -0.72299999 104 48 23
9.158 7.974 -0.70700002 177 138 109
9.1599998 8.007 -0.77600002 72 16 0
9.1470003 8.0050001 -0.74699998 165 154 152
9.1899996 7.9759998 -0.80299997 56 18 5
9.1870003 7.948 -0.76899999 130 77 37
9.1899996 7.9559999 -0.88300002 97 75 36
9.1870003 8.0220003 -0.84200001 42 12 2
9.1789999 8.0240002 -0.79000002 80 48 33
9.1639996 8 -0.79100001 175 159 162
9.165 7.9860001 -0.78200001 53 27 12
9.1759996 8.0030003 -0.745 79 53 38
9.1669998 7.9359999 -0.81999999 105 81 79
9.1829996 7.9559999 -0.84899998 49 28 25
9.1859999 7.9520001 -0.82300001 120 82 63
9.1879997 7.954 -0.82099998 158 115 83
9.1789999 7.9879999 -0.81599998 45 7 0
9.1739998 7.9959998 -0.824 53 26 19
9.1719999 7.9879999 -0.824 47 19 15
9.1330004 7.9460001 -0.84899998 89 43 19
9.1269999 7.9460001 -0.86000001 43 20 12
9.1260004 7.9439998 -0.85600001 77 41 19
9.1339998 7.9489999 -0.85799998 77 52 45
9.1359997 7.948 -0.85100001 73 41 18
9.1669998 7.934 -0.83099997 152 117 95
9.1780005 7.948 -0.77600002 192 120 70
9.1700001 7.954 -0.78100002 123 86 60
9.1680002 7.9619999 -0.78899997 126 95 75
9.1619997 7.9489999 -0.80400002 85 22 0
9.1660004 7.9640002 -0.77200001 189 153 131
9.2130003 7.9530001 -0.708 85 58 31
9.1999998 7.9460001 -0.70200002 61 33 21
9.1990004 7.9860001 -0.68400002 43 24 18
9.1479998 7.9840002 -0.84100002 77 48 32
9.1440001 7.987 -0.83200002 244 197 151
9.1680002 8.0080004 -0.82800001 78 46 35
9.1269999 7.974 -0.85900003 140 119 114
9.1280003 7.9510002 -0.87099999 162 94 47
9.1730003 7.974 -0.83899999 112 110 115
9.1739998 7.9679999 -0.83200002 91 51 15
9.1730003 7.9759998 -0.82599998 104 70 32
9.1210003 7.941 -0.85799998 79 33 7
9.1269999 7.947 -0.85100001 91 68 60
9.2080002 7.961 -0.72100002 53 30 24
9.1920004 7.9650002 -0.75300002 35 23 23
9.1560001 8 -0.67199999 96 42 18
9.2320004 8.026 -0.55800003 150 134 134
9.2309999 8.0270004 -0.56099999 109 56 24
9.1929998 8.0120001 -0.59299999 100 72 51
9.1569996 8.0080004 -0.57999998 51 28 22
9.1490002 8.0030003 -0.639 100 63 47
9.165 8.0050001 -0.676 76 47 31
9.1890001 7.941 -0.61699998 161 116 75
9.1730003 7.9359999 -0.63999999 93 38 0
9.1359997 7.9819999 -0.65200001 68 48 41
9.1289997 8.0220003 -0.616 61 48 39
9.1759996 8.0109997 -0.611 85 53 32
9.2379999 8.04 -0.51899999 154 142 146
9.2229996 8.0240002 -0.60000002 43 24 20
9.2080002 8.0270004 -0.57800001 111 84 73
9.1870003 8 -0.60600001 173 126 84
9.1859999 8.0100002 -0.58099997 68 46 35
9.2030001 8.0129995 -0.58499998 131 104 93
9.1999998 8.0150003 -0.579 129 88 56
9.2049999 8.0179996 -0.57700002 115 78 51
9.2110004 8.0229998 -0.59100002 146 82 38
9.1780005 7.9629998 -0.741 167 137 126
9.1660004 7.9689999 -0.708 154 108 85
9.1820002 7.9499998 -0.65600002 81 49 36
9.1940002 7.9549999 -0.87599999 48 29 23
9.1739998 7.9590001 -0.875 105 61 36
9.1490002 8.0019999 -0.72899997 47 25 12
9.1569996 8.0039997 -0.72799999 127 82 40
9.165 7.9759998 -0.74299997 75 31 4
9.1730003 8.0170002 -0.79699999 69 40 22
9.1719999 8.0089998 -0.79100001 147 120 113
9.1800003 8.0100002 -0.78500003 119 90 60
9.1789999 8.0059996 -0.79000002 47 18 4
9.1689997 7.98 -0.75700003 91 50 22
9.1689997 7.9689999 -0.759 89 60 44
9.151 7.9899998 -0.75800002 93 61 50
9.1719999 8.0100002 -0.801 171 154 146
9.132 7.9679999 -0.83399999 199 159 133
9.1330004 7.9749999 -0.838 85 52 33
9.1459999 7.98 -0.82599998 51 21 13
9.1549997 7.9790001 -0.81800002 121 86 58
9.1540003 7.9759998 -0.81300002 61 34 23
9.1940002 7.973 -0.81199998 153 133 126
9.1850004 7.9499998 -0.76700002 110 79 58
9.1879997 7.954 -0.76300001 146 116 92
9.1780005 8.0279999 -0.79299998 134 99 79
9.1599998 8.0039997 -0.81400001 82 51 33
9.1669998 7.9689999 -0.77399999 139 71 32
9.1610003 7.9450002 -0.81900001 82 63 57
9.1759996 7.9460001 -0.83899999 102 65 39
9.1780005 7.947 -0.82999998 110 89 84
9.1759996 7.9530001 -0.85799998 115 87 73
9.191 7.9520001 -0.81400001 113 60 26
9.1879997 7.948 -0.81300002 34 19 16
9.1890001 7.9720001 -0.81900001 124 104 97
9.1759996 7.9980001 -0.82300001 154 134 125
9.1689997 7.9390001 -0.82499999 153 90 46
9.1669998 7.9650002 -0.76499999 91 58 41
9.1700001 7.967 -0.75599998 48 19 3
9.1680002 7.9400001 -0.81 54 36 32
9.1719999 7.9439998 -0.80199999 32 17 12
9.1789999 7.9380002 -0.80599999 87 27 1
9.1780005 7.9369998 -0.80400002 96 42 14
9.1829996 7.9369998 -0.78100002 131 76 35
9.184 7.9450002 -0.77700001 95 72 64
9.177 7.947 -0.78100002 226 189 163
9.1680002 7.98 -0.69599998 60 51 52
9.1470003 7.9899998 -0.838 115 85 75
9.1829996 7.9920001 -0.80400002 27 8 4
9.1359997 7.9689999 -0.852 156 122 94
9.1940002 7.9520001 -0.71899998 169 160 161
9.191 7.961 -0.741 92 32 4
9.1850004 7.9720001 -0.79299998 101 46 16
9.1859999 7.96 -0.79299998 172 108 73
9.1859999 7.9829998 -0.79100001 178 139 110
9.2299995 8.0270004 -0.55000001 119 68 37
9.2209997 8.0249996 -0.56199998 148 112 88
9.1890001 8.0039997 -0.60100001 165 149 152
9.1599998 8.0179996 -0.57700002 72 49 35
9.177 7.948 -0.67299998 101 52 12
9.1440001 7.9829998 -0.64899999 100 62 41
9.2040005 8.0170002 -0.616 62 37 30
9.2229996 8.0220003 -0.59399998 77 53 41
9.1879997 8.0270004 -0.56999999 104 62 24
9.2019997 8.0249996 -0.57700002 107 79 55
9.1899996 8.0270004 -0.565 73 45 34
9.191 8.0129995 -0.57200003 188 168 157
9.1859999 8.0139999 -0.574 72 45 36
9.1780005 8.0109997 -0.57800001 97 56 24
9.1789999 7.9829998 -0.76800001 87 58 44
9.1709995 7.9499998 -0.70300001 128 88 53
9.1800003 7.96 -0.86900002 102 64 41
9.1520004 8.0030003 -0.73500001 142 96 60
9.1750002 8.0249996 -0.79500002 133 102 81
9.1719999 8.0100002 -0.78799999 178 161 151
9.1529999 7.9980001 -0.76599997 70 22 8
9.1479998 7.9970002 -0.76200002 43 17 2
9.1669998 7.9790001 -0.77100003 74 34 9
9.1619997 7.9879999 -0.82200003 50 22 10
9.1660004 8.0010004 -0.80199999 175 157 157
9.1639996 8 -0.81199998 157 139 135
9.1689997 7.9770002 -0.78899997 53 24 6
9.1709995 7.9689999 -0.78200001 98 70 49
9.1440001 7.9569998 -0.83200002 137 106 86
9.1490002 7.9590001 -0.82599998 174 146 132
9.158 7.9549999 -0.84100002 203 175 154
9.1680002 7.9390001 -0.81099999 148 86 45
9.1669998 7.9400001 -0.81400001 171 168 177
9.1730003 7.9530001 -0.85000002 194 168 153
9.1870003 7.9530001 -0.86000001 107 67 41
9.1689997 8.0050001 -0.82599998 57 30 21
9.1350002 7.9510002 -0.85500002 108 75 60
9.1680002 7.9380002 -0.82700002 104 60 35
9.1730003 7.9650002 -0.79900002 149 96 64
9.1739998 7.9559999 -0.76200002 213 179 154
9.1719999 7.9629998 -0.76099998 75 49 32
9.1750002 7.961 -0.75599998 117 72 39
9.1879997 7.9489999 -0.79100001 181 127 91
9.184 7.934 -0.78799999 73 56 49
9.1789999 7.9369998 -0.79000002 66 35 17
9.1800003 7.9460001 -0.77399999 65 18 2
9.1789999 7.9369998 -0.80000001 47 17 7
9.217 7.9580002 -0.69700003 113 102 98
9.1219997 7.954 -0.86900002 59 36 30
9.1829996 7.9590001 -0.73000002 49 26 20
9.1809998 7.961 -0.75300002 124 93 73
9.2139997 8.0299997 -0.57099998 128 89 60
9.2279997 8.0220003 -0.56599998 110 57 26
9.2060003 8.0100002 -0.60000002 74 32 8
9.2130003 8.0150003 -0.60699999 66 40 17
