ply
format ascii 1.0
comment PCL generated
element vertex 211
property float x
property float y
property float z
property uchar red
property uchar green
property uchar blue
element camera 1
property float view_px
property float view_py
property float view_pz
property float x_axisx
property float x_axisy
property float x_axisz
property float y_axisx
property float y_axisy
property float y_axisz
property float z_axisx
property float z_axisy
property float z_axisz
property float focal
property float scalex
property float scaley
property float centerx
property float centery
property int viewportx
property int viewporty
property float k1
property float k2
end_header
-14.635 -6.9000001 -1.025 87 79 77
-14.641 -6.9029999 -1.023 110 41 2
-14.637 -6.8969998 -1.01 82 28 0
-14.65 -6.9130001 -1.035 65 12 0
-14.675 -6.9439998 -0.98000002 128 100 79
-14.663 -6.9250002 -0.991 117 94 80
-14.67 -6.9460001 -0.98100001 98 42 7
-14.657 -6.9390001 -1.005 39 0 0
-14.67 -6.928 -1.017 93 83 81
-14.658 -6.9400001 -1.0140001 41 0 0
-14.619 -6.96 -0.97000003 155 79 21
-14.623 -6.9590001 -0.963 131 53 0
-14.612 -6.9450002 -0.97600001 157 67 14
-14.622 -6.9549999 -0.96700001 167 112 73
-14.611 -6.947 -0.98000002 123 49 2
-14.61 -6.9429998 -0.991 88 22 0
-14.605 -6.9439998 -0.991 85 11 0
-14.604 -6.941 -0.99000001 102 40 1
-14.601 -6.947 -0.99599999 135 71 9
-14.639 -6.902 -1.0089999 80 24 1
-14.621 -6.8979998 -1.01 114 83 62
-14.629 -6.9159999 -1.016 120 61 5
-14.624 -6.901 -1.006 101 52 12
-14.618 -6.8979998 -1.008 169 101 56
-14.614 -6.9180002 -1.024 54 46 43
-14.65 -6.9200001 -1.04 50 45 42
-14.661 -6.9219999 -1.038 52 2 1
-14.654 -6.9190001 -1.038 83 33 6
-14.653 -6.927 -1.041 111 74 48
-14.657 -6.961 -1.001 123 82 52
-14.653 -6.9640002 -0.99900001 118 62 11
-14.656 -6.9640002 -1.005 162 91 49
-14.651 -6.947 -0.99000001 120 93 74
-14.666 -6.947 -0.97899997 101 38 7
-14.67 -6.9250002 -1.027 158 100 63
-14.674 -6.9229999 -1.02 90 61 47
-14.634 -6.973 -0.97600001 136 89 63
-14.628 -6.9590001 -0.97299999 89 61 24
-14.656 -6.9289999 -0.98699999 44 1 0
-14.632 -6.961 -1.033 166 93 48
-14.627 -6.96 -1.028 176 98 52
-14.626 -6.9590001 -1.034 168 127 107
-14.661 -6.921 -1.001 77 45 34
-14.638 -6.9060001 -1.029 133 63 11
-14.638 -6.928 -1.039 82 76 76
-14.623 -6.9400001 -1.026 66 9 0
-14.622 -6.9330001 -1.022 146 99 57
-14.639 -6.9260001 -1.034 70 21 4
-14.658 -6.9299998 -1.038 46 5 1
-14.637 -6.9450002 -1.0369999 114 54 20
-14.622 -6.9569998 -0.97299999 158 91 36
-14.619 -6.948 -0.977 139 85 41
-14.668 -6.9349999 -0.97299999 47 5 0
-14.66 -6.9289999 -0.98100001 84 39 10
-14.673 -6.9559999 -0.96600002 89 43 27
-14.672 -6.9260001 -0.92500001 77 55 44
-14.676 -6.9169998 -0.92799997 125 48 6
-14.671 -6.9219999 -0.91799998 114 67 25
-14.678 -6.9310002 -0.93099999 215 107 35
-14.675 -6.967 -0.96700001 104 48 21
-14.637 -6.9720001 -0.98699999 150 75 33
-14.643 -6.9710002 -0.97799999 153 93 56
-14.65 -6.9530001 -0.97500002 52 20 0
-14.661 -6.9499998 -0.972 84 20 0
-14.66 -6.9310002 -1.03 53 13 3
-14.663 -6.927 -1.036 84 52 27
-14.662 -6.9229999 -1.0319999 105 35 0
-14.66 -6.9640002 -0.95899999 144 61 21
-14.66 -6.9699998 -0.954 172 91 36
-14.669 -6.973 -0.96200001 156 94 37
-14.65 -6.9530001 -0.97000003 143 82 28
-14.674 -6.9689999 -0.96700001 156 78 29
-14.664 -6.9699998 -0.95300001 173 108 54
-14.667 -6.9629998 -0.949 82 23 5
-14.663 -6.9650002 -0.94099998 195 106 48
-14.661 -6.9190001 -0.99800003 100 62 23
-14.66 -6.9039998 -1.003 162 102 66
-14.665 -6.9229999 -1.018 70 38 27
-14.655 -6.928 -0.99400002 82 37 8
-14.643 -6.914 -1.023 75 15 0
-14.639 -6.902 -1.001 109 77 64
-14.635 -6.9060001 -1.008 89 39 12
-14.656 -6.9380002 -0.98000002 44 5 0
-14.652 -6.961 -0.935 118 70 22
-14.662 -6.9510002 -0.93099999 71 9 0
-14.662 -6.9510002 -0.92299998 88 20 0
-14.654 -6.9429998 -1.011 160 123 94
-14.634 -6.9450002 -1.034 150 115 96
-14.619 -6.9180002 -1.016 99 45 11
-14.614 -6.9219999 -1.0190001 167 90 36
-14.634 -6.961 -0.99800003 82 20 0
-14.625 -6.9590001 -0.99900001 112 63 30
-14.627 -6.9679999 -0.99299997 168 109 65
-14.623 -6.9489999 -1.026 135 66 37
-14.623 -6.9499998 -1.022 151 102 59
-14.659 -6.948 -0.92699999 142 79 38
-14.65 -6.947 -0.92900002 128 68 6
-14.68 -6.941 -0.97399998 90 30 4
-14.67 -6.9250002 -0.96700001 128 69 25
-14.673 -6.967 -0.96200001 147 91 56
-14.632 -6.9720001 -0.98199999 141 88 48
-14.65 -6.96 -0.99900001 97 58 17
-14.643 -6.96 -0.97600001 121 38 0
-14.667 -6.954 -0.96700001 101 52 20
-14.644 -6.9320002 -1.038 116 61 31
-14.648 -6.9310002 -1.0369999 99 39 2
-14.667 -6.9250002 -1.031 76 28 16
-14.638 -6.96 -0.97500002 89 22 0
-14.634 -6.941 -1.02 130 66 28
-14.63 -6.9439998 -1.01 91 33 9
-14.63 -6.9530001 -1.036 84 23 2
-14.656 -6.915 -0.99400002 147 96 53
-14.657 -6.9120002 -0.99900001 174 97 43
-14.644 -6.9260001 -0.98799998 149 76 41
-14.633 -6.9359999 -0.98000002 148 86 35
-14.638 -6.934 -0.98900002 116 59 16
-14.647 -6.914 -1.012 95 24 0
-14.64 -6.921 -1.025 117 51 1
-14.658 -6.9219999 -1.024 75 26 0
-14.643 -6.9039998 -1.001 132 76 51
-14.641 -6.9250002 -0.963 108 58 21
-14.638 -6.921 -0.963 167 91 29
-14.617 -6.928 -0.991 55 13 1
-14.658 -6.967 -0.94 151 84 39
-14.655 -6.9520001 -0.93000001 228 121 51
-14.618 -6.9250002 -1.022 101 45 12
-14.626 -6.9390001 -1.0089999 75 19 0
-14.619 -6.947 -1.017 136 63 30
-14.669 -6.928 -0.96799999 104 59 26
-14.672 -6.928 -0.96600002 133 93 67
-14.663 -6.9320002 -0.96600002 136 78 41
-14.671 -6.927 -0.95599997 92 44 21
-14.655 -6.9289999 -0.97899997 52 10 0
-14.663 -6.934 -0.96499997 110 61 28
-14.681 -6.9419999 -0.94700003 114 42 4
-14.685 -6.9349999 -0.93800002 160 82 33
-14.688 -6.9349999 -0.94199997 113 49 14
-14.679 -6.9369998 -0.94099998 167 107 70
-14.682 -6.9460001 -0.95999998 105 72 55
-14.68 -6.9390001 -0.96399999 123 91 66
-14.686 -6.9429998 -0.96100003 102 37 7
-14.679 -6.927 -0.95700002 118 74 37
-14.683 -6.9330001 -0.949 70 19 0
-14.642 -6.954 -0.99800003 100 64 50
-14.643 -6.96 -0.991 171 121 96
-14.648 -6.9190001 -1.038 79 26 0
-14.643 -6.9369998 -1.034 98 45 14
-14.63 -6.9460001 -1.02 113 35 0
-14.634 -6.9460001 -1.036 54 1 0
-14.642 -6.9219999 -0.96899998 110 61 29
-14.646 -6.9320002 -0.96700001 86 50 36
-14.631 -6.9219999 -0.99699998 145 72 17
-14.648 -6.9250002 -1.02 52 14 3
-14.653 -6.9089999 -0.99400002 133 74 42
-14.659 -6.9130001 -0.92799997 170 119 76
-14.657 -6.9120002 -0.935 153 70 20
-14.654 -6.9380002 -0.935 102 55 9
-14.654 -6.908 -1.002 137 117 108
-14.681 -6.9320002 -0.94099998 76 21 0
-14.618 -6.9330001 -0.98799998 107 57 4
-14.612 -6.9380002 -0.99199998 121 43 0
-14.634 -6.9429998 -0.99299997 85 38 8
-14.617 -6.9320002 -0.99599999 132 62 13
-14.638 -6.9489999 -0.954 201 105 44
-14.637 -6.954 -0.977 115 73 33
-14.641 -6.9419999 -0.94 102 20 0
-14.647 -6.9510002 -0.93599999 87 45 7
-14.622 -6.961 -0.99199998 118 36 0
-14.632 -6.9549999 -0.99599999 93 37 0
-14.605 -6.9450002 -0.99599999 114 40 0
-14.687 -6.9380002 -0.94800001 116 72 33
-14.674 -6.9520001 -0.95099998 108 54 20
-14.679 -6.9450002 -0.96700001 141 99 74
-14.632 -6.9419999 -1.029 109 40 1
-14.645 -6.9559999 -0.97399998 109 72 56
-14.642 -6.921 -0.96899998 122 56 4
-14.666 -6.9180002 -0.94199997 111 84 67
-14.672 -6.9239998 -0.935 85 41 0
-14.644 -6.9120002 -0.99400002 60 9 0
-14.673 -6.9169998 -0.926 104 47 17
-14.647 -6.9380002 -0.93699998 161 100 35
-14.67 -6.934 -0.92799997 171 103 38
-14.662 -6.9229999 -0.93099999 170 88 40
-14.615 -6.9289999 -0.995 102 38 2
-14.648 -6.941 -0.96700001 106 39 0
-14.654 -6.9559999 -0.95499998 88 32 9
-14.654 -6.941 -0.95899999 95 18 0
-14.668 -6.9299998 -0.94400001 148 68 9
-14.64 -6.9489999 -0.99900001 78 17 0
-14.624 -6.941 -1.018 68 9 0
-14.634 -6.967 -0.99000001 135 89 63
-14.647 -6.9229999 -0.97600001 120 47 14
-14.663 -6.9190001 -0.94300002 83 59 49
-14.682 -6.9310002 -0.94400001 145 84 37
-14.635 -6.921 -0.99699998 126 54 6
-14.657 -6.9159999 -0.93400002 124 65 25
-14.648 -6.9450002 -0.93400002 150 86 38
-14.642 -6.9419999 -0.95300001 66 40 5
-14.641 -6.948 -0.95099998 121 80 62
-14.655 -6.96 -0.95200002 131 46 0
-14.669 -6.9549999 -0.94099998 145 67 19
-14.655 -6.9429998 -0.95200002 120 48 0
-14.626 -6.9530001 -0.97899997 111 47 0
-14.671 -6.9549999 -0.93599999 174 87 18
-14.639 -6.9580002 -0.99800003 120 54 19
-14.676 -6.9489999 -0.96100003 157 97 60
-14.65 -6.9239998 -0.98400003 124 54 0
-14.649 -6.9390001 -0.94300002 167 102 38
-14.658 -6.9640002 -0.95300001 135 59 9
-14.652 -6.9640002 -0.94199997 190 124 63
-14.649 -6.9619999 -0.935 175 108 53
0 0 0 1 0 0 0 1 0 0 0 1 0 0 0 0 0 211 1 0 0
