ply
format ascii 1.0
comment PCL generated
element vertex 1239
property float x
property float y
property float z
property uchar red
property uchar green
property uchar blue
element camera 0
property float view_px
property float view_py
property float view_pz
property float x_axisx
property float x_axisy
property float x_axisz
property float y_axisx
property float y_axisy
property float y_axisz
property float z_axisx
property float z_axisy
property float z_axisz
property float focal
property float scalex
property float scaley
property float centerx
property float centery
property int viewportx
property int viewporty
property float k1
property float k2
end_header
3.256 8.2139997 -0.82999998 140 114 101
3.2690001 8.217 -0.84299999 148 79 40
3.2449999 8.2220001 -0.85900003 32 13 9
3.224 8.1780005 -0.838 169 109 59
3.2390001 8.1610003 -0.83399999 168 133 105
3.2390001 8.1730003 -0.83399999 104 90 90
3.2249999 8.1859999 -0.83899999 33 8 1
3.2409999 8.1890001 -0.83399999 115 71 58
3.204 8.1350002 -0.88700002 84 46 23
3.21 8.1289997 -0.884 126 111 104
3.174 8.1389999 -0.87400001 50 14 0
3.1429999 8.1440001 -0.89200002 182 143 88
3.2149999 8.1160002 -0.85900003 32 12 3
3.2060001 8.1280003 -0.86400002 53 15 4
3.214 8.1490002 -0.85500002 63 21 0
3.21 8.1269999 -0.87 46 9 0
3.175 8.1459999 -0.85799998 36 8 0
3.1789999 8.1409998 -0.84399998 169 160 161
3.2160001 8.1040001 -0.86199999 82 36 10
3.211 8.1020002 -0.83700001 28 3 0
3.194 8.1070004 -0.88999999 145 131 131
3.177 8.1400003 -0.88999999 67 36 16
3.2130001 8.158 -0.86400002 54 14 4
3.217 8.1389999 -0.861 192 139 95
3.2249999 8.1219997 -0.79799998 153 105 69
3.26 8.1529999 -0.787 153 142 146
3.2279999 8.1400003 -0.80900002 156 112 85
3.2509999 8.1429996 -0.78299999 26 9 2
3.256 8.1960001 -0.82499999 203 163 137
3.267 8.1890001 -0.82700002 72 36 14
3.2520001 8.1929998 -0.83899999 49 4 0
3.243 8.1870003 -0.84200001 52 6 0
3.247 8.1689997 -0.76099998 202 171 150
3.2309999 8.1730003 -0.75 110 73 57
3.2279999 8.1879997 -0.86500001 44 12 0
3.1930001 8.1129999 -0.74400002 66 35 30
3.1930001 8.1260004 -0.74299997 105 67 44
3.1919999 8.1230001 -0.75400001 76 32 3
3.1949999 8.1140003 -0.74699998 116 74 58
3.2490001 8.1730003 -0.83899999 69 24 1
3.2379999 8.1389999 -0.87099999 157 116 88
3.2309999 8.1169996 -0.88200003 137 114 100
3.2260001 8.1149998 -0.88700002 122 68 42
3.161 8.1459999 -0.88800001 27 0 0
3.1670001 8.1059999 -0.91000003 98 62 36
3.1789999 8.0869999 -0.921 115 83 44
3.1730001 8.0950003 -0.92299998 206 135 83
3.1800001 8.092 -0.91799998 213 160 118
3.1730001 8.0839996 -0.92400002 134 91 56
3.1800001 8.0740004 -0.92400002 235 166 99
3.22 8.1090002 -0.90700001 34 15 9
3.181 8.0760002 -0.921 202 133 66
3.1819999 8.0749998 -0.92400002 205 136 67
3.1830001 8.0810003 -0.92400002 128 84 49
3.152 8.1560001 -0.86299998 95 57 36
3.155 8.1599998 -0.86799997 84 49 29
3.1489999 8.1490002 -0.861 205 185 135
3.155 8.1549997 -0.87300003 46 12 3
3.1689999 8.1040001 -0.92199999 175 113 72
3.2 8.0419998 -0.57200003 136 86 63
3.2650001 8.026 -0.88300002 162 100 53
3.194 8.1450005 -0.33000001 185 166 151
3.1989999 8.1389999 -0.333 184 106 44
3.2049999 8.1389999 -0.331 110 65 32
3.1989999 8.1440001 -0.33000001 255 240 223
3.1949999 8.1490002 -0.33000001 155 93 42
3.1900001 8.1540003 -0.33000001 96 73 59
3.1919999 8.1590004 -0.33000001 211 164 108
3.2149999 8.1409998 -0.33199999 119 73 37
3.2260001 8.1520004 -0.333 221 178 143
3.171 8.1859999 -0.35699999 180 116 106
3.181 8.191 -0.368 210 147 138
3.1889999 8.1940002 -0.36199999 120 61 29
3.1900001 8.184 -0.384 55 43 47
3.2349999 8.1540003 -0.699 33 2 0
3.2460001 8.1300001 -0.73900002 62 47 40
3.2479999 8.1630001 -0.75400001 209 157 120
3.197 8.1940002 -0.71700001 134 79 40
3.198 8.1899996 -0.72799999 50 6 0
3.2019999 8.0979996 -0.48699999 58 31 14
3.204 8.0760002 -0.48300001 105 37 0
3.207 8.0979996 -0.49200001 103 76 59
3.2449999 8.0439997 -0.917 156 137 131
3.2490001 8.0489998 -0.91500002 90 85 92
3.2490001 8.0480003 -0.912 121 70 39
3.2639999 8.0349998 -0.89099997 175 129 95
3.2620001 8.04 -0.85699999 107 53 27
3.2650001 8.026 -0.889 252 208 169
3.234 8.0579996 -0.87699997 169 95 58
3.2720001 8.1929998 -0.84600002 163 151 151
3.279 8.1949997 -0.852 118 90 76
3.279 8.191 -0.84399998 172 124 88
3.2320001 8.0459995 -0.84899998 69 32 5
3.2320001 8.0450001 -0.85399997 100 65 43
3.25 8.0249996 -0.87599999 73 17 2
3.2520001 8.026 -0.87 63 4 0
3.2390001 8.0349998 -0.87099999 143 93 68
3.224 8.0690002 -0.82700002 186 159 148
3.2349999 8.0880003 -0.82499999 156 113 96
3.2379999 8.099 -0.76899999 43 2 0
3.22 8.1000004 -0.778 30 18 20
3.223 8.099 -0.76300001 155 104 77
3.2179999 8.092 -0.78100002 40 12 1
3.217 8.0959997 -0.76499999 81 40 22
3.2550001 8.1730003 -0.83899999 80 33 3
3.263 8.158 -0.85799998 110 71 54
3.2520001 8.1599998 -0.84100002 135 77 27
3.2650001 8.184 -0.83399999 183 130 76
3.256 8.1829996 -0.83600003 82 38 13
3.2650001 8.1689997 -0.861 30 1 0
3.244 8.1020002 -0.86199999 154 153 161
3.2409999 8.0860004 -0.87099999 128 83 44
3.2490001 8.0819998 -0.87199998 148 143 150
3.2479999 8.073 -0.875 129 82 62
3.2409999 8.1059999 -0.84299999 50 14 0
3.2390001 8.118 -0.85000002 69 34 14
3.256 8.0959997 -0.84600002 70 31 0
3.2460001 8.1040001 -0.83700001 120 73 63
3.2490001 8.151 -0.84299999 69 41 29
3.25 8.1569996 -0.85500002 122 80 58
3.26 8.026 -0.87199998 170 104 70
3.316 8.1199999 -0.33399999 60 42 30
3.322 8.1140003 -0.336 128 118 117
3.3110001 8.1110001 -0.33199999 162 113 73
3.3180001 8.0979996 -0.33700001 178 120 70
3.2869999 8.118 -0.458 102 67 45
3.286 8.1169996 -0.46000001 60 28 17
3.2869999 8.1199999 -0.46000001 64 28 12
3.28 8.1149998 -0.45699999 76 38 17
3.2090001 8.1669998 -0.479 133 95 86
3.174 8.0749998 -0.50599998 80 41 10
3.1659999 8.0690002 -0.50199997 92 43 11
3.1730001 8.0869999 -0.514 131 85 62
3.2160001 8.191 -0.37 113 61 24
3.227 8.1929998 -0.352 255 253 244
3.227 8.1899996 -0.36899999 73 43 17
3.2 8.1610003 -0.40200001 61 35 22
3.204 8.1610003 -0.398 147 84 33
3.2049999 8.1569996 -0.43200001 54 23 3
3.198 8.1619997 -0.42699999 111 87 75
3.197 8.1619997 -0.43700001 125 118 110
3.2030001 8.1569996 -0.419 134 119 114
3.204 8.0740004 -0.48500001 136 122 122
3.178 8.033 -0.477 101 64 37
3.2090001 8.1099997 -0.90200001 36 16 9
3.2260001 8.1549997 -0.86900002 33 3 0
3.23 8.1549997 -0.86500001 39 9 0
3.1989999 8.2110004 -0.57800001 74 28 5
3.1989999 8.2060003 -0.57200003 65 32 15
3.201 8.2030001 -0.56999999 81 51 41
3.164 8.1859999 -0.60000002 63 39 29
3.2030001 8.1789999 -0.74000001 60 34 33
3.1989999 8.191 -0.73199999 37 3 1
3.2030001 8.1949997 -0.741 70 29 7
3.233 8.1719999 -0.727 109 83 68
3.197 8.1079998 -0.70899999 115 83 62
3.2030001 8.1140003 -0.71899998 167 119 83
3.1860001 8.1820002 -0.64499998 147 106 86
3.1919999 8.1739998 -0.66799998 101 72 54
3.194 8.1639996 -0.67900002 44 10 0
3.2539999 8.2270002 -0.85399997 23 2 0
3.2550001 8.2290001 -0.85399997 44 15 9
3.188 8.1999998 -0.61699998 37 4 0
3.158 8.1260004 -0.82599998 126 91 61
3.188 8.1450005 -0.67799997 48 12 0
3.1849999 8.1339998 -0.67299998 39 21 9
3.1819999 8.1230001 -0.67699999 63 17 4
3.1949999 8.1289997 -0.70200002 38 12 0
3.197 8.0629997 -0.50300002 126 81 40
3.1830001 8.0450001 -0.52999997 116 80 56
3.1789999 8.0430002 -0.51700002 170 100 49
3.177 8.0530005 -0.51999998 143 102 80
3.1559999 8.0500002 -0.50599998 204 139 101
3.2130001 8.151 -0.48699999 74 44 33
3.178 8.1619997 -0.62599999 80 45 26
3.1889999 8.1599998 -0.639 124 109 112
3.2939999 8.1070004 -0.421 128 97 79
3.29 8.1049995 -0.44499999 85 53 38
3.2920001 8.1040001 -0.41600001 62 25 7
3.1960001 8.1610003 -0.42199999 117 90 83
3.1919999 8.1330004 -0.361 152 87 45
3.204 8.1599998 -0.419 69 44 39
3.2019999 8.158 -0.414 41 17 13
3.2090001 8.1590004 -0.426 76 30 4
3.3239999 8.1269999 -0.34099999 92 51 31
3.2249999 8.1829996 -0.34900001 94 65 67
3.2249999 8.1809998 -0.34200001 252 250 238
3.2249999 8.1739998 -0.354 75 27 5
3.3239999 8.099 -0.36700001 102 58 31
3.323 8.1129999 -0.366 219 171 105
3.23 8.1289997 -0.338 72 33 4
3.2850001 8.1199999 -0.33500001 58 38 27
3.2920001 8.1140003 -0.331 90 30 2
3.296 8.118 -0.33500001 61 39 26
3.286 8.1020002 -0.33000001 77 16 0
3.277 8.1160002 -0.33899999 219 176 141
3.224 8.1300001 -0.34200001 173 131 106
3.217 8.1400003 -0.33500001 98 67 49
3.2520001 8.1190004 -0.56400001 70 38 17
3.2360001 8.1020002 -0.588 113 45 6
3.2390001 8.1160002 -0.57099998 56 32 28
3.3269999 8.1160002 -0.36199999 117 89 78
3.3299999 8.1079998 -0.359 106 76 48
3.28 8.1149998 -0.461 81 40 18
3.279 8.1149998 -0.46599999 80 42 21
3.1900001 8.0319996 -0.49599999 129 57 17
3.191 8.0360003 -0.48899999 126 75 48
3.1949999 8.0790005 -0.493 118 96 85
3.2679999 8.1129999 -0.505 104 71 52
3.263 8.1129999 -0.52700001 83 46 30
3.2590001 8.1029997 -0.53100002 115 101 98
3.253 8.1090002 -0.52200001 76 18 0
3.2590001 8.1129999 -0.51099998 82 53 37
3.2909999 8.085 -0.352 155 89 39
3.2939999 8.0830002 -0.34599999 167 121 69
3.293 8.0819998 -0.35600001 139 80 46
3.2950001 8.1000004 -0.38100001 147 95 47
3.221 8.1560001 -0.51800001 141 95 61
3.214 8.1490002 -0.5 243 220 202
3.25 8.1459999 -0.55800003 87 80 64
3.2360001 8.1389999 -0.55400002 57 21 5
3.2309999 8.1459999 -0.54400003 56 19 1
3.2279999 8.1459999 -0.55500001 167 118 77
3.2260001 8.1309996 -0.55199999 127 112 115
3.221 8.1459999 -0.54000002 37 3 0
3.214 8.191 -0.58600003 100 60 34
3.25 8.1239996 -0.54900002 71 35 19
3.25 8.125 -0.53799999 175 142 123
3.253 8.1110001 -0.52600002 64 29 10
3.253 8.1079998 -0.53200001 100 83 75
3.2539999 8.1160002 -0.53799999 126 91 69
3.2650001 8.1199999 -0.53799999 57 21 7
3.263 8.1190004 -0.54000002 75 33 8
3.1889999 8.1359997 -0.34599999 242 178 114
3.1819999 8.1409998 -0.34999999 218 154 108
3.1730001 8.165 -0.35100001 254 254 244
3.1900001 8.2119999 -0.58399999 49 7 0
3.168 8.0559998 -0.50700003 97 49 29
3.325 8.1350002 -0.36399999 112 84 63
3.204 8.1759996 -0.33199999 249 247 235
3.184 8.1879997 -0.352 75 23 1
3.1900001 8.1780005 -0.336 112 56 33
3.223 8.1120005 -0.65200001 57 31 18
3.224 8.0979996 -0.63599998 64 33 12
3.2190001 8.1059999 -0.65499997 39 12 1
3.2409999 8.099 -0.69599998 54 22 11
3.1789999 8.0930004 -0.60900003 92 68 58
3.1919999 8.0889997 -0.60100001 42 21 18
3.1949999 8.1219997 -0.64300001 117 85 64
3.1930001 8.1120005 -0.65499997 44 18 1
3.1930001 8.1239996 -0.65200001 46 27 23
3.194 8.1370001 -0.63499999 64 30 3
3.2 8.1269999 -0.634 49 23 10
3.2420001 8.1269999 -0.62199998 37 27 28
3.2539999 8.1280003 -0.602 148 92 59
3.2460001 8.1230001 -0.60500002 91 45 22
3.244 8.1260004 -0.60900003 93 41 17
3.2420001 8.1440001 -0.63499999 167 126 106
3.2349999 8.1389999 -0.64600003 41 34 24
3.23 8.1339998 -0.62699997 51 19 8
3.2490001 8.1450005 -0.67500001 127 116 112
3.2360001 8.1230001 -0.66000003 75 51 41
3.1819999 8.1540003 -0.60900003 103 60 26
3.1900001 8.151 -0.61400002 163 99 74
3.237 8.118 -0.56699997 85 47 26
3.244 8.1210003 -0.56300002 163 113 78
3.227 8.1079998 -0.58399999 115 101 98
3.214 8.1049995 -0.56800002 68 39 23
3.2260001 8.1169996 -0.58899999 75 68 52
3.2160001 8.1219997 -0.57300001 61 44 34
3.2060001 8.1400003 -0.565 70 32 19
3.2079999 8.1370001 -0.565 142 132 130
3.2260001 8.1829996 -0.64200002 43 14 0
3.2260001 8.1789999 -0.65200001 63 35 24
3.177 8.0719995 -0.49200001 94 62 47
3.1949999 8.0640001 -0.54000002 117 85 62
3.1760001 8.0550003 -0.54500002 179 125 89
3.1760001 8.0489998 -0.55199999 186 122 76
3.181 8.0579996 -0.55199999 109 63 48
3.1789999 8.0430002 -0.56 52 22 11
3.1919999 8.0790005 -0.59299999 48 19 5
3.2709999 8.1160002 -0.50099999 60 17 0
3.181 8.0360003 -0.56 151 96 57
3.1919999 8.0509996 -0.53100002 62 32 21
3.201 8.0509996 -0.53899997 138 115 101
3.197 8.04 -0.546 100 45 15
3.194 8.0439997 -0.54500002 145 127 117
3.188 8.052 -0.52700001 66 37 21
3.1819999 8.0480003 -0.523 146 110 86
3.1819999 8.0459995 -0.528 142 107 85
3.2019999 8.0819998 -0.57999998 25 12 6
3.3210001 8.0909996 -0.368 226 179 127
3.3150001 8.092 -0.36700001 185 134 71
3.319 8.0959997 -0.36700001 240 190 119
3.273 8.1129999 -0.49599999 133 92 64
3.217 8.1090002 -0.71799999 42 14 10
3.211 8.1059999 -0.713 64 29 1
3.2179999 8.1059999 -0.727 54 25 21
3.227 8.1090002 -0.70200002 96 49 31
3.2030001 8.0930004 -0.76099998 59 27 14
3.2019999 8.092 -0.76300001 198 124 75
3.2030001 8.0869999 -0.77200001 149 81 42
3.1989999 8.0900002 -0.764 140 81 41
3.2420001 8.1110001 -0.76800001 156 122 113
3.2360001 8.1059999 -0.76899999 66 31 27
3.244 8.1239996 -0.76999998 32 9 3
3.276 8.1499996 -0.76999998 59 27 2
3.302 8.1610003 -0.77600002 194 161 144
3.2909999 8.1680002 -0.77700001 78 21 1
3.2909999 8.1739998 -0.77700001 164 121 104
3.2909999 8.1759996 -0.78399998 142 124 122
3.302 8.1739998 -0.78299999 154 136 132
3.273 8.1630001 -0.773 59 5 0
3.2869999 8.1660004 -0.77499998 81 21 0
3.2119999 8.1470003 -0.53299999 110 72 59
3.2049999 8.1499996 -0.52600002 126 89 70
3.211 8.1479998 -0.53600001 108 74 62
3.2060001 8.1560001 -0.51700002 54 15 0
3.207 8.1529999 -0.50300002 52 23 17
3.2119999 8.1459999 -0.54100001 185 156 142
3.2119999 8.1450005 -0.546 127 99 78
3.1989999 8.2069998 -0.56900001 165 107 83
3.2149999 8.1120005 -0.56599998 54 27 16
3.2820001 8.2060003 -0.838 155 115 115
3.2920001 8.1940002 -0.83899999 75 49 36
3.283 8.198 -0.84899998 48 5 0
3.2019999 8.1759996 -0.676 132 91 69
3.198 8.1660004 -0.68099999 46 13 4
3.227 8.1789999 -0.72500002 57 31 8
3.243 8.125 -0.74199998 170 153 145
3.1930001 8.1079998 -0.76899999 108 71 42
3.2409999 8.1140003 -0.83700001 134 123 131
3.22 8.1129999 -0.85299999 33 9 0
3.214 8.085 -0.829 44 18 5
3.214 8.085 -0.82599998 124 109 102
3.21 8.1079998 -0.83399999 151 130 127
3.224 8.1190004 -0.81900001 31 19 19
3.178 8.1330004 -0.83999997 141 88 74
3.1819999 8.1409998 -0.83899999 56 23 16
3.2190001 8.0950003 -0.759 142 85 55
3.2160001 8.0939999 -0.75999999 67 30 14
3.1930001 8.1129999 -0.80500001 142 130 130
3.191 8.099 -0.80400002 240 198 160
3.198 8.0869999 -0.79799998 152 104 68
3.1960001 8.2040005 -0.61400002 39 0 0
3.2019999 8.1969995 -0.61000001 40 13 0
3.204 8.2069998 -0.61000001 144 116 92
3.181 8.1870003 -0.63800001 160 132 118
3.1429999 8.1330004 -0.83700001 87 38 6
3.145 8.1269999 -0.83499998 145 96 55
3.154 8.1389999 -0.82499999 208 155 121
3.164 8.1549997 -0.83399999 45 11 1
3.214 8.0810003 -0.82499999 105 83 70
3.21 8.0909996 -0.815 128 92 70
3.155 8.1289997 -0.84500003 218 193 139
3.164 8.1269999 -0.815 159 103 76
3.1900001 8.1230001 -0.82300001 107 54 23
3.1719999 8.0869999 -0.671 44 16 0
3.174 8.0760002 -0.66900003 88 47 25
3.1860001 8.1549997 -0.66299999 134 106 84
3.201 8.1630001 -0.685 40 10 0
3.214 8.0939999 -0.75599998 142 84 44
3.224 8.1199999 -0.63099998 160 107 76
3.2309999 8.1129999 -0.62099999 62 27 8
3.2320001 8.1149998 -0.62 101 83 73
3.188 8.0930004 -0.76599997 129 75 41
3.1919999 8.099 -0.76099998 69 30 1
3.2490001 8.052 -0.90799999 18 11 18
3.2460001 8.0349998 -0.88800001 116 62 38
3.247 8.033 -0.88999999 83 28 8
3.25 8.0459995 -0.89300001 125 116 121
3.227 8.0500002 -0.866 100 53 35
3.184 8.118 -0.80900002 54 16 5
3.197 8.0889997 -0.79299998 118 66 42
3.197 8.0889997 -0.796 141 86 56
3.1949999 8.1339998 -0.82099998 63 45 45
3.1989999 8.1490002 -0.82200003 140 87 79
3.1849999 8.1549997 -0.81800002 52 27 20
3.178 8.1540003 -0.82200003 102 73 57
3.1689999 8.1440001 -0.81300002 52 8 0
3.1670001 8.1450005 -0.81699997 64 18 5
3.194 8.1409998 -0.79500002 77 33 8
3.1889999 8.1440001 -0.80000001 159 102 72
3.1849999 8.1239996 -0.79900002 97 61 35
3.1960001 8.1169996 -0.79299998 153 141 143
3.26 8.0579996 -0.847 70 29 11
3.2639999 8.0679998 -0.852 172 117 86
3.257 8.2220001 -0.83499998 163 125 102
3.263 8.2080002 -0.84600002 111 71 46
3.2249999 8.1780005 -0.84299999 91 30 0
3.223 8.1689997 -0.84299999 155 101 54
3.23 8.1590004 -0.84500003 51 27 17
3.2260001 8.1599998 -0.85299999 66 20 0
3.224 8.165 -0.85299999 70 24 0
3.22 8.1590004 -0.87300003 123 66 55
3.221 8.1590004 -0.87099999 165 118 88
3.198 8.1199999 -0.89499998 76 65 71
3.177 8.1359997 -0.87099999 145 115 104
3.141 8.1420002 -0.88800001 215 182 137
3.2119999 8.1169996 -0.86900002 193 142 115
3.217 8.1079998 -0.898 35 20 15
3.2260001 8.1040001 -0.88200003 186 138 115
3.2160001 8.1190004 -0.87599999 18 0 0
3.184 8.1079998 -0.89399999 154 139 136
3.211 8.1009998 -0.89399999 53 23 15
3.2249999 8.1859999 -0.86000001 38 9 1
3.2219999 8.165 -0.85699999 83 40 23
3.2179999 8.1260004 -0.829 109 59 52
3.2290001 8.1289997 -0.847 153 129 125
3.2260001 8.1160002 -0.829 139 108 90
3.22 8.1479998 -0.852 90 43 15
3.2479999 8.1339998 -0.77999997 124 84 85
3.2490001 8.1490002 -0.78299999 65 29 3
3.24 8.1820002 -0.83700001 92 58 33
3.2449999 8.1809998 -0.83200002 113 99 99
3.2309999 8.1879997 -0.86000001 212 183 175
3.2379999 8.2040005 -0.83999997 86 50 28
3.2420001 8.2119999 -0.83999997 43 10 5
3.2349999 8.177 -0.838 161 130 112
3.204 8.1070004 -0.71600002 134 118 118
3.1960001 8.1160002 -0.755 119 56 23
3.198 8.1070004 -0.75199997 75 34 2
3.3180001 8.1619997 -0.79400003 103 55 53
3.3050001 8.1680002 -0.77899998 150 123 116
3.3080001 8.1639996 -0.79400003 96 60 60
3.3150001 8.1560001 -0.796 171 137 112
3.313 8.1610003 -0.78799999 133 105 91
3.286 8.1719999 -0.79299998 89 48 26
3.279 8.1590004 -0.796 49 17 6
3.3169999 8.1499996 -0.79000002 62 46 47
3.2939999 8.1450005 -0.78399998 110 78 53
3.3150001 8.1540003 -0.78600001 228 176 128
3.273 8.151 -0.79000002 57 29 17
3.2479999 8.0930004 -0.83600003 46 20 7
3.289 8.1300001 -0.78100002 202 162 126
3.2909999 8.1470003 -0.78799999 125 107 87
3.2620001 8.0790005 -0.84200001 44 23 22
3.247 8.0830002 -0.833 185 119 85
3.2460001 8.1239996 -0.861 120 76 37
3.243 8.1309996 -0.85600001 104 84 75
3.2539999 8.0880003 -0.85799998 153 114 75
3.2820001 8.1949997 -0.84899998 112 80 59
3.2850001 8.1940002 -0.84500003 99 74 52
3.2809999 8.198 -0.85299999 134 107 90
3.2750001 8.198 -0.85100001 128 106 95
3.1800001 8.0799999 -0.92000002 189 117 58
3.217 8.1140003 -0.90700001 90 46 35
3.1789999 8.0760002 -0.91900003 221 150 84
3.1429999 8.132 -0.866 155 130 100
3.1659999 8.165 -0.84899998 37 6 1
3.1630001 8.1660004 -0.88 224 200 162
3.1789999 8.085 -0.91100001 122 90 52
3.184 8.0939999 -0.91000003 145 109 85
3.1719999 8.0979996 -0.92199999 225 157 110
3.1919999 8.0360003 -0.565 180 129 102
3.204 8.0749998 -0.58899999 138 107 87
3.2060001 8.0769997 -0.58899999 147 112 90
3.2079999 8.0740004 -0.60799998 46 32 32
3.2030001 8.1429996 -0.33000001 129 104 82
3.1989999 8.1529999 -0.33000001 130 84 32
3.177 8.1890001 -0.36500001 69 38 18
3.1849999 8.1719999 -0.37400001 66 35 33
3.198 8.184 -0.37099999 82 49 32
3.197 8.158 -0.39500001 55 10 0
3.175 8.158 -0.361 65 46 50
3.184 8.158 -0.37 41 24 8
3.178 8.1709995 -0.36300001 88 55 46
3.191 8.1529999 -0.37799999 81 32 2
3.211 8.1800003 -0.71100003 163 104 70
3.211 8.1759996 -0.70700002 145 101 66
3.2149999 8.1800003 -0.71200001 136 84 47
3.244 8.125 -0.74000001 166 110 73
3.1989999 8.191 -0.72899997 36 0 0
3.2190001 8.1820002 -0.71399999 84 27 0
3.2179999 8.184 -0.72000003 115 63 39
3.247 8.0410004 -0.91900003 52 32 21
3.2620001 8.033 -0.884 196 131 93
3.234 8.0620003 -0.87400001 114 63 34
3.243 8.059 -0.88099998 30 16 16
3.2579999 8.0240002 -0.86500001 136 78 56
3.2579999 8.026 -0.86299998 80 20 0
3.234 8.0410004 -0.86299998 100 46 20
3.23 8.1120005 -0.80599999 163 141 127
3.217 8.1000004 -0.80699998 27 11 11
3.2160001 8.1020002 -0.801 142 127 130
3.2119999 8.0959997 -0.80000001 67 52 49
3.217 8.099 -0.79100001 52 24 20
3.211 8.0939999 -0.79500002 177 161 161
3.233 8.1129999 -0.77700001 143 86 43
3.2179999 8.0900002 -0.78299999 61 29 16
3.214 8.0880003 -0.77999997 63 18 0
3.2160001 8.0900002 -0.78100002 55 17 4
3.2550001 8.1739998 -0.84600002 71 43 29
3.2279999 8.0860004 -0.86699998 88 31 2
3.221 8.0790005 -0.87199998 60 27 20
3.221 8.0799999 -0.86400002 59 24 18
3.247 8.0900002 -0.861 136 99 81
3.2579999 8.0769997 -0.86299998 29 13 13
3.2460001 8.0790005 -0.87199998 123 79 52
3.2449999 8.0970001 -0.85600001 116 64 51
3.2539999 8.0889997 -0.85299999 129 123 133
3.2609999 8.0310001 -0.86799997 136 90 66
3.26 8.026 -0.86900002 162 106 81
3.3039999 8.1140003 -0.329 165 107 69
3.3050001 8.1160002 -0.33199999 197 118 59
3.313 8.099 -0.33199999 112 66 30
3.322 8.1029997 -0.33500001 44 32 32
3.1500001 8.1859999 -0.509 112 62 37
3.158 8.1750002 -0.51099998 176 132 103
3.141 8.1850004 -0.509 57 29 7
3.161 8.1859999 -0.509 122 77 56
3.1700001 8.1879997 -0.50800002 80 29 8
3.201 8.1619997 -0.46200001 57 21 9
3.1989999 8.165 -0.454 156 124 101
3.1949999 8.1569996 -0.458 120 111 102
3.204 8.1680002 -0.458 144 126 116
3.175 8.2030001 -0.51899999 67 38 24
3.175 8.2089996 -0.52999997 99 61 40
3.1719999 8.2069998 -0.52600002 98 52 26
3.1700001 8.0620003 -0.50599998 137 72 34
3.22 8.1890001 -0.37 208 156 119
3.223 8.1920004 -0.35600001 58 28 28
3.217 8.1890001 -0.36300001 66 36 36
3.2279999 8.1899996 -0.36000001 93 37 2
3.2 8.0570002 -0.48300001 134 120 120
3.21 8.1140003 -0.90799999 36 11 4
3.2590001 8.1669998 -0.86799997 181 152 136
3.256 8.1590004 -0.861 89 51 32
3.2219999 8.1529999 -0.87 49 15 3
3.2260001 8.1529999 -0.86900002 46 14 3
3.168 8.191 -0.597 103 70 55
3.1489999 8.1359997 -0.81900001 86 56 48
3.2119999 8.1780005 -0.75599998 150 130 121
3.2030001 8.191 -0.741 50 12 0
3.2349999 8.1700001 -0.75099999 128 90 71
3.1930001 8.1110001 -0.70499998 85 53 38
3.2 8.1809998 -0.667 75 34 14
3.227 8.1549997 -0.66900003 34 6 0
3.25 8.2290001 -0.85000002 62 32 21
3.2030001 8.2089996 -0.60500002 78 42 30
3.1500001 8.1280003 -0.82700002 94 49 20
3.188 8.1280003 -0.68199998 27 4 0
3.1819999 8.1230001 -0.67400002 68 23 0
3.188 8.1230001 -0.699 108 67 45
3.204 8.1359997 -0.727 39 7 0
3.1429999 8.1450005 -0.88599998 225 199 142
3.1989999 8.0559998 -0.48899999 130 114 115
3.197 8.059 -0.498 129 81 41
3.188 8.0500002 -0.52700001 43 14 0
3.194 8.0450001 -0.505 118 75 40
3.1889999 8.0480003 -0.50700003 197 151 101
3.158 8.052 -0.49700001 91 59 38
3.2520001 8.1190004 -0.54500002 58 23 4
3.2520001 8.1199999 -0.55000001 60 27 12
3.2550001 8.1190004 -0.54699999 111 73 54
3.2090001 8.1590004 -0.45100001 102 49 17
3.181 8.1680002 -0.62599999 70 42 20
3.1830001 8.1440001 -0.65700001 130 124 124
3.1819999 8.1490002 -0.65399998 174 172 175
3.1949999 8.1470003 -0.64899999 57 26 0
3.191 8.1470003 -0.653 114 66 44
3.198 8.1479998 -0.63999999 63 37 22
3.1889999 8.1590004 -0.59799999 51 31 20
3.171 8.177 -0.58399999 90 46 17
3.1860001 8.177 -0.58200002 164 121 89
3.2880001 8.1090002 -0.41999999 104 69 50
3.2909999 8.1079998 -0.412 181 138 121
3.2939999 8.1049995 -0.39899999 155 114 94
3.198 8.1630001 -0.426 33 23 13
3.198 8.1639996 -0.428 35 2 0
3.1900001 8.1330004 -0.34999999 137 59 21
3.184 8.1389999 -0.35499999 134 74 46
3.188 8.1370001 -0.35600001 247 175 125
3.312 8.092 -0.36700001 190 145 77
3.2019999 8.1569996 -0.414 126 104 91
3.1949999 8.1470003 -0.375 110 66 41
3.227 8.1780005 -0.35800001 115 61 27
3.2850001 8.1190004 -0.44299999 107 79 65
3.2820001 8.1120005 -0.442 83 38 15
3.289 8.1059999 -0.435 83 48 29
3.2980001 8.1210003 -0.33700001 89 29 1
3.2030001 8.1339998 -0.34200001 98 61 42
3.2249999 8.1389999 -0.33899999 137 70 25
3.2780001 8.1099997 -0.53399998 136 96 61
3.256 8.1190004 -0.57200003 128 78 41
3.2409999 8.1070004 -0.59200001 133 87 54
3.26 8.118 -0.54799998 41 9 0
3.256 8.1230001 -0.56900001 39 24 19
3.2639999 8.1149998 -0.53799999 50 14 0
3.256 8.1239996 -0.56999999 125 93 72
3.2509999 8.1230001 -0.579 60 24 8
3.25 8.1300001 -0.59899998 100 51 21
3.2049999 8.0819998 -0.58899999 41 25 28
3.2079999 8.0909996 -0.59399998 28 0 0
3.2130001 8.0950003 -0.588 61 38 24
3.221 8.1110001 -0.59799999 46 12 3
3.2409999 8.1149998 -0.60500002 119 73 49
3.2479999 8.1169996 -0.597 69 32 13
3.266 8.1160002 -0.491 56 19 3
3.3199999 8.1059999 -0.36700001 194 153 74
3.279 8.1149998 -0.47 27 0 0
3.188 8.0319996 -0.49599999 124 83 55
3.1949999 8.0749998 -0.49599999 88 60 59
3.1949999 8.0839996 -0.491 57 38 32
3.1949999 8.0719995 -0.48300001 74 54 47
3.267 8.1160002 -0.509 89 56 39
3.263 8.125 -0.53399998 129 123 123
3.2690001 8.1090002 -0.53100002 105 74 56
3.303 8.0769997 -0.34799999 191 135 76
3.296 8.0810003 -0.352 155 74 8
3.299 8.0780001 -0.35100001 145 68 14
3.309 8.0810003 -0.36700001 100 57 14
3.224 8.1300001 -0.55199999 59 22 3
3.2249999 8.1610003 -0.51899999 225 178 136
3.224 8.1660004 -0.52200001 200 157 125
3.257 8.1149998 -0.49900001 86 45 25
3.2460001 8.1350002 -0.56 51 14 0
3.2379999 8.1330004 -0.55800003 65 25 0
3.2130001 8.158 -0.53100002 102 69 54
3.2160001 8.165 -0.52600002 30 20 21
3.21 8.1700001 -0.52499998 112 63 67
3.2149999 8.1669998 -0.51999998 59 47 49
3.2060001 8.1949997 -0.57700002 41 24 17
3.201 8.1870003 -0.57200003 196 147 106
3.204 8.1820002 -0.56999999 59 40 44
3.2309999 8.1619997 -0.60500002 41 27 26
3.25 8.1280003 -0.57599998 38 23 16
3.257 8.1160002 -0.52100003 115 100 93
3.2650001 8.1169996 -0.52700001 44 12 0
3.2520001 8.1199999 -0.542 82 47 25
3.2709999 8.1140003 -0.53200001 58 20 0
3.2550001 8.1210003 -0.55800003 83 46 28
3.177 8.0410004 -0.479 196 116 63
3.174 8.1459999 -0.354 219 156 113
3.1789999 8.1420002 -0.35100001 231 167 123
3.1949999 8.1429996 -0.33199999 94 43 0
3.1919999 8.1409998 -0.33399999 214 169 138
3.191 8.1400003 -0.33500001 218 157 92
3.197 8.1370001 -0.338 123 55 8
3.1689999 8.1789999 -0.34999999 83 48 20
3.1849999 8.1639996 -0.329 128 78 25
3.181 8.1409998 -0.361 157 81 21
3.181 8.2060003 -0.60000002 82 34 11
3.1619999 8.059 -0.5 184 140 129
3.283 8.1099997 -0.33700001 102 81 54
3.3210001 8.132 -0.36500001 109 51 29
3.2839999 8.1059999 -0.36399999 137 83 37
3.2820001 8.1199999 -0.359 86 52 42
3.2750001 8.1129999 -0.35600001 86 34 12
3.277 8.1000004 -0.36399999 75 19 4
3.1900001 8.1850004 -0.34900001 121 70 43
3.221 8.1090002 -0.66000003 72 45 34
3.1760001 8.1149998 -0.66299999 171 123 83
3.1830001 8.1049995 -0.66100001 110 61 28
3.174 8.0880003 -0.611 109 61 38
3.1800001 8.0810003 -0.61400002 108 64 39
3.2060001 8.0869999 -0.597 36 8 4
3.191 8.1110001 -0.60600001 95 77 73
3.1949999 8.125 -0.64700001 32 8 0
3.1960001 8.1549997 -0.639 146 136 137
3.197 8.1569996 -0.63200003 45 13 0
3.2390001 8.1239996 -0.61199999 82 34 11
3.2420001 8.1440001 -0.62599999 128 88 63
3.233 8.1260004 -0.62300003 68 37 16
3.247 8.1269999 -0.56900001 70 23 7
3.2479999 8.1459999 -0.67199999 161 128 113
3.188 8.1389999 -0.62199998 152 99 93
3.198 8.1420002 -0.64200002 152 103 86
3.2260001 8.1949997 -0.64200002 75 46 32
3.2290001 8.1780005 -0.64300001 101 82 78
3.171 8.0670004 -0.493 134 82 42
3.1659999 8.0690002 -0.5 97 78 9
3.1689999 8.0649996 -0.48300001 34 8 0
3.174 8.0719995 -0.498 73 42 37
3.1900001 8.0760002 -0.59899998 85 41 12
3.27 8.1169996 -0.50300002 47 7 0
3.177 8.0640001 -0.56699997 155 102 70
3.1819999 8.0649996 -0.56699997 88 51 25
3.1789999 8.0349998 -0.55199999 182 118 70
3.184 8.0380001 -0.56300002 162 127 99
3.1900001 8.0349998 -0.54799998 200 121 65
3.1889999 8.0340004 -0.55000001 104 45 5
3.188 8.0380001 -0.546 127 54 9
3.273 8.1140003 -0.49599999 53 35 25
3.2520001 8.1020002 -0.52600002 141 131 129
3.2539999 8.1219997 -0.759 181 125 88
3.201 8.1059999 -0.708 100 56 29
3.1989999 8.099 -0.68300003 141 96 65
3.2 8.1020002 -0.68599999 147 106 84
3.194 8.1009998 -0.68099999 83 40 24
3.2190001 8.1040001 -0.73500001 59 30 24
3.223 8.1149998 -0.71600002 78 40 21
3.244 8.1280003 -0.77700001 137 120 113
3.2739999 8.1529999 -0.76899999 119 89 65
3.3039999 8.1639996 -0.77700001 186 156 145
3.2909999 8.1709995 -0.77700001 53 4 0
3.233 8.1669998 -0.759 119 88 70
3.2509999 8.1520004 -0.76099998 126 70 45
3.2390001 8.1529999 -0.778 53 29 19
3.2349999 8.1549997 -0.76300001 30 6 0
3.234 8.151 -0.77999997 36 3 0
3.2360001 8.1520004 -0.676 243 185 147
3.211 8.1479998 -0.52999997 113 72 54
3.197 8.2060003 -0.56800002 93 51 29
3.1960001 8.2019997 -0.56599998 107 75 52
3.2 8.2010002 -0.56800002 75 33 9
3.181 8.2130003 -0.58899999 149 98 81
3.1730001 8.1809998 -0.60000002 88 47 25
3.2119999 8.1120005 -0.56800002 100 63 37
3.277 8.1960001 -0.83200002 156 106 55
3.279 8.2030001 -0.84399998 172 155 145
3.296 8.1560001 -0.77499998 154 120 95
3.197 8.1920004 -0.63599998 66 32 20
3.2019999 8.1709995 -0.67900002 47 15 2
3.191 8.0970001 -0.759 155 128 121
3.1949999 8.1000004 -0.75599998 85 25 1
3.2349999 8.1049995 -0.829 134 115 101
3.227 8.1070004 -0.81699997 109 65 62
3.2119999 8.0909996 -0.83700001 37 7 0
3.224 8.0760002 -0.824 166 140 125
3.204 8.0839996 -0.787 146 97 56
3.23 8.1000004 -0.75199997 47 13 4
3.201 8.0939999 -0.75300002 172 146 133
3.2090001 8.1059999 -0.73500001 44 11 0
3.221 8.0970001 -0.759 150 96 72
3.2149999 8.0909996 -0.78399998 81 43 22
3.1919999 8.1300001 -0.75800002 118 77 47
3.197 8.1020002 -0.80400002 161 101 64
3.181 8.1190004 -0.81699997 45 18 9
3.188 8.1949997 -0.639 48 6 0
3.1889999 8.1949997 -0.63700002 150 105 74
3.2309999 8.1639996 -0.60100001 78 50 29
3.227 8.1739998 -0.61000001 51 33 31
3.168 8.1490002 -0.82099998 65 18 0
3.175 8.1470003 -0.81800002 70 18 0
3.221 8.0790005 -0.852 176 159 152
3.174 8.1309996 -0.80199999 148 115 100
3.1800001 8.1350002 -0.801 52 27 22
3.188 8.132 -0.79500002 68 37 16
3.1849999 8.1370001 -0.79799998 53 21 0
3.1800001 8.0939999 -0.64499998 39 2 0
3.187 8.0889997 -0.64899999 115 67 27
3.1900001 8.0830002 -0.64399999 153 106 64
3.187 8.0719995 -0.61900002 154 125 119
3.188 8.0740004 -0.61000001 191 154 128
3.1849999 8.0880003 -0.67799997 74 48 15
3.1730001 8.0769997 -0.67500001 130 88 66
3.187 8.0769997 -0.67299998 23 11 0
3.197 8.158 -0.70700002 35 4 0
3.2019999 8.1599998 -0.70300001 74 63 57
3.1819999 8.1540003 -0.65700001 116 114 93
3.191 8.1569996 -0.676 211 182 166
3.2019999 8.1660004 -0.704 166 104 79
3.1960001 8.1230001 -0.62400001 40 12 0
3.1789999 8.1219997 -0.66100001 109 73 39
3.1889999 8.0909996 -0.76800001 150 104 71
3.2249999 8.0550003 -0.838 78 37 15
3.23 8.0559998 -0.84100002 191 129 92
3.23 8.0489998 -0.84399998 160 95 55
3.244 8.0600004 -0.83600003 145 90 49
3.2409999 8.0620003 -0.83499998 208 143 105
3.2360001 8.0780001 -0.829 154 103 72
3.2650001 8.0570002 -0.85799998 47 11 0
3.2639999 8.0419998 -0.85799998 102 56 33
3.1789999 8.1379995 -0.80199999 54 20 10
3.204 8.1639996 -0.74199998 84 60 36
3.21 8.1560001 -0.73500001 75 43 22
3.1949999 8.0900002 -0.77600002 159 100 68
3.1830001 8.1490002 -0.80299997 148 111 84
3.188 8.1370001 -0.81999999 186 137 122
3.1860001 8.1529999 -0.824 87 49 30
3.197 8.1389999 -0.796 78 53 33
3.191 8.1359997 -0.79500002 75 43 20
3.243 8.0889997 -0.83200002 140 86 48
3.2579999 8.0570002 -0.83899999 49 11 0
3.2490001 8.0550003 -0.84600002 162 117 84
3.25 8.0600004 -0.83700001 144 94 59
3.2479999 8.0620003 -0.83399999 136 66 30
3.247 8.2220001 -0.85699999 28 9 3
3.2709999 8.2110004 -0.83099997 117 85 64
3.2539999 8.1960001 -0.83999997 48 3 0
3.2520001 8.2119999 -0.84500003 87 49 30
3.257 8.2080002 -0.84399998 36 0 0
3.1440001 8.1429996 -0.89399999 112 74 27
3.1849999 8.1040001 -0.90899998 78 44 16
3.2320001 8.1269999 -0.87900001 107 79 58
3.2320001 8.1339998 -0.87900001 59 36 22
3.224 8.1879997 -0.85399997 39 12 3
3.2320001 8.1850004 -0.852 82 41 23
3.223 8.1429996 -0.85100001 26 11 6
3.2179999 8.1269999 -0.84899998 115 61 51
3.2360001 8.1190004 -0.847 108 75 58
3.223 8.1230001 -0.82300001 29 13 13
3.233 8.1400003 -0.84799999 165 146 142
3.224 8.1389999 -0.82499999 99 63 39
3.234 8.0710001 -0.86799997 64 8 0
3.2479999 8.1450005 -0.78200001 71 37 10
3.2620001 8.1459999 -0.78299999 72 36 14
3.2179999 8.151 -0.76899999 77 36 30
3.221 8.1420002 -0.75400001 52 15 9
3.224 8.151 -0.75300002 32 18 18
3.2260001 8.1540003 -0.75599998 111 75 49
3.224 8.1680002 -0.75199997 81 36 15
3.2260001 8.1499996 -0.778 52 10 0
3.2479999 8.1920004 -0.83399999 81 26 0
3.256 8.1879997 -0.83200002 117 79 60
3.2349999 8.1669998 -0.86299998 45 16 2
3.2190001 8.1700001 -0.861 50 11 0
3.227 8.1829996 -0.85500002 34 5 1
3.233 8.1850004 -0.852 49 21 7
3.237 8.1850004 -0.84899998 47 19 8
3.233 8.1820002 -0.83999997 25 0 0
3.2160001 8.1420002 -0.74699998 44 5 0
3.2030001 8.1129999 -0.73500001 171 151 140
3.1960001 8.1070004 -0.76300001 46 27 23
3.1949999 8.1149998 -0.741 56 28 7
3.1960001 8.1239996 -0.736 115 66 36
3.244 8.1520004 -0.852 104 86 84
3.25 8.1549997 -0.84100002 172 109 55
3.3080001 8.1639996 -0.78399998 106 67 68
3.309 8.1569996 -0.79100001 162 117 84
3.2980001 8.1560001 -0.78299999 130 105 108
3.312 8.1560001 -0.79400003 205 159 125
3.312 8.1540003 -0.79000002 232 178 134
3.2869999 8.1389999 -0.78399998 181 166 147
3.28 8.1590004 -0.792 38 18 11
3.2579999 8.0880003 -0.84399998 86 58 47
3.2490001 8.0799999 -0.83600003 141 112 98
3.2460001 8.1269999 -0.86199999 65 16 1
3.1730001 8.1479998 -0.86400002 57 16 0
3.1719999 8.165 -0.85000002 49 16 7
3.1530001 8.1309996 -0.866 186 160 123
3.158 8.1599998 -0.866 139 96 79
3.181 8.0830002 -0.92500001 213 151 94
3.217 8.118 -0.898 99 51 37
3.177 8.0740004 -0.921 244 183 116
3.171 8.1490002 -0.852 52 27 23
3.204 8.0760002 -0.59200001 119 84 62
3.201 8.04 -0.54799998 107 53 19
3.2 8.0579996 -0.54799998 43 13 2
3.198 8.0509996 -0.54699999 53 25 14
3.198 8.0489998 -0.56 63 44 37
3.1889999 8.1470003 -0.33199999 210 132 66
3.1900001 8.1780005 -0.377 128 70 68
3.2060001 8.1829996 -0.36199999 82 41 13
3.2 8.1569996 -0.38999999 193 148 119
3.194 8.1560001 -0.38699999 70 23 0
3.1730001 8.165 -0.35600001 102 64 43
3.1719999 8.1750002 -0.35600001 150 100 63
3.3 8.1689997 -0.78600001 144 99 68
3.2360001 8.1520004 -0.70899999 37 23 12
3.233 8.1529999 -0.71799999 24 13 11
3.23 8.1549997 -0.71100003 76 25 6
3.234 8.1440001 -0.722 112 63 33
3.2309999 8.1440001 -0.72899997 104 70 61
3.237 8.1429996 -0.71600002 26 12 11
3.2119999 8.1850004 -0.71600002 118 62 25
3.2030001 8.191 -0.72500002 54 8 0
3.2390001 8.0439997 -0.85500002 121 97 95
3.2360001 8.0410004 -0.86299998 128 64 36
3.243 8.0419998 -0.86199999 157 82 50
3.256 8.0240002 -0.866 72 15 0
3.234 8.04 -0.866 121 69 45
3.2360001 8.066 -0.83499998 189 134 103
3.2190001 8.1029997 -0.80800003 30 18 18
3.211 8.0880003 -0.77200001 144 80 32
3.2119999 8.0880003 -0.778 138 80 56
3.2460001 8.158 -0.85900003 204 169 149
3.2249999 8.1059999 -0.86199999 91 60 42
3.2609999 8.0539999 -0.87 128 84 59
3.263 8.0500002 -0.861 72 35 17
3.2609999 8.0249996 -0.86500001 140 90 67
3.2609999 8.0299997 -0.86299998 112 77 58
3.263 8.0380001 -0.85900003 142 95 75
3.3050001 8.099 -0.331 75 19 2
3.2060001 8.1610003 -0.48199999 49 34 27
3.1619999 8.1739998 -0.51099998 78 27 0
3.1689999 8.1599998 -0.50800002 77 56 51
3.154 8.1960001 -0.51200002 90 33 4
3.1989999 8.1619997 -0.456 46 8 0
3.2119999 8.1709995 -0.46799999 99 23 0
3.2119999 8.1719999 -0.44999999 110 34 0
3.204 8.1660004 -0.43200001 98 72 59
3.2079999 8.165 -0.44600001 103 62 34
3.211 8.1560001 -0.53299999 113 78 59
3.204 8.151 -0.52399999 127 85 60
3.204 8.1560001 -0.52100003 74 31 12
3.2079999 8.1490002 -0.52600002 136 91 70
3.2030001 8.1630001 -0.43900001 77 46 28
3.198 8.1590004 -0.45199999 84 61 47
3.197 8.1619997 -0.44800001 113 108 102
3.289 8.1049995 -0.421 63 30 15
3.187 8.04 -0.484 178 102 27
3.191 8.0439997 -0.48100001 94 60 35
3.184 8.04 -0.48199999 185 98 27
3.1900001 8.0369997 -0.48699999 95 58 31
3.2149999 8.1120005 -0.90799999 32 12 3
3.174 8.1920004 -0.60399997 44 6 0
3.1670001 8.1899996 -0.59600002 118 70 50
3.2 8.1219997 -0.72600001 173 125 89
3.175 8.073 -0.671 145 100 77
3.201 8.0699997 -0.63700002 115 62 28
3.1700001 8.0740004 -0.67500001 100 60 48
3.2379999 8.1590004 -0.74699998 99 50 20
3.2320001 8.1619997 -0.745 70 33 15
3.204 8.2069998 -0.60600001 49 29 20
3.2 8.2089996 -0.611 65 40 20
3.175 8.1920004 -0.60900003 60 35 28
3.1760001 8.1940002 -0.60699999 51 18 9
3.178 8.1079998 -0.68199998 43 24 10
3.181 8.1210003 -0.676 49 5 0
3.1819999 8.0799999 -0.66799998 159 123 107
3.177 8.0810003 -0.667 69 37 22
3.1900001 8.1289997 -0.69599998 55 27 13
3.1429999 8.1450005 -0.88700002 42 19 13
3.198 8.0670004 -0.50300002 76 43 24
3.184 8.0640001 -0.50800002 77 42 20
3.1789999 8.0530005 -0.52200001 177 139 116
3.175 8.0419998 -0.514 88 46 22
3.175 8.033 -0.50599998 237 202 136
3.177 8.0270004 -0.50400001 135 90 61
3.174 8.0369997 -0.50800002 249 177 129
3.177 8.0509996 -0.52499998 150 114 92
3.178 8.0489998 -0.52100003 163 125 104
3.188 8.0450001 -0.50599998 235 190 122
3.256 8.1169996 -0.54299998 104 62 38
3.198 8.1639996 -0.45100001 133 111 98
3.201 8.1660004 -0.426 68 26 2
3.2049999 8.1569996 -0.435 73 40 21
3.2079999 8.1549997 -0.45500001 86 53 36
3.2049999 8.1560001 -0.47 91 57 45
3.2030001 8.1490002 -0.491 163 115 77
3.1900001 8.1700001 -0.59600002 110 78 57
3.178 8.1700001 -0.62400001 95 75 64
3.1849999 8.1440001 -0.65600002 70 43 32
3.2260001 8.1730003 -0.61400002 49 28 23
3.2260001 8.1820002 -0.61299998 120 101 94
3.1960001 8.1599998 -0.583 106 67 36
3.2920001 8.1040001 -0.41299999 55 16 0
3.2909999 8.1079998 -0.40900001 70 27 11
3.3269999 8.1280003 -0.34999999 75 46 28
3.3210001 8.1260004 -0.34900001 104 46 24
3.1989999 8.1610003 -0.41499999 62 13 0
3.201 8.1660004 -0.42300001 105 58 32
3.2049999 8.1610003 -0.42399999 126 115 119
3.1930001 8.1359997 -0.34299999 228 176 128
3.2130001 8.1239996 -0.354 117 58 18
3.2119999 8.1190004 -0.366 187 127 99
3.217 8.1260004 -0.34900001 100 31 0
3.2320001 8.1199999 -0.352 87 34 2
3.2279999 8.125 -0.34299999 182 145 119
3.28 8.1219997 -0.34900001 116 69 53
3.2720001 8.1120005 -0.34299999 213 172 140
3.2880001 8.1090002 -0.403 61 21 9
3.2149999 8.158 -0.33399999 177 152 130
3.29 8.1110001 -0.447 52 16 2
3.2839999 8.1149998 -0.454 46 13 0
3.283 8.1090002 -0.44400001 115 70 47
3.3269999 8.1079998 -0.36399999 171 125 73
3.3080001 8.132 -0.33899999 116 76 50
3.309 8.1269999 -0.347 142 80 33
3.266 8.1120005 -0.53600001 95 59 33
3.26 8.1140003 -0.537 109 65 36
3.2490001 8.1269999 -0.58899999 142 94 58
3.1989999 8.0760002 -0.58099997 39 20 13
3.198 8.059 -0.55699998 52 33 26
3.2279999 8.0880003 -0.62699997 37 11 0
3.2409999 8.1140003 -0.597 95 49 23
3.323 8.085 -0.359 137 85 38
3.277 8.1160002 -0.47400001 36 1 0
3.184 8.0310001 -0.50700003 104 62 12
3.187 8.0410004 -0.505 237 200 122
3.1830001 8.0389996 -0.50700003 154 117 47
3.198 8.0839996 -0.49200001 253 244 187
3.2019999 8.092 -0.48699999 91 47 10
3.2980001 8.0819998 -0.34 141 61 0
3.224 8.158 -0.49700001 123 77 61
3.2190001 8.1560001 -0.50400001 32 7 3
3.2090001 8.1479998 -0.50199997 86 53 44
3.21 8.1630001 -0.528 23 8 5
3.1789999 8.1920004 -0.52999997 90 74 75
3.1819999 8.1879997 -0.52999997 47 31 32
3.178 8.1940002 -0.53100002 50 23 14
3.177 8.198 -0.51999998 138 122 122
3.201 8.1610003 -0.52399999 185 144 112
3.2390001 8.1169996 -0.58700001 67 34 15
3.2460001 8.1260004 -0.574 46 9 0
3.2479999 8.1269999 -0.57800001 124 77 57
3.2249999 8.1529999 -0.60799998 38 22 22
3.2290001 8.1529999 -0.61299998 151 105 107
3.23 8.125 -0.55500001 56 14 0
3.23 8.1269999 -0.55500001 79 36 19
3.2590001 8.1190004 -0.53100002 61 23 4
3.214 8.1479998 -0.51300001 87 37 10
3.2679999 8.1169996 -0.50800002 47 13 1
3.191 8.1420002 -0.33399999 163 103 41
3.1900001 8.165 -0.329 125 43 5
3.1800001 8.1470003 -0.36300001 107 42 4
3.177 8.198 -0.60399997 43 10 3
3.1700001 8.1920004 -0.597 71 19 0
3.165 8.2060003 -0.51599997 149 103 79
3.164 8.2069998 -0.52600002 67 21 0
3.148 8.2089996 -0.53399998 52 5 0
3.1619999 8.059 -0.505 74 26 4
3.28 8.1129999 -0.33899999 124 56 17
3.2750001 8.0970001 -0.36300001 104 66 55
3.2780001 8.1020002 -0.34400001 211 162 119
3.29 8.0909996 -0.336 74 18 0
3.211 8.1000004 -0.66600001 51 32 28
3.21 8.1040001 -0.67400002 204 142 105
3.21 8.0970001 -0.67199999 27 10 2
3.211 8.099 -0.66600001 216 159 129
3.233 8.0950003 -0.69 40 16 14
3.227 8.0950003 -0.69599998 87 41 25
3.227 8.0950003 -0.69400001 99 53 37
3.1960001 8.1090002 -0.64300001 46 25 22
3.207 8.092 -0.671 116 65 36
3.194 8.0780001 -0.634 93 47 23
3.2049999 8.0869999 -0.58700001 28 17 13
3.2090001 8.0930004 -0.61299998 41 23 19
3.2 8.092 -0.60100001 39 18 15
3.1849999 8.0939999 -0.60900003 59 32 23
3.175 8.1099997 -0.61900002 39 14 9
3.1919999 8.1070004 -0.62699997 78 36 11
3.191 8.1049995 -0.625 40 20 11
3.237 8.1230001 -0.62099999 151 112 113
3.2420001 8.1239996 -0.60799998 155 103 79
3.2420001 8.1459999 -0.63 170 125 102
3.234 8.1470003 -0.60000002 50 34 34
3.23 8.1429996 -0.58999997 58 25 18
3.2420001 8.1359997 -0.59899998 143 126 119
3.1830001 8.1549997 -0.61900002 58 21 3
3.217 8.1350002 -0.58499998 104 79 74
3.1849999 8.0699997 -0.48899999 149 96 65
3.194 8.0559998 -0.53799999 43 25 25
3.1670001 8.0360003 -0.505 187 131 96
3.191 8.0690002 -0.59399998 73 36 9
3.1919999 8.0670004 -0.59600002 77 33 4
3.194 8.0620003 -0.58899999 86 52 27
3.1949999 8.0710001 -0.58200002 102 66 44
3.187 8.0600004 -0.57200003 62 33 15
3.1789999 8.0489998 -0.55500001 84 51 36
3.188 8.0509996 -0.56900001 149 96 46
3.1830001 8.0600004 -0.56599998 53 10 1
3.1900001 8.073 -0.57200003 47 29 27
3.1960001 8.0550003 -0.57300001 103 67 43
3.184 8.04 -0.54400003 81 34 8
3.188 8.0389996 -0.56599998 149 92 37
3.188 8.0340004 -0.54699999 253 199 161
3.1960001 8.0699997 -0.58600003 48 41 25
3.277 8.1409998 -0.76700002 100 68 45
3.266 8.1379995 -0.77100003 120 88 67
3.2590001 8.1479998 -0.76099998 104 70 43
3.2460001 8.1289997 -0.74800003 181 162 155
3.2079999 8.0970001 -0.67900002 101 53 33
3.21 8.099 -0.68300003 81 31 8
3.198 8.092 -0.68000001 117 94 78
3.217 8.0629997 -0.63 134 80 54
3.2149999 8.0620003 -0.63 114 58 31
3.221 8.0600004 -0.62800002 140 93 67
3.198 8.0760002 -0.64300001 120 68 31
3.198 8.0830002 -0.66600001 77 51 36
3.204 8.0690002 -0.63700002 122 69 37
3.217 8.0950003 -0.69499999 139 97 75
3.2060001 8.1020002 -0.70300001 150 100 73
3.227 8.1040001 -0.68900001 126 61 23
3.1760001 8.1009998 -0.67000002 59 23 0
3.3080001 8.1610003 -0.778 180 155 148
3.2290001 8.165 -0.75599998 86 43 26
3.2360001 8.1520004 -0.67299998 154 99 58
3.2190001 8.1479998 -0.55299997 112 71 77
3.1689999 8.2119999 -0.53899997 117 97 98
3.1700001 8.2069998 -0.54400003 55 35 24
3.1670001 8.2069998 -0.52999997 60 17 0
3.175 8.1969995 -0.59200001 54 17 8
3.171 8.1929998 -0.58999997 50 13 0
3.1689999 8.1920004 -0.59399998 68 15 0
3.177 8.2040005 -0.59200001 34 0 0
3.177 8.2019997 -0.588 45 23 9
3.171 8.1960001 -0.537 163 112 111
3.1600001 8.1750002 -0.59899998 80 53 42
3.266 8.1929998 -0.829 168 122 70
3.198 8.1960001 -0.62400001 41 6 2
3.1989999 8.2060003 -0.61199999 64 16 6
3.1989999 8.191 -0.64099997 33 0 0
3.223 8.1639996 -0.727 43 22 17
3.2260001 8.1689997 -0.70999998 42 20 9
3.237 8.1429996 -0.74199998 42 24 22
3.191 8.0959997 -0.75599998 108 44 8
3.188 8.1520004 -0.81599998 30 5 0
3.24 8.1009998 -0.82599998 164 104 70
3.21 8.0790005 -0.83899999 51 5 0
3.178 8.1470003 -0.83700001 63 15 0
3.2079999 8.0900002 -0.80000001 235 175 138
3.21 8.1000004 -0.74599999 124 94 83
3.2149999 8.1000004 -0.74699998 52 22 11
3.191 8.1210003 -0.76800001 76 33 1
3.1900001 8.1239996 -0.76599997 85 50 22
3.221 8.158 -0.62900001 115 95 86
3.23 8.1680002 -0.639 211 164 136
3.1659999 8.1540003 -0.82999998 144 85 41
3.175 8.1389999 -0.80500001 44 10 1
3.1800001 8.0979996 -0.64300001 44 3 0
3.1849999 8.092 -0.61900002 85 58 39
3.1949999 8.0830002 -0.64899999 180 128 89
3.204 8.0679998 -0.62800002 82 37 8
3.217 8.0950003 -0.63999999 37 13 3
3.1849999 8.0930004 -0.67900002 64 35 17
3.177 8.0780001 -0.67400002 52 30 19
3.217 8.1759996 -0.63999999 90 54 40
3.214 8.1639996 -0.63599998 43 25 21
3.2260001 8.165 -0.639 181 141 116
3.2090001 8.1719999 -0.67799997 44 21 15
3.1930001 8.1000004 -0.74800003 94 46 26
3.21 8.1009998 -0.611 78 29 0
3.224 8.0670004 -0.86199999 54 24 13
3.2309999 8.0480003 -0.84600002 184 122 85
3.2409999 8.0830002 -0.83099997 122 109 116
3.2650001 8.0530005 -0.86000001 43 10 0
3.2190001 8.1739998 -0.74900001 185 148 130
3.1989999 8.085 -0.78200001 52 23 19
3.1919999 8.0889997 -0.76999998 146 93 53
3.2090001 8.0880003 -0.77899998 148 85 54
3.1960001 8.1300001 -0.792 44 11 0
3.1989999 8.1239996 -0.77399999 68 48 47
3.2 8.1230001 -0.77700001 158 147 145
3.2 8.1219997 -0.78299999 96 59 33
3.25 8.0649996 -0.83200002 91 39 17
3.256 8.0620003 -0.83899999 75 39 25
3.2639999 8.0670004 -0.84200001 176 117 85
3.2460001 8.2069998 -0.84200001 40 7 0
3.2690001 8.2010002 -0.83200002 245 223 199
3.257 8.2060003 -0.84399998 43 4 0
3.1849999 8.0979996 -0.91299999 188 153 134
3.256 8.1590004 -0.85799998 118 77 59
3.23 8.2130003 -0.83999997 29 2 0
3.234 8.1160002 -0.84299999 73 44 36
3.2409999 8.1569996 -0.84299999 110 49 0
3.221 8.1470003 -0.84799999 167 113 69
3.2290001 8.1450005 -0.85000002 162 106 73
3.23 8.1499996 -0.85000002 153 96 51
3.2160001 8.1160002 -0.88700002 130 120 119
3.2160001 8.1409998 -0.77700001 29 1 0
3.256 8.1899996 -0.829 215 174 154
3.2149999 8.1780005 -0.74199998 186 152 143
3.237 8.1859999 -0.85900003 58 19 2
3.2260001 8.1859999 -0.84299999 193 164 156
3.2509999 8.2040005 -0.84500003 73 58 61
3.2290001 8.1850004 -0.847 188 158 147
3.201 8.1099997 -0.73799998 163 148 143
3.2360001 8.1590004 -0.84100002 137 115 104
3.3110001 8.151 -0.78600001 54 37 30
3.276 8.1590004 -0.79699999 159 147 135
3.279 8.151 -0.79000002 187 175 149
3.276 8.2019997 -0.85299999 170 139 119
3.279 8.2010002 -0.847 76 30 15
3.1670001 8.1680002 -0.87800002 62 43 36
3.1659999 8.1610003 -0.87400001 150 106 81
3.1470001 8.1470003 -0.861 251 231 181
3.1789999 8.085 -0.91100001 122 90 52
3.198 8.0699997 -0.59100002 145 110 88
3.1949999 8.0699997 -0.602 98 58 33
3.1949999 8.0439997 -0.55900002 129 93 67
3.2049999 8.1859999 -0.34799999 82 30 6
3.1989999 8.158 -0.38699999 150 99 68
3.211 8.151 -0.37599999 139 86 46
3.2 8.1309996 -0.37 243 219 185
3.2030001 8.1499996 -0.377 86 56 30
3.2130001 8.1219997 -0.36399999 131 74 45
3.2130001 8.1420002 -0.36899999 148 98 65
3.2160001 8.1339998 -0.36300001 147 92 53
3.1900001 8.1669998 -0.37599999 190 109 44
3.181 8.1630001 -0.36399999 63 31 10
3.1700001 8.1800003 -0.359 101 69 58
3.234 8.1370001 -0.72899997 74 42 17
3.2090001 8.1929998 -0.72500002 68 12 0
3.2219999 8.0559998 -0.866 79 69 68
3.2279999 8.052 -0.85399997 197 149 127
3.2290001 8.0469999 -0.85500002 99 51 28
3.2379999 8.0369997 -0.86699998 146 86 58
3.2390001 8.066 -0.83499998 154 88 54
3.2090001 8.0869999 -0.77499998 108 45 10
3.227 8.1099997 -0.86699998 109 55 43
3.2190001 8.1009998 -0.84500003 46 18 7
3.2590001 8.0349998 -0.861 122 66 39
3.2550001 8.033 -0.86400002 143 77 43
3.244 8.0530005 -0.84600002 169 104 64
3.243 8.0550003 -0.84399998 182 108 61
3.3169999 8.118 -0.36300001 186 158 137
3.303 8.1280003 -0.36700001 138 103 83
3.2079999 8.1549997 -0.48199999 73 37 21
3.2049999 8.1459999 -0.49200001 35 6 0
3.155 8.1940002 -0.51200002 131 84 54
3.178 8.1750002 -0.51499999 127 101 102
3.174 8.2040005 -0.52399999 166 113 82
3.1570001 8.1920004 -0.55299997 117 77 52
3.155 8.1929998 -0.55299997 63 18 0
3.151 8.184 -0.54100001 119 81 45
3.158 8.191 -0.55699998 192 141 112
3.2019999 8.165 -0.55900002 224 188 162
3.1630001 8.1850004 -0.54500002 241 199 161
3.1659999 8.1899996 -0.56300002 143 86 57
3.1659999 8.1940002 -0.56300002 58 22 6
3.1619999 8.177 -0.537 168 131 104
3.1719999 8.177 -0.53500003 147 101 51
3.2079999 8.1499996 -0.52899998 103 60 43
3.2060001 8.1540003 -0.51800001 121 107 106
3.152 8.2010002 -0.51499999 61 31 0
3.188 8.066 -0.48300001 33 9 0
3.2850001 8.1099997 -0.43599999 129 92 73
3.1789999 8.0559998 -0.47499999 119 92 73
3.1760001 8.059 -0.479 242 173 95
3.1760001 8.052 -0.47400001 76 22 0
3.181 8.0430002 -0.479 165 96 31
3.1830001 8.04 -0.48100001 76 29 3
3.204 8.191 -0.74299997 54 14 4
3.2060001 8.1920004 -0.74699998 50 11 6
3.21 8.191 -0.755 178 164 161
3.165 8.0710001 -0.67500001 73 40 33
3.1670001 8.073 -0.67500001 67 30 21
3.2019999 8.1689997 -0.70499998 45 25 14
3.1719999 8.1899996 -0.60799998 119 73 39
3.207 8.1929998 -0.59299999 56 38 36
3.201 8.1859999 -0.59799999 34 18 18
3.201 8.1850004 -0.60799998 68 36 21
3.201 8.059 -0.48699999 124 79 48
3.1789999 8.0620003 -0.51099998 146 115 95
3.1789999 8.0369997 -0.50800002 187 129 92
3.1849999 8.0500002 -0.523 69 38 18
3.1849999 8.0530005 -0.52499998 67 32 10
3.21 8.1639996 -0.50800002 118 76 52
3.214 8.1590004 -0.49599999 53 10 1
3.2090001 8.158 -0.498 31 3 0
3.2090001 8.158 -0.495 37 4 0
3.22 8.1610003 -0.49900001 90 49 27
3.2030001 8.1590004 -0.44999999 146 132 129
3.204 8.1590004 -0.44600001 78 43 24
3.2049999 8.1610003 -0.47 41 7 0
3.2119999 8.1409998 -0.59500003 47 13 4
