ply
format ascii 1.0
comment PCL generated
element vertex 771
property float x
property float y
property float z
property uchar red
property uchar green
property uchar blue
element camera 1
property float view_px
property float view_py
property float view_pz
property float x_axisx
property float x_axisy
property float x_axisz
property float y_axisx
property float y_axisy
property float y_axisz
property float z_axisx
property float z_axisy
property float z_axisz
property float focal
property float scalex
property float scaley
property float centerx
property float centery
property int viewportx
property int viewporty
property float k1
property float k2
end_header
-3.8659999 10.281 -0.73299998 124 84 49
-3.8610001 10.301 -0.73400003 119 105 102
-3.8740001 10.285 -0.72799999 228 155 61
-3.8640001 10.292 -0.73400003 173 136 107
-3.937 10.289 -0.773 54 31 13
-3.944 10.293 -0.778 137 91 57
-3.9419999 10.291 -0.76999998 158 87 43
-3.8540001 10.289 -0.741 150 84 23
-3.8670001 10.276 -0.75400001 207 125 41
-3.869 10.271 -0.74599999 129 86 41
-3.8800001 10.268 -0.755 252 220 169
-3.9349999 10.327 -0.75599998 110 59 32
-3.944 10.334 -0.76899999 86 40 6
-3.937 10.339 -0.77399999 210 144 92
-3.9319999 10.326 -0.75800002 201 138 95
-3.878 10.229 -0.95200002 158 136 125
-3.885 10.228 -0.95499998 86 23 0
-3.8759999 10.224 -0.96600002 178 104 55
-3.878 10.233 -0.94300002 254 162 95
-3.8710001 10.233 -0.94800001 213 111 49
-3.875 10.232 -0.94800001 196 94 22
-3.888 10.238 -1.066 216 123 17
-3.892 10.243 -1.079 240 154 53
-3.895 10.245 -1.0779999 155 111 86
-3.8929999 10.243 -1.074 244 157 52
-3.892 10.242 -1.0549999 162 118 69
-3.8069999 10.279 -0.88 73 45 21
-3.8039999 10.283 -0.88599998 43 23 14
-3.7939999 10.288 -0.86299998 99 68 48
-3.7969999 10.288 -0.86900002 115 88 71
-3.8670001 10.291 -0.73299998 229 148 56
-3.9330001 10.295 -0.75700003 135 87 49
-3.9400001 10.3 -0.755 124 85 56
-3.9489999 10.305 -0.76999998 150 114 82
-3.957 10.31 -0.77200001 213 142 50
-3.869 10.276 -0.73900002 146 107 68
-3.872 10.279 -0.73299998 228 164 58
-3.8659999 10.281 -0.73799998 125 73 25
-3.881 10.272 -0.73400003 236 146 68
-3.8759999 10.27 -0.74800003 185 93 18
-3.875 10.272 -0.745 223 192 148
-3.8840001 10.272 -0.74400002 251 221 169
-3.898 10.274 -0.74199998 151 120 92
-3.918 10.336 -0.77100003 90 39 10
-3.8710001 10.306 -0.72899997 193 112 47
-3.862 10.307 -0.73299998 164 83 18
-3.9230001 10.327 -0.76599997 161 87 52
-3.891 10.234 -0.95499998 251 150 58
-3.8889999 10.247 -0.94700003 249 140 35
-3.8110001 10.273 -0.88300002 216 166 129
-3.7980001 10.296 -0.86400002 216 174 126
-3.8150001 10.305 -0.85699999 97 61 35
-3.806 10.305 -0.866 170 100 40
-3.869 10.234 -1.058 236 143 66
-3.855 10.233 -1.0470001 192 164 150
-3.868 10.24 -1.0369999 240 149 60
-3.8929999 10.244 -1.066 156 111 88
-3.813 10.311 -0.86799997 227 153 66
-3.8080001 10.31 -0.875 114 97 89
-3.8740001 10.296 -0.81199998 78 31 5
-3.8759999 10.292 -0.81699997 186 120 59
-3.8829999 10.294 -0.81900001 146 79 34
-3.8729999 10.296 -0.81699997 90 37 5
-3.878 10.295 -0.81900001 162 83 4
-3.8840001 10.27 -0.75599998 255 199 146
-3.882 10.282 -0.76599997 97 45 21
-3.8889999 10.277 -0.759 255 218 151
-3.869 10.294 -0.73299998 245 169 81
-3.8699999 10.284 -0.73199999 254 198 87
-3.865 10.283 -0.75400001 187 96 17
-3.8640001 10.282 -0.74699998 240 155 65
-3.8989999 10.274 -0.75199997 166 123 78
-3.868 10.276 -0.74699998 241 162 67
-3.9549999 10.321 -0.778 124 77 61
-3.9560001 10.323 -0.76999998 120 70 37
-3.954 10.32 -0.76200002 139 92 48
-3.9460001 10.324 -0.75700003 143 97 64
-3.947 10.328 -0.76499999 130 71 37
-3.8929999 10.275 -0.73900002 247 160 44
-3.8859999 10.273 -0.73799998 158 107 62
-3.8269999 10.231 -1.0599999 228 112 27
-3.8329999 10.241 -1.0549999 180 69 0
-3.826 10.231 -1.067 223 106 26
-3.832 10.236 -1.059 161 67 13
-3.8299999 10.233 -1.054 202 93 2
-3.836 10.224 -1.062 116 81 53
-3.9059999 10.276 -1.01 131 97 69
-3.8940001 10.265 -1.029 219 187 149
-3.911 10.278 -1.02 245 157 83
-3.8929999 10.264 -1.008 175 140 110
-3.8670001 10.244 -0.94800001 146 110 84
-3.8659999 10.243 -0.95499998 191 120 66
-3.9000001 10.263 -0.99400002 145 117 96
-3.881 10.29 -0.89600003 150 83 38
-3.8870001 10.292 -0.89899999 190 145 122
-3.8770001 10.287 -0.91000003 177 97 34
-3.8329999 10.281 -0.86299998 159 98 53
-3.8280001 10.284 -0.85900003 201 145 96
-3.819 10.274 -0.86299998 140 79 34
-3.8740001 10.293 -0.82599998 188 102 17
-3.835 10.245 -1.044 240 215 195
-3.8340001 10.256 -1.046 174 151 137
-3.835 10.242 -1.048 217 111 25
-3.891 10.242 -1.062 252 155 48
-3.885 10.257 -1.08 170 61 0
-3.885 10.262 -1.068 209 178 160
-3.885 10.249 -1.073 240 130 45
-3.882 10.267 -1.064 247 206 178
-3.881 10.265 -1.073 156 120 88
-3.9200001 10.316 -0.90499997 138 83 76
-3.928 10.312 -0.90499997 142 77 23
-3.9260001 10.318 -0.90200001 215 128 61
-3.8369999 10.292 -0.87900001 227 140 60
-3.8269999 10.283 -0.87300003 168 108 54
-3.8629999 10.308 -0.745 169 133 109
-3.8729999 10.308 -0.74199998 211 124 47
-3.8889999 10.272 -0.74699998 201 154 86
-3.878 10.228 -0.958 172 150 139
-3.8840001 10.227 -0.96600002 152 130 116
-3.799 10.295 -0.87800002 93 60 41
-3.8080001 10.289 -0.89099997 116 98 88
-3.803 10.301 -0.88200003 75 66 51
-3.8840001 10.273 -0.73900002 190 103 24
-3.8729999 10.282 -0.73000002 169 104 46
-3.8640001 10.283 -0.73699999 131 95 61
-3.8659999 10.29 -0.75700003 139 136 143
-3.8080001 10.288 -0.85799998 142 111 91
-3.8180001 10.303 -0.85600001 247 200 148
-3.813 10.281 -0.866 240 142 43
-3.8180001 10.286 -0.86199999 211 167 142
-3.8169999 10.295 -0.86000001 213 157 98
-3.869 10.306 -0.73400003 237 151 76
-3.914 10.287 -0.83600003 169 122 78
-3.918 10.292 -0.82999998 156 115 87
-3.9189999 10.276 -0.84100002 106 60 27
-3.9189999 10.336 -0.866 80 28 6
-3.911 10.338 -0.88700002 136 109 100
-3.931 10.337 -0.87300003 161 105 58
-3.918 10.337 -0.87800002 153 108 75
-3.8150001 10.309 -0.86299998 146 78 29
-3.902 10.277 -0.74599999 243 144 40
-3.8970001 10.275 -0.755 120 57 24
-3.9419999 10.321 -0.75700003 222 158 120
-3.8740001 10.275 -0.73799998 243 163 68
-3.8640001 10.282 -0.74000001 255 186 93
-3.872 10.274 -0.74199998 217 132 42
-3.9170001 10.303 -0.75099999 203 155 115
-3.882 10.296 -0.77100003 163 74 16
-3.836 10.249 -1.0599999 155 80 12
-3.836 10.225 -1.075 230 118 42
-3.8380001 10.227 -1.081 205 97 25
-3.835 10.233 -1.075 194 155 114
-3.9530001 10.317 -0.77700001 101 45 10
-3.954 10.326 -0.77200001 139 77 36
-3.9579999 10.33 -0.79000002 93 42 11
-3.911 10.3 -0.82499999 139 59 6
-3.925 10.293 -0.82700002 127 93 66
-3.9089999 10.297 -0.83099997 71 29 7
-3.8970001 10.3 -0.82700002 181 104 50
-3.9360001 10.293 -0.77499998 136 95 63
-3.9219999 10.299 -0.778 221 129 64
-3.8870001 10.252 -1.063 233 158 91
-3.891 10.248 -1.048 194 95 12
-3.8900001 10.248 -1.0420001 153 59 0
-3.891 10.259 -1.035 242 206 158
-3.8889999 10.255 -1.041 227 182 127
-3.8889999 10.254 -1.0319999 202 123 20
-3.911 10.278 -1.025 235 146 66
-3.8900001 10.259 -1.027 148 77 33
-3.882 10.283 -1.039 170 88 38
-3.878 10.292 -1.039 220 143 71
-3.885 10.284 -1.0190001 178 82 21
-3.878 10.275 -0.93900001 144 69 14
-3.8710001 10.274 -0.93000001 140 113 94
-3.8789999 10.282 -0.92199999 116 89 70
-3.881 10.254 -0.93800002 148 87 32
-3.881 10.263 -0.94499999 194 166 154
-3.9159999 10.289 -0.85000002 162 114 68
-3.915 10.281 -0.84500003 247 189 107
-3.931 10.314 -0.88700002 199 162 135
-3.931 10.324 -0.88700002 139 82 39
-3.9389999 10.311 -0.88099998 73 17 0
-3.9289999 10.333 -0.87900001 90 45 12
-3.901 10.274 -0.995 111 45 11
-3.872 10.287 -0.91799998 58 40 26
-3.8710001 10.286 -0.92199999 101 72 56
-3.8800001 10.287 -0.917 178 96 38
-3.862 10.275 -0.93000001 136 90 56
-3.8900001 10.299 -0.90899998 183 110 59
-3.8900001 10.245 -0.958 147 93 57
-3.8940001 10.255 -0.99199998 108 39 0
-3.8900001 10.257 -0.99900001 138 106 81
-3.898 10.262 -0.98799998 193 131 84
-3.8989999 10.266 -0.97799999 125 70 31
-3.8889999 10.247 -0.97799999 160 75 11
-3.9089999 10.277 -0.98000002 164 126 107
-3.885 10.289 -0.91900003 191 107 47
-3.8670001 10.293 -0.92500001 157 81 29
-3.852 10.283 -0.93599999 113 70 27
-3.8829999 10.292 -0.90200001 163 93 44
-3.822 10.28 -0.87300003 169 68 0
-3.8770001 10.292 -0.82200003 193 128 64
-3.8740001 10.296 -0.82700002 100 36 1
-3.845 10.254 -1.051 193 123 54
-3.8429999 10.245 -1.063 114 36 0
-3.8469999 10.244 -1.058 164 94 32
-3.8499999 10.254 -1.05 147 67 14
-3.8469999 10.237 -1.0470001 174 74 0
-3.8399999 10.236 -1.049 227 128 27
-3.839 10.238 -1.0470001 164 111 77
-3.8410001 10.239 -1.046 151 58 0
-3.8410001 10.234 -1.051 183 85 14
-3.8369999 10.225 -1.0700001 204 88 15
-3.836 10.224 -1.0650001 209 88 15
-3.882 10.293 -1.056 200 120 57
-3.8870001 10.277 -1.044 117 67 40
-3.8699999 10.24 -1.043 247 151 64
-3.8759999 10.247 -1.045 241 135 51
-3.881 10.245 -1.056 241 136 45
-3.881 10.26 -1.08 160 45 0
-3.8800001 10.259 -1.075 216 95 26
-3.8870001 10.244 -1.073 228 128 30
-3.8789999 10.286 -1.0549999 143 64 7
-3.918 10.32 -0.90200001 83 56 49
-3.835 10.296 -0.92900002 118 47 1
-3.842 10.299 -0.94099998 98 36 0
-3.8429999 10.299 -0.93599999 100 32 0
-3.8399999 10.293 -0.94800001 104 72 61
-3.812 10.298 -0.88099998 143 109 84
-3.882 10.272 -0.75599998 155 111 74
-3.8770001 10.238 -0.94400001 238 147 77
-3.8699999 10.231 -0.95700002 165 92 39
-3.8659999 10.238 -0.96200001 185 83 17
-3.8139999 10.282 -0.884 167 84 16
-3.806 10.304 -0.87800002 154 132 121
-3.8069999 10.281 -0.875 208 158 121
-3.813 10.281 -0.87099999 206 108 17
-3.8039999 10.288 -0.88 156 68 0
-3.8080001 10.297 -0.86400002 180 133 107
-3.8629999 10.289 -0.75400001 148 49 0
-3.8889999 10.277 -0.736 167 115 55
-3.892 10.28 -0.73500001 206 132 11
-3.8710001 10.306 -0.73400003 139 55 0
-3.901 10.303 -0.82599998 136 119 112
-3.9100001 10.304 -0.824 108 68 43
-3.9189999 10.293 -0.83600003 164 66 1
-3.931 10.297 -0.83200002 145 92 52
-3.8989999 10.284 -0.73699999 178 132 80
-3.8970001 10.274 -0.74299997 164 128 92
-3.872 10.276 -0.75599998 176 122 75
-3.9189999 10.296 -0.75599998 215 101 12
-3.9100001 10.299 -0.74599999 166 135 106
-3.9130001 10.293 -0.75300002 112 70 30
-3.928 10.309 -0.75599998 185 149 115
-3.927 10.322 -0.76099998 226 140 67
-3.901 10.291 -0.76499999 212 152 100
-3.8380001 10.252 -1.044 252 199 149
-3.835 10.257 -1.051 234 162 86
-3.8410001 10.244 -1.064 169 57 0
-3.9219999 10.336 -0.86699998 199 126 81
-3.9530001 10.336 -0.78899997 147 91 44
-3.927 10.331 -0.866 130 66 22
-3.934 10.308 -0.838 156 111 69
-3.931 10.312 -0.82999998 173 138 100
-3.928 10.306 -0.82800001 186 101 10
-3.9419999 10.319 -0.78500003 148 94 56
-3.914 10.297 -0.77399999 90 40 3
-3.9159999 10.294 -0.76800001 156 97 65
-3.924 10.295 -0.77399999 120 67 23
-3.947 10.306 -0.778 164 118 85
-3.944 10.312 -0.75700003 163 135 111
-3.948 10.314 -0.75999999 127 95 72
-3.881 10.283 -0.72899997 250 173 83
-3.878 10.293 -0.72899997 214 138 50
-3.8829999 10.278 -0.73299998 214 152 29
-3.888 10.281 -0.73000002 246 157 73
-3.8840001 10.284 -0.73000002 234 209 155
-3.888 10.26 -1.054 154 113 85
-3.8889999 10.247 -1.052 210 111 17
-3.885 10.252 -1.0319999 241 169 67
-3.878 10.249 -1.035 248 173 72
-3.8870001 10.259 -1.023 185 96 4
-3.8310001 10.23 -1.058 228 125 56
-3.8369999 10.226 -1.0599999 209 83 9
-3.905 10.287 -1.006 236 158 60
-3.888 10.29 -0.99199998 122 29 0
-3.902 10.281 -0.99299997 160 63 0
-3.8789999 10.298 -1.003 168 82 23
-3.8870001 10.301 -0.99000001 136 111 104
-3.901 10.283 -1.0140001 131 87 62
-3.898 10.286 -0.977 176 68 4
-3.8859999 10.302 -0.98299998 189 85 14
-3.8829999 10.294 -1.062 195 120 65
-3.878 10.297 -1.061 207 133 70
-3.9189999 10.3 -0.86799997 158 105 71
-3.9319999 10.301 -0.86400002 250 204 155
-3.931 10.302 -0.86900002 188 151 124
-3.9300001 10.323 -0.86299998 176 137 106
-3.9300001 10.32 -0.85799998 63 40 22
-3.9319999 10.325 -0.88200003 187 156 136
-3.928 10.328 -0.88300002 151 80 24
-3.9260001 10.323 -0.88800001 66 34 19
-3.915 10.317 -0.88599998 67 41 18
-3.9170001 10.315 -0.89899999 57 31 18
-3.927 10.317 -0.89200002 116 52 6
-3.8959999 10.285 -0.97000003 130 86 61
-3.904 10.275 -0.98000002 204 138 80
-3.8429999 10.286 -0.93000001 105 64 34
-3.842 10.289 -0.926 180 146 118
-3.842 10.282 -0.91299999 150 118 97
-3.8900001 10.293 -0.91500002 127 96 78
-3.881 10.234 -0.94700003 107 74 57
-3.881 10.243 -0.94700003 186 165 144
-3.865 10.249 -0.94400001 239 167 109
-3.865 10.251 -0.954 106 73 54
-3.888 10.242 -0.96399999 137 70 28
-3.881 10.236 -0.96700001 182 160 149
-3.8889999 10.24 -0.95499998 162 93 51
-3.881 10.297 -0.94400001 158 75 23
-3.895 10.284 -0.95499998 247 152 58
-3.8959999 10.285 -0.94999999 250 160 74
-3.882 10.298 -0.93900001 205 124 71
-3.872 10.29 -0.926 171 91 38
-3.915 10.299 -0.91799998 215 124 69
-3.915 10.298 -0.92299998 158 131 114
-3.9089999 10.306 -0.926 137 74 30
-3.9170001 10.293 -0.917 172 85 42
-3.8429999 10.293 -0.949 196 131 75
-3.846 10.287 -0.96499997 105 58 30
-3.845 10.29 -0.95200002 95 44 17
-3.859 10.29 -0.94400001 175 86 28
-3.845 10.295 -0.94199997 123 54 12
-3.8510001 10.291 -0.93699998 202 122 73
-3.885 10.261 -0.94499999 172 92 31
-3.8840001 10.277 -0.94599998 142 90 53
-3.8180001 10.277 -0.87199998 63 44 40
-3.8180001 10.278 -0.87400001 200 101 7
-3.822 10.284 -0.88099998 219 126 46
-3.915 10.279 -0.84100002 214 159 118
-3.8789999 10.236 -0.97000003 151 51 0
-3.872 10.241 -0.97000003 180 83 14
-3.8870001 10.249 -0.99000001 163 135 114
-3.8889999 10.255 -0.99599999 141 68 35
-3.8800001 10.282 -1.023 229 136 79
-3.8789999 10.281 -1.028 181 91 41
-3.878 10.292 -1.05 150 72 6
-3.8740001 10.29 -1.044 196 117 48
-3.8770001 10.286 -1.049 125 45 0
-3.862 10.236 -1.0470001 161 141 132
-3.855 10.234 -1.0599999 204 103 23
-3.8729999 10.241 -1.0549999 253 161 50
-3.8759999 10.247 -1.071 254 139 59
-3.8640001 10.248 -1.054 228 107 36
-3.8629999 10.237 -1.0599999 243 141 33
-3.8729999 10.264 -1.0599999 124 74 39
-3.872 10.259 -1.056 114 88 73
-3.865 10.263 -1.052 193 145 105
-3.8829999 10.288 -1.062 127 51 2
-3.9089999 10.307 -0.91600001 61 34 27
-3.895 10.295 -0.912 89 59 49
-3.918 10.303 -0.90399998 159 121 100
-3.9100001 10.303 -0.91600001 209 225 118
-3.924 10.307 -0.88800001 99 67 44
-3.9219999 10.307 -0.89399999 239 142 63
-3.8299999 10.299 -0.87099999 182 117 53
-3.825 10.291 -0.88499999 200 138 77
-3.839 10.292 -0.91900003 170 100 49
-3.826 10.292 -0.92199999 113 42 0
-3.8369999 10.285 -0.94499999 159 83 25
-3.8380001 10.278 -0.94999999 86 66 41
-3.839 10.275 -0.94599998 167 127 91
-3.825 10.289 -0.88499999 93 46 20
-3.8110001 10.292 -0.88599998 153 104 72
-3.8280001 10.283 -0.86900002 234 133 51
-3.845 10.286 -0.95599997 115 65 38
-3.8610001 10.263 -0.96399999 73 62 42
-3.8610001 10.27 -0.963 161 141 132
-3.8610001 10.265 -0.96799999 215 145 94
-3.8629999 10.246 -0.95999998 96 65 45
-3.868 10.239 -0.95499998 206 104 42
-3.8699999 10.233 -0.96200001 199 90 21
-3.8110001 10.301 -0.87699997 213 141 57
-3.8139999 10.303 -0.87 142 122 115
-3.806 10.283 -0.88 220 166 120
-3.802 10.29 -0.87599999 63 35 14
-3.875 10.297 -0.72899997 203 121 39
-3.8610001 10.3 -0.75099999 225 198 129
-3.8729999 10.296 -0.82200003 92 33 0
-3.901 10.304 -0.83499998 141 124 117
-3.9070001 10.308 -0.82800001 131 96 68
-3.8069999 10.304 -0.86500001 130 94 78
-3.9089999 10.33 -0.88099998 239 244 115
-3.829 10.302 -0.866 131 95 71
-3.8900001 10.319 -0.75400001 164 92 44
-3.872 10.308 -0.74599999 95 44 23
-3.872 10.306 -0.75099999 106 94 98
-3.8699999 10.307 -0.74900001 217 128 62
-3.901 10.309 -0.75400001 191 130 49
-3.8929999 10.297 -0.73400003 232 161 83
-3.9000001 10.294 -0.73799998 150 105 64
-3.9189999 10.331 -0.76599997 157 88 47
-3.914 10.334 -0.87 103 37 5
-3.888 10.313 -0.764 116 80 58
-3.8789999 10.297 -0.76499999 231 170 123
-3.905 10.286 -0.74199998 162 94 13
-3.9089999 10.292 -0.764 204 76 13
-3.888 10.289 -0.73199999 120 84 36
-3.8399999 10.244 -1.041 212 123 55
-3.835 10.231 -1.0549999 194 77 8
-3.842 10.231 -1.057 227 99 26
-3.8499999 10.241 -1.062 172 143 127
-3.934 10.338 -0.78100002 189 127 86
-3.947 10.332 -0.78500003 113 83 59
-3.9289999 10.335 -0.778 71 21 0
-3.9089999 10.334 -0.78100002 77 50 43
-3.947 10.333 -0.77600002 84 60 32
-3.938 10.328 -0.78799999 173 121 81
-3.9330001 10.303 -0.86699998 203 154 111
-3.9260001 10.303 -0.85699999 205 113 36
-3.9159999 10.3 -0.82700002 131 97 69
-3.9530001 10.329 -0.78500003 149 102 58
-3.941 10.306 -0.75700003 155 111 66
-3.944 10.306 -0.76099998 131 60 16
-3.9449999 10.309 -0.77899998 149 89 52
-3.941 10.319 -0.75700003 148 95 61
-3.9519999 10.315 -0.76599997 182 122 72
-3.9449999 10.32 -0.75700003 136 78 30
-3.882 10.292 -0.73000002 237 193 72
-3.895 10.294 -0.73299998 150 110 61
-3.8759999 10.247 -1.04 242 148 48
-3.888 10.251 -1.054 234 179 123
-3.881 10.253 -1.026 241 168 55
-3.904 10.278 -1.0190001 248 156 89
-3.905 10.281 -0.99699998 113 38 7
-3.869 10.283 -1.041 181 101 38
-3.8299999 10.23 -1.063 213 110 44
-3.859 10.263 -0.97600001 133 111 100
-3.875 10.264 -1.008 186 76 1
-3.8800001 10.259 -1.006 174 90 30
-3.872 10.255 -0.99900001 177 77 15
-3.8610001 10.297 -1.01 231 130 58
-3.8499999 10.296 -1.017 243 153 75
-3.8529999 10.292 -1.017 172 130 92
-3.931 10.334 -0.78500003 115 85 59
-3.9159999 10.328 -0.78100002 209 155 117
-3.927 10.327 -0.79000002 166 113 95
-3.9100001 10.295 -0.83499998 231 135 61
-3.931 10.331 -0.87699997 102 49 18
-3.918 10.331 -0.88700002 199 122 78
-3.8829999 10.291 -0.93199998 163 108 67
-3.905 10.297 -0.93300003 203 220 128
-3.915 10.296 -0.92699999 178 118 81
-3.9089999 10.301 -0.92900002 110 49 46
-3.888 10.292 -0.97799999 139 107 94
-3.8570001 10.273 -0.93800002 112 83 65
-3.8670001 10.259 -0.94400001 156 107 74
-3.8900001 10.292 -0.91500002 225 148 94
-3.885 10.286 -0.93199998 221 126 68
-3.9059999 10.302 -0.93000001 71 42 36
-3.839 10.28 -0.94499999 202 117 50
-3.8670001 10.25 -0.94400001 153 120 103
-3.885 10.251 -0.94999999 158 96 55
-3.8829999 10.233 -0.949 231 126 21
-3.872 10.295 -0.94300002 134 48 0
-3.8770001 10.294 -0.93900001 189 150 121
-3.8770001 10.293 -0.94800001 121 37 0
-3.8440001 10.289 -0.93000001 136 58 10
-3.878 10.294 -0.93300003 168 92 42
-3.8859999 10.267 -0.94999999 130 63 57
-3.8859999 10.268 -0.96899998 149 91 51
-3.8840001 10.266 -0.96799999 176 97 41
-3.8280001 10.303 -0.86500001 80 41 8
-3.9119999 10.306 -0.86799997 129 45 1
-3.8829999 10.3 -0.866 149 54 0
-3.865 10.292 -0.87199998 182 84 21
-3.8740001 10.288 -0.85100001 172 124 86
-3.8670001 10.299 -0.87300003 205 102 23
-3.872 10.306 -0.86500001 192 99 40
-3.8829999 10.251 -0.98900002 78 57 40
-3.885 10.25 -0.98900002 94 25 0
-3.885 10.246 -0.98000002 107 61 27
-3.8340001 10.231 -1.054 232 131 61
-3.8429999 10.234 -1.051 181 152 136
-3.848 10.232 -1.064 253 146 42
-3.881 10.289 -1.056 107 63 38
-3.8670001 10.27 -1.056 197 131 73
-3.8829999 10.24 -1.061 201 98 3
-3.8659999 10.253 -1.053 154 94 42
-3.888 10.265 -1.05 164 135 117
-3.8859999 10.271 -1.045 183 142 120
-3.8859999 10.266 -1.04 255 184 79
-3.9100001 10.305 -0.91799998 72 39 22
-3.9159999 10.311 -0.898 220 232 120
-3.915 10.295 -0.91500002 147 119 98
-3.9219999 10.307 -0.88599998 78 61 43
-3.836 10.292 -0.921 175 93 37
-3.835 10.284 -0.91500002 189 143 110
-3.813 10.289 -0.88599998 147 96 67
-3.8829999 10.299 -0.89600003 231 242 112
-3.888 10.302 -0.89300001 55 40 37
-3.8610001 10.265 -0.95099998 109 60 30
-3.845 10.274 -0.94599998 153 112 90
-3.8759999 10.243 -0.94400001 212 124 60
-3.8699999 10.233 -0.95499998 226 116 53
-3.869 10.239 -0.949 77 54 48
-3.8729999 10.301 -0.72899997 154 72 0
-3.8559999 10.296 -0.745 133 124 129
-3.8280001 10.293 -0.85900003 227 136 55
-3.8299999 10.299 -0.86000001 138 50 0
-3.822 10.301 -0.85900003 131 49 0
-3.8629999 10.297 -0.852 123 60 17
-3.8699999 10.294 -0.847 89 23 0
-3.8699999 10.303 -0.85299999 59 34 27
-3.872 10.306 -0.85900003 117 38 0
-3.8759999 10.297 -0.84899998 192 140 126
-3.911 10.322 -0.88099998 57 43 42
-3.925 10.309 -0.87800002 102 53 20
-3.9059999 10.321 -0.87599999 94 48 12
-3.8889999 10.318 -0.74900001 181 106 51
-3.918 10.313 -0.75999999 127 88 57
-3.881 10.303 -0.75700003 157 56 0
-3.9130001 10.333 -0.88 116 55 11
-3.868 10.308 -0.74699998 130 88 74
-3.947 10.33 -0.76800001 78 42 18
-3.905 10.293 -0.73799998 108 69 30
-3.8889999 10.291 -0.76499999 225 132 63
-3.8989999 10.282 -0.755 184 141 107
-3.842 10.26 -1.0470001 237 151 76
-3.8429999 10.262 -1.0420001 245 152 72
-3.842 10.29 -1.0319999 234 129 48
-3.842 10.291 -1.027 126 103 85
-3.842 10.293 -1.025 156 89 21
-3.8410001 10.229 -1.061 170 124 91
-3.8429999 10.23 -1.061 190 84 8
-3.921 10.315 -0.82999998 146 114 73
-3.9200001 10.316 -0.83200002 106 56 21
-3.928 10.312 -0.83600003 93 58 26
-3.9319999 10.316 -0.86400002 125 76 44
-3.9319999 10.314 -0.875 118 66 27
-3.9300001 10.308 -0.86400002 178 82 6
-3.934 10.303 -0.78100002 159 104 73
-3.9349999 10.31 -0.78600001 139 97 55
-3.9319999 10.31 -0.78399998 209 156 116
-3.938 10.324 -0.796 133 71 46
-3.928 10.325 -0.79100001 242 234 159
-3.8699999 10.25 -1.035 84 52 41
-3.8889999 10.253 -1.048 219 167 110
-3.8840001 10.256 -1.0039999 113 60 28
-3.8789999 10.259 -1.021 224 128 44
-3.8640001 10.266 -0.99900001 183 148 120
-3.8729999 10.263 -1.021 217 127 31
-3.842 10.254 -1.04 125 102 84
-3.846 10.247 -1.0369999 242 151 72
-3.8740001 10.256 -0.99299997 236 146 84
-3.862 10.274 -1.006 252 147 56
-3.8710001 10.267 -1.0039999 151 78 27
-3.8900001 10.271 -1.034 129 82 56
-3.8510001 10.293 -1.018 221 128 50
-3.8499999 10.291 -1.016 249 160 80
-3.845 10.294 -1.021 182 100 27
-3.8529999 10.292 -1.012 200 107 30
-3.852 10.287 -1.011 223 126 55
-3.881 10.283 -1.017 189 153 127
-3.8770001 10.279 -1.016 229 122 28
-3.865 10.294 -1.007 203 162 134
-3.8740001 10.294 -0.99900001 100 35 0
-3.8629999 10.279 -0.98500001 139 97 75
-3.859 10.278 -1.001 232 135 58
-3.9159999 10.316 -0.78399998 147 67 18
-3.875 10.288 -0.96200001 105 70 51
-3.8829999 10.283 -0.93300003 227 156 114
-3.888 10.285 -0.94 255 182 99
-3.8889999 10.294 -0.98199999 172 102 50
-3.8329999 10.288 -0.926 210 147 106
-3.8280001 10.283 -0.921 130 57 4
-3.836 10.284 -0.92500001 156 66 13
-3.8340001 10.282 -0.91799998 186 101 46
-3.846 10.278 -0.93900001 129 75 29
-3.9119999 10.295 -0.92799997 181 100 37
-3.8859999 10.247 -0.97299999 125 49 0
-3.8640001 10.252 -0.96499997 232 153 94
-3.849 10.296 -0.95300001 100 44 9
-3.8840001 10.285 -0.96899998 163 63 4
-3.8870001 10.275 -0.95700002 217 158 116
-3.819 10.297 -0.86000001 213 145 80
-3.8199999 10.306 -0.85900003 127 53 4
-3.9070001 10.304 -0.83899999 216 139 47
-3.9059999 10.303 -0.83999997 183 104 48
-3.915 10.31 -0.83899999 56 29 12
-3.9100001 10.327 -0.86900002 93 20 0
-3.8789999 10.302 -0.86299998 148 96 83
-3.8710001 10.295 -0.86299998 152 62 10
-3.8659999 10.293 -0.86699998 145 49 0
-3.878 10.242 -0.97100002 158 57 1
-3.8800001 10.248 -0.97399998 175 118 63
-3.8469999 10.23 -1.057 215 87 12
-3.8759999 10.285 -1.038 199 118 52
-3.8559999 10.246 -1.0549999 116 94 80
-3.9200001 10.307 -0.90399998 163 96 54
-3.921 10.305 -0.89899999 238 136 62
-3.8900001 10.3 -0.89399999 144 83 39
-3.829 10.283 -0.91100001 215 146 87
-3.835 10.29 -0.91900003 184 135 95
-3.8280001 10.292 -0.87900001 161 97 51
-3.8759999 10.25 -0.94400001 231 153 91
-3.8829999 10.25 -0.94400001 76 39 20
-3.8859999 10.257 -0.97100002 148 98 65
-3.892 10.265 -0.977 166 64 15
-3.8239999 10.286 -0.88 177 121 72
-3.832 10.289 -0.86000001 252 155 74
-3.832 10.298 -0.86400002 169 116 76
-3.869 10.293 -0.85000002 174 154 143
-3.901 10.298 -0.84299999 163 126 99
-3.902 10.302 -0.838 219 161 87
-3.925 10.328 -0.86400002 166 114 74
-3.928 10.303 -0.85100001 155 115 66
-3.931 10.31 -0.87900001 227 190 163
-3.895 10.316 -0.755 113 38 0
-3.908 10.321 -0.77600002 140 89 72
-3.8770001 10.295 -0.764 177 128 95
-3.8740001 10.284 -0.75599998 194 166 142
-3.9170001 10.319 -0.764 108 31 1
-3.8889999 10.282 -0.76099998 255 224 177
-3.911 10.289 -0.75700003 107 59 19
-3.9170001 10.295 -0.75800002 162 102 48
-3.9119999 10.292 -0.75400001 106 66 30
-3.8989999 10.296 -0.74599999 145 79 27
-3.891 10.294 -0.73900002 190 144 85
-3.8499999 10.262 -1.048 205 106 39
-3.859 10.273 -1.043 128 45 5
-3.848 10.29 -1.022 225 132 54
-3.832 10.236 -1.054 192 98 44
-3.924 10.3 -0.84200001 135 83 36
-3.9389999 10.321 -0.78799999 175 132 100
-3.928 10.297 -0.76800001 142 79 28
-3.928 10.298 -0.76200002 229 115 27
-3.8759999 10.279 -1.023 223 115 24
-3.8499999 10.272 -1.034 172 98 11
-3.8499999 10.265 -1.0369999 198 133 65
-3.8659999 10.265 -1.031 95 77 73
-3.855 10.283 -1.003 157 111 85
-3.8559999 10.288 -1.007 236 135 65
-3.858 10.283 -1.007 156 86 27
-3.8610001 10.273 -0.97000003 187 103 33
-3.8770001 10.262 -1.0190001 55 36 22
-3.859 10.289 -1.002 191 96 28
-3.8629999 10.284 -0.98100001 194 97 26
-3.8540001 10.291 -0.97600001 118 89 73
-3.8840001 10.298 -0.98900002 198 110 36
-3.902 10.275 -0.98500001 164 100 54
-3.8699999 10.267 -0.99400002 179 131 91
-3.875 10.258 -0.99000001 94 50 21
-3.8640001 10.281 -1.008 255 154 76
-3.9130001 10.328 -0.77200001 162 111 66
-3.9089999 10.327 -0.77700001 87 60 51
-3.9289999 10.319 -0.78899997 179 144 116
-3.9000001 10.299 -0.76599997 199 148 117
-3.914 10.326 -0.78299999 139 130 135
-3.9119999 10.312 -0.88499999 147 97 60
-3.8800001 10.284 -0.92500001 121 90 61
-3.8940001 10.284 -0.94400001 75 46 40
-3.8380001 10.293 -0.92900002 74 45 31
-3.8399999 10.28 -0.93599999 165 132 91
-3.8770001 10.252 -0.97299999 119 63 26
-3.862 10.26 -0.95899999 99 87 89
-3.8570001 10.272 -0.94099998 216 117 60
-3.869 10.299 -0.963 133 104 88
-3.8659999 10.298 -0.96799999 102 38 0
-3.8559999 10.294 -0.95999998 98 35 0
-3.8870001 10.289 -0.97500002 159 56 0
-3.8889999 10.283 -0.96899998 208 104 31
-3.862 10.296 -0.86199999 212 122 60
-3.8829999 10.3 -0.861 204 111 50
-3.908 10.305 -0.83499998 160 115 76
-3.908 10.326 -0.87099999 76 44 29
-3.9059999 10.318 -0.86699998 56 41 44
-3.911 10.295 -0.84299999 157 116 86
-3.8840001 10.249 -0.98299998 102 28 0
-3.8399999 10.229 -1.069 251 143 44
-3.8399999 10.23 -1.0700001 114 82 59
-3.8380001 10.234 -1.072 226 113 47
-3.8740001 10.282 -1.036 182 90 25
-3.8570001 10.249 -1.052 196 142 98
-3.8829999 10.248 -1.052 255 151 64
-3.9200001 10.304 -0.90399998 183 84 16
-3.924 10.312 -0.89700001 82 39 4
-3.8199999 10.284 -0.86199999 238 139 45
-3.8039999 10.303 -0.87300003 103 84 77
-3.8729999 10.281 -0.75599998 159 110 69
-3.8629999 10.291 -0.75300002 109 66 34
-3.921 10.31 -0.85399997 117 43 0
-3.895 10.308 -0.76599997 129 118 124
-3.911 10.312 -0.76300001 114 27 0
-3.882 10.296 -0.74299997 69 46 40
-3.9130001 10.327 -0.76800001 97 67 41
-3.9000001 10.286 -0.75999999 107 62 23
-3.8440001 10.245 -1.039 154 104 69
-3.849 10.269 -1.046 145 67 18
-3.8640001 10.274 -1.0420001 210 107 30
-3.8429999 10.292 -1.027 231 130 48
-3.938 10.315 -0.78500003 165 128 99
-3.9400001 10.311 -0.78399998 103 57 33
-3.934 10.311 -0.78600001 163 107 56
-3.8870001 10.282 -1.006 196 117 48
-3.888 10.276 -1.0190001 122 97 93
-3.8759999 10.259 -1.023 197 160 134
-3.8640001 10.256 -1.034 180 80 4
-3.858 10.289 -1.013 222 128 56
-3.8740001 10.274 -1.021 167 74 17
-3.891 10.263 -1.008 133 48 0
-3.8599999 10.295 -1.003 245 160 93
-3.872 10.289 -0.98000002 113 84 66
-3.878 10.257 -0.986 253 161 96
-3.888 10.253 -0.97899997 146 58 8
-3.9230001 10.314 -0.78200001 25 14 20
-3.9170001 10.31 -0.88499999 129 87 47
-3.862 10.285 -0.97600001 217 136 73
-3.8529999 10.282 -0.96600002 161 121 96
-3.836 10.292 -0.93099999 153 70 16
-3.859 10.259 -0.95200002 146 92 56
-3.8559999 10.292 -0.96600002 143 57 0
-3.8800001 10.287 -0.97500002 206 118 46
-3.8299999 10.299 -0.861 140 116 106
-3.8329999 10.293 -0.86900002 235 198 145
-3.862 10.296 -0.85600001 155 75 24
-3.905 10.302 -0.84399998 189 140 99
-3.918 10.321 -0.86000001 154 87 35
-3.878 10.294 -0.85399997 177 96 43
-3.875 10.278 -1.03 222 116 32
-3.911 10.306 -0.85699999 123 48 8
-3.8800001 10.295 -0.73699999 118 103 110
-3.8940001 10.282 -0.75800002 117 86 57
-3.8510001 10.253 -1.038 213 165 127
-3.849 10.269 -1.046 145 67 18
-3.868 10.271 -1.03 134 71 38
-3.872 10.269 -1.025 122 68 21
-3.8670001 10.276 -1.04 191 109 62
-3.9130001 10.296 -0.84799999 170 135 103
-3.9189999 10.297 -0.84899998 149 107 69
-3.8670001 10.274 -1.043 185 74 3
-3.8840001 10.277 -1.022 164 127 108
-3.8670001 10.287 -0.98799998 146 66 15
-3.8629999 10.29 -0.977 195 142 92
-3.8610001 10.29 -0.977 226 135 65
-3.8610001 10.297 -0.97299999 173 87 26
-3.9100001 10.316 -0.87199998 140 118 97
-3.9289999 10.322 -0.87099999 146 76 17
-3.9100001 10.295 -0.83999997 126 87 58
-3.911 10.306 -0.85500002 74 45 29
-3.911 10.303 -0.852 231 168 150
-3.9200001 10.312 -0.77899998 177 86 31
-3.9089999 10.317 -0.77899998 126 70 45
-3.918 10.296 -0.759 145 119 96
-3.8499999 10.243 -1.038 189 93 7
-3.9170001 10.293 -0.84899998 194 106 17
-3.9119999 10.298 -0.84899998 180 153 144
-3.9189999 10.295 -0.83899999 242 148 48
-3.8699999 10.263 -1.026 217 124 57
-3.862 10.271 -0.97399998 151 129 115
-3.826 10.286 -0.87599999 235 181 117
-3.918 10.314 -0.85799998 155 118 91
-3.9030001 10.297 -0.76599997 123 112 118
-3.924 10.31 -0.77899998 157 112 83
-3.9030001 10.284 -0.74699998 142 87 46
-3.8629999 10.253 -1.0369999 186 157 143
-3.8510001 10.269 -1.041 188 143 104
-3.915 10.298 -0.85000002 208 123 43
-3.9159999 10.292 -0.84399998 238 150 53
-3.9119999 10.306 -0.84600002 155 79 29
-3.9119999 10.306 -0.84399998 228 234 136
-3.911 10.306 -0.773 126 54 16
0 0 0 1 0 0 0 1 0 0 0 1 0 0 0 0 0 771 1 0 0
