ply
format ascii 1.0
comment PCL generated
element vertex 97
property float x
property float y
property float z
property uchar red
property uchar green
property uchar blue
element camera 1
property float view_px
property float view_py
property float view_pz
property float x_axisx
property float x_axisy
property float x_axisz
property float y_axisx
property float y_axisy
property float y_axisz
property float z_axisx
property float z_axisy
property float z_axisz
property float focal
property float scalex
property float scaley
property float centerx
property float centery
property int viewportx
property int viewporty
property float k1
property float k2
end_header
1.266 16.620001 -0.34900001 87 64 58
1.272 16.622 -0.34900001 94 72 75
1.266 16.622999 -0.354 97 64 55
1.276 16.622 -0.33399999 95 51 38
1.251 16.606001 -0.34200001 162 114 74
1.2589999 16.604 -0.345 63 42 39
1.248 16.607 -0.34900001 85 60 53
1.255 16.612 -0.32699999 124 64 14
1.256 16.582001 -0.34999999 208 147 92
1.253 16.599001 -0.34999999 137 106 75
1.248 16.601999 -0.35499999 93 71 48
1.251 16.583 -0.34799999 151 124 105
1.249 16.575001 -0.34999999 214 158 107
1.248 16.622 -0.33000001 94 53 25
1.253 16.621 -0.32600001 111 69 29
1.247 16.622999 -0.329 117 50 5
1.256 16.584 -0.30199999 79 52 31
1.263 16.577 -0.303 160 98 41
1.251 16.582001 -0.30199999 200 116 54
1.2539999 16.580999 -0.303 131 65 4
1.261 16.587 -0.30899999 104 53 10
1.2589999 16.594 -0.30399999 131 84 56
1.248 16.587999 -0.303 122 70 30
1.2640001 16.583 -0.33899999 208 178 154
1.267 16.593 -0.34999999 251 190 133
1.279 16.612 -0.32499999 184 123 69
1.277 16.603001 -0.33000001 184 114 44
1.28 16.615 -0.33500001 201 146 92
1.278 16.601 -0.324 183 152 123
1.277 16.605 -0.31999999 164 93 31
1.245 16.613001 -0.333 110 83 76
1.237 16.612 -0.33000001 244 172 114
1.232 16.615999 -0.31200001 106 62 33
1.23 16.615999 -0.31400001 244 169 104
1.223 16.615 -0.315 134 54 1
1.27 16.603001 -0.31799999 152 106 80
1.256 16.601999 -0.30599999 81 64 34
1.257 16.604 -0.31299999 82 37 18
1.273 16.6 -0.31900001 99 76 60
1.253 16.591999 -0.30399999 117 81 49
1.277 16.605 -0.34099999 189 126 59
1.262 16.598 -0.34799999 89 40 23
1.267 16.58 -0.329 236 164 82
1.247 16.58 -0.324 145 97 57
1.249 16.575001 -0.32600001 242 173 98
1.2410001 16.591999 -0.33899999 250 186 125
1.247 16.584999 -0.331 209 163 130
1.25 16.58 -0.333 226 194 169
1.2460001 16.59 -0.347 237 170 128
1.267 16.582001 -0.31900001 239 165 90
1.267 16.575001 -0.308 157 86 30
1.265 16.573 -0.30700001 172 137 105
1.256 16.570999 -0.31799999 248 175 96
1.263 16.577 -0.31299999 227 162 98
1.268 16.598 -0.32699999 220 152 87
1.266 16.594999 -0.33399999 249 188 123
1.256 16.572001 -0.329 241 166 83
1.256 16.58 -0.34 240 172 99
1.25 16.58 -0.338 242 181 118
1.2359999 16.615 -0.32699999 196 117 58
1.2410001 16.603001 -0.33399999 201 170 142
1.243 16.597 -0.33500001 196 156 121
1.2359999 16.603001 -0.31999999 192 123 64
1.237 16.608999 -0.331 147 89 43
1.232 16.613001 -0.31400001 147 83 45
1.2410001 16.614 -0.30700001 154 91 38
1.239 16.608 -0.31400001 194 119 51
1.234 16.611 -0.315 171 90 27
1.274 16.606001 -0.31900001 115 83 58
1.249 16.608999 -0.31200001 121 76 45
1.238 16.615 -0.31200001 138 63 6
1.239 16.614 -0.31299999 98 63 35
1.2690001 16.608 -0.331 153 109 80
1.265 16.603001 -0.32300001 122 64 60
1.256 16.582001 -0.34999999 208 147 92
1.2589999 16.6 -0.352 112 62 25
1.26 16.573999 -0.30399999 146 112 85
1.25 16.58 -0.30599999 122 59 6
1.2640001 16.577999 -0.32300001 204 173 144
1.2410001 16.59 -0.31400001 174 93 27
1.228 16.612 -0.31900001 147 113 85
1.275 16.621 -0.33000001 98 53 22
1.2460001 16.587999 -0.30399999 126 92 65
1.249 16.576 -0.31400001 188 111 39
1.249 16.576 -0.317 216 170 137
1.24 16.586 -0.30899999 96 49 5
1.2460001 16.586 -0.31900001 226 154 82
1.253 16.610001 -0.31999999 137 90 48
1.242 16.614 -0.31999999 134 74 22
1.267 16.59 -0.34 245 177 102
1.253 16.576 -0.31299999 179 109 39
1.247 16.599001 -0.30399999 156 86 24
1.2460001 16.593 -0.30899999 191 119 61
1.2460001 16.59 -0.329 205 135 86
1.249 16.577 -0.31900001 147 112 82
1.2410001 16.593 -0.31799999 102 78 54
1.245 16.59 -0.31999999 112 65 21
0 0 0 1 0 0 0 1 0 0 0 1 0 0 0 0 0 97 1 0 0
