ply
format ascii 1.0
comment PCL generated
element vertex 440
property float x
property float y
property float z
property uchar red
property uchar green
property uchar blue
element camera 1
property float view_px
property float view_py
property float view_pz
property float x_axisx
property float x_axisy
property float x_axisz
property float y_axisx
property float y_axisy
property float y_axisz
property float z_axisx
property float z_axisy
property float z_axisz
property float focal
property float scalex
property float scaley
property float centerx
property float centery
property int viewportx
property int viewporty
property float k1
property float k2
end_header
-1.908 12.34 -1.013 181 88 18
-1.899 12.328 -1.015 255 170 93
-1.903 12.343 -1.0190001 202 106 32
-1.906 12.344 -1.013 220 164 129
-1.933 12.38 -0.95499998 195 118 62
-1.9349999 12.394 -0.96499997 119 61 60
-1.9299999 12.378 -0.96200001 176 91 24
-1.927 12.374 -0.95499998 182 95 26
-1.927 12.368 -1.003 144 121 105
-1.931 12.36 -1.0039999 87 47 39
-1.926 12.362 -1.026 230 136 64
-1.927 12.374 -0.94800001 162 79 11
-1.933 12.376 -0.92500001 205 134 80
-1.919 12.375 -0.926 38 26 4
-1.936 12.384 -0.94499999 74 39 20
-1.942 12.304 -1.028 132 61 9
-1.938 12.296 -1.049 233 125 35
-1.946 12.296 -1.049 232 119 51
-2.0039999 12.314 -1.006 119 51 52
-2.01 12.314 -0.99599999 137 56 13
-2.0079999 12.311 -0.98799998 132 54 15
-1.926 12.345 -1.008 62 39 21
-1.939 12.352 -1.02 136 86 59
-1.938 12.346 -1.018 230 135 67
-2.01 12.32 -0.98900002 195 107 43
-2.0020001 12.324 -0.99000001 123 39 0
-1.939 12.377 -0.94499999 97 55 31
-1.947 12.376 -0.94499999 100 54 28
-1.937 12.37 -0.94400001 153 60 1
-1.919 12.386 -1.051 175 138 111
-1.919 12.393 -1.034 120 92 68
-1.926 12.382 -1.039 215 109 33
-1.9170001 12.391 -1.038 134 78 45
-1.938 12.387 -0.96200001 72 39 22
-1.942 12.387 -0.95300001 135 100 80
-1.943 12.383 -0.97100002 242 154 80
-1.936 12.389 -0.94700003 46 23 9
-1.964 12.396 -0.94999999 156 83 32
-1.961 12.401 -0.95700002 250 147 78
-1.938 12.347 -1.025 160 111 71
-1.942 12.331 -1.036 160 63 10
-1.9579999 12.34 -1.046 167 57 0
-1.9450001 12.345 -1.052 150 58 11
-2.0079999 12.381 -0.97500002 180 108 60
-2.013 12.38 -0.98299998 129 80 47
-2.0139999 12.377 -0.97799999 153 129 117
-1.933 12.387 -0.96700001 144 48 0
-1.919 12.372 -1.028 210 150 113
-1.9069999 12.37 -1.027 181 119 80
-1.913 12.376 -1.026 216 105 24
-1.919 12.379 -1.045 226 119 47
-1.906 12.371 -1.026 56 26 15
-1.9119999 12.386 -1.028 218 105 29
-1.9069999 12.39 -1.0470001 212 105 27
-1.91 12.389 -1.051 161 123 87
-1.9069999 12.393 -1.05 156 89 47
-1.896 12.335 -1.01 167 73 3
-1.939 12.301 -1.015 111 60 29
-1.9349999 12.302 -1.023 176 69 0
-1.941 12.3 -1.011 189 81 9
-1.938 12.304 -1.0039999 125 71 37
-1.92 12.31 -1.003 161 116 83
-1.931 12.317 -1.012 207 104 27
-1.937 12.325 -1.028 144 52 1
-1.9349999 12.303 -0.98199999 185 114 52
-1.936 12.305 -0.977 234 150 86
-1.9400001 12.316 -0.98299998 82 41 11
-1.946 12.303 -1.0089999 185 92 33
-1.933 12.371 -1.035 193 104 44
-1.926 12.328 -0.963 144 98 65
-1.915 12.341 -0.94700003 79 49 38
-1.915 12.338 -0.94499999 157 89 86
-1.919 12.34 -0.94700003 251 246 240
-1.914 12.339 -0.935 203 112 39
-1.976 12.323 -0.96600002 197 95 20
-1.9809999 12.324 -0.95200002 163 84 28
-1.9809999 12.33 -0.96600002 215 128 51
-1.98 12.329 -0.96100003 210 123 44
-1.897 12.328 -1.0039999 187 84 7
-1.899 12.328 -1.008 214 130 60
-1.913 12.315 -0.99800003 207 106 38
-1.906 12.324 -0.99900001 189 90 23
-1.91 12.317 -0.99199998 100 55 26
-1.9170001 12.312 -0.92400002 208 128 41
-1.901 12.313 -0.93300003 191 98 21
-1.914 12.306 -0.92900002 186 95 25
-1.9069999 12.312 -0.93000001 117 78 49
-1.899 12.308 -0.94099998 196 101 35
-1.974 12.325 -0.97100002 117 106 102
-1.971 12.326 -0.95899999 232 132 57
-1.948 12.318 -1.015 174 66 0
-1.943 12.323 -1.021 151 59 8
-1.951 12.329 -1.023 174 83 30
-1.9299999 12.366 -0.96100003 100 56 27
-1.933 12.372 -0.97100002 91 63 49
-1.972 12.327 -0.95300001 222 126 42
-1.964 12.328 -0.95200002 254 159 69
-1.972 12.329 -0.94300002 123 74 34
-1.943 12.383 -0.94800001 221 139 81
-1.92 12.386 -1.033 233 122 33
-1.91 12.399 -1.043 173 138 108
-1.908 12.395 -1.04 144 79 37
-1.913 12.387 -1.0470001 237 127 50
-1.965 12.387 -0.954 168 90 28
-1.973 12.394 -0.95599997 148 55 0
-1.969 12.401 -0.95300001 169 98 36
-1.938 12.335 -1.023 167 72 14
-1.941 12.34 -1.0369999 123 35 0
-1.944 12.379 -0.95899999 197 116 53
-1.924 12.369 -1.027 66 37 23
-1.927 12.372 -1.026 100 49 28
-1.915 12.379 -1.034 249 138 56
-1.9069999 12.386 -1.04 203 93 16
-1.929 12.305 -0.98299998 225 133 56
-1.934 12.301 -0.97000003 205 115 52
-1.905 12.328 -0.93599999 157 68 2
-1.936 12.305 -0.96600002 195 106 46
-1.942 12.321 -0.96600002 177 133 86
-1.937 12.306 -0.96799999 151 134 126
-2.0090001 12.32 -0.99299997 103 80 64
-1.995 12.41 -0.98299998 104 26 0
-1.999 12.411 -0.97899997 98 59 20
-1.995 12.412 -0.97899997 167 131 109
-1.99 12.407 -0.98100001 133 88 65
-1.992 12.34 -0.99699998 229 132 61
-1.988 12.338 -0.98100001 86 65 64
-1.992 12.358 -0.98299998 255 227 193
-1.997 12.346 -1 86 83 68
-1.995 12.326 -1.028 69 41 29
-2.0020001 12.316 -1.008 147 60 7
-2.0009999 12.332 -1.017 107 92 87
-1.965 12.356 -1.0470001 117 80 61
-1.962 12.356 -1.052 110 68 46
-1.977 12.358 -1.046 90 57 38
-1.9529999 12.364 -1.0369999 127 41 0
-1.954 12.356 -1.041 130 34 0
-1.924 12.373 -1.031 247 135 53
-1.949 12.355 -1.012 170 123 93
-1.946 12.359 -1.026 179 130 98
-1.931 12.328 -1.0089999 179 79 1
-1.9299999 12.368 -0.917 172 97 29
-1.933 12.367 -0.91000003 137 120 104
-1.931 12.369 -0.92799997 61 29 18
-1.9450001 12.369 -0.94599998 142 86 37
-1.925 12.37 -0.92400002 155 119 87
-1.936 12.363 -0.94800001 246 155 74
-1.932 12.376 -0.92400002 253 179 106
-1.926 12.377 -0.91299999 189 106 30
-1.974 12.325 -0.95499998 98 89 84
-1.975 12.328 -0.94999999 253 169 105
-1.911 12.323 -0.92799997 161 76 11
-1.916 12.332 -0.92299998 235 149 66
-1.921 12.308 -0.92900002 252 177 94
-1.983 12.371 -0.98900002 100 57 25
-1.982 12.372 -0.97799999 55 36 22
-1.987 12.377 -0.98699999 145 107 84
-1.98 12.365 -0.98299998 62 37 33
-1.952 12.384 -0.949 139 61 12
-1.972 12.388 -0.949 134 46 0
-1.971 12.377 -0.94999999 255 181 95
-1.936 12.385 -0.97100002 154 79 14
-1.936 12.384 -0.97600001 163 147 132
-1.934 12.372 -0.995 151 59 0
-1.937 12.364 -0.991 253 168 101
-1.932 12.364 -0.991 124 64 64
-1.934 12.347 -0.99199998 219 133 60
-2.006 12.369 -0.97100002 116 71 38
-1.985 12.359 -0.97899997 155 72 20
-1.982 12.368 -0.96200001 100 56 19
-1.972 12.38 -0.95899999 117 80 53
-1.964 12.359 -0.963 126 108 96
-1.911 12.394 -1.036 201 95 21
-1.944 12.345 -1.036 98 67 39
-1.9450001 12.352 -1.0319999 167 87 38
-1.9579999 12.343 -1.036 175 139 123
-1.949 12.339 -1.0319999 204 104 44
-1.942 12.33 -1.033 116 80 58
-1.949 12.356 -1.0420001 75 29 6
-1.9450001 12.364 -1.0319999 129 83 59
-1.978 12.325 -1.033 238 154 55
-1.974 12.33 -1.034 166 70 0
-1.975 12.331 -1.041 193 97 13
-1.9680001 12.332 -1.046 206 95 14
-1.977 12.334 -1.044 103 31 6
-1.984 12.342 -1.05 248 146 62
-1.938 12.325 -1.041 169 70 15
-1.939 12.298 -1.049 175 71 0
-1.936 12.303 -1.05 234 122 36
-2.006 12.366 -0.977 138 89 46
-1.994 12.365 -0.98799998 215 116 51
-1.898 12.329 -0.99900001 180 82 7
-1.908 12.327 -0.995 204 105 37
-1.899 12.335 -0.99800003 196 142 114
-1.936 12.365 -1.001 215 112 46
-1.937 12.369 -1.03 180 79 7
-1.913 12.383 -1.039 205 140 98
-1.91 12.33 -1.002 133 73 75
-1.92 12.324 -1.005 180 88 21
-1.9299999 12.306 -0.977 192 92 17
-1.916 12.313 -1.001 132 119 110
-1.937 12.316 -0.99299997 248 202 166
-1.919 12.313 -0.93699998 177 83 11
-2.0050001 12.315 -0.991 97 57 31
-1.998 12.32 -0.99299997 124 105 91
-2.0009999 12.325 -1.01 160 63 8
-1.9529999 12.307 -1 160 66 5
-1.971 12.326 -0.986 196 97 38
-1.967 12.332 -0.97100002 153 134 127
-1.964 12.338 -0.97299999 215 109 35
-1.985 12.324 -1.027 251 155 55
-1.973 12.329 -1.027 165 64 0
-1.978 12.325 -1.013 216 106 27
-1.982 12.328 -1.036 205 148 118
-2.0009999 12.336 -1.002 216 116 54
-1.977 12.34 -1.045 146 78 41
-1.972 12.344 -1.046 95 13 0
-1.95 12.361 -1.029 226 131 65
-1.973 12.357 -1.041 85 42 23
-1.977 12.358 -1.036 103 68 49
-1.9529999 12.354 -1.01 108 77 59
-1.96 12.349 -1.027 242 159 107
-1.951 12.326 -1.001 168 90 26
-1.9400001 12.327 -0.99699998 120 77 43
-1.937 12.329 -0.98799998 255 191 118
-1.948 12.343 -0.99400002 160 152 149
-1.947 12.352 -0.99400002 173 89 17
-1.969 12.344 -0.995 185 92 22
-1.938 12.344 -0.991 189 111 37
-1.95 12.354 -1.0089999 108 61 35
-1.913 12.34 -0.99699998 173 79 18
-1.955 12.335 -1.025 173 140 121
-1.923 12.369 -0.92000002 200 123 55
-1.938 12.368 -0.94400001 101 68 63
-1.926 12.347 -0.94700003 141 104 75
-1.921 12.343 -0.93099999 250 158 75
-1.925 12.331 -0.92400002 252 174 112
-1.928 12.34 -0.94 117 115 100
-1.909 12.319 -0.93000001 225 129 45
-1.898 12.337 -1.0089999 198 143 112
-1.919 12.327 -0.991 219 125 51
-1.9910001 12.341 -1.044 255 176 74
-1.978 12.344 -1.04 117 53 28
-1.979 12.345 -1.028 77 35 11
-1.983 12.332 -1.031 212 155 125
-1.978 12.363 -0.98900002 61 42 48
-1.974 12.355 -0.98900002 123 53 4
-1.9630001 12.356 -0.96799999 169 92 38
-1.944 12.385 -0.95200002 175 86 26
-1.982 12.343 -0.94800001 172 92 39
-1.983 12.378 -0.94300002 79 69 60
-1.979 12.376 -0.949 138 67 15
-1.933 12.367 -0.991 198 120 56
-1.971 12.348 -0.97299999 103 63 28
-1.967 12.332 -0.96600002 161 58 0
-1.944 12.33 -0.97000003 174 72 6
-1.937 12.326 -0.97899997 82 53 47
-1.938 12.32 -0.97399998 146 76 76
-1.926 12.342 -0.95099998 73 45 33
-2.0090001 12.373 -0.96899998 223 145 63
-1.951 12.377 -0.95899999 60 59 55
-1.908 12.39 -1.036 78 32 8
-1.941 12.31 -1.025 139 47 0
-1.948 12.311 -1.012 187 104 52
-1.949 12.35 -1.0470001 142 54 14
-1.952 12.35 -1.052 98 54 29
-1.934 12.321 -1.046 163 59 0
-1.934 12.32 -1.053 217 110 42
-1.939 12.323 -1.0420001 163 125 104
-1.9450001 12.304 -1.045 224 114 29
-2.007 12.371 -0.97299999 255 182 94
-2.0090001 12.374 -0.98000002 212 134 51
-1.919 12.331 -1.002 192 89 20
-1.908 12.322 -0.93900001 57 24 5
-1.925 12.323 -0.921 119 83 47
-1.929 12.333 -0.93099999 162 87 82
-1.933 12.312 -0.96200001 193 100 31
-1.901 12.313 -0.93800002 222 131 50
-1.906 12.312 -0.93400002 247 148 65
-1.903 12.313 -0.93900001 194 99 31
-1.9859999 12.325 -1.021 252 147 56
-1.9910001 12.321 -1.021 251 146 54
-1.987 12.325 -0.98900002 124 88 66
-1.977 12.329 -0.97100002 161 141 132
-1.962 12.33 -1.016 148 103 70
-1.961 12.314 -1.0089999 177 64 0
-1.961 12.304 -1.001 195 88 16
-1.955 12.311 -1.007 158 112 76
-1.962 12.303 -0.995 181 86 20
-1.97 12.306 -0.99900001 168 92 34
-1.947 12.306 -1.005 172 77 19
-1.989 12.329 -1.0369999 114 59 29
-1.993 12.324 -1.028 248 150 51
-2.0039999 12.328 -0.99699998 169 95 48
-1.99 12.35 -1.003 175 104 60
-1.972 12.349 -1.028 169 134 115
-2.0020001 12.33 -1.011 95 53 31
-1.961 12.355 -1.035 164 73 26
-1.974 12.355 -1.048 138 99 82
-1.947 12.354 -1.008 165 84 19
-1.928 12.364 -1 194 99 33
-1.931 12.324 -1.013 248 239 234
-1.944 12.329 -1.0319999 129 80 40
-1.926 12.372 -0.91399997 187 109 43
-1.925 12.373 -0.917 203 126 56
-1.972 12.328 -0.96600002 168 66 0
-1.924 12.318 -0.972 195 96 13
-1.9400001 12.319 -0.97000003 86 47 16
-1.938 12.329 -0.97000003 197 100 31
-1.944 12.342 -0.96600002 255 229 196
-1.982 12.35 -0.97799999 160 58 0
-1.9809999 12.355 -0.97600001 78 60 56
-1.984 12.337 -1.045 103 44 14
-1.984 12.37 -0.99199998 137 68 27
-1.984 12.357 -0.98900002 121 41 4
-1.971 12.346 -1.002 191 100 21
-1.931 12.347 -0.95200002 150 119 88
-1.951 12.354 -0.95200002 153 106 60
-1.934 12.357 -0.96100003 58 36 22
-1.933 12.366 -0.96200001 127 62 60
-1.985 12.372 -0.94999999 169 93 35
-1.988 12.377 -0.94599998 145 72 19
-1.985 12.338 -0.958 201 113 39
-1.982 12.384 -0.949 167 101 51
-1.952 12.344 -0.96600002 223 122 34
-1.954 12.354 -0.96399999 186 100 27
-1.9529999 12.362 -0.949 227 148 73
-1.941 12.306 -1.0190001 182 133 101
-1.966 12.347 -1.0470001 118 25 0
-1.938 12.306 -1.044 241 126 45
-1.938 12.316 -1.053 189 77 3
-1.942 12.32 -1.049 101 55 29
-1.943 12.37 -0.96399999 213 110 35
-1.919 12.323 -0.92500001 104 91 85
-1.928 12.323 -0.926 96 66 55
-1.9299999 12.322 -0.94 82 51 33
-1.924 12.317 -0.93000001 184 138 104
-1.933 12.34 -0.94300002 177 80 12
-1.972 12.309 -1.001 114 104 95
-1.967 12.314 -1.0039999 182 83 16
-1.972 12.311 -0.98500001 110 97 91
-1.961 12.305 -0.99400002 190 87 18
-1.985 12.323 -1.034 255 174 70
-2.0020001 12.326 -1.005 147 51 3
-2.003 12.328 -1 151 57 3
-1.972 12.348 -1.027 229 160 129
-1.993 12.344 -1.0039999 82 73 56
-1.966 12.347 -1.027 131 53 14
-1.955 12.358 -1.035 146 51 5
-1.962 12.326 -0.995 176 105 53
-1.923 12.347 -0.99599999 193 97 23
-1.925 12.339 -0.98900002 207 116 43
-1.9299999 12.374 -0.91299999 236 151 70
-1.966 12.33 -0.95899999 220 119 41
-1.948 12.335 -0.96100003 161 88 82
-1.928 12.322 -0.97500002 179 90 24
-1.9299999 12.323 -0.97399998 62 36 21
-1.928 12.312 -0.97799999 193 109 37
-1.925 12.32 -0.96499997 220 120 34
-1.927 12.309 -0.96600002 196 103 36
-1.928 12.313 -0.97100002 215 110 29
-1.9220001 12.316 -0.94499999 188 91 14
-1.932 12.324 -0.97399998 76 53 39
-1.937 12.329 -0.963 235 134 62
-1.983 12.336 -0.95999998 150 101 71
-1.98 12.338 -0.972 87 44 9
-1.944 12.333 -0.963 186 98 26
-1.936 12.33 -0.95899999 179 101 29
-1.967 12.377 -0.95499998 120 93 66
-1.961 12.367 -0.95700002 234 153 74
-1.959 12.37 -0.95099998 191 117 56
-1.96 12.346 -1.0470001 90 49 29
-1.9349999 12.31 -1.049 104 55 23
-1.947 12.307 -1.044 194 89 32
-1.938 12.375 -0.96899998 142 112 76
-1.923 12.314 -0.93300003 140 49 0
-1.923 12.318 -0.92799997 134 49 0
-1.928 12.33 -0.93300003 205 154 101
-1.946 12.342 -0.96100003 67 36 31
-1.9349999 12.329 -0.958 71 42 24
-1.997 12.318 -1.015 177 69 0
-1.998 12.32 -1.008 155 52 0
-1.9859999 12.317 -0.99199998 82 65 57
-1.97 12.319 -0.98400003 150 67 15
-1.992 12.338 -1.016 120 51 9
-2.0009999 12.333 -1.0039999 160 64 13
-1.972 12.344 -1.0190001 153 83 49
-1.959 12.321 -0.99699998 215 117 46
-1.976 12.35 -0.99199998 146 76 76
-1.913 12.338 -0.99199998 170 77 7
-1.931 12.364 -0.995 185 97 26
-1.9299999 12.347 -0.95599997 104 101 96
-1.947 12.334 -0.96700001 181 99 39
-1.923 12.318 -0.95200002 192 94 19
-1.902 12.314 -0.94400001 218 135 55
-1.9809999 12.347 -0.97399998 126 75 32
-1.978 12.348 -0.96600002 255 253 240
-1.98 12.345 -0.95999998 47 25 12
-1.971 12.352 -0.97100002 55 35 37
-1.9529999 12.367 -0.95999998 124 101 85
-1.944 12.366 -0.96600002 132 87 56
-1.983 12.361 -0.95599997 169 93 43
-1.9809999 12.366 -0.95300001 111 75 53
-1.965 12.334 -0.96700001 112 97 90
-1.98 12.369 -0.95200002 124 76 38
-1.939 12.316 -1.046 180 68 2
-1.97 12.341 -0.95200002 166 79 10
-2.0020001 12.321 -1.003 107 65 41
-1.969 12.346 -1 53 29 27
-1.966 12.331 -0.99299997 142 48 0
-1.964 12.326 -0.99400002 89 42 16
-1.97 12.317 -1.0039999 135 67 68
-1.974 12.318 -1.003 158 148 149
-1.976 12.313 -0.98900002 139 100 71
-1.957 12.315 -0.99699998 210 125 68
-1.929 12.315 -0.95700002 222 136 63
-1.925 12.318 -0.963 195 114 48
-1.929 12.313 -0.96200001 247 156 86
-1.983 12.34 -0.95599997 129 83 47
-2.003 12.317 -1.003 165 79 32
-1.973 12.323 -0.986 57 41 51
-1.9680001 12.325 -0.99000001 112 35 0
-1.985 12.323 -1.007 190 86 15
-1.965 12.308 -0.991 186 96 34
-1.962 12.358 -0.94800001 145 66 7
-1.964 12.351 -0.954 232 147 66
-1.967 12.346 -0.95300001 174 88 15
-1.97 12.35 -0.95099998 213 143 94
-1.974 12.363 -0.95700002 174 79 13
-1.978 12.357 -0.95099998 160 79 13
-1.961 12.34 -0.95599997 208 205 188
-2.0020001 12.316 -0.99800003 118 29 0
-1.969 12.316 -0.98799998 152 67 10
-1.985 12.323 -1 173 73 11
-1.975 12.317 -0.98900002 174 80 16
-1.976 12.352 -0.95200002 86 48 25
-1.967 12.338 -0.95099998 122 75 47
-1.967 12.311 -0.98900002 206 108 43
-1.972 12.362 -0.95300001 58 44 35
-1.975 12.317 -1 170 67 0
-1.974 12.362 -0.95300001 95 48 20
0 0 0 1 0 0 0 1 0 0 0 1 0 0 0 0 0 440 1 0 0
