ply
format ascii 1.0
comment PCL generated
element vertex 477
property float x
property float y
property float z
property uchar red
property uchar green
property uchar blue
element camera 1
property float view_px
property float view_py
property float view_pz
property float x_axisx
property float x_axisy
property float x_axisz
property float y_axisx
property float y_axisy
property float y_axisz
property float z_axisx
property float z_axisy
property float z_axisz
property float focal
property float scalex
property float scaley
property float centerx
property float centery
property int viewportx
property int viewporty
property float k1
property float k2
end_header
-6.0560002 -5.6040001 -1.074 27 8 10
-6.0549998 -5.599 -1.074 76 45 27
-6.0749998 -5.605 -1.073 85 48 39
-6.0469999 -5.5960002 -1.074 91 54 36
-5.9819999 -5.6040001 -0.95899999 33 2 0
-5.9819999 -5.5970001 -0.94800001 69 19 8
-5.9790001 -5.6079998 -0.95200002 109 68 38
-6.0310001 -5.6620002 -0.90100002 154 98 51
-6.0279999 -5.671 -0.90100002 147 74 39
-6.027 -5.6760001 -0.90799999 76 12 2
-6.0289998 -5.6669998 -0.90899998 66 1 0
-6.0229998 -5.6550002 -0.99900001 91 46 25
-6.0149999 -5.6500001 -1.005 42 8 0
-6.0320001 -5.6570001 -1.018 26 1 0
-6.0700002 -5.631 -1.0319999 108 80 68
-6.0689998 -5.632 -1.028 113 81 68
-6.0570002 -5.6389999 -1.04 88 36 12
-6.059 -5.6020002 -1.046 36 8 0
-6.053 -5.6030002 -1.0549999 50 22 18
-6.0570002 -5.6079998 -1.057 29 4 0
-6.0689998 -5.6069999 -1.068 68 35 18
-6.0250001 -5.6370001 -1.071 17 7 6
-6.0180001 -5.6409998 -1.073 19 1 0
-6.027 -5.6290002 -1.077 30 8 0
-6.0149999 -5.6360002 -1.071 12 1 0
-6.0110002 -5.612 -1.073 46 24 27
-6.013 -5.6399999 -1.013 82 48 36
-6.0089998 -5.6409998 -0.99800003 33 0 0
-6.053 -5.5970001 -1.041 48 19 13
-6.059 -5.5999999 -1.035 72 59 53
-6.053 -5.6020002 -1.048 38 19 12
-6.04 -5.5939999 -1.057 41 13 10
-6.066 -5.6149998 -1.026 104 86 76
-6.0539999 -5.6030002 -1.0140001 18 4 1
-6.02 -5.671 -0.91299999 107 47 10
-6.0549998 -5.6360002 -1.028 154 99 45
-6.039 -5.5939999 -1.0599999 55 30 25
-6.0370002 -5.5999999 -1.058 13 1 1
-6.0139999 -5.5929999 -1.066 48 24 20
-6.04 -5.599 -1.067 67 41 40
-6.0580001 -5.6079998 -1.063 34 18 18
-6.0450001 -5.6079998 -1.062 53 39 36
-6.0310001 -5.619 -1.064 24 6 4
-6.0349998 -5.6259999 -1.068 22 2 1
-6.0380001 -5.6209998 -1.052 30 14 14
-6.059 -5.6040001 -1.0369999 57 23 11
-6.073 -5.6059999 -1.069 43 4 0
-6.0770001 -5.6059999 -1.071 44 6 0
-6.0689998 -5.6069999 -1.072 71 37 25
-6.053 -5.6279998 -1.008 63 40 46
-6.007 -5.6430001 -0.93599999 34 4 2
-6.0040002 -5.6259999 -0.93599999 85 34 7
-6.0219998 -5.638 -0.92500001 23 8 1
-6.0110002 -5.6339998 -0.93699998 57 27 1
-6.0229998 -5.6560001 -0.91900003 49 0 0
-6.0209999 -5.6630001 -0.926 22 4 0
-6.0229998 -5.6560001 -0.92400002 64 39 34
-6.0240002 -5.6500001 -0.92799997 28 2 1
-6.0079999 -5.618 -1.059 7 0 0
-6.007 -5.6069999 -1.069 8 0 2
-6.0079999 -5.6479998 -1.068 107 53 19
-6.013 -5.6490002 -1.0650001 45 19 20
-6.0219998 -5.6409998 -1.068 15 1 0
-6.0159998 -5.6430001 -1.066 28 4 0
-5.994 -5.618 -1.035 42 20 7
-5.987 -5.6220002 -1.013 114 85 67
-5.9889998 -5.6279998 -1.015 75 38 20
-6.0240002 -5.651 -1.008 41 3 0
-5.994 -5.6300001 -1.021 14 0 0
-5.9980001 -5.6290002 -1.025 21 0 0
-5.9949999 -5.6350002 -1.017 81 27 3
-6.0019999 -5.6339998 -1.021 63 22 0
-6.0079999 -5.6440001 -0.98500001 53 26 15
-5.9949999 -5.6360002 -1.01 146 90 57
-6.0180001 -5.6539998 -0.986 23 2 1
-6.0079999 -5.638 -1.022 37 12 5
-6.007 -5.6069999 -1.072 8 0 0
-6.04 -5.5910001 -1.041 60 32 29
-6.0430002 -5.6009998 -0.99800003 84 58 35
-6.053 -5.618 -0.99900001 81 72 73
-6.046 -5.6149998 -0.98699999 65 29 13
-6.0489998 -5.5999999 -1.028 58 42 29
-6.0450001 -5.5949998 -1.025 24 0 0
-6.039 -5.5869999 -1.02 58 25 8
-6.0560002 -5.6079998 -1.0190001 47 20 3
-6.0609999 -5.6100001 -1.0369999 34 17 7
-6.0619998 -5.6139998 -1.038 96 55 33
-6.0700002 -5.6240001 -1.035 145 129 116
-6.0640001 -5.6139998 -1.044 30 16 5
-6.027 -5.6269999 -1.072 7 0 0
-6.026 -5.6220002 -1.067 25 14 10
-6.027 -5.6129999 -1.061 16 2 1
-6.0209999 -5.6149998 -1.063 16 0 0
-6.0580001 -5.6360002 -1.038 86 32 0
-6.0250001 -5.6430001 -1.039 8 0 0
-6.0289998 -5.6339998 -1.049 64 45 31
-6.02 -5.6339998 -1.053 68 46 49
-6.0120001 -5.638 -1.028 24 9 2
-6.0100002 -5.6420002 -1.033 38 13 6
-6.0359998 -5.6459999 -1.024 108 60 24
-6.0289998 -5.6469998 -1.038 9 1 0
-6.0479999 -5.5970001 -1.071 89 56 41
-6.039 -5.592 -1.073 37 13 1
-6.0419998 -5.599 -1.073 49 33 33
-6.0609999 -5.6040001 -1.071 46 14 3
-6.053 -5.6110001 -1.068 56 31 26
-6.0500002 -5.612 -1.052 68 41 30
-6.0609999 -5.6199999 -1.053 44 15 0
-6.059 -5.619 -1.05 44 21 7
-6.0560002 -5.6350002 -1.043 38 22 23
-6.026 -5.665 -0.91500002 69 19 12
-6.0250001 -5.6500001 -0.926 52 25 18
-6.0170002 -5.6609998 -0.935 30 0 0
-6.0110002 -5.6609998 -0.94400001 55 23 12
-6.006 -5.6059999 -1.0650001 5 0 1
-6.0050001 -5.6020002 -1.063 9 0 3
-6.0089998 -5.6339998 -1.064 23 5 3
-5.9990001 -5.6360002 -1.061 53 17 1
-5.9949999 -5.6220002 -1.0319999 36 6 0
-5.9990001 -5.625 -1.0369999 120 102 98
-5.994 -5.618 -1.039 30 21 24
-6.0029998 -5.6360002 -1.045 40 15 11
-6.0209999 -5.6539998 -0.99299997 52 14 5
-6.0339999 -5.6479998 -0.98199999 87 50 24
-6.026 -5.6529999 -0.963 112 78 51
-6.0100002 -5.5960002 -1.0700001 7 0 0
-6.013 -5.5890002 -1.059 34 15 17
-6.0320001 -5.6339998 -0.926 22 8 5
-6.0279999 -5.6469998 -0.92500001 63 13 2
-6.0250001 -5.638 -0.92500001 61 10 0
-5.9949999 -5.598 -0.935 50 13 0
-5.9899998 -5.6040001 -0.93900001 68 33 13
-6.0190001 -5.585 -0.93099999 68 37 9
-6.0229998 -5.5879998 -0.93400002 31 12 6
-6.0250001 -5.5830002 -0.92799997 83 60 44
-6.0170002 -5.5869999 -0.93000001 103 73 49
-6.0100002 -5.598 -0.94400001 56 16 8
-6.0120001 -5.599 -0.958 102 75 58
-5.9949999 -5.5960002 -0.95200002 33 4 0
-6.0599999 -5.6069999 -1.048 55 23 10
-6.0409999 -5.5879998 -1.0319999 39 12 1
-6.039 -5.573 -1.022 53 17 1
-6.0370002 -5.5799999 -1.024 66 34 21
-6.0320001 -5.5749998 -1.026 87 59 47
-6.046 -5.6110001 -0.99699998 36 19 1
-6.0380001 -5.5939999 -1.008 56 29 18
-6.0380001 -5.5970001 -0.99400002 86 55 34
-6.026 -5.6030002 -0.96899998 90 64 49
-6.033 -5.6009998 -0.98000002 92 64 53
-6.0289998 -5.5869999 -0.97600001 55 36 30
-6.0209999 -5.605 -0.95999998 52 11 0
-5.9850001 -5.5999999 -0.95899999 41 13 2
-6.0009999 -5.6079998 -1.005 24 6 2
-5.9949999 -5.6129999 -1.007 27 6 3
-6 -5.605 -1.015 16 0 0
-6 -5.5910001 -1.008 25 7 3
-6.0029998 -5.5970001 -1.02 11 3 1
-5.9959998 -5.6129999 -1.018 24 0 0
-6.0170002 -5.5869999 -1.007 131 125 127
-6.0079999 -5.5879998 -1.0190001 75 29 13
-6.0250001 -5.5840001 -1.001 96 71 51
-6.0120001 -5.592 -0.98799998 92 63 49
-6.0539999 -5.6059999 -1.025 46 28 24
-6.0650001 -5.6110001 -1.054 44 18 5
-6.0159998 -5.6040001 -1.058 13 3 2
-6.0159998 -5.5999999 -1.056 8 0 0
-6.0180001 -5.6090002 -1.0599999 23 9 8
-6.0279999 -5.631 -1.074 8 2 2
-6.0279999 -5.6279998 -1.066 10 0 0
-6.02 -5.6479998 -1.039 18 1 0
-6.026 -5.6539998 -1.01 80 34 18
-6.0310001 -5.645 -1.021 60 22 1
-6.0320001 -5.6539998 -1.017 94 49 16
-6.0219998 -5.6420002 -1.034 34 16 12
-6.0549998 -5.612 -1.018 59 27 6
-6.0359998 -5.6599998 -0.93699998 24 11 5
-6.0289998 -5.652 -0.92299998 55 8 0
-6.0310001 -5.6620002 -0.92500001 72 55 45
-6.027 -5.664 -0.92199999 50 3 0
-6.0279999 -5.6630001 -0.91600001 107 47 23
-6.0609999 -5.6290002 -1.024 35 16 12
-6.04 -5.5949998 -1.071 61 24 16
-6.0479999 -5.6009998 -1.059 25 1 0
-6.066 -5.6040001 -1.073 54 20 8
-6.066 -5.6079998 -1.068 43 18 13
-6.0679998 -5.6100001 -1.0650001 62 36 21
-6.0609999 -5.6110001 -1.063 43 14 0
-6.0339999 -5.625 -1.0470001 7 1 1
-6.0289998 -5.6409998 -0.96600002 84 42 26
-6.033 -5.6300001 -0.96100003 45 6 0
-6.0349998 -5.632 -0.95499998 82 55 36
-6.026 -5.6479998 -0.95700002 49 12 3
-6.0339999 -5.6329999 -0.98100001 22 3 0
-6.0209999 -5.6630001 -0.94400001 28 0 0
-6.0100002 -5.6539998 -0.95099998 34 9 4
-6.007 -5.6399999 -0.94599998 50 28 17
-6.0029998 -5.645 -0.95999998 75 28 2
-6.0089998 -5.645 -0.977 62 34 20
-6.0159998 -5.651 -0.98100001 16 2 2
-6.0139999 -5.6479998 -0.97899997 6 0 2
-6.0019999 -5.6420002 -0.97600001 35 11 1
-6 -5.6389999 -0.97799999 55 30 23
-6.0040002 -5.6409998 -0.98000002 35 8 1
-6.0279999 -5.6220002 -0.92699999 74 42 29
-6.027 -5.6149998 -0.912 93 29 4
-6.0229998 -5.6279998 -0.926 69 20 3
-6.0339999 -5.6199999 -0.93199998 104 78 63
-6.0250001 -5.658 -0.90899998 31 2 0
-6.0040002 -5.6440001 -1.062 102 47 8
-6.007 -5.6430001 -1.0599999 64 17 0
-6.0019999 -5.6290002 -1.056 11 1 0
-6.0050001 -5.6420002 -1.069 41 5 0
-6.0139999 -5.5960002 -1.08 51 24 17
-5.993 -5.6259999 -0.96499997 45 16 8
-5.9970002 -5.6240001 -1.03 29 4 0
-5.9910002 -5.632 -1.017 23 0 0
-6.0279999 -5.6479998 -1 82 28 2
-6.0240002 -5.651 -0.99800003 96 49 29
-6.0190001 -5.6500001 -0.99199998 23 0 0
-5.9879999 -5.618 -1.0089999 104 75 61
-5.993 -5.6199999 -0.99699998 44 18 3
-5.9949999 -5.6199999 -0.995 39 1 0
-5.9970002 -5.6160002 -0.98900002 62 43 37
-5.9920001 -5.6290002 -0.99400002 32 0 0
-6.0040002 -5.631 -0.99599999 9 0 0
-5.994 -5.6279998 -1.003 79 42 26
-5.9910002 -5.6149998 -0.96499997 28 2 1
-5.9829998 -5.625 -0.954 39 1 0
-6.0219998 -5.5999999 -0.93800002 26 6 5
-6.0250001 -5.5999999 -0.935 88 53 25
-6.027 -5.6030002 -0.93699998 42 9 0
-6.0289998 -5.6129999 -0.95200002 31 8 0
-6.0289998 -5.6059999 -0.93300003 82 50 35
-6.0310001 -5.618 -0.94199997 62 36 23
-6.027 -5.6069999 -0.93900001 50 23 12
-5.9980001 -5.5970001 -0.94800001 117 63 25
-5.993 -5.5960002 -0.96499997 47 13 3
-6.02 -5.605 -0.91399997 171 127 102
-6.0219998 -5.605 -0.91399997 210 153 108
-6.0110002 -5.6100001 -0.921 113 69 42
-6.0120001 -5.6129999 -0.92000002 210 155 91
-6.02 -5.6240001 -0.92299998 57 13 0
-6.0149999 -5.5879998 -1.023 85 44 26
-6.0110002 -5.5890002 -1.026 129 111 101
-6.0089998 -5.5869999 -1.033 17 4 0
-6.0430002 -5.5929999 -1.025 90 67 49
-6.04 -5.5869999 -1.028 37 12 8
-6.04 -5.5960002 -1.054 64 38 37
-6.0349998 -5.6279998 -0.95700002 10 0 7
-6.0339999 -5.6220002 -0.96799999 24 3 0
-6.013 -5.598 -0.98000002 35 16 1
-6.0450001 -5.6170001 -0.98000002 108 73 67
-6.0250001 -5.6100001 -0.96799999 59 34 27
-6.0110002 -5.5879998 -1.0319999 141 123 113
-6.0229998 -5.5879998 -1.026 35 12 4
-6.0050001 -5.592 -1.02 18 7 5
-6.006 -5.5900002 -1.027 33 9 0
-5.9970002 -5.6090002 -0.99900001 79 34 15
-6.0120001 -5.5910001 -1.008 43 15 3
-6.027 -5.5890002 -0.98199999 47 10 0
-6.059 -5.6100001 -1.024 28 9 5
-6.033 -5.592 -1.044 31 16 11
-6.0180001 -5.5869999 -1.041 24 11 5
-6.0139999 -5.5830002 -1.0470001 27 14 5
-6.0050001 -5.5809999 -1.043 54 20 8
-6.0040002 -5.5939999 -1.02 14 4 2
-6.0050001 -5.5879998 -1.035 12 0 0
-6.0139999 -5.5949998 -1.058 6 2 0
-6.0100002 -5.599 -1.071 9 1 0
-6.0100002 -5.6059999 -1.073 10 0 1
-6.02 -5.6350002 -1.072 9 0 0
-6.0100002 -5.6389999 -1.056 48 15 0
-6.0170002 -5.6370001 -1.027 13 4 5
-6.0289998 -5.6529999 -1.0140001 65 21 0
-6.0279999 -5.6469998 -1.0039999 82 31 2
-6.0510001 -5.6199999 -1.015 114 78 54
-6.033 -5.632 -0.949 104 76 55
-6.0310001 -5.6420002 -0.93800002 22 7 2
-6.0300002 -5.6420002 -1 107 92 87
-6.0310001 -5.6339998 -0.99400002 102 53 21
-6.0430002 -5.6279998 -1.0039999 105 46 12
-6.0349998 -5.6259999 -0.995 88 39 9
-6.0339999 -5.631 -1.002 112 55 25
-6.0510001 -5.5999999 -1.0700001 38 6 0
-6.039 -5.6020002 -1.062 55 33 22
-6.0430002 -5.6279998 -1.038 120 71 31
-6.0580001 -5.6350002 -1.0319999 113 56 3
-6.0089998 -5.6609998 -0.94999999 87 62 55
-5.994 -5.631 -0.94599998 78 42 30
-5.9850001 -5.6199999 -0.93800002 55 13 0
-6.0029998 -5.6430001 -0.97399998 47 24 10
-6.0040002 -5.6409998 -0.96399999 35 1 0
-6.0149999 -5.6550002 -0.96600002 35 0 0
-6.026 -5.632 -0.93599999 41 6 2
-6.0240002 -5.665 -0.91500002 47 3 0
-6.026 -5.6630001 -0.90200001 187 114 37
-6.0300002 -5.6609998 -0.89899999 180 99 34
-6.0310001 -5.6599998 -0.91100001 61 12 0
-6.0310001 -5.6589999 -0.90700001 68 17 0
-6.033 -5.6550002 -0.94099998 16 2 0
-6.006 -5.6420002 -1.0549999 94 42 5
-6.0079999 -5.6360002 -1.041 51 26 30
-6 -5.6370001 -1.058 51 12 0
-6.0009999 -5.6339998 -1.017 34 5 0
-5.9840002 -5.6129999 -0.954 60 22 3
-5.9850001 -5.618 -0.954 55 15 5
-5.9809999 -5.6069999 -0.95599997 59 31 27
-6.0310001 -5.6360002 -0.977 41 8 1
-6.0219998 -5.651 -0.98799998 37 2 0
-5.994 -5.6300001 -1.008 57 31 30
-5.9899998 -5.6230001 -1.008 28 4 0
-5.9949999 -5.6240001 -0.972 22 0 2
-5.9949999 -5.6230001 -0.97600001 27 3 1
-6.0050001 -5.5970001 -1.005 48 23 16
-6.0009999 -5.6069999 -0.98299998 136 111 106
-6.0240002 -5.592 -0.93199998 26 6 0
-6.0289998 -5.6149998 -0.94700003 115 84 63
-5.9860001 -5.6149998 -0.94300002 56 10 0
-5.9970002 -5.6170001 -0.93199998 95 41 17
-5.9970002 -5.6059999 -0.93800002 55 22 7
-6.0120001 -5.5999999 -0.935 34 4 0
-6.0159998 -5.6030002 -0.92799997 34 1 0
-5.9980001 -5.6110001 -0.977 42 5 0
-6.0240002 -5.605 -0.91399997 109 72 45
-6.0250001 -5.6030002 -0.91799998 53 27 14
-6.0100002 -5.5900002 -1.0140001 116 110 114
-6.027 -5.5869999 -1.0140001 33 5 4
-6.0380001 -5.585 -1.023 47 14 0
-6.0320001 -5.5910001 -1.0369999 20 2 0
-6.0019999 -5.5999999 -0.96600002 37 14 6
-6.0100002 -5.6030002 -0.96499997 17 7 15
-6.0409999 -5.6090002 -0.986 103 76 57
-6.039 -5.605 -0.99000001 74 43 25
-6.033 -5.6100001 -0.97799999 130 103 86
-6.039 -5.6170001 -0.97600001 69 43 30
-6.0489998 -5.619 -0.98900002 80 61 44
-6.0349998 -5.5970001 -0.99000001 58 31 12
-6.02 -5.5890002 -1.001 60 40 31
-6.0170002 -5.5939999 -0.98900002 29 5 0
-6.052 -5.6300001 -1.017 127 78 45
-6.0510001 -5.6279998 -1.012 182 128 100
-6.0539999 -5.6279998 -1.018 120 87 80
-6.0489998 -5.6279998 -1.011 115 60 30
-6.0479999 -5.6300001 -1.017 105 77 63
-6.04 -5.6409998 -1.027 144 90 54
-6.066 -5.6209998 -1.056 77 50 43
-6.072 -5.6129999 -1.0599999 50 26 14
-6.0170002 -5.586 -1.049 41 23 11
-6.0100002 -5.5869999 -1.0369999 137 118 111
-6.0029998 -5.6009998 -1.044 45 13 2
-6.0079999 -5.6009998 -1.061 7 1 1
-6.0019999 -5.6030002 -1.045 58 39 41
-6.0149999 -5.592 -1.071 30 11 13
-6.0209999 -5.6329999 -1.072 18 10 8
-6.026 -5.6409998 -1.016 60 26 17
-6.0359998 -5.645 -1.022 112 62 29
-6.046 -5.6279998 -1.008 154 101 70
-6.0479999 -5.618 -0.99199998 112 95 85
-6.0310001 -5.645 -0.98699999 80 43 25
-6.0300002 -5.6370001 -0.99599999 68 19 0
-6.0539999 -5.6020002 -1.068 57 27 17
-6.0510001 -5.598 -1.073 66 40 27
-6.0430002 -5.6350002 -1.035 27 8 2
-6.059 -5.6329999 -1.0369999 124 67 22
-5.9980001 -5.6300001 -0.97100002 21 1 0
-5.9970002 -5.6279998 -0.96499997 32 10 0
-5.9980001 -5.6329999 -0.95300001 52 31 14
-5.994 -5.6279998 -0.95700002 47 14 0
-6.0180001 -5.6529999 -0.98299998 103 66 40
-6.027 -5.6560001 -0.917 128 68 42
-6.0310001 -5.6589999 -0.90399998 93 39 1
-6.0300002 -5.6459999 -0.94400001 15 5 13
-6.027 -5.6399999 -0.95200002 51 11 1
-6.0029998 -5.631 -1.038 46 8 0
-6.0019999 -5.6139998 -1.052 9 0 0
-6.0019999 -5.6170001 -1.05 9 0 0
-6 -5.6129999 -1.044 35 17 17
-6.006 -5.6389999 -1.0650001 24 0 0
-5.9879999 -5.6230001 -0.94999999 79 46 29
-5.9840002 -5.6020002 -0.95899999 47 17 7
-6.0209999 -5.6059999 -0.949 30 5 0
-5.9899998 -5.6220002 -0.95999998 30 5 0
-5.9910002 -5.619 -0.963 29 8 3
-5.9949999 -5.6220002 -0.97000003 25 1 1
-6.0250001 -5.5970001 -0.93000001 41 18 10
-5.9949999 -5.612 -0.97299999 55 14 0
-6.0190001 -5.6020002 -0.92199999 46 8 0
-6.0229998 -5.6030002 -0.917 72 34 13
-6.0300002 -5.6110001 -0.92500001 83 57 42
-6.0339999 -5.5929999 -1.0039999 24 0 0
-6.0409999 -5.5939999 -1.0190001 43 9 0
-6.0409999 -5.6069999 -0.99400002 119 102 92
-6.039 -5.599 -0.995 35 8 0
-6 -5.6009998 -0.97100002 18 0 0
-6.0050001 -5.5999999 -0.95899999 60 28 15
-6 -5.599 -0.95999998 40 12 0
-6.0100002 -5.6009998 -0.986 66 33 28
-6.0489998 -5.6199999 -0.991 45 17 3
-6.0370002 -5.6220002 -0.99199998 62 34 23
-6.0300002 -5.5949998 -0.98100001 113 71 49
-5.9980001 -5.6100001 -0.995 63 39 35
-6.0029998 -5.6090002 -0.98900002 48 9 2
-6.0700002 -5.6110001 -1.063 38 12 0
-6.0700002 -5.612 -1.056 32 5 0
-6.0110002 -5.5960002 -1.0599999 4 3 1
-6.0110002 -5.5960002 -1.064 6 0 0
-6.0089998 -5.598 -1.067 9 0 1
-6.013 -5.5869999 -1.041 17 1 1
-6.026 -5.5939999 -0.991 45 9 0
-5.9980001 -5.612 -1.0369999 23 5 5
-6.0050001 -5.5970001 -1.039 45 21 9
-6.0050001 -5.5970001 -1.024 66 41 37
-6.0110002 -5.5960002 -1.074 10 4 4
-6.0100002 -5.6020002 -1.072 10 0 1
-6 -5.6160002 -1.045 8 0 0
-6.0219998 -5.6300001 -1.072 7 1 1
-6.0359998 -5.6399999 -1.012 58 32 17
-6.0560002 -5.6209998 -1.021 82 47 27
-6.053 -5.6350002 -1.039 59 11 0
-5.994 -5.6269999 -0.96100003 47 14 9
-6.0019999 -5.631 -0.99199998 23 5 5
-6.0180001 -5.651 -0.98100001 56 38 26
-6.0190001 -5.6479998 -0.977 77 44 27
-6.0190001 -5.652 -0.98400003 24 3 0
-6.027 -5.652 -0.921 78 54 42
-6.0339999 -5.6329999 -0.95499998 79 56 50
-5.9829998 -5.618 -0.94800001 73 29 4
-6.0250001 -5.6079998 -0.94499999 20 2 0
-6.02 -5.6040001 -0.94300002 20 0 1
-5.9970002 -5.619 -1.026 35 5 0
-6.0240002 -5.6529999 -1.003 61 20 2
-5.993 -5.6209998 -1.016 47 17 6
-5.9879999 -5.6170001 -0.95899999 56 18 0
-6.0209999 -5.6529999 -0.95499998 31 3 0
-6.0219998 -5.6110001 -0.91600001 59 20 15
-6.0209999 -5.6009998 -0.91900003 77 36 14
-5.9949999 -5.6240001 -0.94199997 58 38 29
-5.9920001 -5.6269999 -0.954 70 27 8
-6.0040002 -5.5929999 -1.018 37 17 10
-6.04 -5.5949998 -1.0140001 106 87 80
-6.0510001 -5.599 -1.035 61 41 30
-6.0310001 -5.6259999 -0.97399998 90 57 40
-6.007 -5.5999999 -0.97899997 30 11 7
-6.053 -5.6230001 -1 145 110 88
-6.0120001 -5.5939999 -1.053 7 2 0
-6.0110002 -5.5960002 -1.067 9 0 3
-6.006 -5.592 -1.034 10 0 0
-6.0009999 -5.6090002 -1.039 20 2 2
-5.9990001 -5.6230001 -1.043 51 28 14
-6.0300002 -5.6490002 -1.013 88 39 7
-6.0489998 -5.6090002 -1.007 116 99 92
-6.006 -5.6350002 -0.98900002 23 5 3
-6.0040002 -5.6370001 -0.98199999 23 2 0
-6.027 -5.6560001 -0.949 162 133 119
-6.026 -5.6560001 -0.90100002 117 73 48
-6.0019999 -5.6209998 -1.048 9 0 1
-6.0009999 -5.6240001 -1.045 88 55 40
-5.9920001 -5.6259999 -0.958 93 53 41
-5.9819999 -5.605 -0.95599997 49 19 11
-6.0040002 -5.6300001 -1.0470001 41 11 1
-6.0250001 -5.6100001 -0.917 58 9 4
-6.0409999 -5.6009998 -1.006 74 40 15
-6.0469999 -5.5970001 -1.033 141 125 112
-6.007 -5.5890002 -1.03 17 3 2
-6.0190001 -5.5869999 -1.049 15 1 1
-6.0050001 -5.5879998 -1.039 11 1 0
-6.0040002 -5.6040001 -1.03 43 12 9
-6.0279999 -5.6469998 -0.98299998 75 37 14
-6.0289998 -5.6539998 -0.90200001 51 11 1
-6.0240002 -5.6609998 -0.92900002 24 0 0
-5.9959998 -5.6209998 -1.029 16 0 0
-6 -5.599 -0.954 45 17 6
-6.0479999 -5.598 -1.033 41 17 5
-6.0079999 -5.6009998 -0.96399999 80 53 42
-6.007 -5.5890002 -1.043 14 6 4
-6 -5.6279998 -0.98400003 19 1 1
-6.027 -5.6620002 -0.93900001 56 22 13
0 0 0 1 0 0 0 1 0 0 0 1 0 0 0 0 0 477 1 0 0
