ply
format ascii 1.0
comment PCL generated
element vertex 1313
property float x
property float y
property float z
property uchar red
property uchar green
property uchar blue
element camera 0
property float view_px
property float view_py
property float view_pz
property float x_axisx
property float x_axisy
property float x_axisz
property float y_axisx
property float y_axisy
property float y_axisz
property float z_axisx
property float z_axisy
property float z_axisz
property float focal
property float scalex
property float scaley
property float centerx
property float centery
property int viewportx
property int viewporty
property float k1
property float k2
end_header
10.797 0.23899999 -0.60000002 61 36 16
10.809 0.17399999 -0.63499999 41 23 19
10.815 0.167 -0.62 6 3 10
10.802 0.185 -0.63 131 128 137
10.818 0.21600001 -0.713 46 14 1
10.82 0.219 -0.72299999 87 37 4
10.81 0.241 -0.722 164 142 128
10.815 0.244 -0.72299999 143 97 63
10.81 0.248 -0.722 172 153 139
10.81 0.23199999 -0.71700001 70 38 13
10.817 0.23899999 -0.72399998 56 26 15
10.884 0.29499999 -0.62199998 79 46 31
10.89 0.31299999 -0.63499999 160 131 123
10.872 0.38699999 -0.833 25 14 18
10.868 0.39300001 -0.82700002 90 35 15
10.852 0.39199999 -0.84600002 173 163 164
10.81 0.248 -0.83899999 68 36 21
10.816 0.25799999 -0.83899999 52 31 10
10.815 0.27000001 -0.83700001 129 113 98
10.805 0.26100001 -0.83600003 48 24 14
10.786 0.273 -0.83399999 38 11 0
10.789 0.28200001 -0.83899999 142 102 90
10.827 0.22 -0.75599998 162 151 147
10.815 0.237 -0.73299998 144 144 154
10.813 0.23999999 -0.73100001 134 104 78
10.785 0.221 -0.69999999 165 155 154
10.788 0.22 -0.70700002 94 59 27
10.786 0.221 -0.70700002 170 159 157
10.788 0.219 -0.69599998 61 29 6
10.742 0.458 -0.59200001 158 138 131
10.739 0.456 -0.58999997 62 33 17
10.735 0.433 -0.60600001 58 37 18
10.719 0.43099999 -0.59899998 106 79 62
10.726 0.43900001 -0.59600002 103 65 46
10.718 0.442 -0.579 127 96 68
10.677 0.29499999 -0.72000003 52 31 30
10.672 0.30700001 -0.727 111 81 70
10.675 0.28099999 -0.741 57 30 23
10.681 0.294 -0.74699998 66 31 12
10.672 0.292 -0.75800002 140 88 64
10.851 0.31299999 -0.61000001 97 71 56
10.844 0.33399999 -0.602 71 46 26
10.837 0.336 -0.59500003 48 28 19
10.836 0.33399999 -0.59500003 76 51 29
10.836 0.352 -0.59399998 51 30 11
10.84 0.36199999 -0.59899998 120 81 52
10.831 0.34999999 -0.59200001 99 67 46
10.736 0.44999999 -0.57499999 70 25 6
10.733 0.44600001 -0.57599998 81 56 36
10.732 0.442 -0.57599998 82 59 43
10.722 0.42399999 -0.59500003 132 88 63
10.741 0.264 -0.847 145 148 167
10.744 0.27399999 -0.847 82 57 52
10.746 0.27599999 -0.84500003 35 8 1
10.734 0.266 -0.85399997 31 8 0
10.828 0.228 -0.83600003 109 80 50
10.835 0.24600001 -0.82800001 133 112 93
10.818 0.22499999 -0.83999997 126 88 67
10.781 0.19 -0.75199997 84 47 28
10.728 0.26499999 -0.85100001 153 154 172
10.723 0.26899999 -0.85600001 116 56 30
10.822 0.212 -0.76200002 153 142 138
10.817 0.20900001 -0.75300002 47 21 6
10.805 0.156 -0.64999998 97 65 44
10.8 0.162 -0.64700001 83 58 28
10.805 0.15099999 -0.64300001 87 56 27
10.789 0.15800001 -0.63599998 45 33 33
10.776 0.189 -0.74800003 168 142 117
10.783 0.198 -0.759 33 4 0
10.773 0.2 -0.74599999 59 30 12
10.818 0.154 -0.65899998 34 16 14
10.821 0.164 -0.66000003 31 12 6
10.795 0.176 -0.72799999 82 73 40
10.79 0.178 -0.72000003 116 109 117
10.805 0.235 -0.74000001 50 31 24
10.801 0.235 -0.74900001 37 19 7
10.807 0.23100001 -0.75700003 53 20 3
10.795 0.244 -0.759 191 177 176
10.796 0.23800001 -0.759 172 160 160
10.793 0.242 -0.76499999 173 162 160
10.791 0.235 -0.759 35 15 4
10.784 0.204 -0.75400001 124 100 74
10.786 0.23 -0.75 79 44 25
10.785 0.222 -0.73000002 39 19 20
10.791 0.235 -0.73199999 184 152 131
10.787 0.22400001 -0.73000002 53 37 38
10.755 0.236 -0.76099998 172 157 160
10.753 0.243 -0.77600002 184 182 187
10.765 0.235 -0.76200002 50 22 8
10.748 0.243 -0.78200001 166 161 167
10.755 0.241 -0.74599999 53 20 3
10.753 0.249 -0.75599998 56 19 1
10.81 0.15800001 -0.66799998 47 6 0
10.67 0.31600001 -0.71499997 46 25 6
10.674 0.317 -0.72500002 95 66 48
10.677 0.31999999 -0.72399998 59 36 22
10.717 0.433 -0.59100002 54 31 17
10.671 0.31400001 -0.727 55 28 17
10.724 0.171 -0.43599999 62 25 0
10.743 0.168 -0.433 102 57 24
10.72 0.18799999 -0.43900001 55 33 12
10.732 0.15899999 -0.44299999 79 57 59
10.739 0.15700001 -0.44100001 49 17 0
10.74 0.15800001 -0.45699999 74 51 43
10.735 0.48199999 -0.542 42 24 14
10.734 0.48899999 -0.542 38 21 11
10.736 0.486 -0.55000001 140 120 109
10.737 0.47999999 -0.55400002 57 28 10
10.737 0.477 -0.55400002 25 10 3
10.725 0.45199999 -0.58999997 140 102 79
10.867 0.29499999 -0.64899999 52 3 0
10.879 0.29100001 -0.63499999 54 35 28
10.861 0.292 -0.634 93 58 30
10.883 0.29300001 -0.64200002 115 72 40
10.808 0.244 -0.73199999 116 111 118
10.816 0.27200001 -0.72100002 145 123 109
10.81 0.28099999 -0.72600001 28 7 2
10.808 0.28 -0.71799999 128 114 113
10.806 0.27500001 -0.70899999 36 17 13
10.828 0.14300001 -0.51800001 79 37 12
10.825 0.149 -0.51700002 135 107 83
10.818 0.149 -0.50999999 75 44 23
10.817 0.15000001 -0.50999999 35 9 0
10.813 0.13500001 -0.51099998 130 93 64
10.803 0.13 -0.53100002 68 44 40
10.811 0.133 -0.52100003 62 36 19
10.822 0.13699999 -0.50999999 76 45 16
10.768 0.199 -0.50800002 95 64 44
10.755 0.189 -0.505 57 36 19
10.77 0.193 -0.49900001 42 18 16
10.768 0.15800001 -0.44600001 57 14 0
10.777 0.16 -0.44600001 193 155 116
10.773 0.15700001 -0.447 137 79 57
10.775 0.16599999 -0.44600001 143 99 54
10.74 0.18799999 -0.43700001 72 30 5
10.865 0.29699999 -0.62300003 149 110 79
10.829 0.34 -0.60100001 91 52 23
10.801 0.22499999 -0.58700001 123 94 80
10.825 0.16 -0.50999999 40 11 0
10.779 0.175 -0.44100001 165 127 88
10.783 0.164 -0.45300001 143 104 65
10.748 0.189 -0.44600001 78 63 58
10.745 0.18700001 -0.44400001 109 60 30
10.771 0.177 -0.44600001 142 97 55
10.771 0.177 -0.44 109 74 36
10.788 0.178 -0.46200001 149 100 68
10.763 0.169 -0.442 124 101 83
10.683 0.27399999 -0.73000002 92 63 47
10.805 0.28400001 -0.63300002 90 63 46
10.799 0.28400001 -0.63599998 124 92 71
10.801 0.28200001 -0.639 73 48 41
10.885 0.33700001 -0.63700002 32 18 9
10.888 0.31799999 -0.62900001 57 37 26
10.811 0.27900001 -0.70999998 63 36 19
10.814 0.28600001 -0.68900001 70 51 45
10.816 0.28999999 -0.69800001 86 64 50
10.822 0.273 -0.71499997 126 96 72
10.801 0.27500001 -0.67500001 42 22 21
10.792 0.27900001 -0.68099999 57 39 37
10.805 0.28099999 -0.68400002 146 132 131
10.795 0.227 -0.65600002 168 142 125
10.801 0.20900001 -0.66600001 127 120 127
10.805 0.208 -0.66299999 100 93 100
10.795 0.215 -0.65799999 136 124 126
10.792 0.213 -0.66100001 42 14 2
10.888 0.289 -0.63 49 17 6
10.739 0.303 -0.85000002 138 114 102
10.75 0.30199999 -0.852 46 14 1
10.739 0.31200001 -0.84500003 55 25 15
10.791 0.289 -0.713 71 41 17
10.777 0.28299999 -0.71399999 30 10 1
10.787 0.294 -0.72100002 80 48 23
10.781 0.28600001 -0.71899998 81 41 15
10.783 0.28400001 -0.72100002 35 12 0
10.799 0.28200001 -0.722 77 50 21
10.874 0.34099999 -0.60699999 56 30 7
10.865 0.35699999 -0.61199999 88 53 33
10.876 0.352 -0.61900002 45 16 0
10.87 0.34999999 -0.61299998 83 42 22
10.797 0.273 -0.66900003 53 28 8
10.797 0.27500001 -0.65799999 55 37 35
10.791 0.278 -0.67199999 87 38 8
10.783 0.25099999 -0.66000003 87 64 56
10.797 0.243 -0.671 143 108 80
10.788 0.24699999 -0.65399998 39 21 11
10.794 0.278 -0.66900003 59 41 39
10.822 0.212 -0.72899997 90 59 39
10.812 0.214 -0.72000003 52 20 0
10.799 0.20900001 -0.74400002 175 165 166
10.807 0.211 -0.74800003 43 17 2
10.802 0.226 -0.75400001 42 14 0
10.8 0.22499999 -0.74900001 20 2 0
10.79 0.20100001 -0.74199998 92 66 49
10.779 0.20100001 -0.73400003 56 34 11
10.785 0.2 -0.73500001 166 160 162
10.794 0.20299999 -0.74900001 55 29 6
10.81 0.255 -0.84200001 63 38 34
10.834 0.252 -0.829 41 24 8
10.832 0.24600001 -0.838 129 112 96
10.83 0.25 -0.83399999 37 20 12
10.817 0.22499999 -0.76099998 18 3 0
10.795 0.31400001 -0.85000002 73 41 20
10.789 0.31999999 -0.84600002 74 48 31
10.791 0.31999999 -0.84200001 49 20 2
10.802 0.315 -0.83999997 52 29 15
10.801 0.296 -0.84100002 80 51 35
10.791 0.30700001 -0.84899998 116 81 61
10.787 0.31200001 -0.85500002 62 36 21
10.846 0.32800001 -0.83899999 26 6 8
10.836 0.32699999 -0.84399998 50 35 28
10.847 0.33700001 -0.84299999 19 7 9
10.848 0.336 -0.83099997 25 13 13
10.868 0.37400001 -0.81699997 66 33 18
10.816 0.26499999 -0.833 45 17 14
10.79 0.229 -0.72600001 118 82 56
10.796 0.233 -0.72600001 86 55 34
10.788 0.223 -0.71899998 139 102 75
10.795 0.227 -0.72000003 93 59 32
10.786 0.221 -0.71399999 228 214 211
10.792 0.213 -0.68300003 160 97 53
10.721 0.44800001 -0.58200002 53 34 27
10.73 0.458 -0.58499998 32 14 12
10.676 0.292 -0.75199997 110 95 98
10.683 0.30399999 -0.78899997 126 72 48
10.689 0.29499999 -0.79900002 33 21 21
10.687 0.29800001 -0.79100001 190 155 135
10.681 0.29100001 -0.759 45 15 4
10.685 0.28799999 -0.76800001 38 10 0
10.878 0.34 -0.61699998 31 13 3
10.829 0.34900001 -0.616 164 141 133
10.837 0.35699999 -0.62199998 57 26 8
10.822 0.35100001 -0.63 71 36 14
10.825 0.34799999 -0.62300003 159 136 128
10.745 0.271 -0.83600003 156 135 118
10.762 0.28400001 -0.84500003 54 24 14
10.739 0.26199999 -0.847 48 23 19
10.739 0.266 -0.84100002 45 19 2
10.816 0.215 -0.75999999 46 19 0
10.809 0.134 -0.56699997 131 111 102
10.815 0.14399999 -0.57999998 84 69 62
10.807 0.133 -0.56999999 124 89 61
10.78 0.178 -0.72899997 84 49 27
10.784 0.185 -0.74800003 33 18 15
10.82 0.156 -0.65100002 45 23 12
10.809 0.21600001 -0.70999998 163 126 99
10.791 0.182 -0.722 73 62 60
10.757 0.243 -0.76999998 200 198 203
10.791 0.226 -0.73699999 40 14 0
10.784 0.21799999 -0.71799999 27 25 36
10.819 0.162 -0.67000002 58 36 22
10.805 0.164 -0.67000002 90 36 8
10.804 0.164 -0.65700001 87 42 13
10.81 0.163 -0.66500002 29 14 11
10.668 0.30899999 -0.71600002 46 18 6
10.691 0.287 -0.78100002 51 23 2
10.686 0.27500001 -0.75300002 121 118 129
10.706 0.27200001 -0.74800003 64 38 25
10.702 0.26699999 -0.74000001 51 19 4
10.682 0.28600001 -0.764 20 8 10
10.746 0.252 -0.77399999 30 5 0
10.688 0.30399999 -0.722 129 98 78
10.68 0.317 -0.73199999 136 109 88
10.683 0.324 -0.72399998 49 27 6
10.687 0.324 -0.73000002 57 33 23
10.728 0.16500001 -0.45100001 128 96 73
10.748 0.16599999 -0.433 46 32 23
10.721 0.176 -0.43900001 142 113 95
10.729 0.505 -0.48800001 111 104 111
10.721 0.193 -0.44 114 82 69
10.726 0.19 -0.435 38 16 3
10.785 0.227 -0.60299999 132 79 48
10.723 0.184 -0.45899999 37 18 4
10.721 0.17299999 -0.47299999 56 23 8
10.726 0.18799999 -0.47099999 62 47 44
10.735 0.479 -0.55000001 103 59 34
10.816 0.21799999 -0.70999998 130 72 35
10.795 0.241 -0.67799997 99 72 63
10.798 0.23899999 -0.66900003 132 112 101
10.792 0.28099999 -0.68699998 88 54 27
10.818 0.131 -0.514 91 66 61
10.773 0.146 -0.45899999 133 97 71
10.765 0.15800001 -0.44800001 55 33 19
10.762 0.149 -0.45699999 116 71 40
10.759 0.155 -0.45300001 85 55 31
10.84 0.34999999 -0.59399998 76 39 12
10.858 0.34999999 -0.59600002 134 95 64
10.845 0.35699999 -0.59799999 111 71 45
10.752 0.161 -0.44299999 109 81 70
10.813 0.156 -0.66299999 66 31 12
10.812 0.162 -0.66100001 44 23 0
10.806 0.154 -0.63800001 62 43 39
10.69 0.266 -0.72799999 41 18 10
10.694 0.27000001 -0.72500002 32 3 0
10.692 0.27200001 -0.73199999 69 43 26
10.77 0.23 -0.64999998 31 13 3
10.784 0.22499999 -0.65100002 66 47 40
10.811 0.28299999 -0.63499999 58 28 4
10.811 0.285 -0.634 42 24 0
10.829 0.33899999 -0.59399998 62 44 20
10.857 0.32800001 -0.60100001 53 29 5
10.864 0.33899999 -0.58999997 59 31 7
10.862 0.338 -0.59600002 62 36 13
10.818 0.14399999 -0.56900001 88 53 31
10.804 0.175 -0.58899999 21 6 0
10.811 0.17200001 -0.602 86 25 4
10.808 0.17 -0.59500003 28 13 6
10.805 0.182 -0.59600002 26 9 2
10.792 0.175 -0.46599999 63 21 0
10.796 0.182 -0.48699999 55 20 1
10.788 0.185 -0.47400001 132 78 44
10.754 0.175 -0.44400001 83 43 8
10.759 0.182 -0.45199999 108 58 25
10.762 0.161 -0.44299999 100 39 8
10.686 0.28299999 -0.77600002 32 22 23
10.703 0.26899999 -0.736 68 41 14
10.697 0.27200001 -0.73199999 63 36 19
10.796 0.23999999 -0.58600003 151 110 80
10.799 0.23800001 -0.59100002 176 154 117
10.857 0.34599999 -0.68800002 47 22 2
10.855 0.345 -0.68300003 39 6 0
10.847 0.331 -0.68800002 66 20 0
10.849 0.324 -0.68599999 64 45 38
10.881 0.33399999 -0.63 20 5 0
10.868 0.38 -0.81900001 30 14 17
10.811 0.296 -0.68400002 65 36 18
10.85 0.30899999 -0.69199997 60 41 26
10.838 0.324 -0.67799997 80 32 12
10.853 0.31 -0.68000001 55 26 10
10.805 0.28200001 -0.69499999 28 14 13
10.812 0.28299999 -0.685 80 72 69
10.799 0.28600001 -0.69800001 55 34 29
10.792 0.28799999 -0.69099998 41 8 0
10.854 0.31900001 -0.676 109 68 40
10.799 0.21600001 -0.65499997 67 36 15
10.804 0.206 -0.64300001 78 31 1
10.802 0.207 -0.64499998 68 28 2
10.794 0.245 -0.67699999 74 42 31
10.791 0.23999999 -0.68199998 139 123 110
10.779 0.255 -0.69 75 56 41
10.873 0.296 -0.64399999 46 23 15
10.727 0.26800001 -0.85500002 158 138 129
10.73 0.28299999 -0.85100001 167 140 110
10.719 0.27399999 -0.85399997 142 119 111
10.731 0.45899999 -0.57599998 46 24 13
10.717 0.48800001 -0.54299998 59 37 0
10.849 0.39199999 -0.83499998 174 115 49
10.854 0.38999999 -0.82999998 231 171 109
10.79 0.27599999 -0.72799999 45 22 14
10.801 0.23899999 -0.73400003 66 38 27
10.867 0.329 -0.60000002 52 23 5
10.867 0.33899999 -0.59899998 66 39 18
10.869 0.33399999 -0.60900003 53 32 13
10.808 0.20999999 -0.73100001 145 136 139
10.783 0.204 -0.72899997 59 34 12
10.796 0.222 -0.73699999 165 154 148
10.849 0.39199999 -0.84200001 168 118 49
10.83 0.257 -0.82800001 22 5 0
10.819 0.264 -0.82099998 132 96 72
10.818 0.25600001 -0.82599998 44 27 20
10.827 0.241 -0.833 103 81 67
10.822 0.227 -0.759 36 16 9
10.843 0.33500001 -0.83099997 74 37 21
10.836 0.33000001 -0.83700001 57 28 14
10.798 0.29800001 -0.83999997 72 48 36
10.797 0.308 -0.83999997 84 64 53
10.835 0.336 -0.84500003 40 10 0
10.794 0.28600001 -0.83899999 144 134 133
10.788 0.289 -0.83399999 165 130 100
10.806 0.273 -0.82499999 36 8 0
10.802 0.289 -0.83399999 112 71 51
10.813 0.271 -0.82800001 68 58 56
10.803 0.29800001 -0.838 188 177 155
10.766 0.25400001 -0.75400001 119 86 69
10.756 0.25299999 -0.75400001 39 18 17
10.767 0.26199999 -0.75599998 177 159 147
10.791 0.248 -0.76499999 154 140 137
10.812 0.244 -0.833 150 154 166
10.793 0.228 -0.722 55 27 15
10.804 0.23100001 -0.72100002 172 144 122
10.801 0.23899999 -0.73400003 66 38 27
10.791 0.215 -0.69300002 134 125 130
10.799 0.205 -0.66799998 100 72 60
10.789 0.192 -0.69099998 77 41 9
10.791 0.189 -0.66799998 29 10 4
10.791 0.18799999 -0.69199997 100 77 61
10.777 0.25 -0.68900001 161 143 131
10.779 0.24600001 -0.68599999 74 44 34
10.761 0.458 -0.61199999 103 70 51
10.767 0.45199999 -0.62599999 100 68 43
10.765 0.447 -0.62400001 61 30 12
10.742 0.44 -0.60399997 84 67 57
10.738 0.44 -0.59600002 59 27 4
10.839 0.36500001 -0.60500002 93 66 47
10.762 0.43900001 -0.62199998 59 26 9
10.677 0.289 -0.755 34 24 23
10.69 0.29100001 -0.76899999 62 33 17
10.682 0.29499999 -0.75599998 56 23 14
10.695 0.31200001 -0.76899999 60 29 9
10.686 0.29499999 -0.75199997 166 120 94
10.707 0.32600001 -0.81099999 66 34 21
10.705 0.31999999 -0.81699997 66 30 8
10.714 0.324 -0.81400001 60 45 38
10.872 0.338 -0.65399998 59 32 13
10.859 0.34999999 -0.64700001 78 42 18
10.865 0.34 -0.65700001 39 15 3
10.865 0.34 -0.64999998 82 58 48
10.858 0.34799999 -0.65100002 119 74 53
10.874 0.345 -0.61299998 27 11 12
10.868 0.33700001 -0.64099997 43 14 0
10.872 0.322 -0.64099997 77 31 16
10.87 0.329 -0.62900001 36 8 0
10.859 0.33899999 -0.63099998 62 35 14
10.852 0.30599999 -0.62099999 78 54 42
10.85 0.31400001 -0.62199998 77 42 14
10.858 0.33700001 -0.62099999 75 34 12
10.858 0.31299999 -0.62300003 43 23 0
10.832 0.34599999 -0.60500002 172 144 123
10.83 0.347 -0.611 65 34 5
10.727 0.428 -0.59200001 97 69 45
10.754 0.27900001 -0.83200002 40 23 13
10.745 0.27700001 -0.83499998 37 9 0
10.754 0.285 -0.82800001 70 34 18
10.799 0.23 -0.75599998 100 77 43
10.793 0.20100001 -0.75700003 146 136 135
10.788 0.198 -0.75599998 40 36 37
10.815 0.226 -0.755 33 6 0
10.817 0.21799999 -0.74699998 171 160 158
10.808 0.20999999 -0.73799998 170 161 162
10.82 0.21699999 -0.74400002 48 33 4
10.807 0.162 -0.63099998 47 23 13
10.728 0.183 -0.60699999 103 61 39
10.805 0.175 -0.62 50 32 22
10.724 0.198 -0.60600001 81 45 19
10.787 0.192 -0.741 42 18 8
10.787 0.192 -0.73500001 29 9 2
10.785 0.185 -0.73299998 88 41 21
10.785 0.18099999 -0.74199998 184 179 185
10.81 0.133 -0.55900002 163 164 169
10.807 0.133 -0.56 108 95 89
10.807 0.133 -0.55900002 93 59 31
10.822 0.134 -0.537 72 45 34
10.819 0.12800001 -0.52999997 66 34 9
10.823 0.125 -0.52200001 113 95 83
10.817 0.12899999 -0.52899998 76 40 16
10.813 0.132 -0.523 102 74 53
10.821 0.16500001 -0.64899999 58 22 8
10.798 0.17399999 -0.64099997 122 119 126
10.796 0.169 -0.64200002 103 53 18
10.785 0.18700001 -0.65600002 121 89 76
10.793 0.24600001 -0.83700001 149 151 164
10.793 0.248 -0.83399999 169 142 123
10.778 0.199 -0.741 192 186 190
10.774 0.2 -0.73900002 169 151 139
10.761 0.237 -0.74900001 79 29 6
10.76 0.235 -0.75 45 16 8
10.763 0.236 -0.75099999 170 161 162
10.796 0.22 -0.71399999 182 147 119
10.689 0.30700001 -0.73299998 55 28 11
10.815 0.162 -0.66000003 196 190 192
10.815 0.162 -0.667 183 177 179
10.784 0.21699999 -0.70700002 146 143 152
10.69 0.287 -0.778 35 12 0
10.694 0.28099999 -0.75800002 31 25 29
10.69 0.278 -0.74299997 109 73 51
10.68 0.28799999 -0.76200002 147 138 141
10.768 0.34200001 -0.73299998 92 56 30
10.783 0.34599999 -0.73699999 32 9 1
10.767 0.36000001 -0.74599999 152 116 94
10.744 0.25400001 -0.76899999 169 136 93
10.794 0.252 -0.82999998 157 163 179
10.789 0.266 -0.824 40 19 16
10.683 0.28400001 -0.73199999 138 89 56
10.69 0.28799999 -0.74000001 82 51 22
10.786 0.28400001 -0.68699998 42 26 1
10.791 0.28299999 -0.662 71 23 1
10.791 0.28099999 -0.671 68 40 16
10.682 0.31900001 -0.72100002 84 55 39
10.73 0.191 -0.458 81 36 7
10.726 0.189 -0.46200001 56 40 40
10.727 0.18700001 -0.43000001 116 86 62
10.72 0.176 -0.44 120 102 100
10.734 0.189 -0.458 91 68 50
10.742 0.184 -0.46599999 59 31 7
10.721 0.191 -0.44400001 128 114 113
10.733 0.19599999 -0.44 105 82 74
10.793 0.21600001 -0.57800001 67 39 17
10.796 0.22499999 -0.579 79 45 18
10.789 0.21600001 -0.57800001 164 134 80
10.727 0.48199999 -0.537 90 54 28
10.733 0.47799999 -0.54699999 64 32 19
10.731 0.48699999 -0.55000001 37 22 19
10.818 0.22499999 -0.71799999 73 43 19
10.806 0.28400001 -0.70099998 64 36 25
10.802 0.28200001 -0.70200002 61 38 20
10.827 0.14399999 -0.523 117 77 51
10.822 0.16 -0.52100003 56 25 4
10.82 0.154 -0.52700001 124 91 74
10.817 0.132 -0.514 142 121 102
10.78 0.185 -0.50099999 95 68 49
10.772 0.15000001 -0.456 54 41 35
10.84 0.35600001 -0.597 61 37 25
10.849 0.34299999 -0.59799999 62 42 33
10.739 0.16 -0.44800001 110 60 33
10.81 0.163 -0.65100002 23 8 5
10.807 0.154 -0.648 106 88 86
10.803 0.156 -0.639 109 81 60
10.789 0.18799999 -0.64600003 111 88 74
10.791 0.289 -0.64899999 110 71 38
10.791 0.292 -0.65499997 94 54 29
10.797 0.28299999 -0.648 91 50 28
10.801 0.27500001 -0.64700001 61 45 46
10.874 0.30500001 -0.61900002 32 9 1
10.87 0.33000001 -0.61500001 60 31 17
10.815 0.145 -0.57200003 43 19 0
10.762 0.17900001 -0.45100001 82 39 7
10.737 0.19 -0.486 110 55 14
10.754 0.18099999 -0.47999999 96 60 28
10.762 0.164 -0.44299999 123 80 48
10.757 0.162 -0.44100001 87 38 5
10.699 0.28 -0.792 140 142 154
10.702 0.28 -0.78600001 125 127 139
10.801 0.23899999 -0.588 94 63 35
10.791 0.229 -0.579 75 39 13
10.73 0.18799999 -0.59899998 45 19 6
10.728 0.185 -0.60299999 50 18 7
10.797 0.185 -0.63599998 37 21 21
10.796 0.19499999 -0.64499998 62 25 7
10.792 0.189 -0.64499998 27 12 7
10.806 0.175 -0.63800001 46 24 13
10.804 0.20200001 -0.64499998 90 40 7
10.799 0.199 -0.65200001 108 103 110
10.886 0.31900001 -0.63800001 53 34 27
10.87 0.33500001 -0.64099997 42 26 13
10.878 0.34200001 -0.62400001 92 40 3
10.88 0.34099999 -0.63599998 34 20 11
10.853 0.34200001 -0.67699999 52 20 5
10.856 0.33899999 -0.67000002 60 32 21
10.857 0.317 -0.68099999 81 45 21
10.863 0.39399999 -0.81900001 147 89 49
10.867 0.38600001 -0.82599998 208 148 94
10.852 0.31900001 -0.70099998 103 47 14
10.856 0.31 -0.69700003 61 32 14
10.844 0.31400001 -0.70999998 65 43 30
10.845 0.31999999 -0.71700001 55 33 20
10.811 0.29499999 -0.69800001 104 48 11
10.823 0.29899999 -0.708 57 28 10
10.827 0.296 -0.71100003 38 11 2
10.81 0.29499999 -0.70099998 48 20 8
10.844 0.31999999 -0.69 51 34 27
10.834 0.32800001 -0.68099999 45 15 4
10.82 0.27500001 -0.72100002 23 3 0
10.811 0.28600001 -0.72899997 46 22 20
10.811 0.28299999 -0.72399998 106 57 14
10.824 0.287 -0.65200001 147 125 111
10.818 0.285 -0.65100002 102 67 37
10.817 0.28600001 -0.66299999 92 53 24
10.817 0.28999999 -0.64899999 117 80 61
10.788 0.213 -0.65100002 41 22 8
10.792 0.204 -0.639 176 127 94
10.779 0.25099999 -0.68699998 74 40 28
10.78 0.252 -0.68000001 111 55 28
10.769 0.252 -0.67000002 75 27 7
10.721 0.27200001 -0.84899998 151 148 159
10.733 0.28299999 -0.84600002 62 51 33
10.713 0.50099999 -0.54100001 122 97 77
10.718 0.49399999 -0.551 35 23 27
10.726 0.498 -0.53600001 59 42 35
10.715 0.505 -0.54299998 42 22 11
10.731 0.49399999 -0.53600001 76 59 51
10.732 0.495 -0.542 52 33 26
10.724 0.48300001 -0.54900002 118 73 50
10.725 0.44800001 -0.579 165 126 109
10.722 0.48899999 -0.53299999 95 58 40
10.857 0.40400001 -0.78100002 92 69 61
10.856 0.40900001 -0.77399999 114 103 85
10.859 0.40200001 -0.773 100 61 28
10.858 0.40799999 -0.77200001 93 54 25
10.857 0.38499999 -0.83399999 149 120 106
10.782 0.285 -0.72100002 54 30 18
10.787 0.27599999 -0.72500002 63 35 11
10.773 0.28799999 -0.736 46 17 1
10.781 0.287 -0.72799999 50 22 8
10.779 0.25799999 -0.75199997 37 8 0
10.865 0.34799999 -0.60600001 35 12 4
10.809 0.28 -0.65899998 54 36 24
10.81 0.28799999 -0.68400002 147 128 113
10.809 0.28999999 -0.67799997 106 62 37
10.811 0.294 -0.67299998 44 26 12
10.807 0.28099999 -0.67299998 82 32 9
10.806 0.27599999 -0.66600001 161 125 101
10.788 0.193 -0.72899997 18 0 0
10.79 0.205 -0.71799999 34 5 0
10.795 0.20999999 -0.72500002 93 66 45
10.796 0.222 -0.74400002 158 147 141
10.79 0.199 -0.74599999 55 18 2
10.787 0.18700001 -0.75099999 113 91 77
10.786 0.294 -0.69599998 94 64 40
10.798 0.29499999 -0.71100003 55 27 16
10.762 0.31999999 -0.84299999 92 69 53
10.777 0.30500001 -0.83999997 58 15 0
10.762 0.28799999 -0.84399998 139 117 94
10.794 0.31299999 -0.83999997 62 40 27
10.793 0.30599999 -0.83499998 40 21 7
10.833 0.32800001 -0.84200001 46 26 15
10.806 0.33399999 -0.81800002 40 10 0
10.794 0.31900001 -0.81199998 24 0 0
10.798 0.317 -0.80500001 29 6 0
10.798 0.33000001 -0.80800003 66 34 19
10.799 0.29100001 -0.83700001 31 10 7
10.792 0.23899999 -0.745 48 21 10
10.772 0.23999999 -0.75400001 25 0 0
10.789 0.28099999 -0.73500001 97 69 55
10.791 0.255 -0.759 68 44 32
10.781 0.26100001 -0.76099998 122 82 56
10.795 0.23999999 -0.745 189 163 148
10.792 0.236 -0.745 172 155 147
10.79 0.244 -0.76899999 110 88 49
10.807 0.21699999 -0.71600002 73 42 0
10.789 0.205 -0.68699998 51 21 10
10.791 0.205 -0.70300001 103 67 33
10.791 0.213 -0.69499999 85 50 28
10.782 0.213 -0.66100001 65 49 49
10.784 0.208 -0.68199998 162 136 119
10.779 0.206 -0.676 110 74 50
10.774 0.25299999 -0.68300003 77 58 43
10.768 0.241 -0.67000002 23 9 8
10.768 0.24699999 -0.66799998 56 21 2
10.773 0.226 -0.64999998 56 38 28
10.775 0.235 -0.667 101 70 49
10.78 0.243 -0.67299998 79 55 21
10.738 0.44600001 -0.61699998 60 19 0
10.753 0.458 -0.616 70 49 32
10.745 0.44600001 -0.61199999 72 45 24
10.737 0.45699999 -0.59799999 38 0 0
10.755 0.46200001 -0.61400002 93 58 38
10.754 0.465 -0.61699998 78 57 38
10.75 0.46000001 -0.62400001 169 144 124
10.739 0.435 -0.61299998 61 43 23
10.854 0.359 -0.676 174 137 108
10.849 0.35100001 -0.68599999 88 56 33
10.752 0.44800001 -0.60600001 121 86 67
10.826 0.34099999 -0.67299998 56 24 11
10.834 0.34900001 -0.67400002 95 79 79
10.821 0.34799999 -0.68300003 31 17 16
10.822 0.34400001 -0.68300003 60 40 33
10.719 0.389 -0.71499997 36 16 15
10.707 0.40000001 -0.70499998 60 40 39
10.711 0.39700001 -0.71700001 22 8 8
10.716 0.38499999 -0.69099998 58 19 4
10.717 0.398 -0.68199998 64 22 6
10.712 0.39700001 -0.69499999 57 43 42
10.696 0.31400001 -0.778 57 21 5
10.694 0.31799999 -0.77999997 82 41 23
10.692 0.30199999 -0.78600001 150 113 95
10.694 0.315 -0.76899999 74 38 22
10.696 0.31900001 -0.76599997 125 89 67
10.695 0.31900001 -0.76999998 58 27 7
10.705 0.322 -0.77700001 123 109 80
10.711 0.32499999 -0.77600002 90 53 27
10.709 0.33199999 -0.79699999 96 68 46
10.71 0.322 -0.80400002 57 19 0
10.836 0.34099999 -0.61500001 64 39 19
10.835 0.336 -0.62 61 24 8
10.848 0.331 -0.60600001 71 39 14
10.835 0.333 -0.62300003 46 22 20
10.825 0.34099999 -0.62300003 111 76 57
10.825 0.34799999 -0.63 57 35 24
10.826 0.34599999 -0.63800001 30 18 20
10.807 0.29499999 -0.64700001 48 21 14
10.87 0.35299999 -0.61699998 129 92 65
10.869 0.34200001 -0.64099997 39 23 10
10.832 0.345 -0.61199999 71 40 22
10.831 0.34999999 -0.63099998 52 28 16
10.857 0.34999999 -0.64099997 115 76 47
10.871 0.34299999 -0.63499999 29 15 4
10.858 0.34999999 -0.634 121 80 48
10.861 0.352 -0.60100001 60 24 2
10.758 0.46599999 -0.62 188 147 119
10.728 0.271 -0.84399998 137 135 146
10.761 0.31999999 -0.81 133 122 118
10.766 0.324 -0.81199998 46 28 14
10.757 0.30599999 -0.81599998 61 32 16
10.778 0.322 -0.81 126 97 67
10.814 0.212 -0.73699999 98 83 78
10.812 0.16500001 -0.62599999 71 49 38
10.797 0.178 -0.588 25 10 3
10.781 0.208 -0.639 119 66 32
10.787 0.206 -0.63200003 51 35 20
10.789 0.214 -0.62199998 127 112 109
10.812 0.15000001 -0.56599998 76 49 32
10.812 0.147 -0.57300001 47 14 0
10.803 0.167 -0.58200002 30 17 9
10.802 0.18700001 -0.60799998 29 11 0
10.728 0.197 -0.60900003 166 134 111
10.728 0.192 -0.50099999 88 31 11
10.731 0.18700001 -0.49599999 92 75 57
10.73 0.186 -0.5 131 109 96
10.808 0.13500001 -0.56900001 73 45 24
10.799 0.138 -0.56599998 53 37 37
10.799 0.14 -0.56900001 73 38 18
10.789 0.163 -0.61699998 76 20 0
10.772 0.163 -0.59899998 88 69 65
10.794 0.16 -0.60799998 44 16 5
10.805 0.16500001 -0.62400001 106 69 42
10.784 0.18099999 -0.73500001 208 203 209
10.808 0.133 -0.56599998 90 76 73
10.813 0.168 -0.64499998 134 128 128
10.803 0.16500001 -0.648 59 40 34
10.791 0.19 -0.65200001 124 118 128
10.789 0.186 -0.708 101 47 23
10.789 0.186 -0.71600002 26 8 0
10.789 0.19400001 -0.72299999 28 11 4
10.791 0.208 -0.71499997 145 139 143
10.791 0.21600001 -0.704 116 107 108
10.775 0.213 -0.69800001 109 69 33
10.782 0.212 -0.70700002 43 29 28
10.767 0.197 -0.71799999 50 45 49
10.766 0.192 -0.72000003 139 91 71
10.774 0.19 -0.74000001 92 55 29
10.693 0.315 -0.79000002 97 40 20
10.694 0.28600001 -0.77899998 52 25 16
10.685 0.27599999 -0.73299998 37 10 0
10.718 0.28400001 -0.77899998 111 96 99
10.712 0.28200001 -0.79000002 51 38 21
10.721 0.285 -0.78299999 131 130 136
10.741 0.25400001 -0.78299999 134 105 91
10.745 0.255 -0.76499999 169 116 100
10.753 0.26499999 -0.76300001 88 34 10
10.758 0.257 -0.75800002 244 211 168
10.755 0.26100001 -0.77200001 137 119 107
10.697 0.30000001 -0.80199999 82 61 60
10.688 0.315 -0.81 73 32 4
10.7 0.31 -0.80599999 96 39 19
10.815 0.25 -0.82700002 160 166 182
10.81 0.25299999 -0.82700002 59 51 48
10.757 0.301 -0.81599998 136 127 128
10.755 0.29699999 -0.79400003 55 44 22
10.753 0.296 -0.79699999 77 46 28
10.753 0.296 -0.81599998 75 46 32
10.758 0.29800001 -0.81999999 47 26 23
10.784 0.31799999 -0.80699998 187 174 168
10.795 0.31799999 -0.796 28 0 0
10.697 0.28200001 -0.74199998 78 73 80
10.698 0.27599999 -0.73900002 61 37 27
10.79 0.28099999 -0.676 62 28 18
10.738 0.294 -0.75099999 35 9 12
10.735 0.28799999 -0.75 35 9 0
10.735 0.29699999 -0.75099999 38 12 0
10.732 0.303 -0.74900001 68 36 15
10.728 0.189 -0.45199999 145 108 79
10.724 0.17200001 -0.456 56 38 34
10.726 0.175 -0.46599999 70 42 30
10.728 0.164 -0.45500001 98 61 42
10.73 0.164 -0.45500001 101 56 25
10.736 0.171 -0.43099999 111 76 44
10.741 0.191 -0.44499999 92 56 24
10.722 0.191 -0.44600001 65 42 26
10.788 0.23 -0.59399998 171 137 102
10.787 0.228 -0.59799999 55 22 5
10.726 0.184 -0.47299999 72 37 17
10.724 0.17399999 -0.47799999 58 23 4
10.732 0.19599999 -0.59299999 63 31 6
10.75 0.42199999 -0.61900002 70 44 21
10.775 0.34200001 -0.73299998 106 51 21
10.831 0.13500001 -0.523 67 40 21
10.756 0.19 -0.50999999 58 34 30
10.773 0.19 -0.50300002 143 86 43
10.773 0.186 -0.498 163 94 61
10.786 0.185 -0.47999999 142 84 46
10.789 0.15700001 -0.48100001 84 43 15
10.788 0.15899999 -0.47299999 34 14 13
10.774 0.153 -0.46900001 117 72 41
10.812 0.153 -0.51200002 119 100 86
10.77 0.183 -0.48100001 94 78 62
10.764 0.185 -0.47999999 68 36 11
10.772 0.177 -0.46000001 125 73 34
10.784 0.178 -0.46599999 66 21 0
10.782 0.15899999 -0.46399999 65 29 5
10.767 0.148 -0.45699999 73 40 21
10.773 0.155 -0.47600001 108 77 56
10.779 0.161 -0.49000001 66 28 7
10.792 0.167 -0.64099997 50 16 7
10.79 0.167 -0.63999999 114 75 44
10.79 0.16500001 -0.63599998 92 72 65
10.739 0.177 -0.60299999 40 31 34
10.746 0.186 -0.61199999 67 38 24
10.747 0.17900001 -0.60399997 63 42 25
10.738 0.17299999 -0.58999997 107 76 58
10.773 0.178 -0.70700002 80 35 14
10.775 0.24699999 -0.65700001 65 14 0
10.776 0.23999999 -0.65700001 49 29 18
10.791 0.235 -0.65499997 162 140 127
10.799 0.27500001 -0.65899998 97 63 51
10.805 0.27599999 -0.65499997 49 22 3
10.812 0.28299999 -0.64700001 119 75 38
10.782 0.25 -0.65899998 43 23 12
10.863 0.30899999 -0.61199999 59 26 7
10.853 0.30899999 -0.61799997 17 6 12
10.874 0.31799999 -0.62 88 66 52
10.81 0.147 -0.52399999 188 183 187
10.811 0.142 -0.51700002 72 25 7
10.804 0.148 -0.53100002 64 40 36
10.816 0.15000001 -0.53200001 137 105 84
10.815 0.155 -0.52499998 159 154 160
10.797 0.171 -0.479 50 23 12
10.792 0.168 -0.472 124 92 77
10.792 0.175 -0.472 44 8 0
10.759 0.184 -0.456 100 82 78
10.763 0.175 -0.47099999 109 53 16
10.759 0.16 -0.44499999 81 34 4
10.705 0.28099999 -0.78899997 24 12 14
10.694 0.28600001 -0.80299997 52 32 33
10.709 0.287 -0.81 51 29 8
10.698 0.28099999 -0.76499999 114 109 115
10.708 0.287 -0.77100003 53 22 4
10.704 0.28799999 -0.76499999 53 26 5
10.792 0.229 -0.579 157 126 97
10.794 0.19599999 -0.61400002 20 3 0
10.798 0.185 -0.60699999 69 41 27
10.795 0.183 -0.59399998 107 80 69
10.779 0.18700001 -0.58600003 153 108 69
10.791 0.20299999 -0.63200003 173 142 124
10.791 0.208 -0.62599999 55 39 26
10.792 0.20900001 -0.62 47 30 20
10.789 0.22499999 -0.60600001 56 31 26
10.797 0.235 -0.59600002 109 80 74
10.836 0.34400001 -0.68699998 134 101 82
10.838 0.338 -0.69300002 38 13 6
10.844 0.336 -0.69199997 89 51 30
10.874 0.31299999 -0.64200002 40 28 30
10.865 0.30399999 -0.64999998 41 27 16
10.863 0.308 -0.63700002 93 49 24
10.861 0.29499999 -0.63700002 85 39 6
10.868 0.31200001 -0.63300002 128 114 105
10.849 0.324 -0.68300003 56 26 15
10.818 0.29699999 -0.71399999 36 13 5
10.831 0.31299999 -0.70899999 40 16 6
10.817 0.29899999 -0.72000003 100 40 12
10.81 0.29499999 -0.71100003 80 50 24
10.803 0.296 -0.71899998 47 23 11
10.797 0.29800001 -0.71499997 62 43 13
10.788 0.29699999 -0.72500002 146 124 126
10.831 0.34 -0.68699998 112 66 32
10.83 0.33399999 -0.67299998 53 30 14
10.841 0.32600001 -0.69199997 27 11 0
10.831 0.32600001 -0.708 39 10 0
10.844 0.33500001 -0.70300001 45 20 16
10.844 0.31799999 -0.69599998 81 54 37
10.847 0.31799999 -0.68800002 70 41 25
10.806 0.271 -0.66399997 39 20 6
10.85 0.27900001 -0.71399999 125 74 31
10.854 0.27700001 -0.71499997 91 63 42
10.852 0.28099999 -0.71799999 38 14 4
10.845 0.31400001 -0.70300001 87 67 56
10.847 0.31799999 -0.70499998 70 44 29
10.807 0.292 -0.69700003 41 22 8
10.794 0.292 -0.69199997 47 28 24
10.882 0.29100001 -0.62800002 74 54 47
10.88 0.292 -0.63 92 52 26
10.87 0.29800001 -0.62900001 35 7 0
10.871 0.30199999 -0.65399998 67 53 53
10.86 0.31099999 -0.69 81 45 19
10.862 0.33500001 -0.66399997 51 15 0
10.847 0.33700001 -0.662 27 13 13
10.79 0.205 -0.63300002 104 68 46
10.88 0.303 -0.63999999 42 15 6
10.784 0.329 -0.84600002 109 72 53
10.778 0.31900001 -0.85299999 48 25 7
10.835 0.38299999 -0.83999997 242 193 137
10.84 0.37599999 -0.84200001 59 49 50
10.713 0.27500001 -0.84799999 163 136 119
10.713 0.27399999 -0.82499999 42 26 26
10.735 0.28999999 -0.84299999 38 19 15
10.728 0.5 -0.542 51 34 26
10.685 0.31299999 -0.80199999 151 142 145
10.683 0.317 -0.79799998 36 13 5
10.697 0.32600001 -0.80199999 52 16 2
10.694 0.31900001 -0.792 56 21 2
10.753 0.37200001 -0.80199999 63 33 9
10.762 0.37200001 -0.80199999 43 22 5
10.757 0.377 -0.81599998 47 20 11
10.748 0.39300001 -0.787 31 16 19
10.748 0.38600001 -0.78500003 86 36 1
10.741 0.38699999 -0.77399999 151 122 108
10.746 0.37599999 -0.801 51 20 0
10.746 0.391 -0.77999997 23 17 3
10.758 0.46799999 -0.62400001 68 22 0
10.864 0.40599999 -0.77999997 112 72 46
10.864 0.41 -0.78100002 86 67 61
10.855 0.39500001 -0.81999999 20 9 15
10.845 0.38699999 -0.83499998 168 113 49
10.844 0.38 -0.829 117 61 12
10.858 0.37599999 -0.82599998 127 100 81
10.848 0.373 -0.83999997 133 120 111
10.858 0.37599999 -0.81199998 134 73 19
10.853 0.37799999 -0.829 27 11 11
10.779 0.28600001 -0.73699999 41 17 7
10.767 0.26899999 -0.75700003 170 152 140
10.805 0.29100001 -0.64099997 31 13 3
10.829 0.34200001 -0.639 96 44 20
10.844 0.338 -0.62800002 134 123 127
10.842 0.34 -0.653 62 25 6
10.849 0.34400001 -0.63999999 62 34 20
10.794 0.289 -0.67400002 81 44 18
10.81 0.28600001 -0.66900003 52 35 28
10.805 0.29800001 -0.67199999 41 25 10
10.795 0.29300001 -0.68099999 122 93 79
10.793 0.29499999 -0.67699999 79 50 36
10.776 0.28999999 -0.72899997 46 28 24
10.787 0.28999999 -0.73799998 40 20 22
10.806 0.359 -0.70700002 68 31 4
10.81 0.36199999 -0.71200001 65 34 14
10.806 0.366 -0.70599997 97 61 47
10.712 0.27599999 -0.741 97 66 48
10.736 0.30000001 -0.76099998 155 100 79
10.738 0.29899999 -0.75999999 47 15 4
10.763 0.32300001 -0.84200001 105 73 62
10.832 0.338 -0.83600003 54 21 6
10.846 0.33700001 -0.83200002 21 6 9
10.837 0.33700001 -0.838 146 127 113
10.843 0.34 -0.84100002 110 102 99
10.784 0.28799999 -0.82200003 96 63 30
10.785 0.294 -0.82099998 42 19 13
10.788 0.28600001 -0.81599998 152 126 111
10.798 0.292 -0.82300001 21 2 0
10.762 0.292 -0.84500003 49 31 17
10.744 0.30199999 -0.847 74 48 31
10.788 0.32699999 -0.82800001 33 2 0
10.795 0.33199999 -0.82200003 35 6 0
10.787 0.32800001 -0.82099998 26 6 5
10.778 0.317 -0.83399999 49 16 0
10.801 0.33399999 -0.82099998 34 12 1
10.808 0.336 -0.82499999 167 156 154
10.784 0.338 -0.81400001 169 154 149
10.789 0.331 -0.82099998 138 127 123
10.798 0.29800001 -0.83099997 26 6 0
10.756 0.317 -0.83200002 134 112 98
10.737 0.31299999 -0.83099997 38 14 4
10.746 0.31299999 -0.82599998 66 41 21
10.789 0.23999999 -0.75199997 160 145 142
10.764 0.235 -0.75800002 156 146 147
10.764 0.23800001 -0.75199997 56 22 10
10.776 0.257 -0.75400001 108 78 42
10.791 0.248 -0.75300002 112 91 86
10.785 0.19499999 -0.67699999 45 17 3
10.771 0.226 -0.66500002 137 109 98
10.784 0.189 -0.66299999 127 100 83
10.762 0.21799999 -0.65700001 118 68 33
10.769 0.215 -0.66100001 45 25 24
10.757 0.20299999 -0.676 90 64 31
10.76 0.198 -0.67000002 63 43 16
10.769 0.22499999 -0.662 85 70 63
10.777 0.226 -0.66100001 60 40 39
10.763 0.23100001 -0.66100001 128 110 100
10.764 0.204 -0.68199998 157 155 160
10.758 0.20299999 -0.68800002 41 36 42
10.773 0.242 -0.67199999 165 149 136
10.788 0.242 -0.67500001 55 31 19
10.789 0.236 -0.66100001 168 149 135
10.752 0.46399999 -0.62300003 62 43 26
10.753 0.46700001 -0.63099998 109 74 52
10.734 0.44299999 -0.60000002 65 40 20
10.744 0.442 -0.611 102 68 41
10.755 0.44800001 -0.62 97 60 31
10.847 0.35299999 -0.63200003 90 61 45
10.835 0.34999999 -0.64600003 80 52 38
10.848 0.352 -0.64099997 82 54 40
10.872 0.352 -0.62599999 88 57 36
10.864 0.34799999 -0.62900001 116 77 46
10.833 0.35100001 -0.616 41 14 0
10.688 0.317 -0.71600002 150 123 112
10.709 0.30500001 -0.80000001 165 159 159
10.708 0.31600001 -0.81 76 53 45
10.688 0.29100001 -0.755 70 32 9
10.706 0.296 -0.76300001 48 33 10
10.725 0.32699999 -0.76700002 56 25 4
10.729 0.331 -0.77899998 156 114 90
10.727 0.32300001 -0.76499999 117 102 79
10.744 0.32300001 -0.76899999 77 36 14
10.731 0.31999999 -0.76599997 158 120 99
10.85 0.33899999 -0.65799999 51 25 10
10.854 0.31 -0.62900001 69 22 2
10.855 0.29699999 -0.639 107 70 43
10.857 0.29699999 -0.63999999 109 70 39
10.859 0.352 -0.62099999 51 33 33
10.851 0.359 -0.61199999 137 118 103
10.856 0.35100001 -0.62099999 124 84 58
10.847 0.36199999 -0.61500001 103 72 51
10.875 0.338 -0.639 48 10 0
10.832 0.34900001 -0.63800001 154 130 118
10.84 0.34900001 -0.63200003 82 45 18
10.865 0.347 -0.60299999 113 91 77
10.735 0.44400001 -0.62699997 55 13 0
10.749 0.45100001 -0.62699997 156 140 140
10.726 0.271 -0.84500003 45 18 1
10.797 0.26199999 -0.80299997 60 25 3
10.805 0.25799999 -0.80500001 141 146 165
10.796 0.259 -0.80800003 83 48 20
10.798 0.26499999 -0.80000001 70 43 32
10.78 0.27599999 -0.82800001 157 111 95
10.731 0.27599999 -0.82300001 31 2 0
10.731 0.27000001 -0.81 65 31 4
10.726 0.271 -0.81699997 166 166 178
10.707 0.27700001 -0.79900002 24 15 18
10.799 0.161 -0.63300002 81 57 45
10.777 0.192 -0.63200003 30 17 11
10.774 0.184 -0.63099998 40 13 0
10.771 0.17900001 -0.625 70 35 15
10.751 0.186 -0.611 65 34 14
10.757 0.186 -0.61199999 148 116 95
10.787 0.17900001 -0.58700001 31 14 7
10.804 0.167 -0.588 27 14 6
10.803 0.18099999 -0.60100001 22 5 0
10.728 0.18700001 -0.60699999 43 26 8
10.778 0.20999999 -0.634 44 26 24
10.781 0.215 -0.59799999 71 35 13
10.776 0.212 -0.634 119 105 102
10.802 0.161 -0.588 57 30 19
10.795 0.161 -0.59799999 42 10 0
10.798 0.162 -0.59299999 63 21 0
10.808 0.168 -0.616 53 27 10
10.804 0.17 -0.61199999 81 46 24
10.797 0.16500001 -0.60699999 71 44 33
10.798 0.16599999 -0.60100001 43 33 34
10.792 0.161 -0.60399997 58 44 41
10.777 0.168 -0.61299998 39 24 19
10.784 0.185 -0.73799998 50 30 23
10.789 0.18700001 -0.75 90 84 88
10.787 0.192 -0.71600002 39 19 12
10.786 0.185 -0.69700003 66 43 25
10.787 0.18099999 -0.708 80 55 25
10.783 0.175 -0.70700002 112 84 70
10.79 0.18700001 -0.722 28 11 3
10.772 0.245 -0.676 44 25 8
10.791 0.207 -0.685 146 136 137
10.781 0.213 -0.71799999 29 13 14
10.757 0.19599999 -0.704 94 62 47
10.755 0.17900001 -0.69199997 234 177 147
10.748 0.18700001 -0.68699998 75 28 10
10.768 0.20100001 -0.71499997 64 32 11
10.699 0.31999999 -0.78799999 46 18 0
10.694 0.294 -0.77499998 145 89 64
10.746 0.382 -0.77200001 91 45 22
10.75 0.368 -0.76599997 17 3 3
10.746 0.37799999 -0.76599997 74 69 49
10.76 0.352 -0.79799998 79 42 13
10.763 0.37400001 -0.79500002 98 49 9
10.759 0.35100001 -0.78899997 45 20 13
10.725 0.28999999 -0.77399999 77 36 14
10.735 0.30000001 -0.76700002 147 131 132
10.745 0.25600001 -0.77899998 37 16 0
10.761 0.26199999 -0.75800002 126 107 101
10.8 0.25299999 -0.829 184 169 162
10.796 0.259 -0.824 80 45 17
10.813 0.25799999 -0.81699997 46 19 0
10.792 0.271 -0.81900001 65 19 0
10.761 0.30599999 -0.82700002 106 77 59
10.769 0.30399999 -0.829 46 20 5
10.764 0.31999999 -0.83700001 79 60 46
10.779 0.29899999 -0.82300001 162 123 94
10.78 0.32600001 -0.82300001 161 125 99
10.761 0.38499999 -0.76099998 99 71 47
10.752 0.38600001 -0.759 106 84 63
10.762 0.38800001 -0.76200002 146 90 41
10.7 0.301 -0.74000001 56 28 6
10.696 0.29499999 -0.74900001 40 23 0
10.705 0.296 -0.75 58 35 27
10.788 0.27700001 -0.68099999 43 11 0
10.746 0.28999999 -0.76499999 147 115 100
10.731 0.167 -0.46399999 37 21 21
10.738 0.16500001 -0.463 82 48 23
10.724 0.191 -0.44499999 144 115 97
10.789 0.184 -0.51800001 132 79 35
10.786 0.17900001 -0.50800002 71 49 36
10.732 0.189 -0.46900001 112 72 46
10.737 0.192 -0.491 42 23 16
10.737 0.18799999 -0.611 103 77 60
10.8 0.28600001 -0.72899997 73 49 39
10.84 0.329 -0.67500001 71 33 10
10.809 0.133 -0.52399999 173 131 106
10.806 0.145 -0.52999997 193 152 122
10.811 0.13600001 -0.51700002 99 62 35
10.817 0.14300001 -0.56 73 31 6
10.813 0.139 -0.55699998 114 88 73
10.823 0.14399999 -0.53500003 230 213 193
10.819 0.14399999 -0.542 86 33 2
10.743 0.18700001 -0.50400001 102 76 61
10.741 0.189 -0.493 117 60 17
10.76 0.193 -0.52499998 116 85 67
10.763 0.191 -0.51899999 48 12 0
10.787 0.162 -0.49000001 75 54 53
10.779 0.161 -0.505 54 17 0
10.796 0.16500001 -0.48699999 179 105 68
10.79 0.167 -0.46599999 90 53 27
10.765 0.152 -0.46799999 129 75 37
10.758 0.15800001 -0.46599999 42 24 24
10.78 0.189 -0.65899998 94 74 47
10.754 0.183 -0.68300003 143 140 149
10.778 0.175 -0.70099998 155 145 136
10.773 0.17900001 -0.68900001 50 13 0
10.766 0.178 -0.69499999 53 20 5
10.766 0.18700001 -0.713 57 24 9
10.81 0.287 -0.64099997 28 10 0
10.809 0.28 -0.653 57 35 21
10.776 0.24699999 -0.65899998 67 49 39
10.869 0.30500001 -0.62 88 62 47
10.817 0.148 -0.56 121 119 124
10.811 0.15000001 -0.51999998 132 104 90
10.809 0.153 -0.52600002 134 109 89
10.728 0.175 -0.50099999 49 17 2
10.739 0.16500001 -0.51300001 42 30 32
10.745 0.16599999 -0.505 68 43 23
10.734 0.17299999 -0.491 75 39 15
10.731 0.176 -0.48500001 57 26 6
10.741 0.17200001 -0.48899999 80 44 20
10.762 0.161 -0.49700001 164 125 92
10.73 0.186 -0.486 80 34 0
10.73 0.30199999 -0.755 57 29 8
10.699 0.28799999 -0.80199999 76 42 15
10.707 0.29100001 -0.75400001 82 42 16
10.708 0.29300001 -0.74599999 50 22 11
10.688 0.28600001 -0.76800001 30 5 0
10.732 0.32300001 -0.792 66 51 18
10.788 0.171 -0.63 113 89 77
10.778 0.184 -0.639 122 81 49
10.778 0.184 -0.59399998 128 96 83
10.793 0.182 -0.59399998 23 6 0
10.755 0.182 -0.60399997 119 114 120
10.778 0.184 -0.63700002 135 94 66
10.776 0.183 -0.63 72 26 3
10.783 0.176 -0.62699997 51 14 0
10.782 0.19 -0.62599999 91 66 46
10.785 0.192 -0.61799997 46 28 18
10.781 0.18700001 -0.61799997 93 50 18
10.784 0.191 -0.62400001 40 22 8
10.794 0.189 -0.63300002 64 28 0
10.793 0.206 -0.62099999 76 44 21
10.791 0.23100001 -0.59600002 114 82 35
10.797 0.233 -0.59299999 111 68 36
10.856 0.38800001 -0.815 134 127 134
10.86 0.38800001 -0.80599999 136 79 36
10.857 0.39399999 -0.80800003 128 117 123
10.785 0.331 -0.79799998 101 70 50
10.789 0.324 -0.79400003 90 66 54
10.795 0.32800001 -0.80299997 81 59 48
10.813 0.29699999 -0.72399998 163 123 98
10.835 0.30899999 -0.713 72 44 20
10.834 0.30599999 -0.722 62 36 23
10.814 0.28600001 -0.71499997 96 69 58
10.79 0.29499999 -0.68800002 60 31 17
10.778 0.345 -0.71899998 122 100 87
10.768 0.34799999 -0.71200001 40 24 24
10.837 0.329 -0.70099998 44 8 0
10.842 0.315 -0.70300001 44 17 6
10.848 0.31600001 -0.69 58 28 17
10.855 0.308 -0.69099998 49 28 25
10.802 0.289 -0.69999999 59 33 18
10.807 0.292 -0.69099998 38 18 7
10.86 0.34 -0.66299999 50 23 12
10.849 0.352 -0.671 47 26 5
10.787 0.205 -0.63599998 60 35 28
10.843 0.38699999 -0.84799999 254 205 139
10.694 0.32499999 -0.80900002 48 12 0
10.721 0.50599998 -0.55000001 21 7 6
10.709 0.40200001 -0.72399998 103 66 39
10.708 0.41 -0.70200002 106 70 44
10.711 0.412 -0.727 142 123 119
10.72 0.28099999 -0.847 168 149 143
10.722 0.5 -0.542 49 20 4
10.692 0.31799999 -0.79400003 71 36 17
10.709 0.40799999 -0.69400001 142 139 148
10.75 0.46200001 -0.62699997 177 163 163
10.724 0.49399999 -0.55000001 133 88 69
10.754 0.37900001 -0.81999999 156 143 127
10.758 0.377 -0.82599998 36 11 4
10.752 0.38100001 -0.82099998 38 12 0
10.756 0.377 -0.81800002 60 22 0
10.748 0.39300001 -0.78299999 124 93 72
10.855 0.34599999 -0.65499997 43 15 4
10.838 0.38699999 -0.83899999 49 22 1
10.79 0.37599999 -0.787 37 15 4
10.791 0.366 -0.78299999 141 110 82
10.782 0.368 -0.773 101 48 16
10.863 0.37400001 -0.81999999 128 68 18
10.782 0.28400001 -0.74199998 139 112 95
10.854 0.33399999 -0.61799997 130 121 126
10.806 0.289 -0.65799999 145 127 115
10.752 0.366 -0.74400002 109 79 55
10.758 0.36399999 -0.72600001 60 36 12
10.74 0.36399999 -0.75199997 129 111 91
10.74 0.36500001 -0.74900001 80 55 25
10.763 0.36199999 -0.75300002 94 65 47
10.822 0.35100001 -0.68699998 160 115 76
10.833 0.33199999 -0.708 81 47 22
10.724 0.39399999 -0.68000001 114 60 22
10.725 0.40400001 -0.68000001 52 24 3
10.737 0.38600001 -0.68599999 36 22 21
10.714 0.40099999 -0.73400003 163 157 169
10.749 0.447 -0.63599998 149 123 106
10.741 0.43200001 -0.64200002 42 24 22
10.737 0.44100001 -0.63200003 28 8 1
10.757 0.447 -0.64399999 87 59 48
10.753 0.45699999 -0.64399999 77 50 39
10.8 0.36700001 -0.70899999 90 53 35
10.711 0.27900001 -0.74599999 45 18 11
10.722 0.32100001 -0.78100002 95 56 39
10.77 0.35600001 -0.80699998 78 48 37
10.768 0.345 -0.80800003 42 8 0
10.772 0.35100001 -0.81099999 38 8 0
10.842 0.33899999 -0.84299999 19 4 9
10.848 0.37 -0.84299999 108 81 64
10.845 0.373 -0.83600003 115 63 26
10.776 0.31600001 -0.84899998 71 42 26
10.763 0.31 -0.83499998 118 107 103
10.745 0.30599999 -0.84500003 176 147 139
10.767 0.317 -0.838 74 38 14
10.793 0.347 -0.81 79 53 40
10.776 0.34 -0.81099999 39 7 0
10.779 0.33399999 -0.81800002 26 6 0
10.794 0.29499999 -0.824 98 65 46
10.79 0.31999999 -0.80299997 41 18 10
10.74 0.303 -0.80599999 44 19 14
10.739 0.29499999 -0.81099999 98 64 39
10.735 0.31400001 -0.79299998 158 139 124
10.732 0.30899999 -0.83099997 131 109 96
10.758 0.31999999 -0.83499998 69 42 23
10.768 0.32600001 -0.83700001 66 34 21
10.788 0.234 -0.75099999 173 159 156
10.784 0.245 -0.76200002 100 64 40
10.761 0.242 -0.764 177 172 178
10.761 0.24600001 -0.75400001 90 64 41
10.792 0.249 -0.759 131 113 109
10.796 0.197 -0.65700001 40 22 8
10.752 0.19599999 -0.671 89 87 98
10.767 0.22 -0.65600002 148 93 52
10.77 0.205 -0.676 146 144 149
10.756 0.20200001 -0.68199998 105 71 34
10.754 0.19499999 -0.68699998 158 157 163
10.779 0.233 -0.66399997 143 127 114
10.786 0.22400001 -0.66000003 118 102 102
10.765 0.223 -0.65899998 58 26 5
10.772 0.245 -0.66299999 43 26 10
10.731 0.45300001 -0.59200001 76 39 21
10.747 0.43099999 -0.61900002 82 47 28
10.762 0.46000001 -0.63 129 123 133
10.686 0.324 -0.72299999 102 79 71
10.692 0.31299999 -0.727 42 14 0
10.728 0.403 -0.68000001 74 42 21
10.736 0.403 -0.67500001 95 51 24
10.734 0.39700001 -0.68099999 85 36 3
10.726 0.31099999 -0.79799998 79 57 44
10.751 0.35100001 -0.77999997 127 109 89
10.762 0.36700001 -0.76999998 72 46 19
10.763 0.35600001 -0.77600002 77 50 39
10.717 0.315 -0.76300001 133 101 88
10.849 0.347 -0.66299999 39 9 1
10.82 0.28799999 -0.64499998 120 104 91
10.858 0.33700001 -0.65100002 71 29 13
10.846 0.36000001 -0.60699999 168 131 102
10.77 0.44299999 -0.63599998 113 90 82
10.76 0.428 -0.62699997 77 51 34
10.839 0.34900001 -0.64300001 41 11 0
10.846 0.34999999 -0.64499998 34 12 0
10.865 0.34200001 -0.597 43 16 0
10.744 0.242 -0.79299998 153 100 69
10.741 0.249 -0.792 98 91 99
10.746 0.25 -0.79500002 149 148 162
10.752 0.24600001 -0.79500002 44 21 15
10.755 0.24600001 -0.78500003 27 4 0
10.762 0.26199999 -0.80400002 144 149 168
10.758 0.245 -0.78399998 86 54 33
10.737 0.28 -0.81199998 98 80 60
10.743 0.257 -0.79500002 66 30 4
10.719 0.27200001 -0.81800002 45 24 23
10.711 0.27900001 -0.80699998 96 95 101
10.703 0.28 -0.79900002 104 104 112
10.752 0.34799999 -0.78799999 127 117 107
10.741 0.29800001 -0.84100002 140 106 71
10.741 0.289 -0.83499998 36 10 0
10.735 0.31099999 -0.833 93 53 28
10.743 0.30500001 -0.83200002 37 13 9
10.783 0.164 -0.62599999 56 24 0
10.786 0.16500001 -0.62 113 78 56
10.795 0.162 -0.62800002 115 77 54
10.776 0.182 -0.62699997 99 59 34
10.727 0.197 -0.60500002 150 83 40
10.779 0.20100001 -0.63700002 74 47 30
10.779 0.206 -0.63499999 151 140 138
10.786 0.21600001 -0.60799998 85 32 14
10.789 0.205 -0.62199998 99 62 35
10.759 0.182 -0.50199997 116 58 18
10.752 0.18000001 -0.498 68 47 26
10.732 0.18099999 -0.49000001 57 39 19
10.811 0.138 -0.56599998 81 59 46
10.756 0.169 -0.57800001 144 108 82
10.76 0.16500001 -0.58700001 56 28 16
10.752 0.17 -0.58399999 59 25 0
10.812 0.14399999 -0.57700002 82 60 49
10.795 0.161 -0.597 66 53 47
10.761 0.16500001 -0.55199999 59 29 18
10.778 0.161 -0.55000001 128 85 53
10.781 0.156 -0.55599999 158 144 133
10.776 0.15800001 -0.53799999 69 41 27
10.775 0.169 -0.60900003 63 27 1
10.78 0.167 -0.60100001 90 50 24
10.794 0.164 -0.58399999 60 42 30
10.788 0.164 -0.58200002 100 81 77
10.797 0.161 -0.57599998 74 48 33
10.793 0.164 -0.57800001 75 19 0
10.783 0.215 -0.71499997 76 39 13
10.758 0.199 -0.70300001 83 35 12
10.766 0.204 -0.69599998 153 148 154
10.759 0.18000001 -0.69499999 135 130 137
