ply
format ascii 1.0
comment PCL generated
element vertex 113
property float x
property float y
property float z
property uchar red
property uchar green
property uchar blue
element camera 1
property float view_px
property float view_py
property float view_pz
property float x_axisx
property float x_axisy
property float x_axisz
property float y_axisx
property float y_axisy
property float y_axisz
property float z_axisx
property float z_axisy
property float z_axisz
property float focal
property float scalex
property float scaley
property float centerx
property float centery
property int viewportx
property int viewporty
property float k1
property float k2
end_header
-7.2470002 9.3970003 -0.662 135 61 16
-7.2470002 9.3950005 -0.65899998 204 142 95
-7.256 9.3900003 -0.667 104 55 22
-7.237 9.4029999 -0.648 239 161 87
-7.2059999 9.3690004 -0.65100002 229 165 104
-7.2080002 9.3649998 -0.64899999 157 104 64
-7.2199998 9.3769999 -0.64200002 110 69 37
-7.2049999 9.382 -0.65100002 187 112 45
-7.2490001 9.3850002 -0.653 88 61 31
-7.23 9.3669996 -0.64700001 173 97 45
-7.237 9.368 -0.64399999 154 107 77
-7.2340002 9.3579998 -0.66600001 152 89 46
-7.243 9.3879995 -0.67699999 66 39 18
-7.2449999 9.3760004 -0.676 108 54 20
-7.223 9.3830004 -0.68699998 135 51 15
-7.2509999 9.3889999 -0.67400002 101 71 60
-7.1989999 9.3889999 -0.676 134 69 27
-7.204 9.4110003 -0.67400002 161 90 36
-7.2030001 9.408 -0.685 166 97 40
-7.2010002 9.3929996 -0.68000001 255 237 213
-7.2459998 9.3640003 -0.65499997 160 108 68
-7.2179999 9.3640003 -0.65799999 254 205 136
-7.2220001 9.3660002 -0.65799999 255 219 146
-7.21 9.3660002 -0.66600001 124 51 6
-7.2090001 9.3590002 -0.676 124 90 63
-7.2379999 9.3879995 -0.64700001 200 120 47
-7.2259998 9.3900003 -0.648 197 120 66
-7.224 9.401 -0.64899999 184 107 55
-7.2329998 9.4049997 -0.65200001 150 104 71
-7.2540002 9.3909998 -0.66799998 83 58 28
-7.2420001 9.3929996 -0.66900003 154 127 106
-7.2470002 9.3909998 -0.67000002 69 37 16
-7.2360001 9.4049997 -0.65200001 105 53 13
-7.2470002 9.3669996 -0.65799999 173 110 59
-7.2480001 9.3690004 -0.66600001 158 100 52
-7.2540002 9.3760004 -0.667 125 61 26
-7.2470002 9.3719997 -0.65100002 233 145 58
-7.2470002 9.3730001 -0.65600002 209 170 141
-7.2010002 9.3699999 -0.66500002 165 108 63
-7.197 9.3699999 -0.67400002 138 95 61
-7.1960001 9.3850002 -0.66600001 141 123 113
-7.2030001 9.3889999 -0.68000001 125 72 40
-7.2030001 9.3769999 -0.68000001 123 79 44
-7.2379999 9.3649998 -0.67400002 138 73 33
-7.2449999 9.3669996 -0.66799998 144 104 69
-7.2160001 9.3719997 -0.64700001 152 114 78
-7.2389998 9.3809996 -0.648 166 110 63
-7.2410002 9.3789997 -0.648 223 160 107
-7.2360001 9.3809996 -0.648 224 157 104
-7.2449999 9.3830004 -0.64899999 153 82 40
-7.2119999 9.4029999 -0.653 78 37 17
-7.2119999 9.3970003 -0.64999998 192 109 59
-7.2160001 9.3999996 -0.65100002 217 172 143
-7.223 9.3859997 -0.64200002 118 82 56
-7.2319999 9.4040003 -0.66100001 85 54 26
-7.2509999 9.3800001 -0.66399997 126 91 71
-7.2470002 9.3789997 -0.65499997 162 108 62
-7.2519999 9.3839998 -0.66500002 178 120 80
-7.2059999 9.3669996 -0.671 169 107 68
-7.2010002 9.3789997 -0.66100001 179 119 65
-7.2379999 9.3629999 -0.67199999 141 77 29
-7.224 9.4040003 -0.65499997 151 100 73
-7.2220001 9.4040003 -0.66100001 132 49 0
-7.23 9.3940001 -0.68199998 65 36 22
-7.2150002 9.3889999 -0.685 43 20 14
-7.2350001 9.3730001 -0.676 143 87 50
-7.237 9.3730001 -0.67500001 181 136 103
-7.2259998 9.3669996 -0.68400002 116 75 47
-7.2449999 9.3909998 -0.653 111 78 59
-7.2309999 9.3760004 -0.64700001 141 95 61
-7.2220001 9.3920002 -0.64899999 159 135 123
-7.223 9.4029999 -0.66500002 158 109 68
-7.2140002 9.4090004 -0.66900003 119 94 87
-7.2119999 9.3920002 -0.648 173 138 106
-7.2069998 9.3970003 -0.65600002 171 118 78
-7.244 9.3660002 -0.662 184 104 43
-7.211 9.4139996 -0.67900002 144 88 63
-7.2220001 9.3999996 -0.67699999 86 56 32
-7.2179999 9.3620005 -0.67400002 137 69 30
-7.2220001 9.3649998 -0.67000002 126 50 1
-7.2329998 9.375 -0.64700001 224 163 106
-7.2199998 9.375 -0.64499998 187 121 71
-7.2290001 9.368 -0.65799999 254 197 128
-7.2480001 9.3769999 -0.67299998 176 92 22
-7.2059999 9.4029999 -0.667 102 78 42
-7.2140002 9.3870001 -0.64700001 101 61 26
-7.2010002 9.3929996 -0.66500002 154 109 70
-7.2049999 9.3760004 -0.65600002 219 149 90
-7.2319999 9.3859997 -0.67900002 146 75 33
-7.2119999 9.4090004 -0.67199999 217 161 128
-7.2179999 9.4029999 -0.67900002 145 101 66
-7.2179999 9.401 -0.68000001 135 112 80
-7.2189999 9.3950005 -0.68000001 163 110 78
-7.2179999 9.3690004 -0.68099999 73 48 26
-7.2150002 9.3629999 -0.68000001 120 57 13
-7.2249999 9.375 -0.68300003 136 52 0
-7.211 9.3629999 -0.67299998 112 59 28
-7.223 9.3660002 -0.68000001 158 96 49
-7.2059999 9.368 -0.67500001 162 106 69
-7.2129998 9.3710003 -0.68000001 88 36 0
-7.2160001 9.3780003 -0.67900002 168 100 61
-7.2059999 9.4049997 -0.685 63 39 35
-7.224 9.3970003 -0.66900003 58 25 6
-7.237 9.3830004 -0.67699999 176 118 68
-7.23 9.3660002 -0.67400002 158 82 33
-7.2259998 9.3649998 -0.66399997 162 109 65
-7.2150002 9.3999996 -0.68099999 91 39 0
-7.2329998 9.3660002 -0.66100001 171 99 49
-7.2340002 9.3690004 -0.65499997 126 71 41
-7.2249999 9.3649998 -0.67299998 117 70 40
-7.2329998 9.3690004 -0.65399998 227 161 100
-7.2290001 9.3850002 -0.68099999 151 84 42
-7.2290001 9.3739996 -0.68000001 167 102 60
0 0 0 1 0 0 0 1 0 0 0 1 0 0 0 0 0 113 1 0 0
