ply
format ascii 1.0
comment PCL generated
element vertex 66
property float x
property float y
property float z
property uchar red
property uchar green
property uchar blue
element camera 1
property float view_px
property float view_py
property float view_pz
property float x_axisx
property float x_axisy
property float x_axisz
property float y_axisx
property float y_axisy
property float y_axisz
property float z_axisx
property float z_axisy
property float z_axisz
property float focal
property float scalex
property float scaley
property float centerx
property float centery
property int viewportx
property int viewporty
property float k1
property float k2
end_header
5.0209999 16.167999 -0.55800003 159 107 68
5.026 16.165001 -0.55900002 212 133 66
5.0250001 16.169001 -0.55500001 179 151 112
5.0170002 16.160999 -0.56800002 166 117 76
5.0240002 16.162001 -0.56999999 206 122 50
5.0310001 16.159 -0.57099998 255 255 243
5.0209999 16.158001 -0.57599998 137 86 23
5.0050001 16.165001 -0.56400001 141 83 45
5.0050001 16.174 -0.55500001 126 71 14
5.0029998 16.169001 -0.56800002 136 87 47
5.02 16.177 -0.55599999 121 66 35
5.0240002 16.174999 -0.56400001 104 90 90
5.0370002 16.162001 -0.55900002 244 163 97
5.0310001 16.164 -0.56699997 155 98 55
5.0370002 16.164 -0.56999999 235 152 82
5.0159998 16.169001 -0.55900002 222 144 80
5.0120001 16.177999 -0.55900002 190 132 68
5.0120001 16.179001 -0.55500001 112 86 49
5.039 16.108999 -0.58099997 164 116 76
5.0240002 16.105 -0.59600002 142 89 35
5.0289998 16.118999 -0.57499999 158 108 47
5.046 16.110001 -0.574 181 128 88
5.0349998 16.158001 -0.56599998 83 63 54
5.0229998 16.118 -0.58999997 246 243 234
5.0250001 16.120001 -0.60299999 93 72 71
5.0240002 16.166 -0.57099998 170 140 102
5.0040002 16.174999 -0.56999999 84 47 39
5.0079999 16.17 -0.57099998 117 89 50
5.013 16.177 -0.57200003 255 254 242
5.0240002 16.177 -0.57300001 158 102 65
5.0380001 16.118999 -0.57700002 186 125 80
5.0489998 16.110001 -0.57499999 172 120 62
5.0339999 16.132 -0.579 136 59 7
5.0380001 16.117001 -0.57800001 202 123 67
5.0469999 16.111 -0.57800001 197 121 63
5.0409999 16.108 -0.58099997 129 86 52
5.0440001 16.104 -0.59899998 187 108 49
5.0370002 16.103001 -0.59399998 133 80 46
5.0289998 16.103001 -0.60000002 138 88 39
5.0380001 16.103001 -0.59600002 146 102 63
5.0349998 16.110001 -0.588 242 163 106
5.026 16.115999 -0.58899999 198 141 98
5.027 16.128 -0.58600003 164 128 94
5.0320001 16.128 -0.60100001 180 114 64
5.007 16.174999 -0.56999999 145 65 2
5.0229998 16.177 -0.56999999 94 54 44
5.007 16.176001 -0.55500001 115 66 36
5.0310001 16.118 -0.57700002 135 84 31
5.0489998 16.125999 -0.588 72 54 50
5.0510001 16.117001 -0.58899999 203 145 105
5.0510001 16.125999 -0.597 121 68 34
5.0469999 16.115999 -0.59200001 132 97 65
5.0320001 16.115 -0.60399997 43 31 31
5.046 16.132999 -0.58700001 166 137 119
5.0450001 16.122999 -0.61000001 125 61 15
5.0419998 16.124001 -0.597 118 78 70
5.04 16.128 -0.58600003 179 111 74
5.0380001 16.128 -0.58499998 166 110 77
5.027 16.124001 -0.602 144 91 59
5.0079999 16.177999 -0.55900002 192 120 61
5.0489998 16.120001 -0.60500002 55 39 39
5.0300002 16.125999 -0.60399997 110 72 59
5.0380001 16.115999 -0.602 154 98 65
5.0450001 16.127001 -0.58600003 132 68 20
5.0479999 16.122999 -0.60399997 103 63 51
5.0370002 16.107 -0.602 115 78 49
0 0 0 1 0 0 0 1 0 0 0 1 0 0 0 0 0 66 1 0 0
