ply
format ascii 1.0
comment PCL generated
element vertex 56
property float x
property float y
property float z
property uchar red
property uchar green
property uchar blue
element camera 1
property float view_px
property float view_py
property float view_pz
property float x_axisx
property float x_axisy
property float x_axisz
property float y_axisx
property float y_axisy
property float y_axisz
property float z_axisx
property float z_axisy
property float z_axisz
property float focal
property float scalex
property float scaley
property float centerx
property float centery
property int viewportx
property int viewporty
property float k1
property float k2
end_header
-14.787 8.8959999 -0.56099999 143 65 0
-14.788 8.8929996 -0.55400002 142 112 88
-14.767 8.8900003 -0.55800003 137 105 90
-14.783 8.8929996 -0.55800003 255 235 198
-14.767 8.8800001 -0.56999999 180 120 60
-14.783 8.8929996 -0.57700002 171 112 82
-14.77 8.8900003 -0.56199998 248 237 217
-14.78 8.8909998 -0.56900001 148 74 29
-14.784 8.8620005 -0.57599998 186 123 70
-14.79 8.8629999 -0.56300002 123 85 64
-14.776 8.8579998 -0.57200003 126 89 63
-14.779 8.8719997 -0.57800001 246 223 153
-14.799 8.8719997 -0.56999999 138 82 47
-14.786 8.8629999 -0.56300002 255 231 134
-14.793 8.8660002 -0.56 175 109 25
-14.787 8.8620005 -0.55299997 125 89 73
-14.77 8.8789997 -0.57300001 140 77 34
-14.771 8.8699999 -0.57499999 216 153 120
-14.773 8.8780003 -0.57999998 117 88 58
-14.771 8.8730001 -0.57200003 103 39 4
-14.776 8.8610001 -0.57300001 153 99 63
-14.793 8.8690004 -0.56900001 111 40 0
-14.804 8.8690004 -0.56400001 164 108 81
-14.777 8.8730001 -0.55199999 186 105 52
-14.78 8.8620005 -0.55299997 203 150 106
-14.781 8.8710003 -0.54799998 187 131 74
-14.793 8.8739996 -0.54400003 196 163 148
-14.783 8.8940001 -0.56800002 164 83 30
-14.799 8.8669996 -0.55800003 246 193 139
-14.816 8.8800001 -0.54699999 243 173 85
-14.8 8.8760004 -0.55299997 126 107 92
-14.783 8.868 -0.57499999 194 156 94
-14.783 8.8730001 -0.57300001 147 95 56
-14.773 8.8739996 -0.56999999 98 38 2
-14.78 8.8739996 -0.57599998 194 117 61
-14.774 8.8649998 -0.57200003 181 119 58
-14.775 8.868 -0.57099998 179 129 70
-14.777 8.8629999 -0.56900001 206 182 158
-14.783 8.8850002 -0.54500002 168 99 40
-14.78 8.8800001 -0.55299997 184 148 124
-14.781 8.8920002 -0.56999999 215 196 164
-14.792 8.8809996 -0.56800002 207 145 86
-14.789 8.8879995 -0.55900002 118 86 48
-14.812 8.8830004 -0.55400002 110 35 0
-14.803 8.8719997 -0.56099999 94 26 0
-14.811 8.8809996 -0.55199999 164 98 40
-14.795 8.8859997 -0.55199999 143 80 37
-14.788 8.8830004 -0.57300001 178 137 109
-14.774 8.8859997 -0.56099999 157 93 47
-14.781 8.8920002 -0.56400001 98 39 7
-14.792 8.8699999 -0.55299997 204 144 84
-14.779 8.868 -0.56599998 152 115 99
-14.782 8.8889999 -0.55299997 199 150 107
-14.793 8.882 -0.54900002 255 232 128
-14.782 8.8599997 -0.55900002 117 84 49
-14.798 8.8760004 -0.55900002 193 95 32
0 0 0 1 0 0 0 1 0 0 0 1 0 0 0 0 0 56 1 0 0
