ply
format ascii 1.0
comment PCL generated
element vertex 54
property float x
property float y
property float z
property uchar red
property uchar green
property uchar blue
element camera 1
property float view_px
property float view_py
property float view_pz
property float x_axisx
property float x_axisy
property float x_axisz
property float y_axisx
property float y_axisy
property float y_axisz
property float z_axisx
property float z_axisy
property float z_axisz
property float focal
property float scalex
property float scaley
property float centerx
property float centery
property int viewportx
property int viewporty
property float k1
property float k2
end_header
3.267 12.202 -0.47400001 103 79 69
3.2609999 12.196 -0.49000001 166 113 69
3.2620001 12.186 -0.48500001 103 71 48
3.2639999 12.192 -0.47099999 99 67 42
3.27 12.206 -0.46799999 134 96 57
3.266 12.202 -0.46700001 173 128 99
3.2590001 12.211 -0.47099999 124 89 61
3.23 12.212 -0.46599999 74 27 1
3.2490001 12.214 -0.46399999 125 81 54
3.247 12.203 -0.458 126 80 57
3.25 12.195 -0.45899999 200 141 97
3.2590001 12.202 -0.46599999 108 49 15
3.243 12.18 -0.47099999 75 41 29
3.237 12.178 -0.472 164 98 64
3.244 12.172 -0.472 122 65 38
3.2520001 12.179 -0.472 163 98 68
3.243 12.215 -0.46700001 161 107 73
3.2249999 12.216 -0.47 167 136 108
3.2379999 12.217 -0.47499999 97 66 46
3.247 12.237 -0.479 153 102 73
3.2449999 12.207 -0.463 111 85 72
3.23 12.209 -0.46700001 99 62 33
3.253 12.203 -0.46000001 87 33 5
3.24 12.195 -0.46700001 142 104 65
3.237 12.186 -0.47400001 128 89 56
3.2360001 12.197 -0.47 172 137 109
3.256 12.238 -0.477 135 77 29
3.257 12.238 -0.47 123 73 46
3.2550001 12.232 -0.479 125 75 48
3.243 12.208 -0.47999999 152 99 57
3.2509999 12.211 -0.47499999 217 169 133
3.244 12.208 -0.49200001 180 124 77
3.263 12.238 -0.47400001 138 62 2
3.253 12.206 -0.48699999 166 140 125
3.23 12.208 -0.47600001 155 101 73
3.257 12.195 -0.49200001 171 117 71
3.257 12.206 -0.46399999 167 143 133
3.237 12.195 -0.48100001 88 36 0
3.244 12.184 -0.48500001 66 43 11
3.2379999 12.192 -0.484 154 120 93
3.2420001 12.188 -0.49000001 190 131 117
3.2590001 12.202 -0.49200001 98 38 4
3.24 12.199 -0.491 87 37 12
3.244 12.198 -0.495 117 80 54
3.233 12.201 -0.484 120 84 60
3.233 12.204 -0.48199999 91 47 22
3.2379999 12.205 -0.46799999 201 123 74
3.256 12.182 -0.484 173 118 79
3.2520001 12.205 -0.493 189 114 72
3.2609999 12.19 -0.47299999 177 100 44
3.2490001 12.193 -0.46599999 124 65 33
3.2449999 12.186 -0.46900001 139 116 82
3.25 12.203 -0.493 157 135 122
3.2360001 12.198 -0.486 76 39 10
0 0 0 1 0 0 0 1 0 0 0 1 0 0 0 0 0 54 1 0 0
