ply
format ascii 1.0
comment PCL generated
element vertex 1352
property float x
property float y
property float z
property uchar red
property uchar green
property uchar blue
element camera 0
property float view_px
property float view_py
property float view_pz
property float x_axisx
property float x_axisy
property float x_axisz
property float y_axisx
property float y_axisy
property float y_axisz
property float z_axisx
property float z_axisy
property float z_axisz
property float focal
property float scalex
property float scaley
property float centerx
property float centery
property int viewportx
property int viewporty
property float k1
property float k2
end_header
-3.257 1.3150001 -0.83200002 66 38 14
-3.2539999 1.313 -0.83499998 20 0 0
-3.2460001 1.3200001 -0.85900003 109 94 89
-3.247 1.325 -0.86799997 116 103 95
-3.25 1.309 -0.87900001 128 76 55
-3.154 1.374 -0.77399999 133 74 42
-3.155 1.388 -0.76099998 187 123 85
-3.141 1.391 -0.759 130 62 23
-3.2449999 1.33 -0.80599999 147 113 76
-3.2460001 1.3329999 -0.82499999 125 87 68
-3.2490001 1.33 -0.80900002 85 31 7
-3.177 1.299 -0.83499998 33 17 4
-3.1760001 1.313 -0.84500003 85 57 45
-3.1949999 1.2970001 -0.84200001 174 154 145
-3.2090001 1.291 -0.84500003 66 30 18
-3.201 1.327 -0.81699997 134 86 46
-3.177 1.322 -0.81 255 254 211
-3.119 1.27 -0.76599997 28 3 0
-3.1140001 1.2640001 -0.76700002 105 86 80
-3.152 1.307 -0.81099999 81 60 39
-3.1719999 1.304 -0.81199998 84 53 25
-3.1619999 1.322 -0.85000002 101 82 76
-3.1800001 1.314 -0.85299999 44 20 8
-3.1400001 1.301 -0.972 122 102 93
-3.1340001 1.302 -0.97600001 99 84 79
-3.21 1.2869999 -0.88999999 113 83 57
-3.1760001 1.3200001 -0.89399999 12 2 3
-3.178 1.318 -0.90899998 19 0 0
-3.1819999 1.3200001 -0.90100002 95 78 71
-3.1199999 1.351 -0.88499999 45 25 18
-3.1960001 1.299 -0.87300003 46 19 10
-3.191 1.331 -0.90100002 122 104 92
-3.1819999 1.319 -0.91000003 8 0 0
-3.1930001 1.331 -0.90399998 136 114 103
-3.1819999 1.314 -0.85500002 81 19 4
-3.1800001 1.317 -0.85299999 40 25 20
-3.1919999 1.3049999 -0.85799998 30 7 1
-3.075 1.294 -1.049 94 62 49
-3.072 1.2920001 -1.0470001 22 1 0
-3.0799999 1.291 -1.051 60 28 15
-3.066 1.298 -1.039 118 115 106
-3.0929999 1.219 -1.063 19 9 8
-3.1040001 1.2079999 -1.063 45 19 2
-3.0999999 1.23 -1.046 48 26 15
-3.1110001 1.253 -1.062 121 108 102
-3.1110001 1.2410001 -1.056 86 49 23
-3.1199999 1.232 -1.066 113 100 94
-3.109 1.24 -1.052 57 29 18
-3.105 1.228 -1.045 106 93 85
-3.119 1.243 -1.0549999 119 106 97
-3.1210001 1.237 -1.052 114 101 93
-3.108 1.229 -1.048 50 30 23
-3.092 1.257 -0.74599999 142 92 59
-3.0680001 1.251 -0.759 98 62 46
-3.2509999 1.288 -0.80699998 42 9 0
-3.2390001 1.3049999 -0.79699999 109 74 54
-3.0780001 1.3049999 -0.80900002 50 21 5
-3.082 1.309 -0.80900002 50 21 5
-3.092 1.346 -1.0319999 16 7 8
-3.0929999 1.334 -1.045 61 16 0
-3.096 1.349 -1.023 17 3 3
-3.0699999 1.331 -1.003 132 120 108
-3.069 1.334 -0.97899997 25 11 8
-3.096 1.339 -0.991 8 0 0
-3.096 1.342 -0.99699998 110 80 70
-3.1329999 1.327 -0.99599999 20 1 0
-3.131 1.327 -0.99900001 38 5 0
-3.1240001 1.337 -1.005 110 104 104
-3.2290001 1.339 -0.99599999 21 0 0
-3.2149999 1.3329999 -1 104 80 70
-3.21 1.336 -0.98100001 18 2 2
-3.2049999 1.335 -0.97799999 19 3 4
-3.1700001 1.309 -0.91799998 15 1 0
-3.227 1.336 -0.95899999 9 1 0
-3.221 1.339 -0.95300001 43 28 23
-3.2119999 1.334 -0.95499998 9 0 1
-3.0650001 1.335 -0.921 120 102 92
-3.062 1.325 -0.93400002 136 95 63
-3.0580001 1.326 -0.889 38 29 24
-3.062 1.326 -0.89300001 88 54 27
-3.059 1.323 -0.88999999 27 2 0
-3.069 1.298 -0.86799997 91 81 80
-3.076 1.289 -0.89200002 61 41 30
-3.0769999 1.289 -0.89999998 23 9 8
-3.0699999 1.34 -0.88700002 17 5 5
-3.0780001 1.344 -0.92500001 19 5 4
-3.0829999 1.3099999 -0.88999999 125 108 100
-3.098 1.3049999 -0.884 175 144 123
-3.0969999 1.302 -0.88700002 73 37 23
-3.0869999 1.307 -0.903 29 10 6
-3.0450001 1.316 -0.87699997 80 75 69
-3.0469999 1.322 -0.87400001 52 41 13
-3.063 1.334 -0.88099998 50 29 24
-3.0580001 1.331 -0.88599998 114 98 98
-3.0710001 1.339 -0.88300002 56 20 8
-3.0680001 1.332 -0.87699997 25 1 0
-3.0510001 1.3099999 -0.96399999 16 13 0
-3.076 1.289 -0.90700001 27 9 7
-3.0810001 1.289 -0.85900003 21 2 0
-3.0810001 1.277 -0.85500002 104 86 84
-3.0929999 1.2869999 -0.89499998 8 0 0
-3.1059999 1.286 -0.84399998 9 0 0
-3.1070001 1.2869999 -0.83099997 71 37 10
-3.119 1.296 -0.85000002 126 89 70
-3.079 1.2819999 -0.91399997 102 83 76
-3.154 1.3710001 -0.77399999 49 23 10
-3.151 1.3609999 -0.78500003 134 81 39
-3.154 1.359 -0.77999997 219 156 112
-3.151 1.3609999 -0.77700001 199 128 74
-3.1919999 1.3329999 -0.81400001 102 61 43
-3.1530001 1.369 -0.76800001 67 26 6
-3.1470001 1.398 -0.78200001 85 44 26
-3.108 1.281 -0.90799999 118 95 89
-3.1070001 1.285 -0.92699999 117 91 76
-3.115 1.284 -0.93099999 86 69 59
-3.1129999 1.299 -0.86199999 125 101 89
-3.1059999 1.294 -0.86299998 124 102 91
-3.1199999 1.296 -0.85100001 55 32 24
-3.1210001 1.291 -0.89300001 153 112 82
-3.125 1.281 -0.89200002 127 112 109
-3.1140001 1.397 -0.75400001 137 80 25
-3.1110001 1.388 -0.74900001 37 16 11
-3.0680001 1.364 -0.75199997 113 89 87
-3.075 1.36 -0.74599999 113 58 28
-3.089 1.3710001 -0.741 33 9 0
-3.0769999 1.363 -0.74800003 143 126 118
-3.0669999 1.358 -0.74400002 98 66 19
-3.0599999 1.347 -0.74800003 169 131 82
-3.217 1.288 -1.034 11 1 0
-3.217 1.278 -1.033 5 0 0
-3.243 1.279 -1.02 111 69 57
-3.2149999 1.3 -1.0549999 26 1 0
-3.0840001 1.223 -1.051 56 24 13
-3.0910001 1.2130001 -1.04 66 43 27
-3.0940001 1.219 -1.041 93 82 78
-3.115 1.217 -1.05 118 103 96
-3.1170001 1.229 -1.049 103 93 84
-3.1129999 1.2180001 -1.0470001 122 111 105
-3.105 1.216 -1.069 107 94 88
-3.122 1.2079999 -1.063 10 5 1
-3.122 1.232 -1.056 108 94 91
-3.2550001 1.312 -1.036 95 80 75
-3.253 1.313 -1.038 174 154 143
-3.2090001 1.288 -1.058 83 50 61
-3.214 1.312 -1.0599999 11 1 0
-3.204 1.322 -1.05 3 1 2
-3.082 1.335 -1.008 131 105 92
-3.0829999 1.336 -1.024 52 39 31
-3.0910001 1.344 -1.01 6 0 0
-3.1400001 1.33 -1.051 40 12 1
-3.0739999 1.303 -1.049 20 1 0
-3.21 1.326 -1.058 4 0 1
-3.21 1.326 -1.053 2 0 1
-3.109 1.262 -1.073 100 87 81
-3.112 1.267 -1.074 99 86 78
-3.1059999 1.278 -1.064 147 103 74
-3.1470001 1.304 -1.023 11 3 1
-3.152 1.316 -1.027 34 15 8
-3.154 1.3 -1.03 15 5 4
-3.053 1.2819999 -0.75800002 82 57 52
-3.0680001 1.29 -0.76499999 16 10 0
-3.053 1.306 -0.74000001 108 75 58
-3.0710001 1.313 -0.73299998 73 24 7
-3.062 1.303 -0.74299997 77 23 0
-3.0569999 1.277 -0.74000001 66 38 34
-3.095 1.262 -0.73299998 172 110 69
-3.098 1.271 -0.73000002 120 80 54
-3.098 1.267 -0.73100001 59 18 0
-3.0910001 1.265 -0.736 167 110 55
-3.099 1.2640001 -0.73400003 87 42 19
-3.105 1.2640001 -0.736 69 32 13
-3.115 1.273 -0.73799998 105 96 79
-3.089 1.239 -0.75099999 112 70 46
-3.079 1.256 -0.73799998 80 45 26
-3.1029999 1.255 -0.741 62 14 0
-3.1129999 1.265 -0.74800003 110 58 11
-3.059 1.322 -0.76300001 50 20 12
-3.0769999 1.3430001 -0.80500001 168 146 135
-3.2360001 1.3329999 -0.995 67 64 71
-3.1960001 1.299 -0.92199999 35 9 0
-3.184 1.3049999 -0.94999999 9 5 4
-3.1849999 1.311 -0.958 10 2 0
-3.1340001 1.3839999 -0.74699998 230 158 108
-3.1359999 1.383 -0.75099999 219 139 86
-3.069 1.3380001 -0.89700001 87 68 64
-3.075 1.342 -0.89600003 12 2 1
-3.082 1.348 -0.88700002 78 78 80
-3.0969999 1.352 -0.87699997 17 6 4
-3.098 1.277 -0.84299999 60 17 0
-3.085 1.278 -0.852 29 5 1
-3.0999999 1.288 -0.89700001 48 29 25
-3.118 1.35 -0.87099999 17 0 0
-3.118 1.345 -0.861 71 44 35
-3.118 1.397 -0.78899997 100 80 69
-3.132 1.403 -0.773 122 109 103
-3.141 1.4 -0.77499998 90 52 29
-3.2119999 1.352 -0.861 98 47 20
-3.224 1.352 -0.86900002 72 32 7
-3.22 1.325 -0.84600002 239 208 190
-3.217 1.326 -0.847 27 4 0
-3.2260001 1.3279999 -0.85799998 171 164 158
-3.2130001 1.362 -0.87300003 208 131 79
-3.1289999 1.354 -0.89399999 55 46 51
-3.194 1.353 -0.88 66 34 19
-3.194 1.348 -0.875 55 45 43
-3.132 1.329 -0.92500001 5 1 0
-3.1259999 1.335 -0.92400002 90 78 78
-3.1199999 1.339 -0.94300002 139 106 65
-3.1140001 1.367 -0.89099997 11 1 2
-3.115 1.353 -0.89899999 8 0 2
-3.099 1.373 -0.824 48 33 28
-3.1199999 1.354 -0.84399998 49 34 31
-3.1170001 1.358 -0.84500003 31 14 7
-3.112 1.369 -0.83899999 160 114 90
-3.115 1.3609999 -0.84100002 26 11 8
-3.1070001 1.367 -0.84500003 80 30 0
-3.1210001 1.367 -0.83399999 36 14 3
-3.1129999 1.3789999 -0.83099997 128 114 111
-3.1210001 1.37 -0.82700002 80 52 38
-3.1040001 1.3200001 -0.824 42 12 10
-3.102 1.3200001 -0.81099999 100 56 21
-3.096 1.306 -0.81699997 152 114 91
-3.089 1.311 -0.81099999 14 2 2
-3.102 1.345 -0.80199999 51 19 4
-3.1340001 1.393 -0.78600001 29 0 0
-3.1340001 1.3609999 -0.78799999 66 38 27
-3.1229999 1.386 -0.79900002 114 63 34
-3.1110001 1.395 -0.78600001 112 61 40
-3.125 1.352 -0.77200001 76 38 25
-3.1029999 1.334 -0.73699999 240 178 101
-3.105 1.329 -0.73900002 208 143 53
-3.1029999 1.329 -0.73799998 255 203 103
-3.145 1.352 -0.77200001 63 12 0
-3.1010001 1.346 -0.73699999 249 221 200
-3.1070001 1.337 -0.74000001 255 226 119
-3.1140001 1.348 -0.74299997 247 220 115
-3.118 1.351 -0.74299997 253 217 120
-3.2720001 1.302 -0.81300002 255 220 156
-3.273 1.3 -0.815 239 216 122
-3.2460001 1.2819999 -0.85500002 47 9 0
-3.2320001 1.284 -0.85699999 50 17 0
-3.2279999 1.28 -0.85600001 46 9 0
-3.0840001 1.298 -0.79900002 49 19 8
-3.253 1.2970001 -0.80400002 187 143 96
-3.2119999 1.317 -0.81300002 143 118 98
-3.224 1.314 -0.80299997 138 102 88
-3.096 1.273 -0.81699997 121 87 59
-3.095 1.276 -0.824 103 62 32
-3.0780001 1.2640001 -0.73699999 236 193 115
-3.075 1.318 -0.72899997 55 20 0
-3.073 1.334 -0.84299999 20 2 0
-3.075 1.33 -0.84299999 10 0 0
-3.075 1.336 -0.85500002 20 1 0
-3.073 1.281 -0.78100002 58 30 16
-3.0650001 1.28 -0.764 159 109 82
-3.108 1.27 -0.81199998 29 11 7
-3.102 1.271 -0.80699998 29 10 4
-3.1070001 1.27 -0.80599999 18 0 0
-3.1059999 1.27 -0.815 21 3 1
-3.086 1.245 -0.75099999 65 40 35
-3.075 1.255 -0.74800003 72 39 22
-3.069 1.258 -0.77600002 73 46 35
-3.0739999 1.268 -0.78299999 67 38 20
-3.073 1.316 -1.031 103 101 106
-3.0710001 1.308 -0.773 43 15 4
-3.1059999 1.262 -0.74400002 75 28 2
-3.1070001 1.27 -0.75 160 69 0
-3.0999999 1.276 -0.76499999 217 180 161
-3.0899999 1.295 -0.73799998 255 237 154
-3.102 1.276 -0.73299998 79 59 52
-3.2049999 1.276 -1.003 49 18 0
-3.2190001 1.2819999 -1.0039999 95 82 76
-3.109 1.289 -0.95999998 70 42 31
-3.095 1.2869999 -0.95999998 37 3 0
-3.0710001 1.281 -0.96399999 5 0 0
-3.079 1.283 -0.949 126 118 115
-3.073 1.285 -0.95099998 130 104 91
-3.112 1.291 -0.94800001 73 36 18
-3.119 1.268 -1.071 132 117 112
-3.132 1.267 -1.0599999 36 8 5
-3.204 1.279 -1.031 120 100 91
-3.168 1.281 -1.044 14 2 2
-3.1530001 1.278 -1.046 162 139 125
-3.1919999 1.296 -1.0089999 60 41 35
-3.22 1.28 -0.95999998 86 68 66
-3.2060001 1.293 -0.926 11 0 0
-3.1960001 1.295 -0.926 92 73 59
-3.207 1.29 -0.91600001 70 65 71
-3.2019999 1.2920001 -0.90200001 26 1 0
-3.1800001 1.3 -0.90399998 7 2 0
-3.2160001 1.289 -0.90100002 41 5 0
-3.1989999 1.3099999 -0.92199999 14 0 0
-3.2 1.313 -0.94 68 67 62
-3.138 1.313 -1.0039999 186 150 98
-3.1489999 1.321 -1.01 6 0 0
-3.138 1.308 -1.002 78 53 48
-3.1329999 1.2970001 -1 54 17 0
-3.1300001 1.2970001 -0.99900001 80 23 0
-3.1289999 1.289 -0.89399999 132 114 112
-3.0669999 1.33 -0.96700001 37 3 1
-3.073 1.337 -0.94999999 26 5 0
-3.122 1.2869999 -0.99800003 93 49 12
-3.063 1.3049999 -0.98699999 108 71 53
-3.0680001 1.3099999 -0.98100001 108 95 89
-3.062 1.299 -0.98699999 22 7 2
-3.089 1.283 -0.98199999 80 61 54
-3.0580001 1.29 -1 3 0 0
-3.0539999 1.2869999 -0.98900002 23 3 2
-3.0610001 1.295 -0.991 46 36 35
-3.0650001 1.281 -1.003 19 9 8
-3.059 1.286 -1.013 10 2 0
-3.076 1.284 -0.98000002 53 19 7
-3.2449999 1.313 -0.95099998 3 0 2
-3.2509999 1.295 -0.93199998 10 0 0
-3.2349999 1.299 -0.96799999 150 123 112
-3.2509999 1.2869999 -1.008 115 96 89
-3.2260001 1.2970001 -0.98299998 11 0 0
-3.233 1.303 -0.98299998 12 1 0
-3.2279999 1.295 -0.995 44 7 0
-3.25 1.3150001 -1.026 7 2 0
-3.2420001 1.319 -1.021 98 78 77
-3.1849999 1.3 -0.98699999 19 8 2
-3.188 1.306 -0.98199999 106 91 88
-3.207 1.274 -0.97600001 6 2 3
-3.2320001 1.324 -1.0549999 18 4 4
-3.214 1.3279999 -1.0369999 3 0 0
-3.2509999 1.295 -0.92400002 95 81 80
-3.2420001 1.327 -0.92000002 16 1 0
-3.244 1.3099999 -0.92299998 12 0 0
-3.2460001 1.303 -0.91000003 116 78 69
-3.2490001 1.325 -1 11 1 2
-3.2509999 1.3430001 -0.98900002 21 3 3
-3.243 1.329 -0.96899998 17 0 0
-3.2309999 1.337 -0.949 48 27 22
-3.2390001 1.3279999 -0.93900001 5 0 4
-3.2360001 1.332 -0.94 70 37 22
-3.2249999 1.353 -0.90499997 32 14 10
-3.221 1.362 -0.89700001 12 2 3
-3.247 1.288 -0.86900002 13 2 0
-3.2290001 1.2819999 -0.88 66 30 6
-3.2360001 1.2819999 -0.88099998 40 17 0
-3.234 1.283 -0.88700002 56 23 4
-3.2290001 1.327 -1.054 8 2 2
-3.2579999 1.3150001 -1.008 135 120 113
-3.257 1.3279999 -0.81300002 104 50 6
-3.2650001 1.318 -0.82300001 223 133 36
-3.2690001 1.303 -0.82800001 75 23 2
-3.223 1.323 -0.80599999 52 35 28
-3.2179999 1.325 -0.81300002 34 18 18
-3.256 1.33 -0.82800001 137 103 78
-3.243 1.321 -0.85699999 63 37 24
-3.247 1.3150001 -0.84899998 171 117 81
-3.244 1.3150001 -0.85000002 81 32 0
-3.2579999 1.303 -0.85600001 133 94 65
-3.155 1.3890001 -0.764 196 134 97
-3.2349999 1.331 -0.82200003 71 47 37
-3.2409999 1.291 -0.81999999 95 63 40
-3.1849999 1.3049999 -0.84100002 67 21 5
-3.1889999 1.3329999 -0.82200003 75 52 36
-3.1789999 1.334 -0.81599998 170 114 65
-3.177 1.309 -0.815 142 105 96
-3.1210001 1.276 -0.75599998 47 17 9
-3.118 1.29 -0.75700003 194 139 108
-3.115 1.281 -0.75800002 111 59 20
-3.115 1.2819999 -0.74699998 29 1 0
-3.1760001 1.295 -0.82300001 62 20 0
-3.1889999 1.295 -0.82300001 68 42 25
-3.188 1.298 -0.83899999 218 195 181
-3.1860001 1.3 -0.83899999 226 200 185
-3.1559999 1.304 -0.81199998 143 117 90
-3.1719999 1.306 -0.81400001 61 19 3
-3.1059999 1.28 -0.81699997 141 88 46
-3.109 1.28 -0.80800003 92 66 39
-3.1070001 1.279 -0.80299997 68 38 2
-3.1070001 1.278 -0.79100001 184 157 140
-3.1140001 1.295 -0.76200002 88 38 5
-3.115 1.301 -0.84799999 215 188 161
-3.1489999 1.329 -0.86400002 15 4 2
-3.1470001 1.327 -0.87900001 26 8 4
-3.142 1.326 -0.87699997 20 6 3
-3.1789999 1.316 -0.852 58 28 18
-3.175 1.321 -0.84600002 40 21 14
-3.187 1.332 -0.838 79 57 44
-3.184 1.325 -0.85299999 68 26 4
-3.165 1.311 -0.83499998 138 106 91
-3.1500001 1.3710001 -0.81699997 72 51 48
-3.148 1.373 -0.81599998 71 53 49
-3.1470001 1.377 -0.824 30 10 0
-3.1300001 1.29 -0.94800001 9 0 3
-3.118 1.298 -0.97299999 147 124 116
-3.1300001 1.3 -0.97299999 31 1 0
-3.1930001 1.304 -0.86199999 19 4 1
-3.1700001 1.3200001 -0.88800001 11 1 0
-3.148 1.326 -0.88300002 17 3 2
-3.122 1.336 -0.87400001 18 0 0
-3.191 1.34 -0.898 162 138 126
-3.188 1.308 -0.85100001 15 2 0
-3.191 1.335 -0.83399999 88 69 55
-3.0880001 1.274 -1.033 46 21 14
-3.0969999 1.271 -1.056 133 119 116
-3.0699999 1.291 -1.041 40 3 0
-3.1099999 1.2920001 -1.052 126 103 95
-3.0829999 1.272 -1.031 49 12 0
-3.0769999 1.275 -1.031 116 77 62
-3.096 1.211 -1.064 40 14 0
-3.0899999 1.2309999 -1.059 27 14 8
-3.105 1.226 -1.044 35 12 4
-3.085 1.234 -1.041 46 18 0
-3.092 1.226 -1.045 119 96 80
-3.1010001 1.221 -1.0420001 89 78 72
-3.1270001 1.253 -1.061 117 104 98
-3.1289999 1.2359999 -1.066 101 87 86
-3.0869999 1.26 -0.73900002 45 12 0
-3.092 1.2640001 -0.741 145 129 70
-3.0880001 1.258 -0.74599999 97 57 31
-3.0680001 1.252 -0.75700003 137 95 73
-3.0669999 1.247 -0.76800001 25 6 0
-3.1059999 1.267 -0.77600002 104 57 37
-3.1040001 1.273 -0.77999997 22 10 0
-3.0869999 1.268 -0.80400002 22 8 7
-3.0880001 1.27 -0.80699998 83 47 23
-3.25 1.288 -0.80699998 38 3 0
-3.24 1.301 -0.79500002 94 50 21
-3.2490001 1.286 -0.81400001 129 97 84
-3.257 1.294 -0.80699998 117 86 55
-3.095 1.345 -1.033 22 13 14
-3.0699999 1.332 -0.98699999 58 31 22
-3.0680001 1.332 -0.98000002 60 44 44
-3.069 1.3329999 -0.977 23 8 3
-3.0999999 1.339 -0.99400002 54 30 20
-3.1289999 1.302 -0.95099998 47 17 7
-3.125 1.332 -0.96399999 184 143 81
-3.1240001 1.33 -0.972 30 13 5
-3.1170001 1.334 -0.95700002 12 2 3
-3.23 1.34 -0.98900002 57 20 4
-3.223 1.3430001 -0.95200002 105 82 68
-3.2 1.312 -1.0039999 117 98 84
-3.2049999 1.326 -1.01 136 130 132
-3.211 1.3150001 -1.0140001 11 0 1
-3.2030001 1.317 -1.0039999 13 0 0
-3.1989999 1.318 -1.001 37 13 3
-3.21 1.33 -1.01 61 17 4
-3.2090001 1.331 -1.005 108 102 104
-3.2 1.303 -0.94800001 12 2 1
-3.1960001 1.319 -0.99000001 15 0 0
-3.198 1.318 -0.99599999 30 10 1
-3.1960001 1.311 -1 23 2 0
-3.181 1.3 -0.90899998 133 104 86
-3.1659999 1.301 -0.90600002 157 130 111
-3.1930001 1.301 -0.90899998 17 1 1
-3.2019999 1.3329999 -0.95899999 94 26 0
-3.1989999 1.331 -0.95300001 68 49 43
-3.098 1.3200001 -0.91799998 6 0 0
-3.0840001 1.312 -0.90200001 1 0 0
-3.063 1.323 -0.91000003 15 4 2
-3.0610001 1.318 -0.91399997 130 94 68
-3.0650001 1.331 -0.89200002 45 28 21
-3.0680001 1.3049999 -0.91000003 18 8 7
-3.073 1.296 -0.88999999 55 17 6
-3.089 1.346 -0.917 3 1 2
-3.0929999 1.349 -0.92400002 3 0 0
-3.0969999 1.288 -0.86699998 17 6 4
-3.1040001 1.303 -0.87400001 19 0 0
-3.082 1.285 -0.87099999 13 2 0
-3.102 1.303 -0.88800001 22 7 2
-3.1010001 1.301 -0.88999999 46 13 0
-3.105 1.306 -0.88700002 37 18 3
-3.102 1.309 -0.88300002 43 26 16
-3.0869999 1.3049999 -0.903 35 20 15
-3.0969999 1.2869999 -0.90100002 48 20 9
-3.102 1.299 -0.89200002 42 10 0
-3.0550001 1.327 -0.88099998 20 11 4
-3.059 1.327 -0.87900001 29 10 4
-3.053 1.327 -0.88200003 54 18 2
-3.063 1.306 -0.95899999 30 15 12
-3.076 1.273 -0.84799999 115 74 44
-3.076 1.2819999 -0.83899999 72 34 15
-3.1099999 1.2920001 -0.84799999 119 78 58
-3.0910001 1.275 -0.90700001 108 68 42
-3.0969999 1.2819999 -0.91100001 58 21 2
-3.0810001 1.314 -0.89300001 21 4 0
-3.0969999 1.313 -0.88099998 13 3 1
-3.1070001 1.329 -0.89499998 9 0 0
-3.095 1.3200001 -0.88 114 94 83
-3.1029999 1.319 -0.88099998 89 74 69
-3.155 1.3789999 -0.77700001 53 21 0
-3.145 1.3789999 -0.79400003 69 45 35
-3.1500001 1.376 -0.78200001 124 80 55
-3.1340001 1.372 -0.792 73 28 9
-3.1099999 1.295 -0.91100001 97 48 16
-3.105 1.296 -0.91600001 28 1 0
-3.118 1.295 -0.92900002 50 23 14
-3.128 1.303 -0.92000002 154 118 94
-3.1259999 1.306 -0.92500001 143 111 96
-3.135 1.296 -0.91299999 145 104 76
-3.1329999 1.302 -0.91399997 31 12 6
-3.1210001 1.277 -0.89700001 101 87 87
-3.1070001 1.3049999 -0.87400001 103 78 71
-3.152 1.323 -0.89499998 23 0 0
-3.2520001 1.314 -1.041 11 0 1
-3.0739999 1.367 -0.75599998 224 183 151
-3.0969999 1.381 -0.76599997 43 19 0
-3.0940001 1.375 -0.75599998 83 50 5
-3.0699999 1.353 -0.764 69 24 0
-3.0799999 1.36 -0.74400002 99 73 48
-3.0650001 1.341 -0.73400003 225 176 109
-3.072 1.3609999 -0.74900001 152 118 90
-3.0999999 1.381 -0.74699998 35 0 0
-3.221 1.285 -1.029 18 3 0
-3.2349999 1.284 -1.025 17 2 0
-3.2360001 1.28 -1.0140001 66 29 13
-3.2390001 1.317 -1.049 18 2 2
-3.0840001 1.219 -1.049 64 45 31
-3.118 1.228 -1.052 108 98 89
-3.1110001 1.227 -1.046 118 108 98
-3.1240001 1.2309999 -1.062 117 102 97
-3.1949999 1.29 -1.056 19 0 0
-3.204 1.289 -1.041 15 1 0
-3.201 1.295 -1.0470001 18 3 0
-3.076 1.334 -1 12 0 0
-3.119 1.3329999 -0.99599999 14 0 0
-3.1110001 1.336 -0.995 33 13 2
-3.1240001 1.33 -0.98900002 68 39 33
-3.1099999 1.336 -0.991 33 10 2
-3.0880001 1.345 -1.001 6 0 2
-3.0999999 1.348 -1.012 111 84 73
-3.1470001 1.3200001 -1.016 120 92 71
-3.1429999 1.323 -1.017 11 5 5
-3.1429999 1.324 -1.024 113 108 104
-3.076 1.308 -1.045 150 133 125
-3.211 1.327 -1.059 9 1 0
-3.128 1.334 -1.048 11 1 0
-3.1259999 1.334 -1.051 84 62 51
-3.125 1.3329999 -1.046 34 14 7
-3.1129999 1.34 -1.031 18 0 0
-3.1470001 1.321 -1.0549999 43 24 10
-3.1500001 1.316 -1.053 43 26 19
-3.151 1.2970001 -1.034 19 0 0
-3.1459999 1.277 -1.04 119 91 77
-3.1429999 1.283 -1.031 140 109 88
-3.0969999 1.354 -0.73299998 97 44 28
-3.095 1.359 -0.73699999 105 62 28
-3.096 1.344 -0.73100001 47 10 0
-3.0780001 1.309 -0.73400003 37 7 0
-3.0810001 1.291 -0.73799998 60 33 22
-3.073 1.291 -0.74299997 140 85 20
-3.0710001 1.2819999 -0.74299997 62 40 19
-3.0650001 1.28 -0.74400002 60 18 4
-3.073 1.281 -0.74299997 97 64 33
-3.0510001 1.276 -0.755 75 47 35
-3.0610001 1.272 -0.74400002 35 6 0
-3.0639999 1.27 -0.76999998 29 7 0
-3.0699999 1.313 -0.73400003 125 79 45
-3.109 1.261 -0.75300002 167 77 17
-3.1099999 1.256 -0.76700002 115 71 36
-3.1059999 1.252 -0.76800001 111 61 34
-3.0650001 1.3329999 -0.76499999 59 36 22
-3.0650001 1.346 -0.764 30 11 4
-3.073 1.3329999 -0.77200001 17 0 0
-3.0599999 1.322 -0.76300001 40 6 0
-3.0680001 1.325 -0.73299998 179 119 69
-3.2520001 1.335 -0.98699999 27 9 5
-3.237 1.339 -0.98799998 104 68 54
-3.2449999 1.3279999 -0.97399998 24 6 4
-3.2449999 1.327 -0.98299998 15 4 2
-3.243 1.322 -0.96600002 40 35 32
-3.243 1.322 -0.97399998 9 0 1
-3.243 1.321 -0.97799999 15 5 4
-3.2190001 1.2819999 -0.91500002 107 75 54
-3.1900001 1.3150001 -0.97299999 136 104 79
-3.207 1.291 -0.91399997 24 10 10
-3.257 1.303 -0.80500001 38 16 5
-3.2620001 1.2970001 -0.80699998 158 101 58
-3.2639999 1.311 -0.80800003 99 74 44
-3.2379999 1.3 -0.80199999 93 70 38
-3.082 1.342 -0.90499997 8 4 3
-3.066 1.337 -0.88800001 88 77 75
-3.102 1.2869999 -0.85100001 76 60 47
-3.0869999 1.275 -0.84299999 60 27 12
-3.0869999 1.276 -0.833 28 7 4
-3.105 1.295 -0.89200002 59 30 16
-3.105 1.304 -0.88200003 129 97 74
-3.1440001 1.36 -0.759 64 27 0
-3.227 1.353 -0.87099999 80 44 12
-3.2260001 1.35 -0.87 81 47 19
-3.233 1.344 -0.87199998 175 113 72
-3.2090001 1.354 -0.86000001 80 21 0
-3.2049999 1.363 -0.86699998 113 44 11
-3.131 1.329 -0.89099997 76 59 52
-3.1199999 1.336 -0.88300002 20 8 10
-3.1210001 1.339 -0.88999999 12 2 1
-3.1199999 1.347 -0.889 19 0 0
-3.1889999 1.358 -0.85900003 242 206 170
-3.1949999 1.359 -0.86299998 126 101 70
-3.198 1.363 -0.85699999 130 87 78
-3.1199999 1.3380001 -0.93800002 168 133 93
-3.1270001 1.329 -0.93800002 22 4 2
-3.1459999 1.322 -0.91399997 29 10 4
-3.151 1.319 -0.90600002 124 105 98
-3.135 1.331 -0.90600002 26 2 0
-3.135 1.331 -0.91000003 28 4 0
-3.108 1.331 -0.89999998 17 3 2
-3.115 1.313 -0.91000003 29 4 0
-3.0999999 1.351 -0.90799999 50 39 33
-3.1270001 1.349 -0.90100002 109 82 65
-3.1199999 1.346 -0.85600001 107 72 53
-3.0940001 1.358 -0.85600001 39 12 1
-3.1070001 1.36 -0.86400002 53 28 24
-3.102 1.376 -0.82200003 26 13 7
-3.092 1.364 -0.80199999 65 48 41
-3.1059999 1.381 -0.82700002 34 22 22
-3.115 1.354 -0.83899999 21 3 0
-3.1140001 1.354 -0.83700001 135 67 18
-3.1159999 1.355 -0.824 71 42 38
-3.1140001 1.383 -0.81400001 14 0 0
-3.1300001 1.372 -0.796 112 76 54
-3.1400001 1.373 -0.80900002 79 50 32
-3.138 1.355 -0.81400001 45 22 16
-3.135 1.35 -0.80800003 61 37 25
-3.1429999 1.377 -0.81 31 18 12
-3.1429999 1.377 -0.81300002 29 14 7
-3.122 1.359 -0.83899999 48 19 1
-3.1259999 1.376 -0.81800002 34 20 0
-3.118 1.38 -0.81400001 25 4 1
-3.109 1.33 -0.81699997 35 5 0
-3.086 1.354 -0.85699999 47 30 22
-3.0829999 1.348 -0.86699998 46 8 0
-3.102 1.324 -0.838 85 74 72
-3.0829999 1.283 -0.80900002 142 125 118
-3.0829999 1.285 -0.79400003 69 49 42
-3.132 1.359 -0.78600001 56 22 12
-3.125 1.381 -0.80699998 72 48 36
-3.108 1.311 -0.76700002 45 12 0
-3.109 1.309 -0.76499999 74 19 0
-3.0810001 1.34 -0.73699999 117 88 74
-3.0999999 1.3380001 -0.73500001 236 207 177
-3.1140001 1.3430001 -0.74400002 240 190 101
-3.1170001 1.348 -0.74400002 255 228 125
-3.266 1.296 -0.81 127 73 26
-3.099 1.299 -0.81699997 54 48 48
-3.0829999 1.308 -0.79400003 61 43 39
-3.076 1.327 -0.796 121 98 82
-3.0899999 1.291 -0.796 105 86 82
-3.2479999 1.2970001 -0.80199999 150 101 68
-3.1989999 1.298 -0.81999999 130 97 66
-3.086 1.275 -0.82200003 13 0 0
-3.076 1.2690001 -0.73799998 122 110 112
-3.0650001 1.265 -0.74299997 91 52 23
-3.066 1.2640001 -0.75 47 36 34
-3.066 1.3200001 -0.85699999 46 12 2
-3.092 1.258 -0.77899998 151 102 59
-3.105 1.25 -0.764 141 105 83
-3.076 1.248 -0.755 200 152 116
-3.0840001 1.322 -1.045 16 2 2
-3.0769999 1.3099999 -1.041 22 8 5
-3.099 1.322 -1.0599999 15 1 0
-3.099 1.323 -1.0599999 34 14 7
-3.102 1.335 -1.0549999 109 75 48
-3.096 1.332 -1.058 19 1 0
-3.1070001 1.341 -1.0319999 10 0 1
-3.0650001 1.29 -1.025 110 76 67
-3.066 1.295 -1.034 128 104 94
-3.0880001 1.309 -0.73900002 75 34 16
-3.095 1.326 -0.72899997 204 174 148
-3.0999999 1.326 -0.736 220 161 85
-3.1010001 1.322 -0.73799998 78 40 1
-3.1010001 1.321 -0.73900002 235 180 97
-3.1059999 1.325 -0.74000001 140 67 0
-3.1170001 1.33 -0.759 86 41 10
-3.1099999 1.322 -0.75199997 206 142 78
-3.0780001 1.329 -0.77499998 58 21 3
-3.076 1.334 -0.78600001 152 128 116
-3.108 1.266 -0.74000001 154 134 127
-3.2049999 1.274 -1.011 77 27 36
-3.2079999 1.277 -1.0039999 158 126 103
-3.2309999 1.2920001 -0.95999998 94 71 65
-3.0999999 1.2819999 -0.92299998 40 25 20
-3.0969999 1.284 -0.98900002 44 13 0
-3.0999999 1.285 -0.98000002 41 31 29
-3.1029999 1.286 -0.99299997 42 25 15
-3.108 1.274 -1.01 124 110 107
-3.0829999 1.27 -1.005 56 34 20
-3.1059999 1.28 -1 31 13 3
-3.1010001 1.283 -0.99699998 102 64 41
-3.1400001 1.319 -1.002 13 5 2
-3.1440001 1.323 -1.001 13 4 5
-3.1340001 1.329 -1.01 10 0 0
-3.1370001 1.324 -1.02 132 124 122
-3.132 1.298 -1.04 127 110 102
-3.1170001 1.2690001 -1.073 121 108 102
-3.1129999 1.265 -1.073 117 102 95
-3.1329999 1.265 -1.041 120 109 103
-3.131 1.274 -1.026 55 27 6
-3.122 1.276 -1.024 167 140 121
-3.115 1.2690001 -1.031 82 53 39
-3.142 1.252 -1.044 121 105 105
-3.198 1.293 -1.059 67 42 37
-3.1889999 1.293 -1.058 59 39 32
-3.188 1.2970001 -1.061 54 28 15
-3.164 1.278 -1.04 10 0 1
-3.1329999 1.283 -1.054 12 1 0
-3.1300001 1.273 -1.0599999 28 2 1
-3.118 1.262 -1.067 128 113 108
-3.1389999 1.272 -1.056 28 14 13
-3.135 1.268 -1.0549999 124 111 105
-3.211 1.286 -0.917 68 63 67
-3.198 1.303 -0.92400002 137 122 117
-3.1400001 1.304 -1.011 70 35 0
-3.1400001 1.321 -0.99000001 17 0 0
-3.0780001 1.336 -0.95700002 43 29 28
-3.072 1.334 -0.96499997 185 149 133
-3.0739999 1.334 -0.96399999 148 110 87
-3.082 1.336 -0.96100003 24 5 1
-3.073 1.336 -0.97399998 55 16 1
-3.063 1.304 -0.98299998 125 85 60
-3.0680001 1.302 -0.93199998 24 3 2
-3.099 1.286 -0.97399998 73 43 32
-3.072 1.285 -0.995 88 60 48
-3.0580001 1.29 -1.0089999 12 3 4
-3.2449999 1.312 -0.954 5 0 6
-3.244 1.324 -0.95499998 14 0 0
-3.243 1.322 -0.98100001 18 8 7
-3.26 1.329 -1.018 27 10 2
-3.247 1.324 -1.013 38 12 13
-3.2520001 1.3200001 -1.021 59 34 27
-3.2119999 1.271 -0.972 37 13 3
-3.211 1.27 -0.97399998 4 0 0
-3.2090001 1.27 -0.97600001 4 0 1
-3.23 1.299 -0.977 26 11 6
-3.23 1.295 -0.97100002 17 1 1
-3.234 1.304 -0.986 14 0 0
-3.211 1.364 -0.88499999 117 82 60
-3.2160001 1.3660001 -0.88599998 127 114 108
-3.2049999 1.3049999 -1.0470001 10 2 0
-3.2219999 1.3279999 -1.04 4 0 0
-3.2349999 1.337 -0.90700001 17 0 0
-3.2390001 1.329 -0.90200001 25 4 0
-3.2449999 1.321 -0.99299997 8 0 0
-3.2460001 1.323 -0.98900002 9 0 0
-3.244 1.317 -0.98799998 8 0 0
-3.2249999 1.3430001 -0.92299998 44 15 11
-3.21 1.359 -0.89899999 77 29 6
-3.2190001 1.349 -0.91100001 56 27 19
-3.27 1.298 -0.81599998 203 175 76
-3.2609999 1.304 -0.833 64 5 0
-3.2539999 1.303 -0.84100002 52 24 13
-3.2249999 1.285 -0.86299998 78 68 59
-3.2119999 1.29 -0.86500001 29 12 5
-3.247 1.316 -0.88099998 20 3 0
-3.2509999 1.313 -0.88700002 15 1 0
-3.21 1.319 -1.011 6 0 0
-3.2420001 1.324 -1.01 123 104 97
-3.2690001 1.302 -0.82800001 63 39 29
-3.25 1.313 -0.852 44 24 17
-3.25 1.312 -0.85000002 32 13 7
-3.2479999 1.313 -0.84500003 148 96 59
-3.2539999 1.309 -0.85600001 77 45 24
-3.2379999 1.3380001 -0.87199998 141 119 105
-3.224 1.334 -0.86699998 164 149 142
-3.2420001 1.322 -0.86000001 156 142 141
-3.2409999 1.325 -0.917 20 2 0
-3.2119999 1.3 -0.83200002 48 24 14
-3.2149999 1.303 -0.81900001 140 113 96
-3.204 1.306 -0.81699997 164 136 125
-3.2360001 1.33 -0.82700002 142 86 53
-3.23 1.318 -0.82700002 216 149 78
-3.191 1.2970001 -0.83999997 196 173 165
-3.1919999 1.3200001 -0.81400001 143 85 47
-3.194 1.311 -0.815 77 36 16
-3.1960001 1.336 -0.82300001 125 94 65
-3.1730001 1.316 -0.815 147 106 74
-3.1700001 1.3200001 -0.81599998 27 10 3
-3.171 1.337 -0.80900002 228 178 119
-3.177 1.294 -0.81599998 55 33 10
-3.1059999 1.278 -0.81599998 11 0 0
-3.1429999 1.321 -0.87800002 30 13 6
-3.1689999 1.311 -0.83499998 91 62 46
-3.152 1.307 -0.81999999 154 118 82
-3.122 1.293 -0.95599997 127 95 80
-3.1289999 1.291 -0.95899999 110 84 69
-3.1159999 1.294 -0.96399999 117 93 81
-3.2179999 1.313 -0.83200002 91 20 2
-3.2149999 1.2869999 -0.889 95 77 73
-3.24 1.29 -0.89099997 39 7 0
-3.2290001 1.2819999 -0.85500002 65 29 7
-3.211 1.293 -0.85500002 91 75 75
-3.23 1.299 -0.85600001 61 28 13
-3.23 1.303 -0.85100001 51 34 26
-3.171 1.311 -0.88999999 21 3 1
-3.165 1.308 -0.903 80 52 41
-3.1830001 1.311 -0.88 49 18 0
-3.125 1.324 -0.87800002 41 14 5
-3.1199999 1.327 -0.85900003 80 74 78
-3.1210001 1.321 -0.87599999 41 15 0
-3.1159999 1.352 -0.89899999 6 0 0
-3.1960001 1.337 -0.90399998 186 167 152
-3.2019999 1.357 -0.90399998 124 96 82
-3.2379999 1.3279999 -0.91600001 12 4 1
-3.2390001 1.2970001 -0.91000003 50 30 21
-3.1900001 1.309 -0.85699999 40 27 19
-3.1919999 1.308 -0.86199999 19 8 6
-3.1900001 1.3 -0.847 124 97 86
-3.096 1.288 -1.043 17 3 0
-3.0840001 1.28 -1.036 55 27 23
-3.105 1.274 -1.062 11 7 0
-3.0969999 1.293 -1.052 69 32 6
-3.0999999 1.263 -1.059 105 104 100
-3.0899999 1.29 -1.043 38 11 2
-3.1010001 1.272 -1.018 124 106 102
-3.0940001 1.278 -1.0089999 90 56 29
-3.069 1.293 -1.0420001 46 2 0
-3.0810001 1.277 -1.034 127 97 73
-3.0780001 1.295 -1.05 65 47 37
-3.1029999 1.22 -1.0420001 104 94 85
-3.1229999 1.2460001 -1.058 130 117 109
-3.1170001 1.23 -1.064 102 93 86
-3.0669999 1.26 -0.755 132 115 108
-3.105 1.276 -0.79299998 47 20 9
-3.0910001 1.272 -0.81300002 26 5 4
-3.2449999 1.289 -0.80800003 96 63 48
-3.0940001 1.346 -1.029 6 0 0
-3.0840001 1.322 -1.05 14 0 0
-3.0829999 1.329 -1.039 18 0 0
-3.0869999 1.33 -1.054 25 4 0
-3.086 1.326 -1.05 33 14 8
-3.076 1.322 -1.031 84 67 59
-3.1010001 1.346 -1.027 7 0 0
-3.0699999 1.322 -0.99199998 57 39 25
-3.0780001 1.33 -0.97500002 112 95 79
-3.0910001 1.332 -0.98199999 41 20 17
-3.089 1.344 -0.99900001 5 1 0
-3.1029999 1.3329999 -0.94499999 6 0 0
-3.178 1.3279999 -0.92199999 11 0 0
-3.177 1.3200001 -0.917 117 107 106
-3.207 1.344 -0.91900003 111 76 54
-3.1199999 1.3279999 -0.97100002 19 0 0
-3.2179999 1.34 -0.94999999 9 0 0
-3.2079999 1.3329999 -0.986 19 0 0
-3.1960001 1.313 -0.94300002 107 97 96
-3.178 1.3099999 -0.94499999 117 103 94
-3.1900001 1.323 -0.972 33 14 0
-3.2019999 1.3279999 -0.986 130 119 115
-3.197 1.321 -0.98900002 55 22 5
-3.1210001 1.332 -0.94499999 14 0 0
-3.1359999 1.325 -0.96399999 193 157 141
-3.2290001 1.337 -0.954 68 49 45
-3.0840001 1.369 -0.77600002 79 60 53
-3.0840001 1.365 -0.77999997 25 5 6
-3.0999999 1.383 -0.78500003 94 79 74
-3.0999999 1.368 -0.792 55 26 12
-3.0840001 1.358 -0.792 75 42 25
-3.085 1.362 -0.79799998 194 145 102
-3.0810001 1.354 -0.796 100 67 48
-3.1110001 1.3559999 -0.74599999 255 221 125
-3.1170001 1.369 -0.75 226 191 107
-3.125 1.358 -0.74800003 134 103 74
-3.1129999 1.307 -0.912 79 47 22
-3.1059999 1.3 -0.89200002 48 28 21
-3.073 1.337 -0.94199997 32 17 14
-3.0669999 1.33 -0.90799999 27 2 0
-3.0739999 1.295 -0.91799998 51 30 27
-3.082 1.294 -0.88800001 10 2 0
-3.0780001 1.291 -0.87199998 43 32 30
-3.0899999 1.2920001 -0.889 92 61 41
-3.075 1.339 -0.88 5 1 2
-3.095 1.339 -0.94300002 133 108 101
-3.0940001 1.3329999 -0.95099998 14 2 2
-3.099 1.339 -0.935 8 0 0
-3.108 1.34 -0.926 21 5 6
-3.075 1.342 -0.889 13 1 1
-3.073 1.341 -0.88800001 2 1 0
-3.072 1.34 -0.88999999 12 0 0
-3.1010001 1.3 -0.86900002 127 104 98
-3.092 1.284 -0.85699999 82 78 69
-3.0769999 1.316 -0.88800001 47 27 18
-3.0869999 1.339 -0.88999999 18 4 3
-3.076 1.316 -0.89399999 74 65 66
-3.109 1.309 -0.88800001 85 75 73
-3.0569999 1.324 -0.88800001 32 7 2
-3.056 1.323 -0.88599998 101 65 43
-3.052 1.325 -0.88300002 17 8 3
-3.0680001 1.288 -0.97100002 40 14 1
-3.066 1.299 -0.96700001 73 42 22
-3.0799999 1.284 -0.84799999 49 22 13
-3.062 1.311 -0.87699997 108 79 63
-3.0599999 1.3150001 -0.89099997 27 7 0
-3.0810001 1.316 -0.88499999 8 0 0
-3.0869999 1.3329999 -0.87900001 22 8 8
-3.105 1.331 -0.89300001 91 78 69
-3.0929999 1.291 -0.87199998 21 10 8
-3.0999999 1.294 -0.89200002 82 49 34
-3.1429999 1.388 -0.792 65 23 1
-3.1459999 1.367 -0.76300001 150 90 54
-3.1789999 1.339 -0.80900002 81 34 8
-3.1059999 1.289 -0.90799999 95 43 4
-3.0869999 1.295 -0.90899998 6 1 0
-3.1170001 1.291 -0.93000001 115 87 73
-3.086 1.289 -0.89399999 44 16 2
-3.2420001 1.296 -1.031 10 0 0
-3.082 1.369 -0.76300001 43 23 14
-3.098 1.386 -0.773 98 44 18
-3.0599999 1.351 -0.75199997 108 90 80
-3.118 1.376 -0.75099999 28 8 1
-3.1110001 1.3710001 -0.75199997 128 66 5
-3.0969999 1.363 -0.74199998 45 23 10
-3.098 1.365 -0.74299997 38 21 13
-3.22 1.274 -1.023 101 98 105
-3.102 1.212 -1.045 126 96 70
-3.102 1.217 -1.043 95 86 79
-3.099 1.225 -1.044 87 73 70
-3.105 1.224 -1.043 111 98 90
-3.1059999 1.222 -1.0420001 119 109 99
-3.1099999 1.226 -1.074 88 77 71
-3.1259999 1.235 -1.061 112 98 97
-3.1129999 1.227 -1.064 108 98 89
-3.2030001 1.2819999 -1.0549999 19 0 0
-3.0829999 1.341 -0.995 63 43 34
-3.089 1.342 -1.0089999 14 4 3
-3.1340001 1.289 -1.011 106 95 93
-3.1500001 1.3150001 -1.031 94 76 64
-3.122 1.331 -1.018 15 6 7
-3.1500001 1.3200001 -1.028 106 88 78
-3.138 1.326 -1.045 17 7 6
-3.141 1.321 -1.041 30 11 5
-3.105 1.271 -1.062 155 116 87
-3.1270001 1.334 -1.054 8 0 0
-3.1429999 1.322 -1.05 27 12 7
-3.0969999 1.346 -0.73199999 126 94 71
-3.0769999 1.313 -0.73199999 49 16 1
-3.0699999 1.2970001 -0.76999998 36 9 0
-3.056 1.319 -0.759 59 13 0
-3.2460001 1.327 -0.99699998 40 26 26
-3.2390001 1.331 -0.96600002 41 22 18
-3.227 1.335 -0.95999998 10 1 0
-3.23 1.336 -0.95999998 16 0 0
-3.2279999 1.3329999 -0.963 22 4 2
-3.2060001 1.318 -1.028 21 6 0
-3.233 1.3329999 -0.97500002 59 33 20
-3.1340001 1.2970001 -0.903 32 4 0
-3.1329999 1.2920001 -0.90700001 130 95 76
-3.132 1.298 -0.89700001 139 122 115
-3.2260001 1.34 -0.93699998 29 6 0
-3.112 1.402 -0.778 64 22 0
-3.0869999 1.344 -0.91900003 9 0 0
-3.0739999 1.33 -0.903 8 0 0
-3.075 1.335 -0.89999998 41 27 24
-3.1059999 1.284 -0.90200001 98 78 67
-3.2090001 1.353 -0.861 112 53 11
-3.1199999 1.365 -0.898 36 17 10
-3.191 1.344 -0.87 7 1 1
-3.2 1.344 -0.87 175 117 69
-3.197 1.325 -0.87300003 14 4 3
-3.152 1.329 -0.86500001 112 98 87
-3.1210001 1.334 -0.85900003 67 32 4
-3.1059999 1.362 -0.847 10 0 1
-3.105 1.376 -0.81999999 44 23 18
-3.131 1.353 -0.81300002 44 17 6
-3.1099999 1.3380001 -0.824 94 72 59
-3.1229999 1.362 -0.83399999 41 10 5
-3.1289999 1.3660001 -0.824 43 19 17
-3.115 1.355 -0.81099999 86 70 36
-3.119 1.362 -0.80800003 69 37 24
-3.1110001 1.335 -0.85000002 197 140 73
-3.086 1.293 -0.80800003 60 42 32
-3.086 1.291 -0.801 104 93 91
-3.1289999 1.376 -0.81599998 63 40 34
-3.109 1.365 -0.75 149 121 107
-3.0999999 1.342 -0.736 91 59 34
-3.098 1.336 -0.73299998 254 234 181
-3.247 1.294 -0.85000002 85 51 41
-3.0940001 1.296 -0.81300002 13 2 0
-3.0929999 1.291 -0.81 103 88 81
-3.095 1.285 -0.801 189 145 118
-3.0880001 1.301 -0.80900002 68 52 52
-3.1140001 1.306 -0.76200002 153 71 21
-3.243 1.299 -0.80000001 98 52 26
-3.2 1.3099999 -0.81599998 139 70 28
-3.194 1.3049999 -0.81599998 70 35 0
-3.211 1.326 -0.81800002 245 204 176
-3.204 1.3279999 -0.83399999 147 98 58
-3.2090001 1.322 -0.82599998 87 51 25
-3.1930001 1.3 -0.81900001 123 60 17
-3.0840001 1.273 -0.73900002 90 41 27
-3.082 1.271 -0.73900002 72 41 20
-3.062 1.275 -0.74299997 70 38 17
-3.0739999 1.26 -0.74599999 41 13 1
-3.082 1.299 -0.78500003 204 162 140
-3.082 1.314 -0.77499998 63 44 37
-3.0840001 1.3 -0.77600002 149 109 83
-3.066 1.3279999 -0.87699997 20 9 7
-3.1059999 1.318 -0.84100002 89 79 78
-3.1010001 1.263 -0.78600001 25 7 0
-3.0810001 1.256 -0.75800002 130 73 30
-3.0810001 1.258 -0.74800003 97 38 6
-3.082 1.25 -0.75199997 139 68 12
-3.099 1.313 -1.059 43 27 27
-3.1070001 1.3329999 -1.0599999 11 0 0
-3.118 1.3329999 -1.0549999 36 14 1
-3.1070001 1.332 -1.0420001 10 0 0
-3.1040001 1.302 -0.76599997 48 12 0
-3.1029999 1.29 -0.76599997 41 7 0
-3.1010001 1.286 -0.76999998 46 16 6
-3.1040001 1.312 -0.76800001 91 40 11
-3.1099999 1.293 -0.76300001 93 52 32
-3.0940001 1.302 -0.76700002 148 89 49
-3.0999999 1.322 -0.73699999 133 98 58
-3.079 1.336 -0.778 31 13 11
-3.079 1.336 -0.78399998 21 3 1
-3.076 1.34 -0.76899999 85 52 35
-3.0780001 1.337 -0.79799998 92 38 12
-3.0910001 1.3279999 -0.78200001 104 60 23
-3.109 1.279 -0.764 128 101 82
-3.099 1.279 -0.73100001 79 56 48
-3.1099999 1.278 -0.73699999 135 66 9
-3.1140001 1.2819999 -0.741 45 17 3
-3.102 1.281 -0.736 64 45 30
-3.112 1.27 -0.74199998 117 77 51
-3.227 1.289 -1.006 187 143 98
-3.096 1.281 -0.92199999 36 14 3
-3.096 1.277 -1.0039999 43 25 15
-3.0710001 1.284 -0.95700002 25 4 0
-3.0840001 1.2819999 -0.954 96 63 46
-3.092 1.279 -0.94199997 170 134 108
-3.1370001 1.302 -1.0039999 5 0 1
-3.1059999 1.3430001 -1.029 28 3 0
-3.1040001 1.2690001 -1.035 86 53 36
-3.1040001 1.2690001 -1.056 53 26 15
-3.135 1.261 -1.052 141 112 96
-3.118 1.258 -1.058 52 38 29
-3.197 1.298 -1.03 148 129 115
-3.1919999 1.302 -1.033 39 16 8
-3.194 1.302 -1.05 118 95 89
-3.2060001 1.321 -1.0319999 25 11 2
-3.2090001 1.322 -1.039 14 4 3
-3.1110001 1.267 -1.058 118 119 114
-3.1889999 1.3 -1.012 135 120 117
-3.194 1.301 -1.0140001 16 2 1
-3.2 1.286 -1.0190001 17 6 2
-3.2019999 1.283 -1.021 5 0 0
-3.2030001 1.2819999 -1.026 62 43 39
-3.2019999 1.2869999 -1.027 16 6 5
-3.2 1.321 -0.926 10 0 0
-3.201 1.329 -0.92799997 112 98 98
-3.2 1.332 -0.917 28 9 3
-3.1259999 1.28 -1.015 36 0 0
-3.1470001 1.3150001 -1.022 120 97 81
-3.145 1.307 -1.02 131 109 95
-3.1429999 1.309 -1.012 178 137 83
-3.1289999 1.3279999 -0.995 8 0 0
-3.1259999 1.329 -0.99699998 23 4 0
-3.1229999 1.307 -0.93699998 118 95 89
-3.1300001 1.29 -0.903 141 98 79
-3.0739999 1.334 -0.95999998 128 95 78
-3.0739999 1.332 -0.95700002 150 126 114
-3.089 1.2869999 -0.972 239 202 160
-3.0969999 1.3279999 -0.97600001 10 0 1
-3.092 1.327 -0.972 15 1 0
-3.0680001 1.308 -0.94499999 98 94 91
-3.0680001 1.316 -0.926 48 20 8
-3.072 1.296 -0.94700003 53 14 0
-3.076 1.289 -0.921 5 0 0
-3.086 1.3430001 -0.99599999 5 0 0
-3.0910001 1.34 -0.99199998 8 0 0
-3.062 1.288 -0.99599999 6 1 0
-3.2449999 1.3150001 -0.96799999 7 1 1
-3.2420001 1.317 -0.98000002 22 4 2
-3.211 1.3279999 -1.044 5 1 0
-3.233 1.342 -0.90700001 17 2 0
-3.2420001 1.329 -0.96600002 13 4 5
-3.224 1.344 -0.91900003 49 15 5
-3.217 1.351 -0.90600002 68 36 23
-3.2179999 1.344 -0.92699999 76 60 60
-3.2119999 1.334 -0.93900001 46 30 31
-3.2119999 1.339 -0.926 9 4 1
-3.2219999 1.34 -0.93599999 82 64 62
-3.2650001 1.2920001 -0.81199998 40 3 0
-3.247 1.299 -0.88499999 74 35 20
-3.25 1.303 -0.99000001 32 5 0
-3.2460001 1.304 -0.99599999 4 0 0
-3.2360001 1.325 -1.016 30 23 17
-3.2509999 1.331 -0.81900001 127 98 58
-3.247 1.314 -0.83999997 109 54 15
-3.2390001 1.339 -0.884 182 122 85
-3.244 1.327 -0.88599998 86 71 64
-3.2379999 1.318 -0.91299999 43 19 9
-3.21 1.327 -0.84100002 21 0 0
-3.2160001 1.326 -0.85799998 10 4 4
-3.234 1.326 -0.815 153 110 75
-3.191 1.294 -0.83499998 126 64 39
-3.2160001 1.301 -0.85399997 31 4 0
-3.188 1.334 -0.82800001 118 99 85
-3.2119999 1.307 -0.81699997 110 55 14
-3.22 1.318 -0.81900001 178 133 102
-3.1110001 1.307 -0.861 102 66 52
-3.1140001 1.307 -0.85399997 116 82 55
-3.1129999 1.3099999 -0.83999997 55 44 40
-3.109 1.313 -0.84500003 84 73 79
-3.1059999 1.318 -0.84200001 86 75 81
-3.1059999 1.312 -0.83700001 69 60 53
-3.1570001 1.317 -0.83399999 51 8 2
-3.168 1.325 -0.84100002 34 9 4
-3.165 1.322 -0.84799999 28 9 2
-3.178 1.326 -0.83499998 28 9 5
-3.174 1.329 -0.82499999 111 79 64
-3.178 1.3279999 -0.829 105 73 50
-3.1159999 1.295 -0.96799999 130 107 99
-3.1199999 1.298 -0.96799999 108 86 75
-3.1429999 1.307 -0.90399998 83 33 8
-3.158 1.3150001 -0.89899999 118 64 30
-3.1370001 1.307 -0.89999998 18 7 3
-3.141 1.318 -0.89499998 123 100 94
-3.2090001 1.321 -0.85299999 74 53 36
-3.2130001 1.318 -0.83999997 130 92 71
-3.2079999 1.289 -0.87 21 5 5
-3.2409999 1.29 -0.889 44 16 2
-3.1619999 1.314 -0.89600003 63 35 23
-3.135 1.324 -0.88099998 95 90 96
-3.1289999 1.317 -0.88499999 113 81 70
-3.1849999 1.3200001 -0.87400001 14 2 2
-3.198 1.336 -0.90899998 156 135 118
-3.2409999 1.291 -0.90200001 111 86 81
-3.243 1.293 -0.89999998 47 22 15
-3.1889999 1.299 -0.84299999 158 136 125
-3.1930001 1.308 -0.88700002 28 8 7
-3.221 1.342 -0.86699998 93 63 52
-3.0829999 1.293 -1.051 141 113 102
-3.075 1.277 -1.029 118 101 94
-3.0829999 1.308 -1.061 40 16 6
-3.098 1.224 -1.063 102 83 68
-3.1159999 1.209 -1.0599999 114 97 89
-3.0669999 1.276 -0.76599997 92 50 28
-3.0769999 1.247 -0.76099998 164 124 112
-3.076 1.263 -0.764 220 163 118
-3.0799999 1.268 -0.76800001 24 4 3
-3.099 1.272 -0.79699999 39 4 0
-3.2420001 1.296 -0.80299997 90 63 36
-3.085 1.325 -1.052 27 10 3
-3.0739999 1.3200001 -1.027 19 5 2
-3.082 1.33 -1.021 13 2 0
-3.079 1.3279999 -1.013 15 5 4
-3.0710001 1.331 -0.99199998 126 113 107
-3.0710001 1.321 -0.98799998 8 0 0
-3.0710001 1.319 -0.99199998 10 0 0
-3.098 1.33 -0.95700002 13 1 1
-3.0910001 1.329 -0.95899999 8 0 0
-3.099 1.332 -0.94700003 22 12 11
-3.131 1.306 -0.95899999 108 90 80
-3.135 1.316 -0.95200002 8 0 0
-3.128 1.323 -0.94499999 103 81 70
-3.135 1.316 -0.93199998 8 0 0
-3.131 1.3150001 -0.926 123 98 93
-3.165 1.311 -0.91299999 123 109 106
-3.145 1.318 -0.91000003 32 3 0
-3.115 1.33 -0.986 18 7 3
-3.1289999 1.329 -0.98799998 19 0 0
-3.1259999 1.327 -0.98199999 32 13 6
-3.119 1.3279999 -0.98100001 18 0 0
-3.1860001 1.3150001 -0.95200002 129 112 105
-3.191 1.318 -0.94999999 14 0 0
-3.198 1.318 -0.94700003 16 4 4
-3.1229999 1.332 -0.93800002 92 86 90
-3.122 1.327 -0.958 159 119 67
-3.2019999 1.331 -0.94800001 133 113 106
-3.1070001 1.391 -0.801 87 73 72
-3.108 1.39 -0.80000001 25 11 10
-3.1110001 1.38 -0.79699999 63 48 43
-3.0780001 1.3660001 -0.77499998 59 26 7
-3.0810001 1.362 -0.77899998 165 132 115
-3.0680001 1.35 -0.796 140 118 105
-3.0780001 1.337 -0.79699999 31 10 7
-3.0869999 1.3609999 -0.792 52 27 20
-3.1240001 1.3710001 -0.75199997 75 34 6
-3.0899999 1.322 -0.91600001 21 6 0
-3.0940001 1.336 -0.90700001 53 31 20
-3.0999999 1.336 -0.90399998 31 3 0
-3.092 1.3049999 -0.91600001 114 95 88
-3.0669999 1.33 -0.94099998 33 13 6
-3.066 1.3279999 -0.898 12 7 4
-3.0699999 1.295 -0.86799997 41 26 19
-3.079 1.332 -0.91000003 16 2 0
-3.079 1.334 -0.90799999 28 15 9
-3.0940001 1.349 -0.92400002 5 0 0
-3.1040001 1.342 -0.91299999 96 95 91
-3.1010001 1.332 -0.91299999 12 3 4
-3.0569999 1.321 -0.88599998 104 67 40
-3.098 1.2869999 -0.85600001 18 4 1
-3.0929999 1.28 -0.84899998 108 85 77
-3.082 1.284 -0.86299998 74 51 35
-3.1099999 1.306 -0.89099997 116 82 47
-3.1070001 1.312 -0.884 12 1 0
-3.073 1.3380001 -0.86299998 50 13 5
-3.066 1.318 -0.86199999 52 37 30
-3.0929999 1.337 -0.89899999 18 8 6
-3.0880001 1.2869999 -0.86299998 14 0 0
-3.1400001 1.3890001 -0.79799998 24 5 0
-3.1040001 1.293 -0.83899999 186 165 146
-3.079 1.368 -0.76099998 57 32 2
-3.105 1.39 -0.76599997 134 117 109
-3.095 1.38 -0.77200001 31 17 8
-3.062 1.3559999 -0.75400001 206 176 150
-3.0780001 1.352 -0.77200001 26 0 0
-3.069 1.344 -0.73799998 202 162 74
-3.0969999 1.368 -0.74199998 36 21 18
-3.1059999 1.365 -0.74900001 117 58 0
-3.108 1.2130001 -1.045 109 99 90
-3.0999999 1.214 -1.043 92 81 75
-3.1159999 1.227 -1.074 107 96 92
-3.0869999 1.325 -1.056 45 23 10
-3.0840001 1.337 -1.006 9 0 1
-3.0840001 1.3430001 -0.99900001 22 12 11
-3.105 1.336 -0.99199998 11 2 3
-3.1370001 1.324 -1.016 120 110 109
-3.1289999 1.331 -1.04 56 29 20
-3.1459999 1.318 -1.0420001 191 153 106
-3.141 1.312 -1.0420001 123 104 98
-3.102 1.2690001 -1.0599999 151 99 62
-3.0999999 1.349 -0.73400003 193 161 140
-3.0829999 1.36 -0.78399998 92 59 42
-3.0810001 1.349 -0.77700001 28 9 3
-3.0810001 1.346 -0.78899997 11 0 0
-3.0569999 1.289 -0.74699998 87 35 13
-3.075 1.303 -0.74400002 96 44 22
-3.079 1.304 -0.74000001 183 108 53
-3.069 1.337 -0.76499999 36 16 5
-3.072 1.355 -0.74400002 245 237 162
-3.2079999 1.33 -0.95999998 122 104 100
-3.21 1.329 -0.977 47 30 23
-3.211 1.332 -0.986 37 12 7
-3.2320001 1.293 -0.95599997 44 20 10
-3.223 1.327 -0.96899998 16 4 4
-3.221 1.329 -1.025 1 0 2
-3.234 1.335 -0.96399999 19 3 3
-3.1889999 1.322 -0.921 10 0 0
-3.073 1.3329999 -0.89899999 23 5 3
-3.1340001 1.391 -0.787 34 5 1
-3.1400001 1.373 -0.75300002 129 98 69
-3.1459999 1.38 -0.75700003 104 67 49
-3.145 1.385 -0.75999999 224 157 79
-3.204 1.3430001 -0.86900002 60 48 36
-3.2119999 1.337 -0.87 121 104 97
-3.2030001 1.365 -0.86199999 105 32 0
-3.184 1.329 -0.86900002 19 1 0
-3.168 1.324 -0.85000002 60 30 20
-3.1930001 1.353 -0.88599998 83 50 35
-3.1040001 1.334 -0.89700001 15 0 0
-3.1140001 1.341 -0.91500002 83 84 86
-3.119 1.33 -0.861 36 15 10
-3.1099999 1.359 -0.86799997 50 27 21
-3.1040001 1.38 -0.82200003 75 64 62
-3.1210001 1.36 -0.82200003 28 5 0
-3.125 1.3660001 -0.82999998 22 3 0
-3.108 1.353 -0.80699998 148 114 89
-3.1210001 1.332 -0.85399997 11 0 0
-3.0940001 1.342 -0.73100001 191 149 99
-3.2420001 1.29 -0.82300001 31 6 1
-3.244 1.291 -0.82800001 48 16 3
-3.0869999 1.296 -0.801 84 48 26
-3.089 1.2920001 -0.79299998 181 139 115
-3.1140001 1.293 -0.74900001 114 59 29
-3.1960001 1.314 -0.81599998 97 66 48
-3.184 1.311 -0.81599998 88 59 43
-3.1860001 1.3099999 -0.81599998 106 51 12
-3.188 1.309 -0.81599998 168 139 123
-3.0769999 1.275 -0.741 65 44 39
-3.069 1.2690001 -0.74199998 180 153 134
-3.089 1.295 -0.78200001 90 55 27
-3.089 1.2640001 -0.79699999 23 6 0
-3.0929999 1.271 -0.80400002 102 88 85
-3.085 1.268 -0.79500002 47 10 1
-3.0910001 1.265 -0.79299998 14 0 0
-3.1029999 1.257 -0.77600002 93 54 37
-3.098 1.263 -0.78500003 160 116 77
-3.085 1.248 -0.75099999 73 29 18
-3.0799999 1.27 -0.76800001 30 26 25
-3.092 1.283 -0.76200002 66 13 0
-3.096 1.281 -0.764 96 71 15
-3.0929999 1.276 -0.76800001 45 15 4
-3.118 1.3329999 -1.0599999 54 38 25
-3.115 1.316 -1.056 90 73 66
-3.1059999 1.327 -1.056 11 0 0
-3.119 1.331 -1.048 31 2 0
-3.066 1.286 -1.021 40 10 0
-3.076 1.3099999 -0.77999997 32 7 0
-3.0739999 1.311 -0.778 39 12 1
-3.0710001 1.313 -0.77499998 41 11 1
-3.1110001 1.331 -0.75 233 156 38
-3.0840001 1.33 -0.77999997 97 82 77
-3.118 1.27 -0.74800003 151 78 37
-3.0829999 1.288 -0.73900002 56 3 0
-3.102 1.293 -0.736 37 8 0
-3.1199999 1.27 -1.048 114 99 94
-3.198 1.277 -1.005 44 20 16
-3.1989999 1.285 -1.002 7 0 0
-3.0929999 1.285 -0.995 123 90 75
-3.0680001 1.299 -0.96100003 32 21 19
-3.119 1.314 -1.057 12 1 0
-3.1340001 1.316 -1.051 24 0 0
-3.131 1.291 -1.035 25 2 0
-3.1359999 1.3049999 -1.046 125 114 112
-3.118 1.303 -1.053 33 13 6
-3.1289999 1.285 -1.008 106 95 91
-3.109 1.337 -0.99900001 112 101 99
-3.1110001 1.3329999 -1.01 11 0 0
-3.1099999 1.3380001 -1.018 29 8 3
-3.096 1.2690001 -1.03 24 9 12
-3.2049999 1.3049999 -1.022 12 2 1
-3.2030001 1.285 -1.034 7 1 3
-3.201 1.2970001 -1.0420001 38 9 0
-3.198 1.308 -1.046 119 99 100
-3.2030001 1.306 -1.036 16 5 1
-3.1889999 1.3049999 -1.007 18 0 0
-3.201 1.288 -1.023 31 16 13
-3.201 1.2819999 -1.0140001 82 62 61
-3.2030001 1.281 -1.023 24 6 2
-3.1989999 1.29 -1.015 35 24 22
-3.1459999 1.316 -1.016 129 104 82
-3.1359999 1.324 -0.96799999 67 39 17
-3.1300001 1.299 -0.89399999 145 127 123
-3.125 1.298 -0.89300001 48 21 12
-3.1259999 1.29 -0.90799999 116 102 101
-3.1229999 1.295 -0.91299999 29 11 9
-3.0739999 1.334 -0.96200001 110 73 54
-3.082 1.285 -0.963 68 25 6
-3.108 1.329 -0.96899998 8 0 0
-3.086 1.335 -0.98699999 115 93 82
-3.0669999 1.303 -0.95300001 107 103 100
-3.063 1.324 -0.92299998 21 10 0
-3.0680001 1.321 -0.93199998 32 8 0
-3.076 1.309 -1.041 5 1 0
-3.0969999 1.341 -0.99800003 15 0 0
-3.062 1.296 -0.99299997 118 73 52
-3.062 1.299 -0.99000001 32 16 16
-3.0650001 1.298 -0.99900001 30 14 14
-3.069 1.306 -0.99800003 6 0 0
-3.066 1.304 -1.011 30 17 11
-3.0599999 1.295 -1.006 19 4 0
-3.2279999 1.362 -0.89200002 135 95 69
-3.2160001 1.3609999 -0.89600003 146 117 103
-3.221 1.3279999 -1.036 70 41 45
-3.2249999 1.342 -0.93199998 26 7 1
-3.2130001 1.347 -0.91799998 16 2 1
-3.247 1.301 -0.88 99 57 35
-3.2290001 1.2819999 -0.97500002 102 82 75
-3.2360001 1.294 -1.002 98 67 46
-3.237 1.291 -1.006 174 142 119
-3.2409999 1.293 -0.84200001 113 102 100
-3.25 1.321 -0.83099997 142 101 81
-3.2420001 1.337 -0.89099997 17 1 2
-3.2420001 1.326 -0.89200002 21 1 0
-3.2379999 1.34 -0.88200003 183 124 92
-3.2479999 1.308 -0.89200002 12 1 0
-3.2509999 1.313 -0.89300001 106 95 93
