ply
format ascii 1.0
comment PCL generated
element vertex 1207
property float x
property float y
property float z
property uchar red
property uchar green
property uchar blue
element camera 0
property float view_px
property float view_py
property float view_pz
property float x_axisx
property float x_axisy
property float x_axisz
property float y_axisx
property float y_axisy
property float y_axisz
property float z_axisx
property float z_axisy
property float z_axisz
property float focal
property float scalex
property float scaley
property float centerx
property float centery
property int viewportx
property int viewporty
property float k1
property float k2
end_header
-2.227 7.0710001 -0.91399997 187 120 67
-2.2739999 7.0970001 -0.52200001 114 76 65
-2.276 7.0910001 -0.52600002 219 163 114
-2.2650001 7.1110001 -0.58999997 59 42 0
-2.263 7.1209998 -0.58999997 90 59 31
-2.2650001 7.1279998 -0.52999997 197 122 67
-2.2609999 7.1290002 -0.52899998 128 64 16
-2.26 7.1240001 -0.52399999 121 33 0
-2.322 7.0760002 -1.053 222 177 135
-2.302 7.0749998 -0.579 139 108 77
-2.289 7.1079998 -0.55900002 219 152 84
-2.2869999 7.0510001 -0.57499999 220 163 108
-2.289 7.0489998 -0.57599998 157 103 56
-2.29 7.0539999 -0.57599998 208 153 96
-2.2880001 7.0619998 -0.57599998 230 187 145
-2.2709999 7.0739999 -0.55000001 167 106 62
-2.263 7.0739999 -0.546 182 144 123
-2.2850001 7.0809999 -0.56900001 64 45 12
-2.26 7.0890002 -0.55800003 241 222 190
-2.2579999 7.0840001 -0.55400002 235 208 165
-2.263 7.0809999 -0.55699998 112 107 113
-2.2720001 7.039 -0.59100002 196 94 20
-2.2750001 7.04 -0.60000002 138 73 31
-2.263 7.0430002 -0.59399998 106 80 53
-2.2809999 7.039 -0.60100001 201 161 112
-2.27 7.0510001 -0.75599998 149 81 32
-2.2679999 7.053 -0.75999999 139 101 78
-2.266 7.053 -0.75999999 135 73 32
-2.2650001 7.0510001 -0.74800003 225 204 187
-2.27 7.0500002 -0.75099999 63 34 16
-2.2590001 7.0570002 -0.74900001 144 94 67
-2.23 7.0949998 -0.66799998 206 123 69
-2.2290001 7.0970001 -0.66399997 140 63 17
-2.2539999 7.0739999 -0.73299998 140 102 66
-2.25 7.0630002 -0.741 71 31 0
-2.244 7.0640001 -0.741 142 87 57
-2.2750001 7.0479999 -0.81800002 218 131 64
-2.2739999 7.0510001 -0.81999999 176 90 39
-2.273 7.0510001 -0.80900002 87 51 29
-2.2679999 7.0599999 -0.77100003 193 174 160
-2.2650001 7.0580001 -0.79299998 95 33 10
-2.2650001 7.0669999 -0.77899998 84 65 61
-2.273 7.0599999 -0.75400001 75 44 23
-2.2720001 7.0580001 -0.76200002 142 107 87
-2.2709999 7.0539999 -0.75800002 147 112 90
-2.273 7.059 -0.75199997 101 75 58
-2.2650001 7.0799999 -0.792 149 131 119
-2.2509999 7.0809999 -0.77899998 147 121 106
-2.253 7.0760002 -0.77399999 123 63 13
-2.2420001 7.1129999 -0.82499999 222 194 154
-2.1930001 7.092 -0.76099998 246 191 127
-2.2119999 7.0770001 -0.787 189 151 112
-2.224 7.0869999 -0.77399999 131 95 63
-2.2309999 7.086 -0.792 222 148 103
-2.257 7.1090002 -0.64600003 75 38 11
-2.2620001 7.0999999 -0.63800001 88 38 11
-2.2650001 7.1220002 -0.63800001 61 39 25
-2.256 7.0999999 -0.65499997 46 27 23
-2.257 7.0970001 -0.64300001 69 50 36
-2.2579999 7.1160002 -0.63999999 99 62 35
-2.2809999 7.0830002 -0.60100001 98 62 38
-2.2920001 7.079 -0.60500002 203 145 95
-2.2850001 7.0840001 -0.60000002 76 48 27
-2.2550001 7.1009998 -0.51899999 202 141 50
-2.2690001 7.1079998 -0.51999998 139 82 27
-2.253 7.1079998 -0.66799998 169 132 113
-2.253 7.1100001 -0.671 119 82 66
-2.2620001 7.098 -0.66900003 43 19 9
-2.2520001 7.1329999 -0.53600001 225 167 94
-2.27 7.1269999 -0.54000002 122 80 58
-2.2609999 7.112 -0.58499998 196 130 78
-2.2479999 7.1149998 -0.58499998 161 93 48
-2.24 7.1300001 -0.53500003 243 188 95
-2.234 7.1139998 -0.54699999 123 58 4
-2.2290001 7.0999999 -0.55400002 244 175 108
-2.23 7.112 -0.54100001 255 239 162
-2.1849999 7.092 -0.73299998 226 178 129
-2.1819999 7.0929999 -0.727 191 128 59
-2.1830001 7.086 -0.72600001 205 165 113
-2.1889999 7.1100001 -0.57599998 85 46 29
-2.175 7.0999999 -0.58099997 250 168 69
-2.1659999 7.1059999 -0.588 246 148 77
-2.1900001 7.0830002 -0.57999998 140 107 36
-2.188 7.0929999 -0.565 222 136 59
-2.2 7.079 -0.574 150 114 88
-2.1849999 7.0760002 -0.588 119 57 16
-2.1789999 7.0799999 -0.588 172 128 83
-2.1700001 7.079 -0.59399998 132 82 45
-2.171 7.0780001 -0.59600002 141 92 62
-2.2809999 7.0749998 -0.60600001 77 58 54
-2.257 7.052 -0.60299999 175 110 68
-2.27 7.0500002 -0.602 177 105 57
-2.312 7.0560002 -0.60100001 153 88 30
-2.3069999 7.0419998 -0.59799999 169 118 75
-2.25 7.1079998 -0.66600001 98 61 34
-2.25 7.0879998 -0.66000003 97 29 0
-2.204 7.0949998 -0.65799999 132 50 2
-2.2 7.098 -0.671 93 40 8
-2.204 7.0970001 -0.67500001 94 39 0
-2.2019999 7.0960002 -0.676 94 34 0
-2.201 7.0910001 -0.68099999 132 97 78
-2.1930001 7.1020002 -0.62 211 164 112
-2.191 7.1030002 -0.616 139 85 39
-2.1830001 7.1030002 -0.61299998 194 145 87
-2.293 7.0430002 -0.58999997 77 35 10
-2.2869999 7.0450001 -0.58499998 192 133 75
-2.3050001 7.039 -0.583 143 86 41
-2.2490001 7.085 -0.79699999 56 33 27
-2.23 7.0830002 -0.78799999 151 90 43
-2.2130001 7.0570002 -0.77899998 158 74 1
-2.227 7.0609999 -0.77600002 155 83 35
-2.2179999 7.079 -0.74199998 136 85 32
-2.2160001 7.0799999 -0.74199998 131 70 13
-2.2179999 7.0869999 -0.76300001 131 67 58
-2.2219999 7.085 -0.736 109 57 36
-2.2030001 7.0580001 -0.78600001 222 163 87
-2.2090001 7.0570002 -0.778 156 63 4
-2.207 7.0599999 -0.76999998 191 109 35
-2.224 7.052 -0.84600002 99 31 0
-2.2290001 7.0479999 -0.84500003 229 175 128
-2.2379999 7.0359998 -0.83600003 144 89 48
-2.2679999 7.079 -0.83899999 128 105 99
-2.267 7.0700002 -0.824 129 53 57
-2.22 7.059 -0.87199998 245 183 122
-2.2219999 7.0700002 -0.875 213 182 125
-2.2219999 7.072 -0.86799997 249 215 154
-2.2049999 7.0640001 -0.95899999 231 162 103
-2.2160001 7.0819998 -0.954 255 212 114
-2.2539999 7.098 -1.0549999 194 121 70
-2.2579999 7.0970001 -1.056 162 85 39
-2.293 7.0900002 -1.05 216 157 125
-2.2579999 7.1090002 -1.0470001 88 42 18
-2.26 7.098 -1.053 175 113 38
-2.286 7.1059999 -1.0369999 60 23 14
-2.2379999 7.099 -1.052 102 55 25
-2.233 7.092 -1.0470001 58 13 0
-2.233 7.1090002 -1.04 166 85 30
-2.2509999 7.1110001 -1.043 100 34 0
-2.286 7.1059999 -1.034 52 12 4
-2.2839999 7.0419998 -0.94400001 163 104 46
-2.2709999 7.0510001 -0.94800001 171 173 185
-2.2539999 7.0370002 -0.93000001 244 214 154
-2.296 7.085 -1.035 212 160 103
-2.2980001 7.0819998 -1.031 216 168 119
-2.2709999 7.0799999 -1.007 191 148 105
-2.2709999 7.1009998 -0.99800003 74 28 13
-2.277 7.1040001 -1.023 137 125 109
-2.257 7.0760002 -0.89999998 207 157 108
-2.217 7.0999999 -0.65100002 117 52 12
-2.2160001 7.1009998 -0.65200001 138 67 21
-2.2149999 7.0999999 -0.65899998 214 129 75
-2.2149999 7.099 -0.64399999 213 178 148
-2.21 7.1009998 -0.64999998 175 101 54
-2.1860001 7.099 -0.67699999 96 33 0
-2.1930001 7.0970001 -0.68300003 126 66 32
-2.191 7.0949998 -0.68599999 123 61 24
-2.191 7.0929999 -0.68099999 141 58 18
-2.177 7.0939999 -0.671 174 91 37
-2.1900001 7.092 -0.67799997 161 78 28
-2.2049999 7.099 -0.67199999 71 24 6
-2.2320001 7.1220002 -0.58600003 137 87 38
-2.2119999 7.1199999 -0.59100002 112 49 6
-2.2690001 7.105 -0.98699999 132 62 36
-2.263 7.1079998 -0.98000002 243 194 164
-2.2679999 7.1100001 -0.99000001 84 43 15
-2.2709999 7.1040001 -0.98699999 80 13 0
-2.273 7.1009998 -0.98500001 187 121 61
-2.2579999 7.1129999 -0.98900002 237 203 168
-2.257 7.1040001 -0.98400003 71 29 5
-2.2479999 7.1090002 -0.99000001 58 39 35
-2.2260001 7.0780001 -0.88599998 137 66 14
-2.237 7.0840001 -0.889 147 136 116
-2.234 7.0780001 -0.89600003 85 20 0
-2.2119999 7.0609999 -0.76899999 108 70 51
-2.247 7.1040001 -0.85500002 65 24 4
-2.2409999 7.1079998 -0.86299998 130 107 93
-2.2390001 7.1030002 -0.861 87 32 1
-2.233 7.0900002 -0.86400002 73 32 12
-2.221 7.0809999 -0.85699999 211 186 156
-2.217 7.0689998 -0.84399998 211 175 87
-2.2179999 7.0749998 -0.85699999 210 179 132
-2.2179999 7.0689998 -0.85299999 255 199 99
-2.2179999 7.0640001 -0.87800002 169 80 20
-2.224 7.066 -0.88300002 137 40 0
-2.2260001 7.0599999 -0.88099998 248 177 85
-2.224 7.0619998 -0.88099998 169 70 3
-2.2249999 7.0700002 -0.85399997 124 58 59
-2.233 7.0739999 -0.85000002 255 238 151
-2.233 7.073 -0.861 189 109 40
-2.2290001 7.0500002 -0.85100001 191 135 84
-2.2279999 7.0560002 -0.84399998 239 189 118
-2.237 7.0510001 -0.84299999 230 157 63
-2.2119999 7.0879998 -0.81 119 91 70
-2.2079999 7.0910001 -0.80299997 152 86 26
-2.2119999 7.0710001 -0.815 233 164 86
-2.2149999 7.079 -0.81300002 237 201 177
-2.2179999 7.0840001 -0.815 136 98 62
-2.223 7.0890002 -0.824 133 53 0
-2.194 7.0770001 -0.77200001 166 114 75
-2.243 7.118 -1.005 60 24 0
-2.2609999 7.053 -0.921 253 238 181
-2.2650001 7.0539999 -0.92500001 201 122 63
-2.2650001 7.0679998 -0.921 155 135 128
-2.3099999 7.0669999 -1.034 223 153 94
-2.3010001 7.072 -0.98500001 163 116 86
-2.309 7.0619998 -1.054 182 181 186
-2.3080001 7.0669999 -1.0599999 177 173 174
-2.2980001 7.0640001 -1.0470001 154 93 49
-2.303 7.0700002 -1.053 167 157 156
-2.3180001 7.0830002 -1.05 155 129 116
-2.309 7.046 -0.95200002 218 192 131
-2.303 7.0450001 -0.96200001 249 246 203
-2.3050001 7.0450001 -0.96200001 244 242 193
-2.3199999 7.0510001 -0.97600001 206 175 147
-2.3139999 7.0440001 -0.963 132 79 29
-2.323 7.052 -0.97399998 238 200 164
-2.26 7.0180001 -0.81800002 216 167 65
-2.26 7.0190001 -0.82099998 179 130 37
-2.247 7.0240002 -0.91100001 153 88 34
-2.2449999 7.0300002 -0.91000003 164 102 45
-2.2520001 7.039 -0.89899999 206 182 136
-2.2090001 7.0630002 -0.97799999 119 64 59
-2.2320001 7.0700002 -1.008 199 158 126
-2.2260001 7.0890002 -0.98900002 219 164 82
-2.234 7.0960002 -1.002 63 19 0
-2.2279999 7.0289998 -0.972 158 152 152
-2.2420001 7.0289998 -0.96200001 151 110 64
-2.233 7.0380001 -0.949 206 136 76
-2.293 7.053 -0.94 251 228 161
-2.3010001 7.0560002 -0.94300002 175 132 89
-2.234 7.0170002 -0.98699999 255 227 106
-2.2320001 7.0300002 -0.99900001 234 217 201
-2.2449999 7.0320001 -0.99599999 172 107 43
-2.26 7.0110002 -1.008 154 92 0
-2.2539999 7.027 -1.005 192 123 32
-2.267 7.02 -0.991 162 110 71
-2.2590001 7.0279999 -0.97899997 114 95 0
-2.2620001 7.0320001 -0.98100001 153 119 21
-2.2690001 7.0300002 -0.99000001 147 113 13
-2.27 7.0100002 -1.001 75 40 12
-2.2679999 7.0190001 -0.995 255 235 156
-2.2739999 7.0029998 -1.006 255 231 175
-2.2679999 7.0089998 -1.005 249 217 179
-2.2509999 7.0100002 -1.035 170 81 13
-2.21 7.0430002 -1.018 243 183 69
-2.217 7.0320001 -1.021 225 162 91
-2.217 7.04 -1.026 237 174 107
-2.207 7.039 -1.008 170 87 11
-2.22 7.0809999 -0.92799997 253 216 102
-2.197 7.0739999 -0.73900002 177 129 89
-2.201 7.072 -0.74900001 104 72 33
-2.1949999 7.0669999 -0.75700003 225 200 170
-2.2130001 7.0900002 -0.764 150 77 32
-2.1900001 7.0929999 -0.74800003 249 181 106
-2.1919999 7.0949998 -0.74599999 182 101 58
-2.188 7.0929999 -0.75700003 104 50 16
-2.1919999 7.0939999 -0.74800003 161 79 19
-2.198 7.1030002 -0.73799998 148 89 73
-2.2709999 7.0949998 -0.98400003 235 169 111
-2.266 7.0840001 -0.97600001 123 63 27
-2.267 7.079 -0.97500002 171 148 132
-2.267 7.0840001 -0.97899997 181 111 49
-2.214 7.0609999 -1.081 253 251 114
-2.2490001 7.119 -1.033 147 111 79
-2.2320001 7.092 -1.043 158 143 146
-2.2360001 7.085 -1.0319999 129 122 129
-2.223 7.086 -1.044 109 91 81
-2.201 7.0430002 -0.98100001 149 53 5
-2.197 7.0469999 -0.977 127 39 1
-2.2130001 7.0580001 -0.95499998 255 217 115
-2.2360001 7.1170001 -1.0369999 117 65 28
-2.2360001 7.1040001 -1.013 42 15 6
-2.24 7.0890002 -1.022 170 124 75
-2.2839999 6.9970002 -1.056 183 164 150
-2.2880001 7 -1.051 185 171 158
-2.2909999 6.9959998 -1.048 227 189 153
-2.2820001 6.993 -1.0549999 191 164 145
-2.277 7 -1.053 196 165 137
-2.29 6.9990001 -1.049 228 189 148
-2.2920001 6.994 -1.046 146 62 2
-2.2720001 7.1059999 -1.016 66 23 6
-2.211 7.0799999 -1.053 55 35 26
-2.2090001 7.079 -1.058 99 51 15
-2.207 7.0739999 -1.059 127 43 0
-2.309 7.0809999 -0.96399999 92 48 37
-2.3210001 7.0630002 -1.057 185 160 138
-2.3069999 7.072 -1.066 174 166 164
-2.2639999 7.0689998 -1.061 113 103 94
-2.3069999 7.072 -1.0599999 177 167 166
-2.2820001 7.0780001 -1.05 147 114 61
-2.2980001 7.046 -1.039 217 177 125
-2.289 7.0349998 -1.043 83 30 0
-2.263 7.0100002 -1.04 130 57 2
-2.267 7.0149999 -1.061 156 95 48
-2.2620001 7.0100002 -1.039 116 54 7
-2.2290001 7.0739999 -1.076 110 34 0
-2.2060001 7.0669999 -1.0700001 253 241 93
-2.207 7.0650001 -1.075 252 245 112
-2.233 7.0619998 -1.081 173 74 7
-2.237 7.0619998 -1.079 250 163 68
-2.253 7.0679998 -1.077 210 184 171
-2.309 7.0430002 -0.95599997 255 224 159
-2.2839999 7.0170002 -1.012 94 82 10
-2.3069999 7.0469999 -0.60100001 170 106 58
-2.2590001 7.0240002 -0.84299999 221 137 77
-2.2620001 7.0320001 -0.84200001 106 58 35
-2.2579999 7.0349998 -0.85000002 121 77 40
-2.27 7.0359998 -0.86900002 135 98 10
-2.2550001 7.0219998 -0.86500001 149 98 19
-2.2550001 7.0219998 -0.82599998 229 158 40
-2.2490001 7.027 -0.829 208 147 116
-2.2720001 7.0339999 -0.80900002 149 61 0
-2.2739999 7.033 -0.81599998 107 58 25
-2.2679999 7.0310001 -0.82800001 149 69 82
-2.2739999 7.0409999 -0.82999998 160 107 57
-2.28 7.0430002 -0.829 131 82 50
-2.2279999 7.0469999 -0.861 234 159 91
-2.2290001 7.0440001 -0.92500001 255 233 150
-2.2449999 7.04 -0.87599999 82 32 9
-2.289 7.0120001 -1.026 180 149 85
-2.276 7.0219998 -1.036 150 100 63
-2.273 7.0339999 -1.036 190 163 133
-2.2780001 7.0450001 -1.008 193 130 86
-2.2520001 7.0100002 -1.023 210 138 64
-2.2479999 7.0120001 -1.017 231 157 68
-2.29 7.0359998 -1.035 93 56 4
-2.27 7.0409999 -1.033 197 163 126
-2.3080001 7.053 -1.0369999 121 74 44
-2.325 7.0599999 -0.98500001 105 102 109
-2.2839999 7.0040002 -1.018 162 137 37
-2.276 7.0019999 -1.006 201 169 112
-2.277 7.0110002 -1.005 146 114 55
-2.273 6.9910002 -1.03 133 64 25
-2.2780001 6.9920001 -1.027 234 185 152
-2.2739999 6.9949999 -1.025 146 82 10
-2.2750001 7.0029998 -1.054 158 100 52
-2.2920001 7.013 -1.0420001 190 145 90
-2.283 7 -1.018 145 115 51
-2.224 7.0510001 -0.94400001 171 134 66
-2.217 7.073 -0.93900001 255 202 67
-2.217 7.0679998 -0.94800001 183 160 106
-2.2119999 7.072 -0.95599997 138 114 102
-2.22 7.0770001 -0.94499999 190 171 165
-2.2539999 7.1020002 -0.82800001 104 53 24
-2.2690001 7.086 -0.79799998 62 33 15
-2.273 7.0830002 -0.79500002 87 48 17
-2.2349999 7.0780001 -0.898 155 147 124
-2.2650001 7.1020002 -0.52100003 189 86 28
-2.273 7.1160002 -0.52499998 147 95 47
-2.2780001 7.1110001 -0.52700001 237 185 112
-2.2679999 7.1220002 -0.52499998 157 87 35
-2.2709999 7.119 -0.52600002 227 177 126
-2.27 7.1149998 -0.523 192 117 26
-2.286 7.1149998 -0.537 155 76 0
-2.2650001 7.1269999 -0.52899998 179 101 52
-2.322 7.072 -1.056 205 145 73
-2.2780001 7.1129999 -0.55599999 117 89 75
-2.263 7.1040001 -0.58200002 96 30 0
-2.2620001 7.073 -0.55800003 234 169 65
-2.27 7.099 -0.55900002 216 135 92
-2.28 7.098 -0.55199999 141 82 40
-2.2950001 7.079 -0.602 144 94 57
-2.3050001 7.0819998 -0.60699999 65 31 0
-2.296 7.0689998 -0.57800001 123 73 0
-2.29 7.0689998 -0.57499999 139 84 0
-2.2420001 7.086 -0.53899997 162 103 45
-2.2520001 7.085 -0.53500003 151 98 58
-2.2550001 7.0799999 -0.54100001 140 77 23
-2.2349999 7.0929999 -0.53600001 255 196 102
-2.227 7.0929999 -0.53500003 250 215 134
-2.2379999 7.0890002 -0.54000002 173 122 75
-2.24 7.0970001 -0.52600002 210 125 61
-2.2809999 7.0799999 -0.54400003 171 139 101
-2.2809999 7.0890002 -0.537 161 135 112
-2.2869999 7.0879998 -0.551 117 95 48
-2.2850001 7.098 -0.53399998 255 216 166
-2.2850001 7.092 -0.54100001 128 96 83
-2.2820001 7.098 -0.53100002 193 146 90
-2.2809999 7.1020002 -0.52899998 129 71 34
-2.2479999 7.1020002 -0.63800001 87 44 12
-2.2820001 7.039 -0.59500003 202 144 94
-2.286 7.059 -0.70300001 126 64 7
-2.283 7.0640001 -0.69800001 108 41 0
-2.283 7.0650001 -0.70999998 140 69 15
-2.316 7.079 -0.60100001 94 60 35
-2.3080001 7.0689998 -0.60100001 162 81 38
-2.2709999 7.0539999 -0.755 101 69 48
-2.2820001 7.0619998 -0.73500001 137 103 78
-2.194 7.0739999 -0.736 170 116 69
-2.2019999 7.1030002 -0.73400003 76 23 17
-2.2079999 7.1020002 -0.66900003 204 154 121
-2.2060001 7.0970001 -0.69599998 147 82 50
-2.2130001 7.0960002 -0.70099998 217 158 126
-2.201 7.0949998 -0.70899999 39 32 6
-2.2160001 7.1020002 -0.66500002 134 71 36
-2.21 7.1059999 -0.66299999 208 178 154
-2.2179999 7.0840001 -0.73500001 118 64 54
-2.27 7.0650001 -0.81400001 199 153 119
-2.2679999 7.0669999 -0.829 170 96 59
-2.2650001 7.0679998 -0.78200001 61 41 34
-2.266 7.0599999 -0.796 183 140 105
-2.2650001 7.0739999 -0.79000002 79 56 42
-2.2639999 7.0549998 -0.77100003 72 55 47
-2.2420001 7.0799999 -0.74800003 83 59 47
-2.233 7.0749998 -0.74900001 134 98 64
-2.2590001 7.0739999 -0.75599998 45 15 4
-2.2620001 7.0650001 -0.74199998 99 54 23
-2.221 7.0879998 -0.77200001 147 85 38
-2.2149999 7.0869999 -0.80800003 148 78 19
-2.233 7.099 -0.815 213 195 159
-2.23 7.0960002 -0.82099998 211 137 72
-2.1930001 7.0890002 -0.76200002 204 174 163
-2.2030001 7.0749998 -0.78399998 162 111 80
-2.2049999 7.0760002 -0.77899998 82 31 2
-2.21 7.0770001 -0.79000002 121 98 90
-2.2290001 7.0900002 -0.76899999 191 138 94
-2.2509999 7.079 -0.75800002 109 54 23
-2.2490001 7.086 -0.73699999 73 36 17
-2.2739999 7.0689998 -0.75599998 172 122 85
-2.267 7.0640001 -0.764 117 47 0
-2.26 7.1069999 -0.63700002 141 62 21
-2.2869999 7.0830002 -0.588 129 89 63
-2.279 7.0879998 -0.59500003 155 106 65
-2.2709999 7.0890002 -0.59600002 105 34 2
-2.2809999 7.085 -0.57700002 175 102 47
-2.2130001 7.0819998 -0.60500002 155 88 46
-2.2179999 7.0900002 -0.60500002 116 72 37
-2.2179999 7.0799999 -0.60699999 184 132 82
-2.26 7.098 -0.51899999 147 112 82
-2.2609999 7.105 -0.52200001 232 161 73
-2.2539999 7.0939999 -0.66000003 54 21 6
-2.253 7.0910001 -0.662 236 176 126
-2.2539999 7.105 -0.66100001 66 37 21
-2.223 7.0890002 -0.57300001 155 111 84
-2.2349999 7.0970001 -0.55699998 236 167 110
-2.227 7.0949998 -0.54500002 199 157 115
-2.2030001 7.1030002 -0.56699997 239 165 116
-2.201 7.1139998 -0.56599998 156 96 59
-2.214 7.1059999 -0.57300001 136 66 17
-2.177 7.0799999 -0.59399998 128 86 26
-2.2509999 7.132 -0.53899997 132 125 133
-2.2690001 7.118 -0.55199999 221 168 128
-2.2780001 7.1230001 -0.537 112 65 39
-2.25 7.1240001 -0.52899998 126 51 19
-2.26 7.1079998 -0.56800002 234 159 101
-2.244 7.119 -0.55699998 181 161 150
-2.2550001 7.1300001 -0.53899997 188 126 65
-2.2409999 7.1329999 -0.53500003 252 187 95
-2.2490001 7.132 -0.53600001 189 124 58
-2.227 7.0939999 -0.53399998 253 213 117
-2.2279999 7.1149998 -0.57800001 220 151 92
-2.2309999 7.1069999 -0.54400003 166 110 59
-2.243 7.1269999 -0.54699999 121 102 85
-2.2079999 7.085 -0.56800002 255 238 165
-2.187 7.0949998 -0.74199998 155 61 10
-2.1930001 7.0809999 -0.71399999 93 54 25
-2.1900001 7.0840001 -0.708 134 70 35
-2.188 7.085 -0.71799999 62 49 30
-2.1889999 7.086 -0.70300001 85 29 2
-2.201 7.072 -0.60399997 200 139 84
-2.1800001 7.079 -0.60399997 145 92 40
-2.1949999 7.0780001 -0.60900003 153 99 63
-2.1919999 7.0910001 -0.67799997 135 49 0
-2.198 7.086 -0.68699998 144 105 74
-2.198 7.0890002 -0.68300003 164 129 99
-2.1949999 7.0900002 -0.68199998 154 126 105
-2.1700001 7.0900002 -0.60399997 197 159 120
-2.168 7.0830002 -0.588 120 76 13
-2.1830001 7.1059999 -0.58099997 197 155 107
-2.1800001 7.1129999 -0.60000002 104 53 26
-2.177 7.1160002 -0.59200001 163 89 28
-2.207 7.1030002 -0.62599999 105 57 21
-2.2130001 7.1090002 -0.61400002 113 75 62
-2.2079999 7.1020002 -0.625 204 152 115
-2.2030001 7.1040001 -0.62 105 55 20
-2.1919999 7.0890002 -0.60600001 174 110 64
-2.2030001 7.0970001 -0.625 158 119 86
-2.198 7.0770001 -0.58600003 218 129 37
-2.306 7.0419998 -0.58700001 163 107 58
-2.3039999 7.0430002 -0.58399999 178 120 72
-2.2709999 7.0669999 -0.60699999 78 25 9
-2.2739999 7.0700002 -0.60299999 104 55 25
-2.2739999 7.0770001 -0.59799999 135 54 11
-2.309 7.0669999 -0.59200001 193 119 54
-2.3080001 7.0669999 -0.59100002 131 41 0
-2.306 7.0570002 -0.60399997 156 111 72
-2.312 7.0609999 -0.59500003 123 34 0
-2.3099999 7.059 -0.59200001 199 107 42
-2.2460001 7.0970001 -0.63599998 38 9 1
-2.2409999 7.1040001 -0.62900001 80 33 5
-2.194 7.0929999 -0.69400001 65 17 0
-2.299 7.0409999 -0.59899998 177 132 90
-2.299 7.0489998 -0.60600001 196 152 103
-2.2780001 7.0570002 -0.57499999 88 65 47
-2.29 7.0489998 -0.57800001 127 74 34
-2.3 7.046 -0.583 200 135 71
-2.302 7.0430002 -0.58399999 184 122 65
-2.214 7.0549998 -0.78899997 204 146 106
-2.2149999 7.0689998 -0.764 191 110 44
-2.211 7.0700002 -0.75700003 171 128 94
-2.2030001 7.0570002 -0.77999997 219 134 51
-2.201 7.059 -0.773 179 91 19
-2.223 7.046 -0.82599998 60 45 38
-2.2290001 7.052 -0.83999997 195 143 103
-2.2249999 7.0700002 -0.85500002 207 168 89
-2.223 7.0549998 -0.85799998 172 133 94
-2.2390001 7.026 -0.81599998 182 130 73
-2.2360001 7.0289998 -0.81300002 150 91 31
-2.256 7.0170002 -0.815 157 96 42
-2.234 7.04 -0.84799999 253 188 108
-2.24 7.0320001 -0.85299999 127 122 129
-2.2550001 7.0749998 -0.82200003 173 78 20
-2.2579999 7.0770001 -0.82800001 81 28 0
-2.266 7.066 -0.85399997 84 24 0
-2.2320001 7.0500002 -0.87599999 183 122 77
-2.2279999 7.0539999 -0.87400001 114 96 96
-2.224 7.052 -0.866 196 121 53
-2.2260001 7.0489998 -0.861 163 101 26
-2.221 7.0599999 -0.87400001 189 125 53
-2.2090001 7.066 -0.95599997 129 86 7
-2.263 7.0900002 -1.05 179 156 138
-2.267 7.098 -1.045 111 79 58
-2.2690001 7.1009998 -1.044 182 139 107
-2.2939999 7.0650001 -1.027 231 178 134
-2.2520001 7.0970001 -1.054 181 105 47
-2.2969999 7.0799999 -1.05 161 152 147
-2.2219999 7.0869999 -1.049 97 59 38
-2.233 7.0879998 -1.063 205 149 122
-2.289 7.1009998 -1.036 215 154 91
-2.29 7.053 -0.93699998 217 185 134
-2.273 7.0450001 -0.94199997 188 169 126
-2.2679999 7.0450001 -0.93599999 146 113 68
-2.266 7.0510001 -0.94199997 114 71 37
-2.2650001 7.0430002 -0.93099999 107 84 68
-2.2909999 7.0890002 -1.044 82 38 13
-2.286 7.0910001 -1.0369999 93 30 0
-2.2820001 7.085 -1.044 91 19 0
-2.2880001 7.0900002 -1.031 120 51 18
-2.276 7.0869999 -0.986 114 64 39
-2.2780001 7.0580001 -1.0039999 100 65 45
-2.256 7.0780001 -0.89600003 110 88 75
-2.2550001 7.0650001 -0.87400001 146 119 112
-2.2160001 7.1009998 -0.64600003 99 53 20
-2.217 7.0999999 -0.64899999 103 47 10
-2.2149999 7.1009998 -0.64200002 152 126 103
-2.2060001 7.098 -0.66000003 142 108 81
-2.1949999 7.098 -0.66100001 123 46 2
-2.2279999 7.118 -0.59500003 124 80 43
-2.2609999 7.119 -0.597 58 37 34
-2.2620001 7.1129999 -0.59899998 61 33 12
-2.2349999 7.0949998 -0.92500001 102 43 37
-2.2379999 7.0939999 -0.92000002 71 30 2
-2.2490001 7.0949998 -0.94 136 84 36
-2.2539999 7.0929999 -0.935 104 41 32
-2.237 7.0869999 -0.91000003 90 35 5
-2.2360001 7.1009998 -0.95300001 253 174 69
-2.2420001 7.1170001 -0.99800003 38 15 7
-2.25 7.1199999 -1.001 153 108 69
-2.2609999 7.1069999 -0.995 59 36 28
-2.2639999 7.079 -0.85799998 135 60 55
-2.2550001 7.099 -0.85900003 76 28 8
-2.2539999 7.1009998 -0.86199999 70 24 8
-2.256 7.098 -0.86000001 71 16 0
-2.2579999 7.0949998 -0.84399998 86 29 0
-2.256 7.0879998 -0.85100001 76 21 0
-2.227 7.0780001 -0.88300002 68 18 0
-2.2260001 7.073 -0.88200003 205 169 121
-2.237 7.092 -0.86500001 97 46 25
-2.2219999 7.059 -0.78899997 100 24 0
-2.2079999 7.0619998 -0.76599997 157 80 28
-2.2160001 7.0609999 -0.76999998 148 80 35
-2.2309999 7.0939999 -0.84600002 71 20 3
-2.2520001 7.1059999 -0.84500003 135 112 98
-2.233 7.0939999 -0.83999997 177 93 47
-2.2460001 7.1040001 -0.85900003 68 21 3
-2.25 7.1020002 -0.86500001 65 12 0
-2.2520001 7.1009998 -0.85900003 149 107 83
-2.2249999 7.0799999 -0.84899998 122 60 21
-2.227 7.0819998 -0.84799999 118 45 2
-2.233 7.0879998 -0.86699998 165 128 109
-2.234 7.0809999 -0.87300003 107 49 48
-2.2160001 7.0710001 -0.81999999 224 138 51
-2.22 7.0700002 -0.866 237 221 161
-2.2179999 7.059 -0.85900003 223 138 47
-2.2190001 7.066 -0.86500001 220 111 26
-2.2190001 7.0700002 -0.85000002 159 102 13
-2.2309999 7.0479999 -0.85299999 234 135 50
-2.2179999 7.0560002 -0.81 99 46 12
-2.214 7.059 -0.80500001 130 99 53
-2.2349999 7.1170001 -1.007 63 20 3
-2.2379999 7.1110001 -1.006 38 14 4
-2.2650001 7.053 -0.92500001 217 127 65
-2.2739999 7.0549998 -0.92900002 227 193 156
-2.296 7.0510001 -1.035 137 100 73
-2.312 7.0599999 -1.052 156 138 116
-2.312 7.0780001 -1.0549999 219 159 107
-2.2260001 7.0760002 -0.98799998 150 110 58
-2.2179999 7.0510001 -0.99599999 65 35 27
-2.234 7.0770001 -1.0140001 224 177 121
-2.2579999 7.099 -0.97799999 90 34 7
-2.2409999 7.0320001 -0.95700002 205 145 91
-2.2349999 7.0349998 -0.95899999 222 174 66
-2.244 7.0300002 -0.96700001 255 243 163
-2.2409999 7.0339999 -0.94599998 191 126 72
-2.234 7.0380001 -0.94400001 246 187 121
-2.237 7.0349998 -0.94800001 214 155 39
-2.227 7.0310001 -0.96899998 244 185 109
-2.2249999 7.0250001 -0.99699998 255 247 166
-2.2750001 7.0250001 -0.995 117 95 0
-2.2709999 6.993 -1.028 129 55 8
-2.26 7.0019999 -1.034 149 94 53
-2.2780001 6.987 -1.039 94 29 0
-2.2019999 7.0640001 -0.75400001 230 188 138
-2.2090001 7.0780001 -0.74400002 99 20 0
-2.1949999 7.0679998 -0.75599998 175 123 84
-2.2750001 7.1040001 -0.99000001 75 13 0
-2.2739999 7.1059999 -0.99199998 129 58 30
-2.2060001 7.0440001 -0.98900002 136 51 14
-2.2279999 7.0549998 -0.99000001 255 216 142
-2.227 7.052 -0.99800003 163 153 143
-2.22 7.052 -0.99800003 90 45 14
-2.2090001 7.039 -0.96200001 255 210 100
-2.214 7.0380001 -0.96200001 187 141 105
-2.2279999 7.098 -0.97600001 112 37 5
-2.2349999 7.0960002 -0.97500002 115 41 0
-2.2320001 7.0970001 -0.97899997 61 12 5
-2.23 7.0960002 -0.98299998 39 5 3
-2.2390001 7.1110001 -1.031 113 69 32
-2.2019999 7.0770001 -1.067 158 87 35
-2.2119999 7.085 -1.072 73 5 0
-2.223 7.0809999 -1.04 164 104 67
-2.2739999 6.993 -1.0470001 121 78 36
-2.273 6.9990001 -1.05 119 90 76
-2.24 7.092 -1.031 214 168 116
-2.289 7.0339999 -1.043 139 95 32
-2.2780001 7.0700002 -1.05 255 216 98
-2.2839999 7.0570002 -1.0420001 92 41 14
-2.2320001 7.046 -1.056 162 76 3
-2.2190001 7.052 -1.081 248 169 68
-2.2260001 7.052 -1.066 249 201 90
-2.2249999 7.0599999 -1.079 153 82 0
-2.22 7.0409999 -1.034 155 98 11
-2.217 7.0419998 -1.028 212 141 49
-2.256 7.0640001 -1.0650001 113 66 24
-2.2449999 7.0669999 -1.0700001 154 103 58
-2.312 7.0430002 -0.95599997 194 155 98
-2.2539999 7.0170002 -0.866 255 208 159
-2.26 7.027 -0.83999997 162 93 36
-2.2690001 7.0310001 -0.82700002 146 54 7
-2.2590001 7.0219998 -0.82499999 227 187 92
-2.257 7.0240002 -0.829 255 222 135
-2.2720001 7.0549998 -0.82599998 177 97 48
-2.24 7.04 -0.90200001 125 65 13
-2.23 7.0380001 -0.89899999 179 115 77
-2.2279999 7.0349998 -0.90499997 173 122 59
-2.2279999 7.073 -0.91399997 165 121 94
-2.256 7.02 -0.86799997 138 86 28
-2.2539999 7.0190001 -0.866 157 108 50
-2.253 7.0320001 -0.87300003 175 99 49
-2.2750001 7.0510001 -0.84799999 206 162 127
-2.2620001 7.04 -0.85000002 79 37 15
-2.2579999 7.033 -0.80199999 157 102 46
-2.266 7.0310001 -0.80800003 202 141 87
-2.2690001 7.0180001 -1.04 218 125 47
-2.2679999 7.0079999 -1.059 138 58 0
-2.2720001 7.0110002 -1.057 168 100 51
-2.256 7.0089998 -1.0140001 225 156 53
-2.26 7.02 -1.031 155 78 24
-2.2449999 7.0300002 -1.033 154 109 80
-2.253 7.0170002 -1.0319999 178 124 77
-2.2520001 7.02 -1.026 208 140 103
-2.279 7.0170002 -1.006 140 99 47
-2.2950001 7.0440001 -1.035 220 173 121
-2.3099999 7.0549998 -1.0470001 194 140 78
-2.2809999 7.0089998 -1.011 207 165 105
-2.217 7.073 -0.93800002 219 149 17
-2.25 7.098 -0.824 147 106 88
-2.266 7.0700002 -0.829 228 134 62
-2.267 7.0630002 -0.824 139 103 89
-2.2260001 7.0560002 -0.93099999 79 50 34
-2.256 7.1020002 -0.51999998 81 40 12
-2.263 7.1069999 -0.59399998 82 49 30
-2.26 7.1069999 -0.60399997 170 98 48
-2.2279999 7.112 -0.60799998 126 58 13
-2.24 7.1079998 -0.62599999 102 53 36
-2.237 7.1059999 -0.625 92 48 23
-2.227 7.0929999 -0.60500002 121 111 112
-2.2349999 7.1059999 -0.60699999 155 117 96
-2.214 7.1139998 -0.60000002 121 53 16
-2.3039999 7.0489998 -0.58399999 189 130 86
-2.3039999 7.0539999 -0.58399999 244 149 59
-2.303 7.0469999 -0.583 244 178 117
-2.2969999 7.053 -0.58200002 239 144 36
-2.277 7.0949998 -0.55299997 234 136 75
-2.2690001 7.0770001 -0.56599998 115 56 12
-2.2490001 7.085 -0.54000002 148 75 7
-2.253 7.085 -0.54900002 211 160 97
-2.244 7.0890002 -0.54699999 148 94 47
-2.27 7.0819998 -0.53899997 133 68 2
-2.2820001 7.0760002 -0.55400002 147 95 55
-2.2850001 7.0840001 -0.546 153 114 75
-2.2490001 7.0960002 -0.55299997 138 107 86
-2.2590001 7.1139998 -0.55800003 130 130 138
-2.28 7.073 -0.72000003 152 82 33
-2.2690001 7.0689998 -0.72500002 74 38 24
-2.2650001 7.072 -0.72000003 75 43 30
-2.256 7.0960002 -0.71499997 142 103 74
-2.2590001 7.0960002 -0.71100003 218 178 143
-2.267 7.112 -0.708 189 153 127
-2.2509999 7.0999999 -0.73000002 65 50 45
-2.2520001 7.1059999 -0.72899997 58 41 34
-2.2539999 7.086 -0.72100002 76 34 9
-2.2869999 7.0640001 -0.727 205 164 134
-2.289 7.072 -0.72500002 136 109 90
-2.283 7.0580001 -0.72299999 68 10 0
-2.283 7.0580001 -0.72899997 131 77 41
-2.2850001 7.0630002 -0.72500002 134 95 66
-2.2780001 7.0669999 -0.727 174 126 77
-2.263 7.0669999 -0.73000002 111 55 6
-2.2690001 7.0669999 -0.70599997 129 77 38
-2.2579999 7.098 -0.70999998 85 43 18
-2.283 7.0510001 -0.69300002 243 209 163
-2.293 7.0650001 -0.67900002 82 78 79
-2.2880001 7.0549998 -0.699 61 38 24
-2.2809999 7.0500002 -0.69199997 253 220 175
-2.2850001 7.059 -0.676 114 35 0
-2.2809999 7.0469999 -0.70599997 155 129 106
-2.2479999 7.1009998 -0.64999998 80 57 41
-2.2880001 7.0419998 -0.60299999 200 137 83
-2.2809999 7.0549998 -0.72500002 67 36 16
-2.283 7.059 -0.72299999 100 49 20
-2.28 7.052 -0.71499997 76 46 20
-2.283 7.059 -0.70599997 70 44 31
-2.283 7.052 -0.70499998 139 111 89
-2.2750001 7.0560002 -0.70099998 125 80 49
-2.2750001 7.059 -0.71200001 71 20 0
-2.2720001 7.0560002 -0.72100002 179 125 81
-2.276 7.053 -0.72100002 160 128 107
-2.28 7.052 -0.72600001 92 63 45
-2.28 7.053 -0.71799999 61 29 6
-2.2090001 7.0739999 -0.708 182 156 129
-2.201 7.0809999 -0.71499997 139 102 75
-2.2579999 7.0599999 -0.736 113 67 18
-2.25 7.0580001 -0.741 116 65 38
-2.302 7.0679998 -0.60699999 194 117 61
-2.302 7.0570002 -0.60399997 201 147 109
-2.286 7.0630002 -0.67500001 75 49 32
-2.27 7.0510001 -0.75199997 134 67 22
-2.2019999 7.0970001 -0.74699998 62 48 13
-2.201 7.0799999 -0.736 101 57 20
-2.207 7.0830002 -0.72100002 78 35 19
-2.204 7.1009998 -0.73400003 144 76 57
-2.204 7.098 -0.72100002 124 80 55
-2.194 7.1009998 -0.71799999 137 128 133
-2.1949999 7.105 -0.72500002 128 80 40
-2.2019999 7.1020002 -0.73900002 130 116 113
-2.2579999 7.112 -0.70899999 115 74 68
-2.266 7.1149998 -0.704 108 88 61
-2.207 7.0960002 -0.68099999 95 33 0
-2.2090001 7.0949998 -0.68900001 123 48 9
-2.2090001 7.0960002 -0.69599998 106 36 10
-2.2049999 7.0970001 -0.67799997 100 42 2
-2.24 7.099 -0.67500001 72 16 0
-2.2379999 7.0970001 -0.67400002 122 58 23
-2.2390001 7.0970001 -0.68900001 92 45 17
-2.2409999 7.0960002 -0.68400002 115 62 30
-2.2079999 7.0999999 -0.67000002 71 15 0
-2.244 7.0630002 -0.74199998 148 95 64
-2.2409999 7.066 -0.75599998 133 90 47
-2.2690001 7.039 -0.80800003 201 149 92
-2.263 7.0380001 -0.80400002 139 103 79
-2.256 7.073 -0.77700001 152 81 39
-2.267 7.0560002 -0.79900002 132 97 75
-2.27 7.059 -0.80599999 137 97 72
-2.2709999 7.053 -0.80699998 160 120 95
-2.267 7.0630002 -0.80500001 201 161 135
-2.2639999 7.072 -0.78600001 108 90 80
-2.256 7.0619998 -0.77200001 121 76 37
-2.2520001 7.0539999 -0.78899997 171 116 75
-2.2420001 7.059 -0.78299999 255 199 132
-2.24 7.0869999 -0.736 101 55 31
-2.243 7.0809999 -0.74599999 108 58 23
-2.256 7.0619998 -0.73799998 113 58 19
-2.2379999 7.0929999 -0.80900002 242 191 160
-2.2409999 7.0869999 -0.79699999 173 130 95
-2.2460001 7.0830002 -0.75599998 154 74 67
-2.2390001 7.0819998 -0.773 189 131 81
-2.2420001 7.0799999 -0.76599997 158 149 150
-2.2449999 7.079 -0.764 68 40 36
-2.24 7.079 -0.75700003 251 202 144
-2.25 7.0970001 -0.73100001 65 48 38
-2.2490001 7.0770001 -0.76700002 71 32 15
-2.25 7.0840001 -0.73699999 135 99 77
-2.2390001 7.1069999 -0.62599999 91 48 29
-2.2809999 7.085 -0.58899999 134 95 66
-2.289 7.0799999 -0.57599998 166 123 80
-2.2539999 7.092 -0.52399999 226 195 167
-2.247 7.099 -0.51999998 187 98 32
-2.2460001 7.1110001 -0.55299997 255 212 153
-2.25 7.1069999 -0.55500001 128 57 11
-2.2360001 7.098 -0.56 247 182 114
-2.2390001 7.0970001 -0.58200002 196 107 41
-2.2420001 7.0949998 -0.58200002 88 47 25
-2.23 7.085 -0.57700002 183 84 16
-2.2449999 7.1170001 -0.53299999 173 117 66
-2.2550001 7.1059999 -0.68300003 54 30 18
-2.2539999 7.1030002 -0.685 60 38 25
-2.26 7.098 -0.67500001 115 74 44
-2.2490001 7.1020002 -0.70499998 125 76 43
-2.286 7.0689998 -0.67699999 139 112 91
-2.289 7.0710001 -0.67400002 127 83 74
-2.2590001 7.1030002 -0.70700002 205 166 135
-2.253 7.098 -0.68599999 56 37 23
-2.256 7.0949998 -0.68000001 108 48 14
-2.256 7.098 -0.65600002 63 45 33
-2.207 7.112 -0.57200003 166 105 51
-2.2190001 7.0960002 -0.56800002 160 117 74
-2.2130001 7.0949998 -0.56900001 168 115 65
-2.24 7.0910001 -0.54699999 245 210 170
-2.2060001 7.1220002 -0.58700001 128 78 55
-2.214 7.1170001 -0.57999998 160 83 37
-2.21 7.1160002 -0.579 133 97 81
-2.1819999 7.0890002 -0.57999998 245 184 93
-2.2579999 7.1240001 -0.54500002 168 103 61
-2.283 7.125 -0.54299998 87 53 26
-2.2809999 7.1160002 -0.53100002 110 32 0
-2.283 7.1079998 -0.52999997 209 149 86
-2.2590001 7.1069999 -0.57700002 102 38 0
-2.2449999 7.0890002 -0.579 159 73 12
-2.2579999 7.0999999 -0.58700001 161 134 115
-2.266 7.1149998 -0.55900002 170 97 28
-2.267 7.1079998 -0.55800003 74 46 22
-2.256 7.131 -0.528 121 58 14
-2.24 7.1339998 -0.53399998 162 91 9
-2.184 7.092 -0.57300001 253 206 116
-2.171 7.0939999 -0.58399999 244 176 91
-2.227 7.0970001 -0.53299999 139 69 0
-2.201 7.099 -0.56800002 180 95 28
-2.188 7.1040001 -0.73500001 226 180 130
-2.1860001 7.1030002 -0.72799999 249 201 117
-2.191 7.1040001 -0.72799999 69 9 0
-2.1860001 7.1030002 -0.72600001 131 76 12
-2.1849999 7.0799999 -0.727 184 129 72
-2.2060001 7.0939999 -0.68300003 234 156 107
-2.207 7.092 -0.68800002 155 63 12
-2.2030001 7.0900002 -0.68199998 133 71 32
-2.2390001 7.0630002 -0.59600002 142 75 32
-2.2420001 7.066 -0.59799999 206 136 87
-2.2160001 7.0700002 -0.60000002 116 54 15
-2.214 7.0630002 -0.58499998 205 143 92
-2.2190001 7.0689998 -0.58099997 182 83 0
-2.23 7.0640001 -0.59200001 108 48 14
-2.187 7.0760002 -0.59600002 144 91 49
-2.1789999 7.0929999 -0.671 249 164 107
-2.174 7.0929999 -0.667 204 115 55
-2.2019999 7.0960002 -0.67799997 120 53 10
-2.2119999 7.1009998 -0.60900003 207 117 55
-2.2349999 7.0799999 -0.59799999 132 53 12
-2.2349999 7.0840001 -0.59799999 150 94 47
-2.1730001 7.0799999 -0.59299999 195 147 101
-2.1630001 7.1059999 -0.588 185 97 23
-2.165 7.105 -0.588 207 111 37
-2.1800001 7.1149998 -0.59600002 173 104 49
-2.1960001 7.1030002 -0.625 110 79 48
-2.1960001 7.105 -0.61400002 105 55 22
-2.256 7.079 -0.59500003 167 71 0
-2.257 7.0739999 -0.59600002 79 49 39
-2.257 7.0780001 -0.57999998 175 128 98
-2.2550001 7.0890002 -0.58999997 182 86 26
-2.2690001 7.0689998 -0.56599998 252 211 105
-2.2609999 7.066 -0.57999998 255 171 88
-2.273 7.0679998 -0.56900001 255 233 105
-2.1949999 7.0840001 -0.57599998 167 113 7
-2.2149999 7.0799999 -0.57200003 127 73 29
-2.276 7.0799999 -0.59799999 104 31 0
-2.3069999 7.0580001 -0.58700001 175 141 95
-2.2980001 7.0580001 -0.579 216 123 28
-2.2969999 7.0599999 -0.579 205 151 91
-2.2909999 7.0560002 -0.57700002 232 141 36
-2.3110001 7.0710001 -0.597 108 65 20
-2.2379999 7.0970001 -0.66100001 113 73 47
-2.237 7.0970001 -0.671 113 45 8
-2.283 7.066 -0.671 87 54 37
-2.2839999 7.072 -0.65100002 76 38 19
-2.277 7.0689998 -0.65200001 158 96 39
-2.197 7.0939999 -0.70700002 137 64 11
-2.197 7.0960002 -0.68800002 142 58 24
-2.1949999 7.0900002 -0.68400002 203 121 74
-2.211 7.1009998 -0.64700001 148 85 42
-2.2049999 7.1170001 -0.602 84 26 6
-2.1989999 7.112 -0.60699999 129 72 19
-2.1989999 7.1030002 -0.66000003 135 73 48
-2.197 7.1020002 -0.65600002 151 68 16
-2.188 7.1160002 -0.60699999 122 81 53
-2.188 7.1149998 -0.60399997 193 144 104
-2.2019999 7.1030002 -0.65899998 82 15 0
-2.2079999 7.1009998 -0.64700001 141 73 26
-2.2049999 7.1020002 -0.65600002 100 31 0
-2.21 7.1009998 -0.64399999 126 71 30
-2.2090001 7.1020002 -0.63300002 90 62 38
-2.207 7.1030002 -0.63 96 62 37
-2.2060001 7.1030002 -0.62699997 121 77 48
-2.3050001 7.0440001 -0.60299999 193 94 35
-2.2939999 7.0469999 -0.60699999 166 96 47
-2.2980001 7.0479999 -0.60600001 140 81 47
-2.289 7.0479999 -0.58099997 201 138 87
-2.2390001 7.0370002 -0.82599998 135 39 0
-2.2179999 7.086 -0.80400002 85 64 59
-2.2279999 7.0869999 -0.80599999 177 133 96
-2.2320001 7.0869999 -0.79799998 73 14 0
-2.2460001 7.0359998 -0.80400002 172 125 99
-2.25 7.0479999 -0.796 152 74 35
-2.2490001 7.0450001 -0.80000001 206 120 73
-2.25 7.04 -0.80299997 135 52 8
-2.2550001 7.0339999 -0.80199999 133 79 32
-2.2 7.0580001 -0.77899998 255 187 99
-2.2060001 7.0689998 -0.801 74 39 7
-2.2119999 7.0580001 -0.80199999 142 107 69
-2.2320001 7.039 -0.81599998 130 117 111
-2.2179999 7.0560002 -0.84799999 177 143 115
-2.2190001 7.066 -0.85399997 212 150 41
-2.2479999 7.0279999 -0.80900002 188 107 54
-2.2709999 7.026 -0.81900001 154 65 0
-2.266 7.0229998 -0.824 178 122 61
-2.234 7.0430002 -0.84299999 171 77 0
-2.267 7.0910001 -0.838 95 30 2
-2.2620001 7.0939999 -0.838 64 25 10
-2.2149999 7.0819998 -0.963 255 221 130
-2.27 7.099 -1.041 98 60 39
-2.2980001 7.0689998 -1.03 196 145 102
-2.2720001 7.0879998 -1.046 99 25 0
-2.227 7.0890002 -1.056 145 90 49
-2.2219999 7.0869999 -1.0549999 152 108 83
-2.243 7.073 -1.064 68 17 0
-2.2420001 7.0809999 -1.0599999 109 61 25
-2.289 7.0469999 -0.94 195 169 154
-2.2950001 7.0599999 -0.93800002 168 120 74
-2.2920001 7.0700002 -0.93400002 131 105 78
-2.2980001 7.0700002 -0.93900001 127 105 82
-2.2449999 7.0479999 -0.89300001 113 87 38
-2.2539999 7.04 -0.90799999 98 80 30
-2.2579999 7.0430002 -0.91299999 232 215 169
-2.2520001 7.04 -0.91100001 229 209 138
-2.253 7.0440001 -0.89899999 166 135 88
-2.2479999 7.033 -0.92400002 212 162 89
-2.28 7.073 -0.926 135 101 64
-2.283 7.079 -0.926 238 190 124
-2.2739999 7.0749998 -0.92299998 163 124 95
-2.2679999 7.0580001 -0.92699999 174 146 96
-2.266 7.0479999 -0.93699998 169 171 183
-2.266 7.0960002 -0.98100001 234 160 89
-2.2590001 7.0939999 -0.97600001 106 42 17
-2.2820001 7.0840001 -0.94999999 214 129 46
-2.2739999 7.086 -0.954 154 98 11
-2.2720001 7.085 -0.93099999 97 55 17
-2.2679999 7.085 -0.94400001 88 33 26
-2.309 7.0809999 -1.04 136 106 95
-2.3069999 7.079 -1.036 57 16 0
-2.2690001 7.0879998 -0.98799998 172 101 49
-2.263 7.086 -0.84100002 167 92 53
-2.233 7.0580001 -0.83999997 235 180 115
-2.2320001 7.0599999 -0.83999997 135 77 40
-2.2149999 7.1009998 -0.64399999 90 56 28
-2.2420001 7.1090002 -0.60100001 69 39 11
-2.253 7.098 -0.86900002 166 108 86
-2.2520001 7.1009998 -0.86500001 68 17 0
-2.2349999 7.0900002 -0.912 98 49 17
-2.2479999 7.0970001 -0.96700001 80 24 0
-2.2479999 7.0939999 -0.96600002 104 39 9
-2.2460001 7.0929999 -0.96100003 166 92 53
-2.2260001 7.0890002 -0.92699999 176 120 83
-2.2249999 7.0879998 -0.93599999 206 157 117
-2.223 7.0890002 -0.92699999 240 171 104
-2.2249999 7.0900002 -0.91799998 154 96 56
-2.237 7.092 -0.93400002 76 30 15
-2.2420001 7.0999999 -0.86799997 86 37 7
-2.2390001 7.0869999 -0.87 121 79 57
-2.224 7.0619998 -0.78600001 154 118 102
-2.2290001 7.0970001 -0.82700002 93 12 0
-2.2520001 7.1009998 -0.85799998 72 26 10
-2.253 7.1009998 -0.86299998 62 15 0
-2.2249999 7.0770001 -0.86900002 170 158 134
-2.2119999 7.0770001 -0.81 188 153 134
-2.2130001 7.072 -0.815 255 197 117
-2.224 7.0770001 -0.82800001 97 67 39
-2.221 7.0679998 -0.829 119 51 16
-2.2190001 7.0689998 -0.85799998 247 181 87
-2.2219999 7.0549998 -0.86400002 216 138 53
-2.2379999 7.0570002 -0.838 140 107 38
-2.211 7.072 -0.81199998 118 59 0
-2.201 7.0749998 -0.77600002 235 165 105
-2.1900001 7.079 -0.76300001 181 115 63
-2.256 7.0580001 -0.91600001 185 109 57
-2.257 7.0609999 -0.90499997 90 49 27
-2.2609999 7.0799999 -0.91600001 73 23 0
-2.263 7.0770001 -0.91299999 139 95 58
-2.243 7.0900002 -0.93300003 98 41 12
-2.312 7.0619998 -1.0549999 211 165 115
-2.3210001 7.0560002 -0.96700001 171 133 96
-2.3039999 7.0630002 -0.96700001 149 85 47
-2.2090001 7.053 -1.022 240 166 101
-2.2130001 7.052 -0.95499998 183 160 92
-2.2320001 7.0570002 -1.005 230 147 77
-2.2279999 7.0630002 -1.013 173 93 30
-2.2279999 7.0739999 -1.0190001 142 132 141
-2.227 7.073 -1.028 216 171 104
-2.2309999 7.0970001 -0.99699998 155 106 73
-2.2360001 7.0939999 -1.002 191 147 102
-2.2379999 7.099 -0.98799998 232 184 144
-2.24 7.0320001 -0.95999998 231 182 126
-2.2390001 7.0339999 -0.94499999 255 223 110
-2.244 7.0349998 -0.94700003 97 38 0
-2.247 7.0380001 -0.94999999 125 75 38
-2.234 7.0370002 -0.94999999 255 229 101
-2.2409999 7.0339999 -0.94999999 232 163 104
-2.221 7.0320001 -0.963 192 173 115
-2.2980001 7.072 -0.93800002 168 114 44
-2.303 7.046 -0.94700003 255 211 140
-2.2219999 7.026 -0.99599999 243 237 163
-2.2190001 7.0310001 -1 235 171 99
-2.2709999 7.0050001 -1.016 180 138 96
-2.286 7.0250001 -1.026 130 86 39
-2.2090001 7.033 -0.98900002 255 198 93
-2.2149999 7.0689998 -0.97299999 76 49 28
-2.197 7.0640001 -0.75599998 162 125 83
-2.2030001 7.0869999 -0.76700002 131 80 23
-2.2750001 7.1040001 -0.995 119 53 19
-2.2639999 7.1079998 -1.01 76 31 12
-2.223 7.0910001 -1.068 143 99 64
-2.207 7.0419998 -0.98799998 255 215 110
-2.2119999 7.0640001 -1.072 239 224 157
-2.2179999 7.059 -1.054 133 85 45
-2.217 7.0609999 -1.073 230 203 134
-2.221 7.0619998 -1.061 231 121 36
-2.214 7.059 -1.04 213 146 91
-2.2060001 7.0650001 -1.077 253 244 123
-2.214 7.085 -1.074 73 5 0
-2.211 7.085 -1.069 106 34 9
-2.2119999 7.0570002 -1.0190001 185 155 121
-2.214 7.0599999 -1.035 104 39 0
-2.214 7.066 -1.0420001 114 41 0
-2.2149999 7.066 -1.041 183 125 85
-2.2179999 7.059 -1.028 98 79 75
-2.2149999 7.0479999 -1.03 169 112 41
-2.2620001 7.1069999 -1.006 60 17 0
-2.2620001 7.1079998 -1.01 67 24 5
-2.2119999 7.0689998 -1.056 144 99 66
-2.2190001 7.0780001 -1.0470001 221 140 85
-2.2149999 7.0689998 -1.0420001 148 128 117
-2.2160001 7.0700002 -1.0420001 125 47 0
-2.221 7.0679998 -1.038 95 32 0
-2.263 7.0609999 -1.054 168 154 141
-2.273 7.0650001 -1.049 131 79 19
-2.27 7.0650001 -1.049 170 115 35
-2.2579999 7.0710001 -1.076 50 13 0
-2.2809999 7.0669999 -1.049 190 131 89
-2.2420001 7.0279999 -1.0369999 165 102 23
-2.234 7.0349998 -1.049 255 209 117
-2.2490001 7.0419998 -1.045 206 154 117
-2.233 7.0349998 -1.045 255 210 124
-2.224 7.0640001 -1.079 227 149 48
-2.24 7.0479999 -1.054 138 85 33
-2.23 7.0500002 -1.068 147 86 0
-2.224 7.0440001 -1.053 159 133 116
-2.2579999 7.053 -1.046 193 150 48
-2.279 7.0640001 -1.045 87 38 5
-2.266 7.0450001 -1.038 202 141 87
-2.2279999 7.0380001 -1.045 251 213 116
-2.253 7.0780001 -1.069 181 144 118
-2.26 7.0780001 -1.066 82 45 26
-2.253 7.073 -1.077 65 18 0
-2.2190001 7.059 -1.079 196 159 29
-2.25 7.0229998 -0.86000001 194 134 74
-2.2750001 7.0370002 -0.82599998 124 70 32
-2.2639999 7.0240002 -0.82700002 254 199 134
-2.2709999 7.0560002 -0.83099997 155 78 36
-2.2260001 7.0450001 -0.898 146 117 47
-2.23 7.073 -0.89600003 146 93 49
-2.2260001 7.066 -0.88999999 235 141 69
-2.227 7.039 -0.912 147 106 26
-2.23 7.0349998 -0.90799999 239 185 121
-2.2539999 7.0489998 -0.79000002 147 110 81
-2.2379999 7.0409999 -0.80400002 200 110 60
-2.2620001 7.0359998 -1.033 177 120 77
-2.266 7.0209999 -1.035 255 163 77
-2.257 7.013 -1.034 139 84 43
-2.2750001 7.013 -1.003 130 89 43
-2.266 7.0159998 -1.041 193 131 80
-2.273 7.046 -0.81199998 131 82 52
-2.2739999 7.0430002 -0.81400001 193 137 86
-2.2639999 7.0650001 -0.79699999 198 154 119
-2.2650001 7.0430002 -0.84899998 199 159 123
-2.2850001 7.105 -0.53200001 113 77 55
-2.25 7.1009998 -0.51899999 185 142 108
-2.2869999 7.0630002 -0.57599998 212 134 62
-2.299 7.0440001 -0.58499998 255 181 94
-2.2609999 7.0819998 -0.53600001 197 153 124
-2.2390001 7.0929999 -0.53399998 167 91 29
-2.253 7.079 -0.54500002 186 133 81
-2.28 7.0830002 -0.542 255 225 186
-2.27 7.0770001 -0.56800002 96 31 0
-2.27 7.0780001 -0.57700002 163 117 68
-2.2839999 7.079 -0.54699999 143 105 69
-2.2720001 7.079 -0.546 145 98 72
-2.2550001 7.1100001 -0.55900002 192 124 59
-2.256 7.092 -0.71399999 200 159 127
-2.2839999 7.0679998 -0.727 113 40 0
-2.2679999 7.0599999 -0.741 106 60 34
-2.2780001 7.0679998 -0.70499998 130 80 29
-2.277 7.0570002 -0.67500001 132 93 64
-2.2869999 7.0580001 -0.65200001 46 30 15
-2.283 7.0580001 -0.67799997 113 78 59
-2.2820001 7.0580001 -0.68199998 117 85 62
-2.2780001 7.0619998 -0.667 89 53 31
-2.2720001 7.0650001 -0.66900003 134 97 55
-2.2720001 7.0619998 -0.67299998 113 79 51
-2.2839999 7.0599999 -0.65600002 139 71 8
-2.2880001 7.0560002 -0.69700003 107 43 0
-2.2420001 7.1059999 -0.62900001 74 39 19
-2.2609999 7.118 -0.63499999 142 57 16
-2.2880001 7.0409999 -0.59399998 255 216 136
-2.2690001 7.0630002 -0.69 78 42 26
-2.2750001 7.0630002 -0.69800001 53 11 0
-2.2639999 7.059 -0.72000003 115 55 21
-2.2609999 7.0700002 -0.727 160 102 62
-2.2650001 7.0599999 -0.73299998 106 64 16
-2.2650001 7.0609999 -0.70200002 101 54 28
-2.2520001 7.052 -0.74000001 141 77 33
-2.2780001 7.052 -0.72799999 68 41 24
-2.2809999 7.0549998 -0.722 55 24 3
-2.276 7.0539999 -0.69 255 228 178
-2.2650001 7.0630002 -0.685 80 44 18
-2.253 7.0510001 -0.74000001 161 96 56
-2.2090001 7.0809999 -0.71399999 127 80 34
-2.1989999 7.0809999 -0.70700002 93 51 26
-2.2060001 7.079 -0.704 209 180 150
-2.233 7.085 -0.72799999 94 59 39
-2.2190001 7.0890002 -0.722 75 27 4
-2.211 7.0830002 -0.713 157 80 34
-2.2320001 7.0900002 -0.704 177 143 116
-2.2539999 7.053 -0.74000001 181 117 69
-2.2679999 7.059 -0.73299998 107 65 23
-2.2579999 7.0539999 -0.74299997 149 85 37
-2.2579999 7.0560002 -0.74699998 145 89 66
-2.2550001 7.0609999 -0.76200002 146 79 26
-2.303 7.0689998 -0.60600001 118 102 102
-2.2060001 7.0780001 -0.74299997 133 47 0
-2.1989999 7.0830002 -0.72299999 98 55 23
-2.197 7.1030002 -0.73000002 63 0 0
-2.2149999 7.0879998 -0.72100002 55 24 6
-2.21 7.0970001 -0.72100002 108 60 22
-2.247 7.0999999 -0.72799999 128 83 44
-2.253 7.1079998 -0.71100003 91 56 36
-2.214 7.0929999 -0.69400001 145 69 33
-2.204 7.0900002 -0.69 129 44 3
-2.243 7.0949998 -0.68000001 156 92 57
-2.2479999 7.0949998 -0.67400002 129 65 27
-2.2509999 7.0960002 -0.67900002 133 69 31
-2.243 7.0949998 -0.67000002 195 113 57
-2.2460001 7.0929999 -0.66500002 186 136 109
-2.2190001 7.1030002 -0.662 236 175 146
-2.234 7.0960002 -0.67199999 110 41 2
-2.2360001 7.0929999 -0.69400001 75 29 13
-2.211 7.0939999 -0.73000002 74 5 0
-2.211 7.0939999 -0.72799999 67 3 0
-2.214 7.0879998 -0.73199999 68 10 0
-2.207 7.0900002 -0.73799998 69 28 0
-2.276 7.0380001 -0.815 123 79 52
-2.273 7.0380001 -0.81199998 193 143 116
-2.2650001 7.0349998 -0.80699998 122 65 12
-2.2709999 7.046 -0.80900002 210 164 131
-2.2690001 7.0479999 -0.80599999 174 123 78
-2.27 7.0580001 -0.76499999 185 150 128
-2.2520001 7.0609999 -0.75 174 113 82
-2.244 7.0669999 -0.76300001 127 81 45
-2.244 7.0669999 -0.76099998 122 79 44
-2.2490001 7.0640001 -0.75700003 147 81 21
-2.2520001 7.0630002 -0.76200002 145 85 31
-2.256 7.0619998 -0.77100003 141 96 65
-2.257 7.0619998 -0.73699999 109 56 12
-2.243 7.085 -0.78799999 214 167 125
-2.24 7.085 -0.79100001 120 85 66
-2.2260001 7.0760002 -0.84200001 125 80 38
-2.234 7.099 -0.815 124 61 8
-2.2409999 7.1079998 -0.82200003 88 53 33
-2.244 7.105 -0.82200003 55 36 19
-2.233 7.0650001 -0.76800001 189 140 100
-2.1919999 7.0799999 -0.764 139 80 36
-2.207 7.0819998 -0.80000001 94 25 0
-2.25 7.0960002 -0.73000002 72 40 29
-2.25 7.0890002 -0.73299998 98 79 62
-2.26 7.0710001 -0.72899997 108 73 35
-2.2809999 7.085 -0.58399999 206 132 83
-2.263 7.0819998 -0.59600002 199 112 59
-2.2620001 7.0780001 -0.59600002 159 65 3
-2.2420001 7.0890002 -0.59100002 114 51 7
-2.2880001 7.0749998 -0.574 104 70 35
-2.302 7.0780001 -0.59899998 202 136 84
-2.26 7.0900002 -0.52399999 172 140 115
-2.257 7.0890002 -0.52600002 130 67 0
-2.2449999 7.0999999 -0.55400002 181 125 76
-2.2850001 7.0440001 -0.60600001 132 97 55
-2.29 7.0539999 -0.62199998 74 56 46
-2.279 7.0599999 -0.61799997 255 216 189
-2.267 7.092 -0.63099998 74 26 3
-2.26 7.098 -0.62800002 163 136 115
-2.257 7.0960002 -0.62699997 42 16 0
