ply
format ascii 1.0
comment PCL generated
element vertex 85
property float x
property float y
property float z
property uchar red
property uchar green
property uchar blue
element camera 1
property float view_px
property float view_py
property float view_pz
property float x_axisx
property float x_axisy
property float x_axisz
property float y_axisx
property float y_axisy
property float y_axisz
property float z_axisx
property float z_axisy
property float z_axisz
property float focal
property float scalex
property float scaley
property float centerx
property float centery
property int viewportx
property int viewporty
property float k1
property float k2
end_header
7.54 -8.1890001 -0.93099999 95 60 41
7.5450001 -8.191 -0.917 68 32 20
7.5349998 -8.2080002 -0.921 50 26 0
7.5749998 -8.2299995 -0.92699999 83 57 42
7.5780001 -8.2220001 -0.91299999 102 47 16
7.5819998 -8.2250004 -0.917 151 97 50
7.5489998 -8.2250004 -0.91299999 117 67 30
7.552 -8.2049999 -0.91799998 102 59 40
7.559 -8.2110004 -0.90399998 166 119 93
7.552 -8.1969995 -0.90799999 75 14 0
7.553 -8.2209997 -0.94300002 76 38 25
7.5500002 -8.2299995 -0.93800002 151 80 26
7.5580001 -8.2229996 -0.93800002 64 28 14
7.5450001 -8.2229996 -0.93599999 50 12 3
7.546 -8.1929998 -0.94400001 64 33 13
7.5430002 -8.2089996 -0.93599999 66 40 13
7.5560002 -8.1960001 -0.94499999 53 11 0
7.5409999 -8.2270002 -0.92900002 78 32 9
7.5419998 -8.2290001 -0.92900002 70 35 16
7.5609999 -8.2279997 -0.93000001 62 13 0
7.5500002 -8.2299995 -0.92199999 197 121 63
7.5689998 -8.1920004 -0.91399997 37 4 0
7.5710001 -8.2010002 -0.91100001 62 32 6
7.5640001 -8.1890001 -0.89499998 165 110 69
7.5749998 -8.21 -0.91299999 133 77 42
7.5679998 -8.2010002 -0.91799998 68 20 0
7.5700002 -8.2049999 -0.91000003 49 5 0
7.579 -8.2159996 -0.92400002 77 31 8
7.5619998 -8.1949997 -0.94199997 59 22 4
7.5619998 -8.1949997 -0.93599999 45 7 0
7.5430002 -8.191 -0.93800002 54 21 4
7.5359998 -8.2150002 -0.917 229 159 90
7.5630002 -8.1990004 -0.88800001 176 126 99
7.559 -8.2030001 -0.88499999 101 74 55
7.559 -8.1929998 -0.889 58 13 0
7.5549998 -8.2010002 -0.88499999 53 11 0
7.539 -8.2060003 -0.93599999 57 30 11
7.5580001 -8.2139997 -0.93900001 121 57 13
7.5440001 -8.1920004 -0.92199999 154 102 63
7.539 -8.2220001 -0.92199999 55 32 18
7.5479999 -8.2250004 -0.91900003 100 52 16
7.5669999 -8.21 -0.90399998 121 66 45
7.5570002 -8.1890001 -0.90200001 130 85 62
7.5469999 -8.1960001 -0.88700002 209 138 58
7.5510001 -8.1890001 -0.90799999 79 22 0
7.5469999 -8.2010002 -0.88800001 131 83 60
7.546 -8.2040005 -0.88599998 111 66 35
7.566 -8.198 -0.90600002 171 101 52
7.5489998 -8.2069998 -0.935 52 13 0
7.5700002 -8.1920004 -0.926 140 101 84
7.5580001 -8.1990004 -0.93800002 73 31 7
7.5599999 -8.2049999 -0.93099999 37 3 0
7.5419998 -8.1969995 -0.93199998 61 26 7
7.5500002 -8.2290001 -0.92400002 108 52 27
7.5370002 -8.2089996 -0.92199999 108 62 26
7.5510001 -8.1969995 -0.898 86 21 1
7.5799999 -8.2220001 -0.92500001 75 26 0
7.5770001 -8.2270002 -0.92500001 78 28 3
7.5739999 -8.2250004 -0.926 87 36 15
7.5679998 -8.2270002 -0.93099999 130 88 66
7.5609999 -8.2130003 -0.93199998 75 34 12
7.572 -8.2180004 -0.92900002 118 73 44
7.5669999 -8.2119999 -0.90799999 82 50 27
7.5650001 -8.1899996 -0.90700001 115 80 61
7.546 -8.1969995 -0.93800002 77 22 0
7.54 -8.1990004 -0.92699999 87 49 28
7.559 -8.2080002 -0.889 190 122 73
7.5599999 -8.2069998 -0.89300001 123 67 32
7.5809999 -8.2229996 -0.91900003 138 84 50
7.566 -8.1899996 -0.91900003 56 19 3
7.5560002 -8.191 -0.917 144 106 95
7.559 -8.1929998 -0.92400002 63 25 12
7.5440001 -8.1920004 -0.93199998 63 27 11
7.54 -8.2030001 -0.92900002 48 12 0
7.5510001 -8.1949997 -0.88800001 92 49 17
7.5510001 -8.2010002 -0.89399999 154 104 77
7.5640001 -8.2259998 -0.92799997 124 95 79
7.5500002 -8.2229996 -0.91900003 185 123 66
7.5650001 -8.1969995 -0.93199998 128 90 69
7.5630002 -8.1929998 -0.92799997 115 70 47
7.552 -8.1929998 -0.92699999 64 12 0
7.553 -8.1929998 -0.92299998 79 33 7
7.5599999 -8.2060003 -0.89200002 56 22 0
7.5500002 -8.1999998 -0.89499998 207 142 78
7.5710001 -8.2180004 -0.921 113 58 28
0 0 0 1 0 0 0 1 0 0 0 1 0 0 0 0 0 85 1 0 0
