ply
format ascii 1.0
comment PCL generated
element vertex 821
property float x
property float y
property float z
property uchar red
property uchar green
property uchar blue
element camera 1
property float view_px
property float view_py
property float view_pz
property float x_axisx
property float x_axisy
property float x_axisz
property float y_axisx
property float y_axisy
property float y_axisz
property float z_axisx
property float z_axisy
property float z_axisz
property float focal
property float scalex
property float scaley
property float centerx
property float centery
property int viewportx
property int viewporty
property float k1
property float k2
end_header
-3.2249999 11.909 -1.0549999 103 23 0
-3.2320001 11.907 -1.057 92 52 26
-3.214 11.905 -1.072 165 92 39
-3.2279999 11.828 -0.80400002 163 110 70
-3.2349999 11.827 -0.81400001 137 111 84
-3.223 11.824 -0.80800003 208 116 17
-3.221 11.821 -0.80199999 226 131 37
-3.2360001 11.832 -0.80400002 97 56 26
-3.217 11.836 -0.79400003 111 62 22
-3.2260001 11.894 -1.056 96 51 20
-3.23 11.9 -1.038 97 53 14
-3.2130001 11.85 -1.059 231 158 56
-3.2119999 11.851 -1.057 202 121 13
-3.2049999 11.846 -1.063 221 141 42
-3.2160001 11.854 -1.048 197 128 87
-3.217 11.851 -1.061 226 154 70
-3.2579999 11.904 -0.78399998 216 132 18
-3.2550001 11.898 -0.77999997 224 162 121
-3.2590001 11.899 -0.78200001 141 90 45
-3.2520001 11.903 -0.78200001 129 90 59
-3.1960001 11.905 -0.76700002 111 45 0
-3.197 11.895 -0.76499999 155 108 64
-3.184 11.895 -0.76499999 177 129 81
-3.187 11.907 -0.76700002 135 69 19
-3.211 11.825 -0.82099998 252 159 56
-3.2060001 11.839 -0.81400001 255 171 76
-3.211 11.825 -0.82800001 247 157 61
-3.2219999 11.865 -1.059 146 99 53
-3.234 11.878 -1.053 181 138 95
-3.2320001 11.869 -1.053 151 81 22
-3.2079999 11.861 -1.069 220 140 69
-3.2179999 11.855 -1.0599999 224 156 119
-3.233 11.843 -0.79900002 102 48 10
-3.2260001 11.846 -0.80000001 176 124 77
-3.234 11.854 -0.79799998 142 90 50
-3.2420001 11.838 -0.80599999 140 89 42
-3.2460001 11.841 -0.81699997 144 54 1
-3.247 11.842 -0.824 91 26 0
-3.2409999 11.84 -0.82300001 161 108 77
-3.2309999 11.827 -0.82099998 182 127 73
-3.22 11.857 -1.05 208 126 18
-3.227 11.903 -1.053 161 84 28
-3.2160001 11.853 -1.0549999 215 137 29
-3.2130001 11.831 -0.80699998 171 110 63
-3.221 11.82 -0.83099997 186 115 69
-3.1860001 11.884 -0.773 119 71 25
-3.1670001 11.893 -0.78399998 186 142 103
-3.171 11.897 -0.77700001 145 123 110
-3.227 11.823 -0.81599998 122 66 17
-3.21 11.839 -0.82999998 93 42 0
-3.2030001 11.855 -1.064 226 150 56
-3.204 11.854 -1.064 255 189 88
-3.2079999 11.893 -1.063 149 82 27
-3.21 11.904 -1.064 113 31 0
-3.207 11.899 -1.0470001 98 63 35
-3.198 11.882 -1.0549999 180 119 72
-3.211 11.905 -1.056 147 60 15
-3.2219999 11.908 -1.0549999 49 16 0
-3.221 11.911 -1.049 134 93 65
-3.214 11.905 -1.064 132 57 17
-3.2479999 11.89 -0.78399998 126 74 34
-3.2520001 11.908 -0.78399998 109 55 11
-3.187 11.899 -0.90700001 83 39 2
-3.1849999 11.894 -0.91000003 160 111 81
-3.177 11.882 -0.89999998 156 125 104
-3.177 11.883 -0.90600002 213 145 80
-3.1819999 11.897 -0.88599998 247 165 92
-3.1860001 11.904 -0.88800001 158 127 109
-3.1960001 11.975 -0.98900002 255 188 60
-3.2019999 11.974 -0.986 249 199 86
-3.201 11.971 -0.98299998 217 164 110
-3.2079999 11.972 -0.986 226 174 72
-3.177 11.891 -0.79500002 210 165 124
-3.1700001 11.895 -0.79000002 146 124 113
-3.1830001 12.001 -1.053 220 132 58
-3.1800001 11.994 -1.056 154 96 58
-3.194 12.004 -1.061 217 121 44
-3.1889999 12.006 -1.058 186 93 13
-3.1589999 11.943 -1.038 223 127 40
-3.1589999 11.945 -1.046 229 132 53
-3.152 11.943 -1.043 240 146 59
-3.227 11.9 -0.91100001 124 47 3
-3.2349999 11.896 -0.91399997 106 72 47
-3.2390001 11.892 -0.89700001 124 89 57
-3.23 11.893 -0.88099998 108 40 0
-3.2309999 11.894 -0.889 102 45 2
-3.2249999 11.887 -0.88099998 137 75 24
-3.1930001 11.901 -0.89999998 130 84 51
-3.2509999 11.89 -0.829 104 41 0
-3.2509999 11.891 -0.82999998 107 63 26
-3.256 11.883 -0.84500003 178 117 63
-3.2479999 11.878 -1.001 133 59 0
-3.25 11.88 -1.007 127 71 38
-3.243 11.876 -1 59 22 0
-3.243 11.875 -0.995 157 115 65
-3.223 11.905 -1.048 79 37 13
-3.2190001 11.856 -1.056 199 124 41
-3.263 11.899 -0.79900002 116 80 54
-3.2609999 11.899 -0.796 116 43 2
-3.263 11.907 -0.79100001 162 108 62
-3.26 11.901 -0.792 124 48 0
-3.1849999 12.002 -1.059 216 120 43
-3.2130001 11.826 -0.81400001 255 161 59
-3.224 11.835 -0.80299997 174 126 80
-3.191 11.886 -0.77100003 91 49 24
-3.2019999 11.884 -0.78600001 112 66 40
-3.2030001 11.898 -0.76700002 131 105 80
-3.198 11.892 -0.773 136 70 18
-3.2019999 11.892 -0.77700001 169 126 81
-3.1789999 11.889 -0.787 249 172 82
-3.2279999 11.827 -0.83200002 168 114 67
-3.221 11.824 -0.81699997 214 158 111
-3.21 11.833 -0.82099998 221 127 31
-3.2130001 11.835 -0.829 174 79 0
-3.2490001 11.905 -0.81400001 187 109 37
-3.191 11.892 -0.79400003 221 175 139
-3.181 11.89 -0.79000002 163 140 126
-3.1919999 11.886 -0.78899997 191 148 116
-3.187 11.907 -0.77200001 132 60 12
-3.1830001 11.91 -0.77499998 127 74 24
-3.1819999 11.905 -0.76899999 211 114 19
-3.221 11.861 -1.051 162 84 12
-3.2090001 11.894 -1.062 140 57 7
-3.2119999 11.844 -0.82300001 241 145 58
-3.2449999 11.902 -0.77999997 116 85 64
-3.2360001 11.844 -0.80199999 170 119 74
-3.2539999 11.895 -0.78799999 124 114 87
-3.2479999 11.883 -0.801 200 174 123
-3.244 11.878 -0.796 245 200 158
-3.2390001 11.889 -0.79500002 222 171 126
-3.234 11.856 -0.94999999 163 74 8
-3.2379999 11.857 -0.94599998 113 66 36
-3.233 11.841 -0.93800002 177 97 44
-3.2420001 11.892 -0.90200001 182 128 100
-3.247 11.909 -0.89499998 108 58 25
-3.2509999 11.9 -0.89899999 61 28 13
-3.2409999 11.907 -0.91600001 66 31 9
-3.244 11.904 -0.90600002 99 36 5
-3.1849999 11.885 -0.91100001 184 102 42
-3.1789999 11.878 -0.90499997 205 131 58
-3.184 11.875 -0.89999998 159 128 107
-3.217 11.984 -0.98900002 203 147 100
-3.201 11.987 -0.99900001 232 174 126
-3.22 11.992 -0.99299997 255 217 92
-3.1989999 11.982 -0.99400002 255 200 81
-3.223 11.987 -0.98799998 70 38 25
-3.2060001 11.972 -0.98199999 87 50 21
-3.2090001 11.974 -0.98000002 237 188 93
-3.1860001 11.895 -0.88200003 106 73 54
-3.1949999 11.893 -0.86199999 193 113 50
-3.1949999 11.888 -0.86500001 116 68 32
-3.2219999 11.895 -0.91500002 162 126 102
-3.1930001 11.883 -0.898 110 62 26
-3.1889999 11.879 -0.903 209 129 70
-3.1949999 11.881 -0.90799999 202 143 201
-3.201 11.879 -0.86400002 144 116 102
-3.217 11.874 -0.87 227 153 92
-3.2049999 11.862 -0.86900002 123 69 35
-3.1919999 11.975 -0.99299997 229 172 117
-3.198 11.977 -0.98199999 238 161 29
-3.194 11.983 -0.99000001 225 150 22
-3.191 11.985 -0.99900001 182 108 21
-3.1949999 11.978 -0.99599999 202 159 117
-3.191 11.98 -1.0039999 205 124 19
-3.184 11.946 -1.026 229 150 93
-3.1849999 11.939 -1.025 197 124 71
-3.178 11.939 -1.028 181 126 95
-3.1830001 11.953 -1.027 233 149 85
-3.1900001 11.914 -1.026 152 69 19
-3.187 11.903 -1.015 145 94 63
-3.191 11.905 -1.021 93 56 29
-3.1930001 11.987 -1.005 175 101 26
-3.2420001 11.909 -0.89899999 92 45 19
-3.247 11.911 -0.89300001 226 180 86
-3.2290001 11.902 -0.875 79 14 0
-3.233 11.902 -0.88300002 169 105 44
-3.2279999 11.892 -0.87599999 103 75 54
-3.23 11.882 -0.88700002 119 66 34
-3.1900001 11.893 -0.91399997 89 53 27
-3.1919999 11.895 -0.912 162 123 90
-3.22 11.897 -0.91399997 199 118 52
-3.224 11.988 -0.98100001 239 181 45
-3.234 11.931 -0.98100001 55 13 0
-3.237 11.933 -0.98100001 115 79 47
-3.237 11.932 -0.97500002 204 157 139
-3.1989999 11.977 -0.98100001 250 202 74
-3.201 11.903 -0.95099998 110 60 23
-3.2030001 11.905 -0.94499999 124 59 29
-3.1860001 11.895 -0.94099998 180 110 61
-3.1819999 11.894 -0.99000001 80 46 21
-3.1849999 11.894 -0.98500001 223 131 58
-3.1989999 11.883 -1 109 30 0
-3.2550001 11.892 -0.80400002 217 168 125
-3.2590001 11.903 -0.80199999 212 128 68
-3.2460001 11.88 -0.80299997 190 134 85
-3.2490001 11.88 -1 206 117 49
-3.2390001 11.887 -1.007 67 32 4
-3.2090001 11.858 -1.05 240 163 49
-3.2130001 11.858 -1.062 255 191 102
-3.1730001 11.903 -0.77999997 210 130 33
-3.177 11.9 -0.77100003 101 60 32
-3.1789999 11.907 -0.77399999 252 171 64
-3.2149999 11.828 -0.80699998 207 114 19
-3.1989999 11.883 -0.91000003 129 98 77
-3.224 11.824 -0.81400001 223 140 38
-3.21 11.833 -0.81400001 247 158 58
-3.25 11.899 -0.83200002 125 59 0
-3.2490001 11.894 -0.84200001 125 64 20
-3.1849999 11.885 -0.78500003 121 81 55
-3.1989999 11.885 -0.78399998 135 84 37
-3.187 11.887 -0.77999997 227 144 38
-3.194 11.892 -0.76800001 123 77 27
-3.1830001 11.892 -0.77100003 134 93 65
-3.1819999 11.897 -0.76800001 182 92 0
-3.1789999 11.894 -0.773 165 113 73
-3.2090001 11.904 -1.049 134 48 0
-3.2179999 11.883 -1.051 165 101 65
-3.2290001 11.88 -1.049 143 62 0
-3.2260001 11.889 -1.034 39 9 0
-3.211 11.895 -1.061 125 50 11
-3.2249999 11.94 -1.001 116 67 27
-3.24 11.928 -0.98400003 130 83 67
-3.221 11.851 -0.80000001 170 109 55
-3.244 11.901 -0.78100002 216 155 111
-3.243 11.903 -0.78100002 240 153 40
-3.234 11.836 -0.80400002 135 65 14
-3.201 11.904 -0.76800001 121 78 69
-3.2019999 11.902 -0.77200001 182 120 63
-3.2079999 11.906 -0.77999997 107 66 34
-3.2379999 11.914 -0.78799999 155 87 2
-3.237 11.914 -0.78799999 199 118 11
-3.24 11.908 -0.78399998 149 96 52
-3.2279999 11.906 -0.78600001 165 122 90
-3.24 11.849 -0.80500001 188 111 57
-3.244 11.843 -0.81400001 72 32 6
-3.224 11.883 -0.81 176 150 113
-3.22 11.893 -0.80299997 135 85 48
-3.217 11.883 -0.80900002 176 138 101
-3.2420001 11.848 -0.81599998 143 94 53
-3.23 11.857 -0.972 241 151 75
-3.2260001 11.86 -0.97799999 81 45 23
-3.2279999 11.852 -0.97100002 134 90 55
-3.2309999 11.858 -0.958 171 80 23
-3.224 11.853 -0.97299999 147 102 71
-3.2149999 11.85 -0.97100002 163 110 79
-3.214 11.86 -0.97899997 96 64 43
-3.194 11.886 -1.01 167 128 99
-3.1900001 11.892 -1.006 149 97 57
-3.2 11.891 -1.0190001 99 35 8
-3.197 11.885 -1.01 129 77 38
-3.233 11.853 -0.94499999 135 86 54
-3.2249999 11.853 -0.949 130 39 0
-3.2190001 11.848 -0.94099998 132 40 0
-3.2290001 11.853 -0.94499999 99 55 26
-3.2460001 11.889 -0.898 170 125 94
-3.247 11.893 -0.89499998 176 100 24
-3.2449999 11.886 -0.898 113 78 56
-3.2449999 11.891 -0.889 206 125 44
-3.2420001 11.894 -0.90899998 184 128 93
-3.1960001 11.875 -0.92000002 111 65 29
-3.1789999 11.948 -1.031 245 157 93
-3.1930001 11.947 -1.021 140 67 14
-3.2030001 11.945 -1.034 149 99 62
-3.22 11.939 -1.025 96 24 0
-3.2119999 11.955 -1.022 130 94 60
-3.21 11.984 -0.98299998 214 168 145
-3.2060001 11.884 -0.86500001 106 64 39
-3.198 11.897 -0.88499999 153 85 40
-3.198 11.886 -0.86199999 192 107 40
-3.2130001 11.857 -0.815 161 112 69
-3.2130001 11.853 -0.81800002 202 110 59
-3.201 11.877 -0.82700002 203 128 71
-3.207 11.884 -0.81900001 210 112 23
-3.2090001 11.881 -0.80900002 188 140 104
-3.174 11.895 -0.77999997 246 168 67
-3.1700001 11.899 -0.78399998 91 66 62
-3.194 11.988 -1.001 215 159 40
-3.1689999 11.9 -0.787 149 76 0
-3.178 11.909 -0.77999997 193 108 15
-3.188 11.893 -0.88599998 195 158 131
-3.1949999 11.893 -0.89300001 174 125 84
-3.1949999 11.978 -1.005 174 129 90
-3.1949999 11.989 -1.012 144 74 4
-3.194 11.99 -1.021 71 35 23
-3.197 11.979 -0.99900001 213 152 45
-3.2019999 11.91 -1.039 124 51 8
-3.204 11.896 -1.04 153 104 61
-3.214 11.865 -0.87099999 169 134 104
-3.2260001 11.866 -0.875 160 114 78
-3.22 11.852 -0.88499999 132 87 58
-3.2190001 11.854 -0.875 76 31 2
-3.2090001 11.984 -0.97399998 221 170 117
-3.2060001 11.983 -0.98100001 249 198 91
-3.2130001 11.982 -0.977 134 80 36
-3.24 11.917 -0.89099997 129 96 65
-3.2360001 11.905 -0.912 215 151 211
-3.1919999 11.912 -0.87800002 109 60 30
-3.1960001 11.914 -0.87199998 127 68 28
-3.1919999 11.914 -0.86400002 103 47 12
-3.1949999 11.894 -0.92699999 144 66 17
-3.2390001 11.918 -0.94 60 19 1
-3.244 11.913 -0.94999999 94 49 16
-3.2479999 11.908 -0.95099998 130 45 0
-3.24 11.909 -0.94 92 57 37
-3.237 11.914 -0.93699998 154 60 0
-3.237 11.904 -0.92699999 57 34 26
-3.211 11.895 -0.912 255 176 103
-3.2149999 11.9 -0.91799998 133 86 56
-3.221 11.895 -0.917 120 33 0
-3.2090001 11.885 -0.98699999 120 64 29
-3.2090001 11.88 -0.98199999 132 55 11
-3.2019999 11.889 -0.97899997 141 51 0
-3.187 11.905 -0.99000001 153 93 57
-3.1930001 11.908 -0.98000002 199 116 38
-3.194 11.909 -0.986 181 90 11
-3.24 11.913 -0.96899998 51 14 0
-3.2379999 11.917 -0.94700003 140 112 100
-3.204 11.903 -0.98400003 112 64 28
-3.204 11.911 -0.96700001 103 46 16
-3.217 11.871 -1.003 178 128 93
-3.224 11.868 -0.98799998 142 73 31
-3.2160001 11.873 -0.99400002 156 64 1
-3.221 11.874 -0.99599999 135 44 0
-3.2520001 11.88 -0.83700001 134 81 31
-3.2420001 11.872 -0.84399998 143 92 45
-3.2509999 11.909 -0.986 91 64 47
-3.247 11.924 -0.98000002 110 68 46
-3.243 11.903 -0.96399999 59 19 0
-3.237 11.89 -0.99400002 94 53 23
-3.2360001 11.886 -0.98400003 143 98 65
-3.22 11.865 -1.046 219 138 31
-3.2090001 11.854 -1.062 85 22 0
-3.207 11.866 -1.058 252 178 81
-3.2079999 11.861 -1.063 244 171 92
-3.207 11.875 -1.0599999 134 84 47
-3.2079999 11.875 -1.0599999 162 80 6
-3.221 11.828 -0.80299997 239 146 42
-3.1789999 11.897 -0.79400003 143 100 68
-3.1930001 11.909 -0.801 108 93 90
-3.188 11.904 -0.78899997 146 99 71
-3.1849999 11.9 -0.79100001 255 191 110
-3.177 11.897 -0.773 239 162 48
-3.1800001 11.89 -0.77999997 248 169 64
-3.2219999 11.844 -0.84500003 130 72 34
-3.2030001 11.851 -0.84899998 168 118 81
-3.223 11.829 -0.83099997 90 42 6
-3.243 11.845 -0.82700002 101 89 93
-3.2460001 11.876 -0.829 155 91 45
-3.204 11.855 -0.866 209 140 62
-3.2049999 11.856 -0.85900003 231 155 79
-3.2179999 11.839 -0.88099998 168 95 26
-3.217 11.85 -0.86799997 96 33 0
-3.2090001 11.85 -0.85900003 248 173 90
-3.227 11.842 -0.852 132 40 0
-3.22 11.84 -0.93300003 179 86 25
-3.223 11.837 -0.92400002 99 61 24
-3.2179999 11.838 -0.92400002 140 66 19
-3.214 11.836 -0.91500002 191 107 19
-3.2309999 11.838 -0.89999998 214 177 150
-3.2219999 11.824 -0.82200003 253 161 60
-3.2290001 11.912 -0.866 131 104 87
-3.2279999 11.914 -0.86299998 121 63 23
-3.223 11.914 -0.866 117 84 65
-3.204 11.856 -1.059 255 193 88
-3.2030001 11.868 -1.043 151 106 73
-3.2049999 11.873 -1.045 164 77 0
-3.2019999 11.875 -1.0549999 154 96 59
-3.2079999 11.876 -1.034 255 169 74
-3.2079999 11.876 -1.04 220 130 42
-3.2179999 11.89 -1.056 125 72 38
-3.23 11.898 -1.03 127 78 38
-3.211 11.846 -0.81099999 138 68 17
-3.2160001 11.838 -0.80299997 228 140 34
-3.2190001 11.856 -0.81 162 98 50
-3.2119999 11.855 -0.83200002 94 42 3
-3.2290001 11.857 -0.80299997 202 119 39
-3.2119999 11.835 -0.80699998 204 121 29
-3.221 11.843 -0.79900002 130 72 26
-3.2090001 11.895 -0.78399998 241 156 49
-3.201 11.906 -0.78200001 247 174 106
-3.227 11.905 -0.792 179 100 5
-3.2390001 11.903 -0.78500003 217 167 130
-3.1889999 11.901 -0.796 185 119 61
-3.237 11.907 -0.79900002 217 137 40
-3.234 11.905 -0.80199999 207 121 34
-3.24 11.886 -0.80400002 226 165 120
-3.2449999 11.886 -0.82300001 143 73 22
-3.247 11.884 -0.829 158 127 109
-3.2379999 11.902 -0.815 129 68 24
-3.2349999 11.904 -0.80900002 151 65 0
-3.23 11.902 -0.80900002 183 94 14
-3.2160001 11.903 -0.82599998 66 30 18
-3.2390001 11.902 -0.82700002 91 55 39
-3.2360001 11.898 -0.83700001 173 85 14
-3.2349999 11.898 -0.82499999 122 59 15
-3.2449999 11.898 -0.78399998 121 89 76
-3.2379999 11.857 -0.80299997 164 117 75
-3.2409999 11.839 -0.81099999 200 104 17
-3.214 11.885 -0.80800003 111 44 1
-3.217 11.863 -0.81400001 165 114 71
-3.2360001 11.834 -0.81599998 178 88 36
-3.243 11.876 -0.80500001 249 165 77
-3.224 11.841 -0.83899999 124 65 25
-3.2249999 11.837 -0.83399999 187 124 83
-3.2 11.887 -0.972 182 97 43
-3.207 11.87 -0.98900002 99 63 39
-3.2119999 11.865 -1.0369999 227 162 122
-3.2079999 11.866 -1.044 247 167 56
-3.2219999 11.863 -1.05 132 85 39
-3.2019999 11.876 -0.93699998 108 58 31
-3.194 11.879 -0.93699998 206 139 208
-3.197 11.874 -0.94300002 92 52 16
-3.224 11.883 -0.87199998 220 170 85
-3.2490001 11.896 -0.89399999 118 82 56
-3.2449999 11.908 -0.89099997 68 35 18
-3.2390001 11.901 -0.89499998 120 59 14
-3.2379999 11.908 -0.88599998 85 26 0
-3.2449999 11.894 -0.86400002 161 130 110
-3.244 11.883 -0.85699999 136 52 8
-3.2460001 11.892 -0.88 92 41 10
-3.191 11.89 -0.92000002 120 44 0
-3.187 11.878 -0.90600002 239 160 85
-3.223 11.936 -1.002 84 51 32
-3.227 11.934 -1.0089999 154 102 65
-3.2190001 11.927 -1.03 24 0 0
-3.227 11.914 -1.029 136 82 48
-3.22 11.919 -1.039 50 6 0
-3.233 11.923 -1.018 135 54 11
-3.223 11.928 -1.023 172 115 85
-3.211 11.948 -1.02 94 61 46
-3.2179999 11.983 -0.986 233 154 25
-3.2119999 11.874 -0.866 130 75 45
-3.2019999 11.879 -0.84799999 157 98 56
-3.197 11.881 -0.82800001 162 127 97
-3.191 11.9 -0.79699999 172 129 97
-3.1960001 11.902 -0.79699999 250 193 140
-3.1989999 11.91 -0.79299998 230 156 95
-3.2260001 11.873 -0.87300003 219 169 132
-3.224 11.844 -0.90399998 174 99 32
-3.227 11.859 -0.87699997 174 134 108
-3.2309999 11.876 -0.884 161 125 93
-3.233 11.861 -0.87900001 107 60 16
-3.2130001 11.903 -0.86500001 220 167 223
-3.201 11.988 -0.98799998 255 204 82
-3.1949999 11.989 -0.99400002 181 112 8
-3.198 11.911 -1.033 121 70 25
-3.201 11.915 -1.035 110 46 10
-3.184 11.93 -1.028 228 138 75
-3.244 11.905 -0.90200001 109 52 9
-3.1960001 11.917 -0.79400003 135 70 30
-3.243 11.909 -0.80599999 192 135 92
-3.2360001 11.906 -0.91799998 96 56 30
-3.23 11.907 -0.92699999 136 96 70
-3.22 11.912 -0.92000002 76 35 13
-3.2360001 11.916 -0.93900001 117 72 43
-3.217 11.914 -0.92400002 171 106 66
-3.214 11.898 -0.92400002 154 62 0
-3.198 11.9 -0.89600003 148 81 39
-3.2360001 11.905 -0.90600002 128 70 30
-3.2409999 11.911 -0.86699998 221 161 221
-3.2420001 11.905 -0.87900001 97 50 20
-3.2409999 11.911 -0.88999999 75 27 4
-3.1930001 11.912 -0.87099999 103 33 7
-3.207 11.892 -0.833 204 162 138
-3.2090001 11.893 -0.84299999 180 89 36
-3.211 11.904 -0.852 130 87 55
-3.24 11.932 -0.97799999 117 76 48
-3.2309999 11.916 -0.94199997 162 71 18
-3.2260001 11.91 -0.95099998 224 134 81
-3.24 11.917 -0.94300002 142 48 0
-3.2360001 11.906 -0.93000001 98 58 32
-3.2379999 11.902 -0.91799998 65 41 31
-3.237 11.897 -0.91600001 210 137 94
-3.2360001 11.894 -0.92199999 218 139 96
-3.207 11.978 -0.977 248 190 56
-3.204 11.9 -0.95999998 130 77 43
-3.194 11.907 -0.97500002 235 177 137
-3.1900001 11.918 -1.02 175 123 84
-3.2049999 11.919 -1.006 228 139 79
-3.1849999 11.903 -0.986 237 145 72
-3.191 11.899 -0.97799999 182 111 45
-3.243 11.91 -0.99000001 83 43 35
-3.2360001 11.906 -0.99900001 68 20 0
-3.234 11.911 -0.95300001 144 51 0
-3.243 11.922 -0.977 154 112 88
-3.2509999 11.887 -0.83200002 133 42 0
-3.2449999 11.9 -0.95700002 56 19 3
-3.2420001 11.896 -0.963 139 59 8
-3.2160001 11.855 -0.97299999 101 56 27
-3.2079999 11.869 -0.97100002 93 58 38
-3.26 11.912 -0.80299997 214 149 93
-3.2190001 11.848 -0.84299999 134 63 35
-3.227 11.843 -0.84200001 160 65 0
-3.234 11.836 -0.82300001 129 75 47
-3.2279999 11.829 -0.83099997 150 103 75
-3.2379999 11.869 -0.82800001 122 90 69
-3.2379999 11.86 -0.81099999 210 130 81
-3.234 11.855 -0.838 173 125 87
-3.2309999 11.846 -0.84799999 140 87 43
-3.217 11.848 -0.85500002 207 137 42
-3.223 11.884 -0.94199997 130 99 81
-3.2219999 11.868 -0.93800002 136 91 62
-3.2190001 11.87 -0.92500001 73 40 23
-3.2279999 11.866 -0.93900001 123 46 0
-3.2460001 11.889 -0.852 178 151 134
-3.211 11.867 -0.83399999 163 91 51
-3.2420001 11.906 -0.81 56 20 6
-3.181 11.891 -0.773 217 139 28
-3.204 11.89 -1.033 51 20 2
-3.2079999 11.885 -1.031 214 128 45
-3.207 11.884 -1.045 200 159 127
-3.2090001 11.879 -1.038 190 141 100
-3.204 11.864 -1.05 249 172 68
-3.2090001 11.882 -1.061 140 92 52
-3.207 11.895 -1.046 150 94 45
-3.2279999 11.914 -1.024 78 44 17
-3.2279999 11.902 -1.012 121 70 39
-3.2290001 11.894 -1.0089999 67 22 3
-3.223 11.937 -1.016 99 58 36
-3.2219999 11.938 -1.0039999 73 31 9
-3.21 11.855 -0.83600003 145 102 60
-3.214 11.849 -0.82800001 174 79 33
-3.214 11.865 -0.82800001 194 143 100
-3.207 11.892 -0.79500002 48 20 0
-3.2060001 11.891 -0.81199998 122 81 53
-3.2079999 11.9 -0.78500003 169 102 49
-3.221 11.901 -0.79699999 140 94 58
-3.2160001 11.896 -0.80800003 134 86 46
-3.2390001 11.9 -0.78799999 238 156 44
-3.2379999 11.908 -0.79799998 239 164 83
-3.2390001 11.91 -0.792 244 194 255
-3.2520001 11.892 -0.80599999 147 91 42
-3.2490001 11.889 -0.80800003 204 130 81
-3.2349999 11.898 -0.82200003 129 78 25
-3.2260001 11.895 -0.81800002 185 85 7
-3.233 11.9 -0.847 186 124 73
-3.237 11.906 -0.85000002 212 137 70
-3.2360001 11.898 -0.838 215 164 99
-3.244 11.906 -0.78299999 246 159 43
-3.2379999 11.857 -0.80800003 187 131 80
-3.2190001 11.871 -0.81999999 135 107 68
-3.234 11.835 -0.81999999 114 46 0
-3.2360001 11.839 -0.82700002 202 112 59
-3.237 11.866 -0.81199998 181 118 64
-3.244 11.877 -0.83700001 208 109 42
-3.243 11.875 -0.83200002 177 121 84
-3.207 11.873 -0.99299997 151 102 70
-3.2119999 11.876 -0.99699998 106 53 19
-3.188 11.886 -1.0039999 73 37 15
-3.214 11.869 -0.926 124 78 52
-3.207 11.885 -0.93699998 63 31 16
-3.214 11.869 -0.92699999 121 68 34
-3.2479999 11.898 -0.89899999 128 75 35
-3.247 11.896 -0.88200003 218 152 216
-3.2279999 11.881 -0.87900001 163 87 12
-3.233 11.904 -0.88 72 28 3
-3.2309999 11.869 -0.86900002 96 33 0
-3.2320001 11.882 -0.86699998 81 40 10
-3.23 11.873 -0.86799997 89 53 21
-3.188 11.894 -0.98299998 194 116 54
-3.201 11.888 -0.96499997 159 72 18
-3.194 11.89 -0.93300003 132 92 66
-3.197 11.883 -0.92299998 215 150 214
-3.1930001 11.891 -0.93400002 124 46 0
-3.194 11.892 -0.92000002 170 88 32
-3.2190001 11.895 -0.92500001 179 86 19
-3.2219999 11.896 -0.92400002 182 87 19
-3.2130001 11.897 -0.92500001 162 74 3
-3.204 11.891 -0.91399997 193 107 48
-3.21 11.85 -0.92400002 82 32 5
-3.201 11.879 -0.917 141 92 62
-3.224 11.935 -1.022 75 46 40
-3.207 11.894 -0.81300002 255 170 98
-3.2 11.888 -0.82599998 245 150 68
-3.233 11.861 -0.86000001 106 32 0
-3.2320001 11.853 -0.86299998 146 98 52
-3.243 11.876 -0.85299999 77 29 0
-3.2349999 11.892 -0.917 38 15 9
-3.2279999 11.851 -0.92699999 137 100 74
-3.2320001 11.895 -0.92500001 128 91 64
-3.2279999 11.845 -0.926 190 123 78
-3.2279999 11.844 -0.91900003 196 129 87
-3.233 11.84 -0.90600002 205 145 108
-3.2179999 11.863 -0.92400002 193 137 88
-3.2190001 11.851 -0.91900003 114 81 62
-3.2290001 11.855 -0.90399998 131 87 60
-3.2309999 11.852 -0.90700001 149 90 50
-3.2290001 11.844 -0.90200001 173 100 6
-3.211 11.892 -0.86500001 155 106 73
-3.1919999 11.993 -1.012 60 22 13
-3.198 11.894 -0.91100001 192 138 102
-3.197 11.887 -0.90399998 108 65 33
-3.194 11.891 -0.89499998 111 66 35
-3.2119999 11.936 -1.031 111 58 26
-3.1830001 11.944 -1.031 225 132 62
-3.1900001 11.944 -1.034 196 144 105
-3.1919999 11.95 -1.0369999 167 92 37
-3.1930001 11.902 -0.89099997 129 84 51
-3.197 11.899 -0.89899999 153 118 90
-3.198 11.897 -0.86000001 230 144 71
-3.2079999 11.9 -0.86699998 154 107 61
-3.1960001 11.897 -0.93900001 179 107 69
-3.1919999 11.89 -0.94199997 125 49 0
-3.2219999 11.909 -0.94800001 53 23 12
-3.214 11.901 -0.94199997 149 100 68
-3.1919999 11.89 -0.949 115 39 0
-3.1960001 11.893 -0.97399998 228 169 135
-3.197 11.883 -0.949 153 82 40
-3.2019999 11.889 -0.958 176 89 35
-3.234 11.899 -0.99400002 76 37 6
-3.221 11.906 -0.95599997 251 163 100
-3.2309999 11.875 -1.0039999 164 72 9
-3.2309999 11.876 -0.99800003 174 85 27
-3.2420001 11.902 -0.94999999 117 67 40
-3.234 11.895 -0.96700001 115 38 0
-3.2349999 11.878 -0.97000003 163 101 52
-3.237 11.884 -0.95499998 218 138 209
-3.24 11.901 -0.94599998 230 140 62
-3.237 11.88 -0.98400003 189 115 66
-3.22 11.858 -0.95599997 147 56 1
-3.2190001 11.854 -0.94199997 94 61 42
-3.217 11.917 -0.986 215 131 67
-3.1930001 11.9 -0.99400002 235 142 75
-3.204 11.91 -1.011 115 46 5
-3.2539999 11.907 -0.80699998 175 138 109
-3.22 11.825 -0.81400001 162 125 98
-3.211 11.85 -0.861 83 56 45
-3.221 11.847 -0.86400002 114 67 37
-3.207 11.857 -0.852 186 102 40
-3.2090001 11.862 -0.85100001 193 116 44
-3.233 11.858 -0.84799999 116 73 39
-3.2219999 11.845 -0.852 128 79 47
-3.23 11.849 -0.85600001 149 130 116
-3.2260001 11.841 -0.93099999 211 141 92
-3.2160001 11.896 -0.85399997 188 136 97
-3.2409999 11.885 -0.86199999 121 43 4
-3.2260001 11.892 -0.83600003 154 105 65
-3.2019999 11.925 -1.036 127 49 1
-3.1960001 11.919 -1.029 123 59 21
-3.2219999 11.906 -1.038 49 7 0
-3.2030001 11.899 -1.025 90 12 0
-3.2060001 11.913 -1 149 68 13
-3.21 11.929 -1.0039999 203 130 75
-3.2049999 11.882 -1.0599999 144 58 0
-3.21 11.882 -1.061 208 140 77
-3.2079999 11.879 -1.043 146 101 60
-3.227 11.905 -1.02 84 22 0
-3.2420001 11.909 -0.98799998 48 8 0
-3.214 11.95 -1.0190001 223 173 234
-3.2019999 11.89 -0.79000002 204 113 22
-3.2290001 11.901 -0.79400003 222 134 36
-3.2509999 11.883 -0.83600003 114 61 21
-3.25 11.899 -0.80699998 204 149 216
-3.243 11.907 -0.85600001 162 94 47
-3.2590001 11.913 -0.792 228 156 72
-3.25 11.907 -0.79400003 115 41 2
-3.234 11.858 -0.80400002 238 183 251
-3.227 11.836 -0.83200002 204 124 75
-3.221 11.878 -0.815 250 226 188
-3.2379999 11.849 -0.82300001 176 84 0
-3.2290001 11.871 -1.05 64 19 0
-3.224 11.87 -1.0470001 249 170 49
-3.2249999 11.875 -1.043 140 96 51
-3.2 11.891 -0.97899997 143 61 5
-3.244 11.897 -0.87599999 174 138 112
-3.2320001 11.865 -0.85900003 105 47 7
-3.2290001 11.882 -0.87300003 217 143 54
-3.194 11.892 -0.92699999 112 31 0
-3.2320001 11.895 -0.92699999 77 57 48
-3.2119999 11.842 -0.921 236 150 73
-3.2079999 11.854 -0.926 111 55 18
-3.2079999 11.854 -0.92500001 102 69 50
-3.2119999 11.897 -0.81099999 193 100 31
-3.2090001 11.896 -0.81199998 65 19 0
-3.2 11.888 -0.81800002 175 135 100
-3.2279999 11.85 -0.93599999 185 98 21
-3.2290001 11.848 -0.93900001 215 139 87
-3.2309999 11.853 -0.94300002 161 67 3
-3.2279999 11.848 -0.93400002 165 94 42
-3.2260001 11.863 -0.93800002 109 69 33
-3.2119999 11.862 -0.926 118 73 42
-3.227 11.849 -0.87699997 148 114 87
-3.2019999 11.895 -0.926 207 139 100
-3.22 11.914 -1.0420001 147 93 59
-3.1960001 11.951 -1.033 202 160 210
-3.191 11.93 -1.029 196 110 51
-3.1949999 11.933 -1.0190001 132 65 22
-3.197 11.915 -0.792 138 95 60
-3.1949999 11.894 -0.86500001 211 129 56
-3.2090001 11.901 -0.85600001 218 133 66
-3.227 11.912 -0.94599998 142 52 2
-3.223 11.911 -0.93099999 91 47 18
-3.201 11.895 -0.97000003 112 46 20
-3.23 11.887 -0.94800001 127 76 31
-3.233 11.905 -0.98799998 56 14 0
-3.2390001 11.9 -0.93800002 135 89 63
-3.243 11.906 -0.94800001 85 47 28
-3.2309999 11.867 -0.94700003 126 77 44
-3.234 11.881 -0.96200001 141 99 57
-3.2279999 11.875 -0.963 100 55 22
-3.2309999 11.867 -0.977 75 34 2
-3.21 11.865 -0.95200002 95 60 40
-3.214 11.937 -1 175 112 77
-3.2279999 11.908 -0.97600001 196 135 107
-3.2219999 11.903 -0.96899998 114 67 37
-3.234 11.912 -0.98799998 98 52 26
-3.234 11.902 -0.99699998 54 16 5
-3.234 11.907 -1 34 3 0
-3.2550001 11.908 -0.801 190 141 111
-3.21 11.864 -0.84399998 250 160 82
-3.2349999 11.861 -0.852 139 119 108
-3.223 11.844 -0.85399997 106 56 21
-3.223 11.845 -0.85600001 98 28 0
-3.2079999 11.84 -0.92400002 233 143 80
-3.224 11.891 -0.83700001 113 56 27
-3.233 11.895 -0.838 207 109 20
-3.2030001 11.917 -1.013 143 61 14
-3.224 11.932 -1.021 58 24 14
-3.214 11.926 -1 220 127 60
-3.2349999 11.898 -0.79500002 255 180 74
-3.2509999 11.88 -0.83600003 97 45 0
-3.2509999 11.902 -0.80699998 81 49 26
-3.2420001 11.906 -0.84500003 68 35 18
-3.2360001 11.863 -0.84600002 146 124 111
-3.2149999 11.878 -1.028 229 141 78
-3.221 11.876 -1.01 187 96 39
-3.2160001 11.882 -1.01 133 49 5
-3.2130001 11.881 -1.025 182 95 15
-3.211 11.879 -1.03 249 166 74
-3.2279999 11.889 -1.026 58 18 6
-3.2290001 11.895 -1.02 95 56 25
-3.2279999 11.889 -1.023 194 101 34
-3.243 11.906 -0.87 91 37 9
-3.2030001 11.887 -0.958 167 109 71
-3.2090001 11.877 -0.95700002 204 113 40
-3.2079999 11.878 -0.95599997 197 154 122
-3.234 11.895 -0.926 184 144 118
-3.2149999 11.9 -0.81900001 189 150 93
-3.2030001 11.895 -0.82099998 208 121 42
-3.2079999 11.867 -0.85399997 141 52 0
-3.2079999 11.861 -0.85600001 234 159 66
-3.224 11.846 -0.90700001 185 113 31
-3.227 11.843 -0.912 194 132 95
-3.211 11.864 -0.94199997 229 142 73
-3.2130001 11.859 -0.93699998 97 52 23
-3.223 11.85 -0.92000002 136 63 22
-3.2290001 11.855 -0.87599999 126 95 75
-3.221 11.851 -0.87800002 48 20 8
-3.224 11.842 -0.86699998 89 26 0
-3.198 11.911 -0.78600001 169 123 99
-3.198 11.932 -1.034 132 80 33
-3.2060001 11.919 -1.043 131 57 10
-3.1919999 11.93 -1.024 151 84 41
-3.1930001 11.921 -1.021 137 51 0
-3.217 11.901 -0.93099999 159 69 7
-3.2249999 11.908 -0.94099998 168 80 17
-3.1960001 11.895 -0.94499999 202 162 136
-3.204 11.9 -0.95899999 128 50 1
-3.201 11.885 -1.006 125 46 13
-3.2160001 11.903 -0.96600002 122 69 38
-3.2249999 11.862 -0.98000002 192 105 38
-3.217 11.861 -0.972 89 33 0
-3.227 11.864 -0.963 50 22 11
-3.2349999 11.91 -0.97600001 136 90 64
-3.227 11.905 -0.96899998 183 123 87
-3.2260001 11.91 -0.98900002 90 52 16
-3.234 11.922 -1.011 59 29 21
-3.2149999 11.867 -0.98400003 93 39 5
-3.2249999 11.875 -1.0039999 143 84 52
-3.253 11.909 -0.80699998 167 106 61
-3.2119999 11.843 -0.93199998 135 44 0
-3.244 11.908 -0.80199999 185 159 102
-3.2060001 11.921 -1.007 114 41 0
-3.2079999 11.927 -1.0089999 118 58 24
-3.221 11.882 -1.03 91 38 0
-3.217 11.87 -1.041 251 165 62
-3.2320001 11.877 -1.01 245 152 91
-3.224 11.877 -1.0089999 211 117 56
-3.2490001 11.896 -0.85500002 107 72 44
-3.244 11.901 -0.85900003 107 48 16
-3.2349999 11.867 -0.83600003 235 187 121
-3.2 11.891 -0.92699999 200 114 53
-3.201 11.875 -0.94 118 58 21
-3.2049999 11.865 -0.94800001 254 170 82
-3.2320001 11.855 -0.833 142 83 51
-3.2219999 11.839 -0.90899998 106 67 34
-3.2249999 11.846 -0.90499997 94 59 40
-3.223 11.85 -0.88700002 94 65 51
-3.224 11.842 -0.87900001 76 20 0
-3.2249999 11.839 -0.86699998 136 107 89
-3.2030001 11.933 -1.034 97 54 20
-3.207 11.929 -1.0369999 105 36 0
-3.194 11.94 -1.02 131 61 12
-3.1989999 11.935 -1.018 174 92 36
-3.204 11.935 -1.015 100 39 0
-3.204 11.891 -0.85600001 195 107 36
-3.227 11.867 -0.98400003 188 139 109
-3.2309999 11.869 -0.97799999 93 47 21
-3.211 11.87 -0.95599997 174 108 60
-3.233 11.868 -0.97399998 172 85 14
-3.2290001 11.857 -0.963 138 94 59
-3.211 11.86 -0.97799999 226 133 72
-3.21 11.868 -0.97799999 195 102 43
-3.2049999 11.865 -1.0549999 207 137 41
-3.243 11.907 -0.80900002 159 88 36
-3.2290001 11.857 -0.954 95 50 17
-3.2179999 11.878 -1.031 218 129 35
-3.221 11.881 -1.026 207 118 34
-3.2179999 11.874 -1.038 110 60 25
-3.2449999 11.9 -0.85500002 132 76 39
-3.2090001 11.885 -1.022 144 120 94
-3.2420001 11.904 -0.86699998 98 45 11
-3.2349999 11.867 -0.85399997 213 165 93
-3.23 11.876 -0.95200002 159 78 23
-3.2290001 11.847 -0.86199999 140 117 103
-3.207 11.943 -1.021 125 67 29
-3.2360001 11.905 -0.972 73 37 23
-3.217 11.88 -1.026 125 83 45
-3.2320001 11.859 -0.83399999 186 87 19
-3.2119999 11.924 -1.035 110 78 63
-3.2249999 11.919 -1.0039999 114 76 63
0 0 0 1 0 0 0 1 0 0 0 1 0 0 0 0 0 821 1 0 0
