ply
format ascii 1.0
comment PCL generated
element vertex 978
property float x
property float y
property float z
property uchar red
property uchar green
property uchar blue
element camera 1
property float view_px
property float view_py
property float view_pz
property float x_axisx
property float x_axisy
property float x_axisz
property float y_axisx
property float y_axisy
property float y_axisz
property float z_axisx
property float z_axisy
property float z_axisz
property float focal
property float scalex
property float scaley
property float centerx
property float centery
property int viewportx
property int viewporty
property float k1
property float k2
end_header
4.2919998 8.5159998 -0.76300001 55 34 33
4.289 8.5019999 -0.76300001 25 0 0
4.29 8.5100002 -0.77100003 84 60 60
4.2800002 8.434 -0.59200001 178 98 39
4.2989998 8.427 -0.58600003 81 58 50
4.2989998 8.4350004 -0.58600003 69 43 28
4.3850002 8.5310001 -0.89300001 39 20 13
4.3779998 8.526 -0.89399999 127 70 50
4.3800001 8.5229998 -0.90799999 25 14 10
4.3800001 8.5229998 -0.89999998 31 17 16
4.3829999 8.5209999 -0.90399998 31 19 19
4.382 8.5100002 -0.72399998 250 248 236
4.369 8.5100002 -0.708 51 20 2
4.3720002 8.5209999 -0.71799999 65 58 65
4.3829999 8.5299997 -0.88700002 44 14 6
4.362 8.526 -0.89099997 70 52 50
4.3610001 8.5290003 -0.87599999 74 64 52
4.3559999 8.4980001 -0.91600001 43 10 5
4.355 8.5019999 -0.91600001 113 73 37
4.3470001 8.4989996 -0.92000002 36 8 4
4.3709998 8.493 -0.90399998 94 57 38
4.27 8.4549999 -0.61400002 139 96 89
4.2820001 8.4589996 -0.60500002 65 24 2
4.2729998 8.4549999 -0.59799999 56 38 34
4.3060002 8.4119997 -0.64600003 64 35 27
4.2969999 8.4110003 -0.65399998 61 31 7
4.303 8.4090004 -0.639 118 82 56
4.2919998 8.5109997 -0.75199997 118 98 87
4.29 8.4460001 -0.58899999 41 3 0
4.3940001 8.507 -0.72299999 138 54 18
4.3940001 8.5109997 -0.74000001 62 34 13
4.3860002 8.5139999 -0.72899997 98 56 40
4.3800001 8.5179996 -0.72600001 58 28 20
4.3860002 8.5159998 -0.74900001 76 43 26
4.3930001 8.5019999 -0.71600002 50 20 10
4.3969998 8.5039997 -0.74199998 51 24 17
4.3930001 8.507 -0.72799999 58 29 13
4.3060002 8.4519997 -0.59100002 72 38 11
4.3070002 8.434 -0.58999997 60 11 0
4.3039999 8.4619999 -0.58899999 61 20 2
4.3439999 8.4899998 -0.68099999 97 37 1
4.3499999 8.4840002 -0.68199998 101 52 20
4.3400002 8.4899998 -0.67900002 74 46 34
4.3070002 8.4630003 -0.59600002 99 71 50
4.2969999 8.4799995 -0.67000002 63 32 12
4.29 8.4689999 -0.67500001 98 57 37
4.296 8.4829998 -0.67699999 78 63 42
4.3109999 8.493 -0.68000001 114 95 89
4.3109999 8.4840002 -0.671 60 32 21
4.2979999 8.4259996 -0.59100002 79 59 52
4.3629999 8.5249996 -0.89099997 173 163 162
4.3579998 8.5209999 -0.88800001 56 11 0
4.3590002 8.5240002 -0.88800001 42 7 1
4.3559999 8.5240002 -0.88200003 46 18 6
4.3699999 8.5249996 -0.875 40 13 4
4.3649998 8.5209999 -0.86400002 35 10 6
4.3010001 8.4589996 -0.61199999 84 62 49
4.2909999 8.4689999 -0.60900003 134 80 36
4.322 8.4829998 -0.912 115 71 32
4.3239999 8.4770002 -0.91600001 66 24 10
4.3179998 8.4750004 -0.921 134 90 53
4.3340001 8.4940004 -0.912 61 23 10
4.2740002 8.4530001 -0.60699999 137 90 70
4.2680001 8.4490004 -0.60500002 77 33 22
4.2589998 8.4300003 -0.59500003 165 86 43
4.263 8.434 -0.616 68 21 5
4.2880001 8.4209995 -0.62400001 159 110 80
4.2779999 8.4250002 -0.60699999 85 25 0
4.2919998 8.4200001 -0.62300003 122 96 81
4.2930002 8.4160004 -0.62800002 92 51 21
4.2839999 8.4219999 -0.625 134 109 102
4.3150001 8.4659996 -0.91900003 31 3 0
4.3319998 8.467 -0.912 24 13 17
4.3369999 8.4460001 -0.71600002 49 17 6
4.342 8.448 -0.71100003 55 28 21
4.355 8.4510002 -0.71399999 14 2 2
4.3010001 8.4130001 -0.653 26 17 20
4.3010001 8.4139996 -0.62900001 107 74 55
4.2919998 8.4119997 -0.63499999 63 30 21
4.2940001 8.415 -0.63099998 59 36 22
4.3010001 8.4090004 -0.63700002 115 77 58
4.289 8.4180002 -0.62900001 44 10 0
4.2729998 8.441 -0.59399998 120 81 52
4.276 8.4530001 -0.59100002 111 43 6
4.2589998 8.4300003 -0.58700001 155 88 46
4.3379998 8.4890003 -0.68800002 149 81 32
4.3210001 8.4849997 -0.67900002 149 83 33
4.3189998 8.4849997 -0.68699998 50 22 11
4.2940001 8.5159998 -0.75599998 46 27 23
4.2930002 8.5120001 -0.75700003 17 2 0
4.2940001 8.4809999 -0.68099999 130 101 85
4.2880001 8.4689999 -0.68300003 97 60 44
4.3169999 8.4910002 -0.69700003 61 28 11
4.2940001 8.4350004 -0.58899999 93 53 28
4.2740002 8.441 -0.59200001 157 100 55
4.2820001 8.4530001 -0.59600002 146 70 34
4.3169999 8.4870005 -0.67699999 45 25 16
4.3109999 8.4160004 -0.63 95 66 50
4.3049998 8.4110003 -0.634 128 108 101
4.2779999 8.434 -0.62199998 92 50 25
4.2659998 8.4379997 -0.61799997 80 40 14
4.2839999 8.4280005 -0.64099997 41 23 23
4.3709998 8.5249996 -0.88599998 187 178 181
4.3829999 8.5190001 -0.89399999 18 7 11
4.375 8.4969997 -0.89999998 61 26 7
4.3769999 8.493 -0.90100002 24 14 15
4.362 8.5039997 -0.88800001 26 2 0
4.3759999 8.5039997 -0.71700001 127 122 128
4.3829999 8.5 -0.71799999 28 13 10
4.3769999 8.4989996 -0.76099998 54 20 8
4.3870001 8.4969997 -0.75700003 109 69 44
4.3870001 8.5050001 -0.75400001 156 130 113
4.3839998 8.5080004 -0.75199997 250 222 201
4.3649998 8.5120001 -0.76599997 81 69 53
4.3769999 8.5 -0.75800002 79 46 31
4.3119998 8.5220003 -0.88200003 26 5 2
4.3080001 8.5179996 -0.87199998 124 96 82
4.309 8.5220003 -0.88200003 28 8 7
4.3600001 8.5129995 -0.88700002 90 54 22
4.342 8.4840002 -0.68000001 148 120 108
4.3319998 8.4879999 -0.91100001 81 38 21
4.3740001 8.474 -0.90600002 20 9 7
4.3600001 8.4619999 -0.91100001 80 68 68
4.3720002 8.4659996 -0.90700001 22 10 10
4.349 8.4580002 -0.903 78 41 15
4.3390002 8.4650002 -0.90700001 76 32 7
4.349 8.4580002 -0.90899998 89 48 18
4.3499999 8.4639997 -0.90399998 77 36 18
4.3559999 8.5080004 -0.773 76 49 30
4.362 8.5059996 -0.773 52 26 11
4.3239999 8.5410004 -0.78899997 134 115 111
4.3319998 8.5469999 -0.79100001 42 5 0
4.3309999 8.5469999 -0.787 34 1 0
4.3460002 8.507 -0.81800002 52 26 27
4.3470001 8.5129995 -0.829 30 2 0
4.3369999 8.5109997 -0.82300001 40 7 0
4.2950001 8.5150003 -0.77100003 87 67 66
4.2859998 8.4619999 -0.60500002 78 54 50
4.2690001 8.4289999 -0.60799998 179 133 110
4.2610002 8.4280005 -0.59299999 102 65 46
4.302 8.4350004 -0.69400001 82 51 46
4.289 8.4250002 -0.70099998 103 82 77
4.29 8.4320002 -0.70499998 86 53 46
4.323 8.4530001 -0.91100001 168 142 127
4.323 8.4709997 -0.89600003 74 46 32
4.3600001 8.4580002 -0.903 15 5 6
4.3439999 8.4519997 -0.89300001 132 68 43
4.3210001 8.4820004 -0.91000003 57 33 23
4.27 8.4499998 -0.61299998 41 18 4
4.2690001 8.441 -0.61400002 68 17 0
4.3559999 8.5050001 -0.792 47 28 22
4.3670001 8.5039997 -0.70499998 45 16 2
4.2930002 8.474 -0.69199997 33 4 0
4.289 8.4619999 -0.68800002 121 95 68
4.3000002 8.5179996 -0.75400001 38 14 10
4.3010001 8.4300003 -0.597 68 47 42
4.2870002 8.4390001 -0.59100002 202 173 159
4.2909999 8.4350004 -0.59100002 78 51 34
4.289 8.4519997 -0.59399998 67 26 6
4.369 8.5200005 -0.72299999 36 15 14
4.368 8.5170002 -0.73000002 127 110 94
4.3460002 8.5279999 -0.71799999 136 107 99
4.3439999 8.5240002 -0.72299999 116 62 38
4.3889999 8.5019999 -0.71899998 109 77 62
4.322 8.4809999 -0.67699999 47 23 11
4.2880001 8.4530001 -0.61400002 52 8 0
4.296 8.4659996 -0.66900003 59 37 23
4.2870002 8.4399996 -0.62800002 139 120 106
4.2909999 8.4549999 -0.67000002 119 74 51
4.309 8.4490004 -0.60000002 84 56 34
4.302 8.4580002 -0.60399997 75 45 19
4.3530002 8.4510002 -0.71200001 60 35 28
4.335 8.4540005 -0.70300001 65 17 0
4.2859998 8.4219999 -0.63800001 88 44 45
4.349 8.5220003 -0.86500001 42 1 0
4.3410001 8.526 -0.85399997 161 128 109
4.3410001 8.5240002 -0.861 42 15 6
4.3639998 8.526 -0.88200003 28 5 0
4.3670001 8.526 -0.87599999 26 2 0
4.369 8.5200005 -0.87099999 33 9 5
4.3730001 8.5100002 -0.88300002 144 80 45
4.3740001 8.4940004 -0.89499998 37 26 24
4.3839998 8.4969997 -0.75 58 20 7
4.3860002 8.4989996 -0.74900001 169 142 125
4.3379998 8.5200005 -0.713 149 85 50
4.3330002 8.5290003 -0.72100002 54 24 16
4.3239999 8.5159998 -0.71499997 160 132 121
4.3319998 8.526 -0.72000003 37 18 12
4.329 8.5200005 -0.71899998 103 64 33
4.3899999 8.507 -0.74900001 50 25 18
4.3889999 8.5010004 -0.745 39 25 22
4.3790002 8.5209999 -0.884 142 82 56
4.3759999 8.4989996 -0.87099999 58 43 48
4.3730001 8.5100002 -0.87400001 169 102 57
4.388 8.4919996 -0.83700001 41 31 30
4.3889999 8.5039997 -0.82200003 91 64 45
4.3889999 8.5 -0.84500003 155 114 86
4.3390002 8.5120001 -0.82599998 51 8 1
4.3400002 8.5159998 -0.83600003 103 73 49
4.3460002 8.5129995 -0.79500002 48 12 0
4.3720002 8.5139999 -0.80599999 106 78 54
4.3709998 8.507 -0.80299997 38 4 0
4.3610001 8.4589996 -0.903 119 77 55
4.335 8.4709997 -0.912 82 40 18
4.3379998 8.4709997 -0.90700001 59 13 0
4.3330002 8.4639997 -0.89499998 46 23 7
4.3319998 8.4759998 -0.89099997 116 90 77
4.3670001 8.4680004 -0.90499997 16 6 5
4.3379998 8.4910002 -0.90200001 26 17 20
4.3410001 8.493 -0.90100002 73 28 7
4.3470001 8.4849997 -0.89600003 73 44 40
4.316 8.4729996 -0.91399997 139 121 111
4.3210001 8.4779997 -0.89700001 87 42 19
4.3260002 8.5240002 -0.852 31 2 0
4.3260002 8.5129995 -0.84100002 81 58 44
4.3189998 8.5139999 -0.84500003 45 26 19
4.323 8.5220003 -0.85500002 47 30 23
4.3369999 8.5469999 -0.796 83 41 17
4.381 8.5019999 -0.79799998 109 87 76
4.382 8.5100002 -0.81199998 40 27 34
4.3670001 8.493 -0.79000002 27 16 20
4.3639998 8.4919996 -0.77700001 109 91 87
4.3559999 8.5120001 -0.764 51 28 22
4.3390002 8.5450001 -0.79400003 23 2 0
4.2930002 8.4510002 -0.81900001 39 30 21
4.2940001 8.4490004 -0.81699997 151 123 101
4.3039999 8.4560003 -0.82200003 14 0 0
4.2940001 8.4420004 -0.81300002 143 101 77
4.2880001 8.4420004 -0.81 178 135 116
4.302 8.441 -0.79799998 239 201 164
4.2909999 8.4390001 -0.78899997 63 35 23
4.3130002 8.5120001 -0.86400002 30 17 11
4.3140001 8.5019999 -0.85299999 157 139 129
4.2989998 8.5229998 -0.76599997 52 15 0
4.2950001 8.4379997 -0.64399999 133 107 92
4.2950001 8.4469995 -0.63999999 45 9 0
4.2930002 8.4350004 -0.64099997 63 35 21
4.3010001 8.4619999 -0.59799999 71 48 34
4.2740002 8.4259996 -0.59500003 108 67 35
4.2820001 8.4259996 -0.61500001 120 84 52
4.3099999 8.4209995 -0.648 79 52 35
4.3039999 8.4250002 -0.66100001 119 60 20
4.302 8.4530001 -0.72399998 77 41 27
4.3109999 8.4540005 -0.73000002 110 74 62
4.3010001 8.448 -0.71700001 81 42 25
4.296 8.4569998 -0.71799999 67 37 27
4.2969999 8.46 -0.722 77 47 37
4.2989998 8.46 -0.72500002 71 45 32
4.2849998 8.4119997 -0.65200001 114 92 68
4.2849998 8.415 -0.64499998 136 121 118
4.2810001 8.4219999 -0.65499997 72 37 18
4.368 8.4530001 -0.71499997 64 41 27
4.3670001 8.474 -0.70499998 67 29 8
4.375 8.4580002 -0.71700001 134 84 59
4.3049998 8.4490004 -0.78500003 150 141 142
4.3070002 8.4440002 -0.71100003 109 94 91
4.29 8.4350004 -0.70899999 54 19 13
4.3639998 8.4610004 -0.72299999 57 13 0
4.362 8.4619999 -0.72399998 63 18 0
4.348 8.4540005 -0.71799999 40 15 10
4.3249998 8.4610004 -0.91100001 47 35 39
4.322 8.4680004 -0.91399997 62 35 26
4.283 8.4440002 -0.81699997 56 27 13
4.2859998 8.4429998 -0.81 160 122 109
4.2839999 8.4530001 -0.81800002 86 39 13
4.3579998 8.5 -0.79400003 247 245 232
4.3629999 8.5030003 -0.81599998 37 10 1
4.3730001 8.5080004 -0.83700001 24 6 4
4.3559999 8.5050001 -0.82300001 46 8 0
4.3740001 8.5010004 -0.83099997 152 124 112
4.3759999 8.5150003 -0.83600003 53 17 5
4.3410001 8.4890003 -0.69700003 112 44 0
4.336 8.4849997 -0.68599999 67 39 25
4.3379998 8.4809999 -0.70499998 75 46 28
4.3909998 8.4940004 -0.72299999 150 116 104
4.3720002 8.4770002 -0.70999998 81 58 44
4.369 8.4829998 -0.70899999 26 15 13
4.2950001 8.4799995 -0.68900001 64 52 30
4.3000002 8.4799995 -0.70099998 110 83 66
4.3189998 8.4989996 -0.70700002 82 46 20
4.323 8.507 -0.71499997 123 97 84
4.316 8.4870005 -0.71700001 54 35 18
4.3060002 8.4829998 -0.69599998 80 44 22
4.3249998 8.4949999 -0.72100002 105 68 50
4.3060002 8.5109997 -0.75099999 44 25 19
4.2979999 8.5080004 -0.75300002 47 27 20
4.3270001 8.5010004 -0.73100001 54 14 2
4.3280001 8.5089998 -0.72299999 73 40 23
4.2950001 8.4460001 -0.59100002 103 37 2
4.3779998 8.507 -0.75099999 99 64 44
4.3060002 8.4849997 -0.67699999 71 35 9
4.3060002 8.4840002 -0.676 42 18 6
4.302 8.4799995 -0.671 254 251 242
4.289 8.4490004 -0.61799997 61 19 5
4.289 8.4379997 -0.63099998 43 17 4
4.2779999 8.441 -0.62 71 28 9
4.2919998 8.4619999 -0.67500001 140 102 79
4.3109999 8.4209995 -0.64200002 34 14 16
4.316 8.434 -0.65700001 115 97 87
4.3769999 8.4659996 -0.71600002 145 91 65
4.3039999 8.4359999 -0.60399997 83 50 19
4.3150001 8.4440002 -0.65600002 110 61 28
4.309 8.434 -0.64300001 59 31 19
4.3080001 8.441 -0.64099997 80 58 45
4.3109999 8.4329996 -0.639 134 84 49
4.2870002 8.441 -0.68300003 44 10 0
4.2909999 8.4399996 -0.69199997 48 23 16
4.2940001 8.415 -0.64300001 162 144 140
4.303 8.4429998 -0.65799999 255 255 243
4.303 8.4499998 -0.66500002 36 18 6
4.355 8.5220003 -0.87599999 50 24 7
4.3639998 8.5249996 -0.88599998 45 6 0
4.375 8.4910002 -0.88800001 33 13 6
4.3889999 8.4980001 -0.736 145 105 80
4.3769999 8.493 -0.71499997 44 12 0
4.3460002 8.5170002 -0.73000002 46 8 0
4.3530002 8.5129995 -0.71700001 122 39 0
4.369 8.5139999 -0.71700001 95 21 0
4.3470001 8.526 -0.71700001 56 24 13
4.3429999 8.5170002 -0.71200001 130 80 45
4.3189998 8.5279999 -0.75800002 55 19 7
4.3210001 8.5109997 -0.84100002 191 167 155
4.3340001 8.5469999 -0.77899998 42 11 6
4.3400002 8.5439997 -0.79299998 104 62 40
4.3200002 8.5179996 -0.74900001 37 8 0
4.3270001 8.5240002 -0.75199997 40 2 0
4.375 8.4870005 -0.76300001 70 42 31
4.3759999 8.4910002 -0.75999999 42 30 32
4.368 8.5220003 -0.89099997 178 168 167
4.3730001 8.5150003 -0.87800002 24 5 0
4.3740001 8.5200005 -0.87400001 146 145 151
4.3439999 8.5209999 -0.87099999 40 0 0
4.3169999 8.5159998 -0.875 224 180 155
4.3870001 8.507 -0.81099999 109 86 78
4.3870001 8.507 -0.85699999 169 136 119
4.3850002 8.4910002 -0.85699999 145 91 55
4.3590002 8.5050001 -0.88700002 157 144 138
4.362 8.4630003 -0.90700001 53 41 45
4.2969999 8.4250002 -0.602 107 88 82
4.296 8.427 -0.61000001 72 46 29
4.3109999 8.5200005 -0.884 28 4 2
4.3080001 8.5179996 -0.87300003 21 7 6
4.3239999 8.4849997 -0.88599998 23 17 21
4.3070002 8.4860001 -0.889 113 107 111
4.323 8.4870005 -0.90499997 57 31 18
4.3449998 8.4589996 -0.889 52 25 6
4.3530002 8.4580002 -0.89999998 106 101 107
4.3610001 8.4560003 -0.89300001 117 55 32
4.349 8.4540005 -0.889 131 108 92
4.355 8.4910002 -0.89700001 54 35 31
4.3210001 8.4779997 -0.903 90 44 21
4.3319998 8.5240002 -0.86500001 29 17 17
4.322 8.5200005 -0.88099998 95 48 22
4.3540001 8.5159998 -0.74900001 37 9 5
4.342 8.5279999 -0.75300002 44 11 2
4.3280001 8.5360003 -0.78399998 51 23 22
4.3169999 8.5279999 -0.78899997 94 74 67
4.3299999 8.5120001 -0.792 34 9 2
4.3189998 8.5 -0.80000001 36 0 0
4.322 8.5 -0.80400002 38 0 0
4.322 8.5039997 -0.80000001 35 0 0
4.3379998 8.5100002 -0.796 28 17 15
4.3369999 8.5120001 -0.79299998 28 10 0
4.289 8.5030003 -0.76700002 32 16 16
4.2969999 8.4510002 -0.815 127 101 86
4.3010001 8.4519997 -0.81 76 28 8
4.2859998 8.441 -0.81599998 83 52 34
4.3460002 8.4580002 -0.88300002 53 13 3
4.3130002 8.5139999 -0.86799997 18 3 0
4.3109999 8.5039997 -0.86400002 115 91 79
4.3390002 8.5129995 -0.83099997 33 2 0
4.322 8.5150003 -0.84600002 81 54 33
4.3189998 8.5109997 -0.847 35 16 10
4.2940001 8.4940004 -0.778 84 58 57
4.3010001 8.5080004 -0.78899997 15 5 4
4.2969999 8.5010004 -0.77600002 82 63 56
4.3000002 8.5019999 -0.77999997 27 10 3
4.296 8.5039997 -0.77399999 35 14 11
4.296 8.5170002 -0.76099998 63 43 44
4.2820001 8.4530001 -0.61000001 51 13 4
4.289 8.46 -0.60799998 90 71 65
4.2969999 8.4259996 -0.61400002 102 85 29
4.3000002 8.4239998 -0.63 99 58 40
4.2820001 8.4300003 -0.59299999 65 17 0
4.2659998 8.4320002 -0.59799999 139 79 43
4.29 8.4320002 -0.69800001 70 41 37
4.29 8.4320002 -0.69499999 53 27 26
4.29 8.4320002 -0.70200002 77 47 39
4.296 8.4549999 -0.71100003 71 44 35
4.2950001 8.5030003 -0.75300002 252 249 240
4.3080001 8.4610004 -0.73299998 42 14 3
4.336 8.4460001 -0.71899998 80 50 39
4.316 8.4379997 -0.70499998 34 23 27
4.3309999 8.4460001 -0.71600002 48 15 0
4.3439999 8.4580002 -0.74000001 62 36 23
4.3179998 8.4499998 -0.72000003 45 8 0
4.323 8.4519997 -0.72000003 51 23 12
4.322 8.4549999 -0.73299998 40 20 13
4.3670001 8.46 -0.72000003 60 11 0
4.3610001 8.4709997 -0.708 19 8 4
4.3610001 8.467 -0.70999998 72 47 40
4.362 8.4589996 -0.71100003 50 12 0
4.3260002 8.4610004 -0.90600002 72 45 28
4.349 8.5039997 -0.80199999 29 6 0
4.3759999 8.507 -0.81099999 77 50 31
4.335 8.4799995 -0.68000001 79 59 58
4.3309999 8.4890003 -0.69800001 98 33 0
4.3340001 8.5010004 -0.70899999 76 37 40
4.3210001 8.4910002 -0.69999999 98 75 67
4.3130002 8.5190001 -0.75400001 48 20 9
4.309 8.5150003 -0.75099999 60 24 2
4.309 8.5220003 -0.75599998 49 23 10
4.3150001 8.5229998 -0.76099998 57 16 0
4.3000002 8.4680004 -0.69599998 156 118 99
4.3039999 8.4720001 -0.71399999 63 44 29
4.316 8.4820004 -0.71200001 63 26 8
4.323 8.5159998 -0.72100002 120 51 12
4.3319998 8.5220003 -0.722 44 6 0
4.323 8.5019999 -0.70899999 53 19 7
4.3169999 8.5080004 -0.75 50 14 0
4.3150001 8.5030003 -0.75199997 27 13 12
4.3260002 8.493 -0.736 133 111 100
4.3049998 8.5170002 -0.75300002 99 75 65
4.283 8.4429998 -0.59200001 82 26 1
4.3080001 8.4519997 -0.66100001 35 15 4
4.309 8.4540005 -0.662 110 51 17
4.309 8.4499998 -0.66900003 135 89 53
4.3119998 8.441 -0.66500002 112 106 110
4.3099999 8.4849997 -0.68900001 131 61 12
4.303 8.4840002 -0.68300003 181 107 44
4.302 8.4659996 -0.67000002 62 35 16
4.29 8.4440002 -0.62900001 71 53 53
4.3010001 8.4460001 -0.62400001 130 95 67
4.3769999 8.4779997 -0.71899998 197 160 133
4.3909998 8.4949999 -0.722 106 28 0
4.303 8.4300003 -0.60100001 114 77 58
4.309 8.4230003 -0.63599998 45 25 14
4.3080001 8.434 -0.685 79 37 13
4.3150001 8.4429998 -0.69099998 81 78 85
4.3049998 8.4209995 -0.65100002 99 66 47
4.2880001 8.4370003 -0.66000003 69 23 0
4.3800001 8.4820004 -0.87699997 164 109 70
4.3740001 8.4700003 -0.889 124 121 128
4.3779998 8.474 -0.85799998 90 57 42
4.3740001 8.4829998 -0.89999998 30 19 17
4.3740001 8.4779997 -0.90200001 121 119 124
4.3800001 8.4849997 -0.745 114 88 75
4.375 8.4860001 -0.759 79 47 34
4.3629999 8.4820004 -0.75599998 45 31 22
4.3660002 8.4860001 -0.74599999 28 0 0
4.3590002 8.4750004 -0.759 120 88 67
4.3730001 8.4870005 -0.76300001 22 6 7
4.3369999 8.5200005 -0.72899997 64 13 0
4.3460002 8.5220003 -0.71899998 140 98 82
4.3330002 8.5120001 -0.833 53 20 11
4.335 8.5109997 -0.829 40 7 2
4.336 8.5439997 -0.78799999 116 74 62
4.3260002 8.5430002 -0.78399998 159 140 136
4.316 8.5190001 -0.75300002 60 23 7
4.369 8.4879999 -0.76599997 47 23 13
4.3779998 8.4899998 -0.75800002 80 48 37
4.3860002 8.4969997 -0.85100001 39 28 34
4.3829999 8.5089998 -0.82099998 253 240 146
4.3779998 8.5139999 -0.838 84 53 32
4.3860002 8.4879999 -0.829 112 67 46
4.3870001 8.4940004 -0.81 32 21 27
4.3649998 8.4650002 -0.84600002 46 26 17
4.3569999 8.4569998 -0.85100001 252 213 172
4.3569999 8.4569998 -0.84200001 34 19 14
4.3629999 8.4720001 -0.83099997 37 32 38
4.3559999 8.4540005 -0.87 190 146 109
4.3629999 8.4619999 -0.87599999 139 84 53
4.3649998 8.4619999 -0.87199998 231 173 136
4.349 8.4540005 -0.88499999 115 64 35
4.329 8.474 -0.912 181 140 96
4.3579998 8.4639997 -0.90399998 95 53 31
4.3460002 8.5010004 -0.89899999 41 22 15
4.3379998 8.5240002 -0.86299998 43 10 0
4.3200002 8.5139999 -0.87099999 79 63 66
4.3709998 8.4849997 -0.792 254 252 229
4.3769999 8.4949999 -0.80000001 26 15 19
4.362 8.4829998 -0.78600001 29 17 21
4.3600001 8.4840002 -0.773 107 71 57
4.3629999 8.4750004 -0.79000002 17 3 2
4.3499999 8.4770002 -0.77700001 14 3 0
4.3429999 8.4720001 -0.78200001 140 130 128
4.3590002 8.5129995 -0.76200002 83 50 31
4.348 8.5050001 -0.77700001 30 15 18
4.3449998 8.5010004 -0.76899999 45 11 1
4.2919998 8.5059996 -0.75800002 17 3 2
4.3049998 8.4560003 -0.81599998 97 66 48
4.3280001 8.4639997 -0.81599998 91 43 20
4.3260002 8.4610004 -0.82599998 190 128 105
4.3299999 8.4580002 -0.83200002 85 29 4
4.3119998 8.4540005 -0.80299997 250 230 195
4.3280001 8.4619999 -0.78899997 125 74 53
4.323 8.4659996 -0.80199999 108 85 69
4.3130002 8.4569998 -0.80400002 158 132 119
4.3179998 8.4639997 -0.80299997 36 27 28
4.2969999 8.4460001 -0.80599999 105 62 46
4.329 8.4549999 -0.75400001 62 23 8
4.3270001 8.4499998 -0.74699998 92 65 48
4.3309999 8.4460001 -0.75 61 20 2
4.3270001 8.4569998 -0.75099999 60 27 20
4.2880001 8.4420004 -0.81300002 62 21 3
4.3449998 8.4659996 -0.87900001 64 35 21
4.342 8.4639997 -0.85900003 130 91 62
4.3390002 8.4630003 -0.85799998 145 105 79
4.336 8.4720001 -0.85600001 58 35 27
4.349 8.4530001 -0.85600001 147 104 61
4.335 8.4530001 -0.83700001 133 88 65
4.3530002 8.4540005 -0.86000001 149 117 96
4.3530002 8.448 -0.85600001 238 197 153
4.3449998 8.4619999 -0.84500003 116 64 27
4.3109999 8.5159998 -0.87199998 55 40 37
4.3080001 8.5150003 -0.875 25 7 7
4.3099999 8.5109997 -0.884 40 15 10
4.309 8.507 -0.88499999 51 21 11
4.3119998 8.4910002 -0.79699999 47 23 21
4.3140001 8.5039997 -0.79400003 37 0 0
4.3060002 8.5050001 -0.79100001 13 1 1
4.3049998 8.4969997 -0.79100001 19 3 3
4.3200002 8.5039997 -0.84100002 150 115 95
4.3140001 8.4879999 -0.83200002 144 123 104
4.2969999 8.4569998 -0.824 19 8 12
4.2969999 8.46 -0.81900001 128 107 88
4.3060002 8.493 -0.792 21 0 0
4.3330002 8.5159998 -0.84200001 92 66 49
4.3200002 8.5150003 -0.85900003 20 5 0
4.3150001 8.5159998 -0.79000002 39 5 0
4.3200002 8.5129995 -0.79400003 100 63 37
4.309 8.5190001 -0.79000002 25 7 3
4.3109999 8.526 -0.78500003 54 35 31
4.3449998 8.5089998 -0.824 44 15 11
4.335 8.5039997 -0.80199999 37 25 27
4.316 8.5080004 -0.79500002 57 24 9
4.2930002 8.4569998 -0.81199998 59 8 0
4.2989998 8.4650002 -0.80199999 35 2 0
4.29 8.493 -0.76899999 24 9 4
4.3010001 8.4899998 -0.78500003 14 4 5
4.3010001 8.4949999 -0.78200001 99 51 31
4.2740002 8.4329996 -0.61500001 124 85 52
4.2690001 8.4429998 -0.60699999 60 42 40
4.2849998 8.4169998 -0.63800001 158 116 100
4.29 8.4329996 -0.69300002 43 18 14
4.296 8.4569998 -0.71499997 66 37 29
4.3200002 8.4890003 -0.72500002 54 18 20
4.3200002 8.4499998 -0.70300001 76 35 15
4.335 8.4499998 -0.71100003 72 31 11
4.3130002 8.4790001 -0.722 54 35 21
4.2839999 8.4230003 -0.64700001 51 35 36
4.3390002 8.448 -0.72000003 54 26 14
4.3369999 8.4540005 -0.741 27 8 4
4.3400002 8.4580002 -0.75 59 27 12
4.348 8.4650002 -0.74599999 116 99 91
4.322 8.4630003 -0.77600002 171 105 53
4.3270001 8.4549999 -0.77600002 89 33 8
4.316 8.4560003 -0.77899998 76 23 5
4.3140001 8.4440002 -0.70999998 103 71 46
4.3060002 8.4499998 -0.71799999 132 121 119
4.3559999 8.4549999 -0.713 116 110 114
4.3639998 8.4809999 -0.70899999 78 36 38
4.303 8.4469995 -0.79000002 178 160 158
4.3039999 8.4469995 -0.79299998 33 23 24
4.3010001 8.5089998 -0.78600001 147 133 130
4.3260002 8.4659996 -0.75700003 39 0 0
4.323 8.4700003 -0.75599998 37 4 0
4.3109999 8.4700003 -0.74900001 34 23 19
4.323 8.4700003 -0.759 47 8 1
4.3590002 8.4960003 -0.78500003 255 254 245
4.3569999 8.5039997 -0.81199998 251 247 210
4.3410001 8.5139999 -0.71200001 28 5 0
4.3449998 8.4870005 -0.70499998 49 42 49
4.3400002 8.4770002 -0.708 106 69 43
4.3179998 8.4809999 -0.67400002 141 77 29
4.3130002 8.4770002 -0.67299998 143 84 24
4.322 8.4750004 -0.67799997 116 91 87
4.3140001 8.4680004 -0.67900002 108 70 47
4.3280001 8.4790001 -0.69 104 64 29
4.342 8.4589996 -0.70300001 120 88 73
4.3309999 8.4700003 -0.70300001 110 103 110
4.3429999 8.4650002 -0.70700002 54 18 2
4.316 8.4689999 -0.68199998 188 131 60
4.3299999 8.4890003 -0.699 85 56 42
4.316 8.5129995 -0.74900001 30 5 1
4.329 8.5010004 -0.74000001 14 0 0
4.2859998 8.4289999 -0.60000002 92 45 25
4.289 8.4289999 -0.60799998 99 56 37
4.3850002 8.5109997 -0.745 51 28 20
4.3670001 8.4980001 -0.76599997 58 33 26
4.3709998 8.5150003 -0.73100001 83 34 17
4.3080001 8.4519997 -0.66799998 36 16 15
4.3080001 8.4390001 -0.64999998 46 24 11
4.303 8.4549999 -0.667 43 34 39
4.3099999 8.4359999 -0.66100001 164 121 89
4.3000002 8.4829998 -0.68300003 146 134 134
4.3080001 8.4700003 -0.67199999 43 23 12
4.3060002 8.4440002 -0.61199999 110 82 58
4.3080001 8.4289999 -0.63499999 37 26 30
4.2919998 8.4499998 -0.68699998 131 97 69
4.3800001 8.4680004 -0.71799999 19 7 9
4.3790002 8.4650002 -0.72000003 93 50 31
4.302 8.4309998 -0.61000001 156 123 90
4.2989998 8.4289999 -0.63 56 22 12
4.302 8.4359999 -0.61199999 254 230 182
4.329 8.4490004 -0.71700001 60 28 15
4.2919998 8.427 -0.69099998 46 18 14
4.296 8.4300003 -0.68900001 69 32 14
4.3000002 8.4280005 -0.68099999 41 20 15
4.2979999 8.4399996 -0.648 34 7 0
4.289 8.434 -0.65399998 54 22 9
4.388 8.4989996 -0.74000001 41 13 2
4.3850002 8.4910002 -0.73299998 33 5 1
4.3460002 8.4790001 -0.75999999 62 42 35
4.3060002 8.5200005 -0.764 73 35 22
4.3309999 8.54 -0.76599997 72 42 34
4.3330002 8.5279999 -0.75800002 68 33 29
4.3270001 8.533 -0.76599997 63 35 34
4.3390002 8.5220003 -0.75300002 60 27 20
4.3429999 8.5129995 -0.75199997 76 36 24
4.3390002 8.5240002 -0.72600001 74 24 0
4.3239999 8.5290003 -0.77899998 67 45 34
4.3340001 8.5469999 -0.78299999 56 23 16
4.3299999 8.5459995 -0.78600001 23 2 0
4.329 8.5139999 -0.72600001 133 111 98
4.3340001 8.5159998 -0.72799999 98 40 20
4.3309999 8.5080004 -0.73199999 102 46 21
4.3660002 8.4879999 -0.76899999 60 33 24
4.3720002 8.4870005 -0.76300001 52 24 13
4.388 8.5050001 -0.85299999 39 30 31
4.3870001 8.5089998 -0.85500002 216 175 153
4.3870001 8.5059996 -0.85000002 180 133 105
4.3829999 8.5059996 -0.847 174 128 43
4.3850002 8.5089998 -0.85799998 101 66 46
4.3779998 8.5050001 -0.83600003 44 7 0
4.3850002 8.4980001 -0.83700001 206 172 74
4.3870001 8.4940004 -0.82999998 24 14 22
4.3649998 8.4709997 -0.84200001 133 89 62
4.3740001 8.5080004 -0.85299999 65 17 0
4.355 8.5080004 -0.85799998 158 153 159
4.3759999 8.474 -0.86699998 25 1 0
4.3779998 8.4770002 -0.86199999 121 85 61
4.3509998 8.5129995 -0.87599999 70 52 40
4.3429999 8.5010004 -0.88300002 54 10 0
4.323 8.4720001 -0.91600001 68 26 2
4.3520002 8.4700003 -0.898 49 9 1
4.309 8.5050001 -0.88700002 60 26 16
4.355 8.4849997 -0.89499998 86 57 43
4.3429999 8.5010004 -0.89499998 134 96 59
4.3460002 8.4980001 -0.90200001 42 30 32
4.322 8.5159998 -0.875 44 9 7
4.3860002 8.4960003 -0.80000001 17 6 10
4.3839998 8.4790001 -0.80900002 57 33 21
4.3369999 8.4549999 -0.75 72 52 43
4.3379998 8.4729996 -0.76499999 126 81 60
4.3239999 8.4569998 -0.78299999 163 113 88
4.3150001 8.4569998 -0.79000002 167 116 73
4.355 8.4759998 -0.79299998 183 134 93
4.3579998 8.4750004 -0.796 118 73 44
4.335 8.4720001 -0.76999998 151 133 129
4.3309999 8.4639997 -0.75999999 77 32 11
4.3309999 8.4689999 -0.76800001 39 24 21
4.3400002 8.4720001 -0.77600002 109 92 85
4.3509998 8.5129995 -0.73699999 69 17 0
4.3369999 8.507 -0.78299999 23 5 0
4.335 8.5050001 -0.81199998 26 14 16
4.3080001 8.5200005 -0.77100003 36 1 0
4.3039999 8.5150003 -0.77499998 39 5 0
4.2989998 8.5139999 -0.78399998 65 37 26
4.2969999 8.4460001 -0.78899997 84 38 14
4.2909999 8.4490004 -0.79500002 254 200 164
4.2919998 8.448 -0.80599999 101 64 46
4.2930002 8.4449997 -0.792 181 136 113
4.349 8.4630003 -0.833 131 91 65
4.3460002 8.4630003 -0.833 119 79 54
4.3520002 8.4659996 -0.82800001 140 103 77
4.3579998 8.467 -0.83499998 50 26 16
4.3130002 8.4560003 -0.801 230 212 172
4.302 8.448 -0.80299997 84 54 28
4.3439999 8.4659996 -0.82700002 81 45 23
4.348 8.4700003 -0.82300001 83 51 30
4.3080001 8.4569998 -0.82099998 202 145 118
4.3039999 8.4589996 -0.81699997 28 17 21
4.3060002 8.4619999 -0.81099999 145 132 126
4.3169999 8.4689999 -0.80800003 129 120 123
4.3379998 8.4750004 -0.80500001 148 127 124
4.3499999 8.4849997 -0.80500001 95 52 33
4.3509998 8.4809999 -0.81900001 61 35 22
4.3340001 8.4729996 -0.84299999 54 26 14
4.3309999 8.4870005 -0.84399998 73 28 9
4.3460002 8.4619999 -0.88300002 67 36 16
4.3369999 8.4770002 -0.88499999 23 5 0
4.3299999 8.4870005 -0.88 111 83 72
4.3499999 8.4619999 -0.86199999 108 75 24
4.322 8.4989996 -0.82599998 194 167 146
4.3150001 8.4890003 -0.83700001 41 12 6
4.3200002 8.4969997 -0.85600001 29 11 9
4.3130002 8.4799995 -0.83099997 106 72 44
4.3179998 8.507 -0.84899998 197 178 171
4.3210001 8.4610004 -0.83200002 64 34 23
4.336 8.4630003 -0.838 71 21 0
4.3340001 8.4659996 -0.83600003 47 10 0
4.3319998 8.5109997 -0.833 41 0 0
4.329 8.5059996 -0.82800001 34 3 1
4.3200002 8.5150003 -0.79000002 35 7 3
4.2989998 8.4610004 -0.81599998 102 67 37
4.302 8.4770002 -0.79299998 37 7 0
4.3010001 8.4720001 -0.79400003 123 90 75
4.29 8.4490004 -0.81199998 211 167 130
4.289 8.5019999 -0.76599997 52 33 29
4.3099999 8.427 -0.648 121 94 87
4.2750001 8.448 -0.616 250 248 236
4.2740002 8.441 -0.61699998 119 92 75
4.283 8.4280005 -0.59299999 108 61 41
4.3010001 8.4619999 -0.713 61 25 27
4.3000002 8.4619999 -0.72299999 74 46 35
4.3060002 8.507 -0.75300002 33 10 2
4.3270001 8.4560003 -0.699 38 18 11
4.355 8.474 -0.70999998 78 34 7
4.309 8.4530001 -0.72399998 107 96 94
4.3039999 8.4429998 -0.70700002 16 5 9
4.3709998 8.4610004 -0.722 51 25 10
4.3740001 8.4680004 -0.72299999 117 70 44
4.3540001 8.4779997 -0.74299997 77 25 1
4.3639998 8.4840002 -0.74000001 117 72 39
4.3540001 8.4659996 -0.72500002 125 60 20
4.303 8.4659996 -0.78500003 86 47 30
4.3070002 8.467 -0.77700001 92 58 48
4.3060002 8.4820004 -0.77499998 18 7 5
4.3179998 8.493 -0.88 95 75 66
4.3130002 8.4720001 -0.74000001 48 20 9
4.3099999 8.4770002 -0.74800003 48 25 19
4.316 8.467 -0.773 40 11 5
4.348 8.5039997 -0.81300002 26 16 6
4.3769999 8.5010004 -0.82800001 116 79 60
4.3649998 8.4659996 -0.72799999 50 10 0
4.316 8.5150003 -0.75 51 13 4
4.369 8.4919996 -0.76599997 248 245 236
4.381 8.507 -0.745 71 30 12
4.3730001 8.5089998 -0.73299998 254 252 240
4.302 8.441 -0.59200001 81 52 48
4.3049998 8.441 -0.61299998 244 224 199
4.3049998 8.4219999 -0.63300002 57 30 13
4.3779998 8.4729996 -0.72600001 112 70 46
4.2950001 8.4460001 -0.70200002 77 38 41
4.296 8.4200001 -0.65499997 204 131 76
4.29 8.434 -0.68800002 102 64 43
4.3109999 8.4289999 -0.65499997 36 18 18
4.2930002 8.4370003 -0.63599998 33 18 11
4.3000002 8.4399996 -0.65399998 52 27 22
4.3460002 8.507 -0.84200001 44 3 0
4.3390002 8.5200005 -0.84899998 49 4 0
4.3740001 8.4820004 -0.88599998 37 23 23
4.375 8.4870005 -0.89700001 28 8 1
4.3860002 8.4969997 -0.72000003 37 25 27
4.3460002 8.4709997 -0.75400001 40 25 28
4.2919998 8.5 -0.76300001 17 2 0
4.3309999 8.5179996 -0.77499998 31 7 5
4.3309999 8.5039997 -0.76099998 50 14 0
4.3270001 8.5179996 -0.75999999 18 3 0
4.336 8.5200005 -0.727 48 33 26
4.342 8.5150003 -0.71200001 45 12 0
4.3439999 8.5080004 -0.71200001 19 8 6
4.3590002 8.4980001 -0.71499997 95 37 13
4.3509998 8.493 -0.71499997 255 254 242
4.3280001 8.5389996 -0.76899999 47 16 11
4.3270001 8.5100002 -0.74400002 147 113 101
4.3330002 8.5120001 -0.74599999 30 2 0
4.3629999 8.4860001 -0.764 44 24 17
4.388 8.5010004 -0.84500003 42 33 34
4.381 8.5080004 -0.85699999 96 63 46
4.3239999 8.5109997 -0.88599998 96 77 70
4.3239999 8.5120001 -0.88499999 44 16 4
4.3600001 8.4680004 -0.83700001 24 9 2
4.355 8.5039997 -0.85399997 105 81 71
4.3709998 8.4689999 -0.866 129 93 71
4.3600001 8.46 -0.889 36 26 27
4.3520002 8.4580002 -0.87699997 79 24 3
4.3460002 8.4569998 -0.88599998 129 90 73
4.349 8.4560003 -0.88200003 126 74 50
4.316 8.4969997 -0.861 31 7 3
4.329 8.5050001 -0.89999998 42 23 17
4.329 8.4949999 -0.90399998 137 95 57
4.336 8.4540005 -0.745 59 27 12
4.3319998 8.4530001 -0.75599998 95 49 26
4.3260002 8.4580002 -0.78399998 59 14 0
4.322 8.4580002 -0.78600001 83 36 8
4.3470001 8.4790001 -0.79299998 186 133 89
4.336 8.4750004 -0.79400003 64 14 5
4.3629999 8.4729996 -0.81999999 113 106 113
4.3800001 8.4779997 -0.81999999 45 22 8
4.362 8.4829998 -0.79799998 21 10 14
4.3559999 8.4689999 -0.83099997 135 110 105
4.3590002 8.5120001 -0.741 92 77 80
4.355 8.5100002 -0.75199997 255 253 241
4.3319998 8.5089998 -0.81999999 91 76 71
4.3309999 8.5059996 -0.82200003 34 1 0
4.2919998 8.5030003 -0.76999998 26 11 6
4.3000002 8.4449997 -0.79299998 132 81 36
4.3410001 8.4650002 -0.82999998 53 24 10
4.309 8.4580002 -0.80900002 157 130 111
4.3270001 8.4659996 -0.82300001 63 19 8
4.3200002 8.4759998 -0.81 37 21 21
4.3379998 8.4709997 -0.81800002 96 49 21
4.3400002 8.4659996 -0.84299999 135 81 47
4.3249998 8.4940004 -0.903 176 166 165
4.3169999 8.493 -0.88800001 28 19 22
4.3260002 8.5010004 -0.89300001 30 19 17
4.3509998 8.4589996 -0.87599999 75 36 7
4.323 8.5 -0.82999998 199 168 147
4.3239999 8.493 -0.81999999 185 163 140
4.316 8.4829998 -0.833 80 58 37
4.2979999 8.46 -0.81599998 37 19 15
4.309 8.4750004 -0.80400002 114 77 50
4.3140001 8.4799995 -0.80000001 129 103 88
4.3049998 8.4820004 -0.787 96 86 87
4.2909999 8.4209995 -0.65499997 103 38 0
4.303 8.4639997 -0.73000002 52 24 13
4.3130002 8.4689999 -0.73199999 60 28 31
4.3169999 8.4779997 -0.73199999 24 0 0
4.3249998 8.4610004 -0.69800001 42 18 6
4.3189998 8.4610004 -0.69099998 122 68 24
4.3559999 8.4809999 -0.71200001 40 18 7
4.3730001 8.4940004 -0.713 125 56 14
4.3559999 8.4650002 -0.72399998 74 43 23
4.3099999 8.4540005 -0.79400003 248 215 174
4.3670001 8.4610004 -0.86299998 189 144 102
4.3740001 8.4729996 -0.87400001 61 44 36
4.3860002 8.4860001 -0.83200002 141 93 70
4.355 8.5010004 -0.84299999 77 35 21
4.3260002 8.4659996 -0.75400001 46 13 6
4.3299999 8.4659996 -0.77700001 53 24 28
4.3660002 8.4919996 -0.76999998 45 29 30
4.3150001 8.4619999 -0.68400002 91 82 85
4.3140001 8.4580002 -0.68599999 81 39 14
4.3119998 8.4490004 -0.68099999 126 93 78
4.3049998 8.4399996 -0.60699999 61 25 3
4.3800001 8.4779997 -0.72299999 115 70 37
4.3280001 8.4490004 -0.71200001 59 32 15
4.2940001 8.4580002 -0.69 61 32 18
4.2930002 8.4549999 -0.685 44 12 1
4.2919998 8.4350004 -0.70300001 117 97 90
4.2940001 8.441 -0.667 252 250 237
4.2989998 8.4399996 -0.65899998 24 3 0
4.2870002 8.4460001 -0.67299998 41 7 0
4.289 8.4469995 -0.676 52 22 12
4.3839998 8.4940004 -0.847 126 101 79
4.3509998 8.474 -0.74699998 138 114 102
4.3400002 8.467 -0.75300002 41 27 18
4.3260002 8.4940004 -0.74299997 86 36 11
4.3280001 8.5229998 -0.773 103 77 64
4.3449998 8.5039997 -0.77700001 40 12 0
4.3340001 8.5240002 -0.75400001 50 10 0
4.3330002 8.5120001 -0.75300002 56 17 0
4.3140001 8.5299997 -0.77499998 153 134 128
4.3839998 8.5080004 -0.85399997 88 46 22
4.336 8.5 -0.89200002 34 23 21
4.3839998 8.4890003 -0.83700001 65 43 29
4.3769999 8.4779997 -0.87599999 97 44 4
4.3699999 8.4689999 -0.87199998 67 30 12
4.3670001 8.4659996 -0.87699997 44 16 13
4.3429999 8.4689999 -0.85799998 188 142 109
4.3660002 8.4650002 -0.89300001 115 74 56
4.369 8.4689999 -0.89499998 165 138 131
4.368 8.4659996 -0.88800001 149 110 93
4.3629999 8.4589996 -0.89600003 31 19 23
4.3709998 8.4720001 -0.898 23 13 14
4.3740001 8.4770002 -0.89700001 127 127 125
4.3730001 8.4709997 -0.88599998 80 53 34
4.369 8.4680004 -0.88300002 107 70 54
4.3660002 8.4650002 -0.87599999 54 17 1
4.3530002 8.5139999 -0.86400002 177 171 173
4.316 8.493 -0.86299998 36 11 4
4.316 8.4969997 -0.86799997 68 41 30
4.3119998 8.4899998 -0.88499999 75 70 76
4.3249998 8.4949999 -0.861 77 56 51
4.322 8.4949999 -0.861 42 17 10
4.309 8.5 -0.88300002 100 93 100
4.3119998 8.5030003 -0.88700002 46 6 0
4.329 8.5170002 -0.88099998 65 35 27
4.3800001 8.4860001 -0.81800002 96 60 46
4.3249998 8.4540005 -0.73799998 41 7 0
4.3189998 8.4580002 -0.736 45 8 2
4.3280001 8.4610004 -0.77600002 182 147 115
4.3309999 8.4630003 -0.78899997 94 45 31
4.3249998 8.4610004 -0.78799999 94 43 22
4.3769999 8.4829998 -0.81 162 134 123
4.2950001 8.5010004 -0.773 43 24 18
4.3119998 8.4919996 -0.88599998 48 29 22
4.3530002 8.46 -0.86500001 253 224 158
4.349 8.4569998 -0.87900001 96 49 33
4.322 8.5 -0.833 218 187 167
4.323 8.4890003 -0.80299997 64 34 24
4.309 8.5100002 -0.79000002 49 25 25
4.2950001 8.4569998 -0.80500001 53 7 0
4.2950001 8.4519997 -0.796 163 117 94
4.3039999 8.474 -0.79500002 92 50 26
4.3049998 8.4239998 -0.65399998 100 37 0
4.2859998 8.4259996 -0.653 79 32 16
4.3169999 8.4460001 -0.68599999 36 2 1
4.3080001 8.4420004 -0.68000001 51 16 12
4.3179998 8.4840002 -0.74599999 136 114 103
4.309 8.4680004 -0.76999998 118 94 90
4.3049998 8.4610004 -0.72899997 57 29 18
4.3070002 8.4809999 -0.69999999 86 27 9
4.3179998 8.4689999 -0.68900001 115 95 88
4.355 8.4689999 -0.73799998 123 96 87
4.3150001 8.4510002 -0.71899998 119 105 105
4.3720002 8.4899998 -0.713 176 108 71
4.3590002 8.4960003 -0.71499997 89 46 12
4.3010001 8.4519997 -0.78500003 149 135 134
4.302 8.4560003 -0.79100001 77 30 4
4.3010001 8.4650002 -0.79500002 113 62 43
4.3130002 8.4569998 -0.79699999 36 21 24
4.3049998 8.4750004 -0.78600001 40 8 0
4.3169999 8.4619999 -0.74000001 73 36 20
4.382 8.4890003 -0.74000001 123 95 81
4.3699999 8.4770002 -0.73299998 141 102 87
4.3260002 8.4490004 -0.71600002 55 22 7
4.3260002 8.4530001 -0.72100002 42 13 5
4.3039999 8.4329996 -0.66600001 123 74 42
4.2940001 8.4209995 -0.65499997 165 93 43
4.2870002 8.4309998 -0.67699999 73 34 5
4.2950001 8.4289999 -0.66399997 59 30 12
4.336 8.5080004 -0.87400001 102 99 94
4.316 8.4890003 -0.75 78 33 14
4.3119998 8.4919996 -0.764 46 6 0
4.303 8.5019999 -0.76200002 21 3 3
4.3270001 8.5209999 -0.76300001 62 51 47
4.3260002 8.5129995 -0.76700002 135 119 106
4.3200002 8.4879999 -0.74299997 48 19 21
4.3699999 8.4779997 -0.829 40 29 33
4.3649998 8.4619999 -0.889 76 22 0
4.3730001 8.474 -0.89600003 36 15 12
4.3730001 8.4759998 -0.88499999 50 31 27
4.316 8.5039997 -0.88700002 72 14 0
4.3639998 8.4779997 -0.90100002 87 46 24
4.3270001 8.46 -0.77499998 28 0 0
4.3270001 8.4580002 -0.78299999 126 74 60
4.3759999 8.4809999 -0.81300002 76 44 33
4.3299999 8.4919996 -0.85399997 143 115 111
4.303 8.4659996 -0.78799999 66 25 3
4.3200002 8.5 -0.889 92 26 0
4.3299999 8.5200005 -0.84899998 37 8 4
4.2989998 8.4569998 -0.79799998 87 58 44
4.3080001 8.4790001 -0.79799998 113 113 115
4.29 8.4300003 -0.662 70 56 55
4.289 8.4329996 -0.66900003 41 11 0
4.316 8.4829998 -0.76599997 66 17 2
4.309 8.4879999 -0.77200001 31 13 11
4.329 8.4750004 -0.69499999 103 39 4
4.3670001 8.4860001 -0.713 46 26 25
4.3109999 8.4549999 -0.792 141 104 75
4.3850002 8.4969997 -0.833 166 112 88
4.3860002 8.4969997 -0.82800001 247 223 123
4.3400002 8.493 -0.86900002 89 38 9
4.3340001 8.493 -0.86500001 115 104 108
4.3299999 8.4650002 -0.78600001 43 17 20
4.3790002 8.4799995 -0.73799998 28 16 18
4.3629999 8.4680004 -0.72899997 67 28 13
4.302 8.4589996 -0.70300001 50 21 13
4.2979999 8.4289999 -0.66500002 29 20 23
4.302 8.4309998 -0.66900003 102 60 35
4.2870002 8.441 -0.67500001 27 6 5
4.322 8.5 -0.83600003 198 171 154
4.3470001 8.4779997 -0.86500001 116 76 41
4.3410001 8.4799995 -0.85600001 76 47 31
4.3010001 8.4969997 -0.76599997 65 18 2
4.3309999 8.5200005 -0.75300002 51 12 0
4.3839998 8.4969997 -0.82099998 51 28 14
4.3280001 8.493 -0.84799999 17 12 0
4.2950001 8.4280005 -0.662 106 97 90
4.369 8.4809999 -0.84899998 36 24 26
4.296 8.4320002 -0.671 84 58 41
4.3309999 8.493 -0.86199999 94 40 16
4.3080001 8.4759998 -0.77999997 32 7 2
4.3730001 8.4840002 -0.852 117 62 41
4.3740001 8.4820004 -0.85399997 51 3 0
0 0 0 1 0 0 0 1 0 0 0 1 0 0 0 0 0 978 1 0 0
