ply
format ascii 1.0
comment PCL generated
element vertex 88
property float x
property float y
property float z
property uchar red
property uchar green
property uchar blue
element camera 1
property float view_px
property float view_py
property float view_pz
property float x_axisx
property float x_axisy
property float x_axisz
property float y_axisx
property float y_axisy
property float y_axisz
property float z_axisx
property float z_axisy
property float z_axisz
property float focal
property float scalex
property float scaley
property float centerx
property float centery
property int viewportx
property int viewporty
property float k1
property float k2
end_header
7.6669998 -4.0180001 -0.26800001 164 140 104
7.6599998 -4.007 -0.259 149 116 65
7.671 -4.02 -0.257 252 228 184
7.6630001 -4.0110002 -0.257 170 135 81
7.665 -4.0149999 -0.241 141 106 52
7.665 -4.0149999 -0.244 120 87 36
7.6479998 -4.0250001 -0.27200001 142 110 59
7.658 -4.0139999 -0.26800001 150 115 87
7.6680002 -4.02 -0.248 128 94 46
7.619 -4.046 -0.241 120 106 103
7.6220002 -4.0359998 -0.24600001 121 95 68
7.6160002 -4.053 -0.24600001 144 63 16
7.619 -4.0489998 -0.25400001 141 113 89
7.619 -4.0489998 -0.244 141 110 81
7.665 -4.0159998 -0.255 152 117 63
7.6420002 -4.0079999 -0.26699999 255 237 216
7.6259999 -4.0240002 -0.27500001 169 117 77
7.6659999 -4.0240002 -0.26199999 153 120 66
7.6550002 -4.0409999 -0.25999999 131 71 34
7.6360002 -4.0430002 -0.26499999 120 101 95
7.6550002 -4.0359998 -0.26800001 67 48 18
7.6479998 -4.0419998 -0.25299999 117 83 55
7.6339998 -4.0450001 -0.25999999 149 86 42
7.6230001 -4.0549998 -0.26199999 113 92 75
7.6269999 -4.053 -0.24699999 114 85 51
7.6589999 -4.0100002 -0.248 141 105 53
7.658 -4.0139999 -0.23999999 111 84 29
7.664 -4.0190001 -0.241 135 102 49
7.6570001 -4.0190001 -0.241 191 163 113
7.6529999 -4.0159998 -0.23999999 166 135 89
7.6350002 -4.0139999 -0.25600001 227 186 130
7.625 -4.0359998 -0.27000001 178 143 115
7.625 -4.0209999 -0.264 180 150 116
7.631 -4.04 -0.271 201 162 133
7.6300001 -4.033 -0.273 214 197 181
7.6539998 -4.0359998 -0.26800001 190 138 88
7.6459999 -4.0279999 -0.27000001 152 112 53
7.6269999 -4.0279999 -0.26100001 255 229 202
7.6360002 -4.0289998 -0.25 136 75 31
7.6609998 -4.026 -0.26800001 109 87 64
7.6589999 -4.0339999 -0.26499999 153 119 92
7.6609998 -4.033 -0.25400001 79 45 17
7.6459999 -4.0409999 -0.24600001 117 67 32
7.652 -4.039 -0.26300001 255 235 180
7.6279998 -4.0489998 -0.25600001 129 96 65
7.6630001 -4.0229998 -0.245 155 123 72
7.6430001 -4.04 -0.25999999 100 63 34
7.6259999 -4.04 -0.266 194 153 121
7.6399999 -4.0289998 -0.27200001 141 113 91
7.6279998 -4.0149999 -0.266 189 144 102
7.6259999 -4.0279999 -0.26699999 132 104 65
7.6659999 -4.0240002 -0.25400001 103 77 54
7.619 -4.0560002 -0.244 150 98 59
7.6160002 -4.0580001 -0.24600001 147 117 117
7.6160002 -4.0609999 -0.24600001 101 83 79
7.6300001 -4.0479999 -0.24699999 173 111 60
7.6240001 -4.052 -0.25400001 134 108 81
7.6290002 -4.0380001 -0.23899999 68 42 15
7.6269999 -4.0450001 -0.23899999 103 77 42
7.664 -4.0250001 -0.248 161 129 78
7.658 -4.027 -0.245 255 230 183
7.6599998 -4.0250001 -0.245 176 148 98
7.6539998 -4.0250001 -0.244 240 211 171
7.6409998 -4.027 -0.25099999 190 163 136
7.6479998 -4.02 -0.25099999 172 145 116
7.6420002 -4.0359998 -0.26800001 255 244 202
7.6490002 -4.0149999 -0.255 255 243 217
7.6409998 -4.0159998 -0.26800001 165 149 126
7.632 -4.0510001 -0.23899999 49 13 0
7.6370001 -4.0419998 -0.245 141 103 64
7.632 -4.0440001 -0.25299999 72 32 0
7.6209998 -4.059 -0.24600001 94 66 29
7.619 -4.0580001 -0.25400001 170 138 113
7.6259999 -4.0560002 -0.234 105 87 85
7.6290002 -4.0370002 -0.244 101 80 51
7.6469998 -4.0170002 -0.26699999 153 133 96
7.6440001 -4.0339999 -0.248 154 92 51
7.6409998 -4.02 -0.255 255 244 221
7.6479998 -4.0120001 -0.264 255 250 228
7.6290002 -4.0229998 -0.271 189 161 139
7.6329999 -4.04 -0.235 86 64 41
7.6269999 -4.0580001 -0.23800001 197 119 70
7.6329999 -4.0469999 -0.23199999 81 54 24
7.6430001 -4.039 -0.24600001 77 32 1
7.6300001 -4.0489998 -0.235 151 130 109
7.6539998 -4.0170002 -0.26800001 221 189 164
7.6300001 -4.052 -0.233 134 104 102
7.6539998 -4.0240002 -0.26800001 238 192 133
0 0 0 1 0 0 0 1 0 0 0 1 0 0 0 0 0 88 1 0 0
