ply
format ascii 1.0
comment PCL generated
element vertex 622
property float x
property float y
property float z
property uchar red
property uchar green
property uchar blue
element camera 1
property float view_px
property float view_py
property float view_pz
property float x_axisx
property float x_axisy
property float x_axisz
property float y_axisx
property float y_axisy
property float y_axisz
property float z_axisx
property float z_axisy
property float z_axisz
property float focal
property float scalex
property float scaley
property float centerx
property float centery
property int viewportx
property int viewporty
property float k1
property float k2
end_header
-5.2449999 -4.4390001 -0.91500002 140 59 0
-5.2529998 -4.4450002 -0.93000001 208 144 100
-5.2480001 -4.4489999 -0.921 40 18 7
-5.1230001 -4.461 -1.0039999 111 66 43
-5.1139998 -4.4510002 -0.99000001 144 88 63
-5.1279998 -4.4530001 -0.991 24 7 0
-5.21 -4.4349999 -1.052 25 15 13
-5.224 -4.4400001 -1.043 109 83 70
-5.2030001 -4.4419999 -1.043 60 36 26
-5.1339998 -4.4390001 -0.95899999 148 113 73
-5.1430001 -4.4310002 -0.97799999 83 53 29
-5.1389999 -4.4359999 -0.977 121 46 7
-5.1139998 -4.4099998 -0.95200002 70 35 16
-5.1209998 -4.408 -0.96700001 19 0 0
-5.119 -4.4060001 -0.94700003 183 101 45
-5.131 -4.408 -0.95200002 117 55 18
-5.1279998 -4.3969998 -1.006 12 1 0
-5.1389999 -4.402 -0.995 23 2 0
-5.132 -4.3940001 -1.0140001 32 14 10
-5.217 -4.402 -0.99900001 27 9 7
-5.2399998 -4.402 -1.002 12 1 0
-5.2189999 -4.402 -0.99599999 114 84 73
-5.243 -4.434 -0.91600001 178 155 141
-5.2420001 -4.4369998 -0.912 187 109 43
-5.118 -4.4559999 -1.041 85 55 31
-5.1110001 -4.4549999 -1.046 56 28 7
-5.1209998 -4.4629998 -1.046 19 8 4
-5.118 -4.4559999 -1.035 64 32 7
-5.1199999 -4.4590001 -1.006 93 60 43
-5.1160002 -4.4499998 -0.99900001 55 28 19
-5.1360002 -4.4439998 -0.94400001 15 4 2
-5.1269999 -4.4450002 -0.94599998 30 14 15
-5.1149998 -4.4169998 -0.94 24 9 4
-5.1339998 -4.3959999 -1.013 60 24 8
-5.1360002 -4.3959999 -1.0140001 46 16 5
-5.25 -4.4419999 -0.98500001 65 47 35
-5.2379999 -4.4489999 -0.99000001 46 24 27
-5.2529998 -4.447 -0.972 53 19 9
-5.2509999 -4.4400001 -0.986 94 83 79
-5.2049999 -4.415 -0.99900001 16 1 0
-5.1989999 -4.434 -0.98500001 72 38 13
-5.1989999 -4.4260001 -0.98299998 64 27 0
-5.1259999 -4.4419999 -0.97500002 59 41 39
-5.2480001 -4.448 -0.92699999 48 25 7
-5.2470002 -4.4429998 -0.95099998 140 70 19
-5.2550001 -4.4400001 -0.94400001 22 3 0
-5.2490001 -4.4460001 -0.94599998 18 0 0
-5.2529998 -4.4390001 -0.963 98 54 29
-5.2579999 -4.4159999 -0.96600002 105 80 73
-5.2649999 -4.4219999 -0.97100002 93 39 3
-5.2670002 -4.4219999 -0.97000003 155 94 40
-5.2449999 -4.4359999 -1.008 11 0 0
-5.2259998 -4.4239998 -0.91000003 19 1 1
-5.2309999 -4.4159999 -0.92400002 106 92 92
-5.237 -4.4229999 -1.057 11 0 0
-5.2470002 -4.4219999 -1.049 29 14 9
-5.2350001 -4.4239998 -1.051 18 4 4
-5.2220001 -4.4200001 -1.053 19 4 1
-5.2360001 -4.4429998 -1.027 59 33 6
-5.2140002 -4.4419999 -1.038 75 42 25
-5.2259998 -4.441 -1.005 2 1 0
-5.2319999 -4.4450002 -0.99800003 22 4 0
-5.2449999 -4.4439998 -1.018 27 9 0
-5.2080002 -4.441 -1.0369999 48 19 5
-5.1399999 -4.4039998 -1.013 46 11 5
-5.1459999 -4.4089999 -1.011 54 25 17
-5.1389999 -4.4000001 -1.015 43 11 0
-5.2069998 -4.4359999 -0.98000002 93 56 27
-5.2150002 -4.441 -0.995 22 1 0
-5.1339998 -4.4359999 -0.96499997 42 22 23
-5.1389999 -4.4299998 -0.97399998 87 58 28
-5.119 -4.4419999 -0.98299998 91 80 78
-5.1139998 -4.4530001 -1.0089999 112 79 60
-5.2449999 -4.4439998 -0.917 51 35 35
-5.2259998 -4.4380002 -0.912 109 75 48
-5.2249999 -4.4400001 -0.91500002 77 51 24
-5.2459998 -4.4400001 -0.921 189 109 48
-5.2459998 -4.4390001 -0.921 136 56 5
-5.2449999 -4.4369998 -0.91900003 119 51 4
-5.243 -4.4330001 -0.926 110 88 75
-5.243 -4.4349999 -0.921 168 145 131
-5.2410002 -4.4320002 -0.92699999 120 61 19
-5.2470002 -4.448 -0.926 28 8 0
-5.244 -4.447 -0.92500001 22 6 6
-5.243 -4.454 -0.94199997 31 20 18
-5.2199998 -4.448 -0.95300001 157 126 108
-5.223 -4.4460001 -0.958 50 27 9
-5.2379999 -4.4520001 -0.95899999 17 0 0
-5.2449999 -4.4530001 -0.96399999 31 17 16
-5.244 -4.4629998 -0.95899999 208 175 121
-5.243 -4.4580002 -0.95700002 20 6 5
-5.2470002 -4.4549999 -0.949 41 22 24
-5.2459998 -4.4679999 -0.95099998 120 108 108
-5.2509999 -4.448 -0.97000003 23 0 0
-5.256 -4.4330001 -0.96399999 85 45 35
-5.2610002 -4.434 -0.94300002 167 97 25
-5.2600002 -4.4200001 -0.95499998 46 25 22
-5.2589998 -4.414 -0.95300001 36 6 0
-5.2350001 -4.3959999 -0.95499998 76 58 56
-5.2350001 -4.3920002 -0.95099998 76 57 51
-5.2360001 -4.3959999 -0.954 68 60 58
-5.2399998 -4.4070001 -0.94400001 88 78 77
-5.244 -4.4200001 -0.94300002 96 90 68
-5.2540002 -4.4169998 -0.954 77 58 44
-5.1230001 -4.46 -1.0420001 23 6 0
-5.1259999 -4.46 -1.035 57 34 26
-5.1259999 -4.46 -1.035 57 34 26
-5.1079998 -4.447 -1 125 66 32
-5.1100001 -4.4429998 -0.995 181 125 90
-5.1370001 -4.4289999 -0.958 117 48 6
-5.1399999 -4.4239998 -0.958 91 31 0
-5.2059999 -4.4390001 -0.95200002 24 5 1
-5.1999998 -4.4429998 -0.94499999 18 0 0
-5.1279998 -4.4159999 -0.935 93 46 26
-5.1269999 -4.4330001 -0.94099998 129 95 50
-5.119 -4.4229999 -0.93099999 19 6 0
-5.1230001 -4.4190001 -0.93599999 20 0 0
-5.1399999 -4.4359999 -0.98699999 38 12 0
-5.1399999 -4.408 -1.006 67 30 21
-5.1389999 -4.408 -1.003 51 17 7
-5.1459999 -4.4169998 -1 8 0 0
-5.1550002 -4.4190001 -0.995 13 0 0
-5.1399999 -4.4109998 -0.99400002 81 40 22
-5.2119999 -4.4050002 -0.99699998 82 47 25
-5.2129998 -4.402 -1.0089999 135 100 80
-5.2119999 -4.4029999 -1.01 19 4 0
-5.2069998 -4.4070001 -0.991 147 115 94
-5.2160001 -4.4029999 -0.995 30 10 9
-5.2379999 -4.4130001 -1.069 11 0 0
-5.2389998 -4.4120002 -1.062 11 1 0
-5.2360001 -4.4060001 -1.068 18 4 3
-5.2309999 -4.4190001 -1.058 11 0 0
-5.224 -4.4429998 -0.995 15 5 6
-5.217 -4.4180002 -1.054 14 0 0
-5.2179999 -4.4050002 -1.058 30 8 0
-5.1539998 -4.434 -1.038 28 3 0
-5.1500001 -4.428 -1.044 18 0 0
-5.1459999 -4.4460001 -1.04 31 10 5
-5.1630001 -4.4219999 -1.046 64 46 36
-5.158 -4.4260001 -1.035 30 10 3
-5.1329999 -4.447 -1.038 19 0 0
-5.1409998 -4.4419999 -1.038 44 31 22
-5.1240001 -4.4650002 -1.018 9 0 0
-5.1220002 -4.4590001 -1.012 58 25 8
-5.2420001 -4.4650002 -0.95200002 135 126 127
-5.1440001 -4.4510002 -1.036 60 45 42
-5.1500001 -4.454 -1.025 102 87 90
-5.1490002 -4.4180002 -1.053 14 0 0
-5.1609998 -4.4180002 -1.0470001 120 118 119
-5.1360002 -4.428 -1.051 83 65 53
-5.1550002 -4.4060001 -1.054 42 25 18
-5.1409998 -4.4050002 -1.052 24 0 0
-5.1469998 -4.4050002 -1.048 136 134 137
-5.1539998 -4.4070001 -1.049 126 124 125
-5.1599998 -4.414 -1.048 42 22 13
-5.1589999 -4.4109998 -1.043 68 38 30
-5.1220002 -4.401 -1 71 53 41
-5.1220002 -4.4109998 -1.001 15 0 0
-5.119 -4.3979998 -0.99199998 34 15 0
-5.112 -4.421 -0.99299997 24 4 0
-5.2420001 -4.4520001 -0.97399998 14 0 0
-5.2360001 -4.4489999 -0.97500002 26 7 3
-5.2420001 -4.4489999 -0.94300002 9 0 0
-5.2329998 -4.4400001 -0.94800001 80 52 15
-5.2249999 -4.4429998 -0.98699999 63 40 24
-5.2049999 -4.4419999 -0.94300002 116 80 32
-5.1430001 -4.4159999 -0.98400003 73 49 39
-5.1500001 -4.4219999 -0.99199998 49 2 0
-5.118 -4.441 -0.977 110 53 24
-5.1160002 -4.4450002 -0.98900002 70 29 9
-5.211 -4.4289999 -0.91900003 36 18 8
-5.23 -4.4299998 -0.91500002 103 51 14
-5.244 -4.4400001 -0.91500002 186 102 32
-5.244 -4.4450002 -0.921 32 14 12
-5.2290001 -4.4359999 -0.912 58 31 2
-5.2470002 -4.448 -0.93800002 56 32 20
-5.2470002 -4.447 -0.93099999 26 6 0
-5.25 -4.4530001 -0.94599998 67 39 27
-5.2519999 -4.4429998 -0.94099998 125 96 64
-5.2610002 -4.4260001 -0.96499997 110 56 18
-5.2540002 -4.4359999 -0.96700001 123 81 59
-5.2480001 -4.4349999 -0.98299998 94 76 74
-5.1259999 -4.401 -0.99199998 41 18 2
-5.1360002 -4.4000001 -0.98100001 16 0 0
-5.2030001 -4.4060001 -0.91600001 35 13 15
-5.2020001 -4.4029999 -0.90799999 41 16 11
-5.2090001 -4.4000001 -0.91900003 24 0 0
-5.2069998 -4.4060001 -0.912 115 91 81
-5.204 -4.4070001 -0.91000003 29 0 0
-5.1440001 -4.434 -0.995 78 39 22
-5.125 -4.4380002 -0.94199997 101 95 97
-5.1420002 -4.4229999 -0.954 68 31 2
-5.2030001 -4.4060001 -0.96200001 42 24 22
-5.2020001 -4.414 -0.958 93 79 78
-5.2080002 -4.4109998 -0.94300002 50 17 8
-5.1290002 -4.4169998 -0.95999998 104 45 15
-5.1350002 -4.428 -0.94599998 61 26 0
-5.1269999 -4.427 -0.94 131 94 49
-5.1100001 -4.4229999 -0.95200002 116 43 0
-5.1139998 -4.4250002 -0.94800001 57 14 0
-5.2360001 -4.4070001 -0.99800003 153 107 83
-5.2309999 -4.4050002 -0.99000001 5 0 0
-5.2319999 -4.4070001 -0.98699999 4 0 0
-5.2420001 -4.4359999 -0.99699998 114 104 103
-5.1339998 -4.4359999 -0.98000002 106 79 50
-5.1339998 -4.3969998 -1.012 53 24 10
-5.2090001 -4.4109998 -1.012 25 8 0
-5.1389999 -4.4039998 -0.98699999 51 14 0
-5.2259998 -4.4070001 -1.057 21 4 0
-5.2319999 -4.4099998 -1.056 13 0 0
-5.224 -4.4050002 -1.006 90 49 27
-5.2259998 -4.4050002 -1.003 26 1 0
-5.2249999 -4.4050002 -1.0039999 45 9 0
-5.2160001 -4.4180002 -1.021 15 0 0
-5.2249999 -4.4089999 -1.018 51 19 8
-5.21 -4.4299998 -1 40 22 12
-5.211 -4.4109998 -1.053 18 0 0
-5.197 -4.4159999 -1.049 18 1 0
-5.1630001 -4.4200001 -1.0369999 97 93 92
-5.1659999 -4.4180002 -1.0319999 29 18 14
-5.1539998 -4.4380002 -1.033 23 5 3
-5.138 -4.4320002 -1.0420001 15 1 1
-5.1230001 -4.4390001 -1.048 14 0 0
-5.125 -4.4559999 -1.046 32 12 5
-5.1389999 -4.4559999 -1.0369999 92 84 81
-5.243 -4.4549999 -0.94599998 10 0 0
-5.1139998 -4.4530001 -1.034 26 1 0
-5.1500001 -4.4120002 -1.053 18 3 0
-5.1420002 -4.4120002 -1.049 18 1 0
-5.1599998 -4.415 -1.038 36 14 1
-5.158 -4.4159999 -1.0319999 54 28 11
-5.23 -4.4029999 -0.99699998 34 9 4
-5.1079998 -4.4450002 -1.002 101 46 16
-5.2410002 -4.4569998 -0.96799999 97 82 77
-5.2199998 -4.4429998 -0.99299997 131 113 103
-5.204 -4.4229999 -0.97899997 84 65 61
-5.2030001 -4.427 -0.98100001 84 43 15
-5.2069998 -4.4109998 -0.97500002 21 2 0
-5.224 -4.4320002 -0.93699998 78 43 15
-5.2129998 -4.4369998 -0.94499999 60 38 25
-5.2090001 -4.4429998 -0.94800001 110 90 91
-5.2059999 -4.4390001 -0.94099998 80 62 42
-5.1230001 -4.4349999 -0.95999998 102 53 13
-5.2030001 -4.441 -0.94099998 88 71 55
-5.2540002 -4.4330001 -0.93699998 149 84 16
-5.2360001 -4.4349999 -0.91500002 116 45 1
-5.23 -4.428 -0.91900003 75 41 29
-5.2379999 -4.4239998 -0.93800002 112 85 68
-5.2379999 -4.4310002 -0.92799997 79 19 0
-5.224 -4.4380002 -0.91500002 74 59 62
-5.224 -4.4299998 -0.91399997 77 25 3
-5.2270002 -4.4330001 -0.91100001 16 0 0
-5.2249999 -4.4349999 -0.91299999 19 1 1
-5.244 -4.4419999 -0.93199998 74 45 27
-5.2329998 -4.4349999 -0.93099999 59 12 0
-5.2280002 -4.4400001 -0.91900003 57 37 36
-5.2309999 -4.434 -0.93599999 106 56 31
-5.2259998 -4.4320002 -0.93300003 63 17 1
-5.2259998 -4.4320002 -0.92799997 96 28 0
-5.2620001 -4.4239998 -0.96600002 154 99 58
-5.2519999 -4.4419999 -0.97000003 100 51 19
-5.256 -4.4289999 -0.96100003 95 42 8
-5.2210002 -4.4060001 -0.96899998 29 3 2
-5.2210002 -4.4070001 -0.986 27 6 1
-5.2160001 -4.4070001 -0.98000002 24 4 3
-5.224 -4.4000001 -0.94700003 62 48 48
-5.2080002 -4.4239998 -0.98900002 12 0 0
-5.1339998 -4.402 -0.99000001 80 38 22
-5.2049999 -4.4070001 -0.91000003 50 16 7
-5.2080002 -4.414 -0.91799998 50 26 16
-5.2309999 -4.4239998 -0.92500001 100 95 92
-5.2399998 -4.4060001 -0.94099998 70 59 57
-5.2399998 -4.4050002 -0.93800002 14 0 0
-5.2379999 -4.4039998 -0.93199998 51 47 38
-5.237 -4.3930001 -0.926 46 21 16
-5.2399998 -4.3979998 -0.93300003 115 51 7
-5.2509999 -4.4310002 -1.034 14 2 4
-5.2290001 -4.4380002 -1.035 152 143 138
-5.1440001 -4.4310002 -0.99699998 72 43 29
-5.1300001 -4.4229999 -0.94400001 27 11 12
-5.132 -4.4219999 -0.95099998 104 47 20
-5.1290002 -4.421 -0.93900001 93 54 37
-5.1199999 -4.4349999 -0.96899998 124 65 35
-5.2379999 -4.4130001 -0.99599999 88 50 31
-5.237 -4.4439998 -0.99599999 79 52 31
-5.1529999 -4.4299998 -1.018 15 0 0
-5.131 -4.402 -1.001 43 14 6
-5.1230001 -4.408 -1.001 56 14 0
-5.1230001 -4.4099998 -1.005 35 1 0
-5.1230001 -4.401 -1.008 19 0 0
-5.2129998 -4.4089999 -0.97799999 38 11 2
-5.2090001 -4.4099998 -0.97600001 111 100 96
-5.2119999 -4.401 -0.963 106 77 63
-5.2309999 -4.4390001 -1.011 42 21 2
-5.2220001 -4.434 -1.0089999 4 0 0
-5.2189999 -4.4289999 -1.011 42 15 8
-5.2080002 -4.4369998 -1.026 92 70 56
-5.2199998 -4.4029999 -1.051 53 34 20
-5.2529998 -4.4250002 -1.017 45 26 11
-5.2459998 -4.4289999 -1.026 24 7 0
-5.2540002 -4.4229999 -1.022 8 0 0
-5.2480001 -4.4289999 -0.99800003 14 0 0
-5.2579999 -4.4180002 -1.026 28 11 4
-5.244 -4.4130001 -1.027 8 0 0
-5.2519999 -4.4130001 -1.031 35 18 8
-5.25 -4.4180002 -1.021 34 14 5
-5.2379999 -4.408 -1.01 54 24 13
-5.2329998 -4.4050002 -1.012 40 5 3
-5.2360001 -4.4070001 -1.023 9 0 1
-5.2379999 -4.4369998 -1.007 78 35 16
-5.2049999 -4.4190001 -1.048 19 11 9
-5.21 -4.4250002 -0.995 10 0 1
-5.2129998 -4.4400001 -1.043 32 3 0
-5.2140002 -4.4330001 -1.046 29 15 6
-5.152 -4.4169998 -1.031 140 117 101
-5.1459999 -4.414 -1.027 93 69 57
-5.1240001 -4.4349999 -1.05 11 1 0
-5.1259999 -4.4580002 -1.03 58 24 0
-5.1149998 -4.4200001 -1.017 4 0 0
-5.112 -4.421 -1.013 2 1 0
-5.119 -4.4060001 -1.018 85 77 75
-5.1110001 -4.4299998 -1.022 143 89 55
-5.132 -4.4169998 -1.052 111 84 73
-5.1490002 -4.408 -1.0319999 111 105 107
-5.1129999 -4.4380002 -1.006 63 30 13
-5.1139998 -4.4390001 -1.021 18 0 0
-5.112 -4.4369998 -1.002 48 12 0
-5.1170001 -4.4159999 -0.96200001 48 25 9
-5.1090002 -4.415 -0.977 92 37 6
-5.204 -4.414 -0.972 100 87 79
-5.2220001 -4.4299998 -0.93300003 106 64 52
-5.1160002 -4.4330001 -0.954 113 49 11
-5.118 -4.4330001 -0.94800001 75 20 0
-5.1149998 -4.4359999 -0.98100001 31 14 4
-5.1149998 -4.4359999 -0.97500002 38 20 6
-5.1030002 -4.4239998 -0.98400003 143 103 78
-5.0949998 -4.421 -0.97299999 151 108 89
-5.0939999 -4.4200001 -0.97600001 94 49 26
-5.1020002 -4.4200001 -0.97600001 167 120 92
-5.1100001 -4.4289999 -0.99299997 69 36 27
-5.1139998 -4.4390001 -0.98799998 43 30 22
-5.1149998 -4.4530001 -1.016 63 22 4
-5.2179999 -4.4320002 -0.921 97 71 54
-5.2220001 -4.4299998 -0.92799997 53 10 1
-5.2179999 -4.4299998 -0.92400002 12 3 6
-5.2199998 -4.4289999 -0.92900002 53 10 3
-5.2420001 -4.3969998 -0.935 113 48 6
-5.2379999 -4.3870001 -0.92199999 36 18 8
-5.2389998 -4.388 -0.926 23 0 0
-5.2290001 -4.4299998 -0.91399997 35 15 14
-5.2340002 -4.4349999 -0.93699998 121 73 51
-5.224 -4.4310002 -0.92900002 85 40 21
-5.2579999 -4.4239998 -0.958 72 41 36
-5.2589998 -4.427 -0.96399999 99 45 11
-5.2519999 -4.4310002 -0.96799999 144 109 89
-5.2470002 -4.4299998 -0.98400003 58 33 26
-5.2579999 -4.4330001 -0.94300002 140 73 21
-5.2189999 -4.3990002 -0.96600002 28 14 11
-5.2080002 -4.4159999 -0.977 30 15 12
-5.21 -4.4089999 -0.94099998 53 15 4
-5.2189999 -4.3969998 -0.935 76 54 43
-5.2080002 -4.4130001 -0.92500001 35 23 25
-5.2069998 -4.4320002 -0.94 107 84 78
-5.2059999 -4.4239998 -0.93199998 69 45 35
-5.2069998 -4.4169998 -0.92299998 129 66 35
-5.2069998 -4.4180002 -0.92500001 113 54 14
-5.23 -4.4200001 -0.92199999 9 4 1
-5.2290001 -4.4200001 -0.92199999 107 97 95
-5.2119999 -4.415 -0.92299998 17 0 0
-5.2189999 -4.4239998 -0.91900003 42 20 22
-5.2350001 -4.4039998 -0.95499998 90 82 79
-5.2389998 -4.415 -0.963 85 81 78
-5.2379999 -4.4089999 -0.95300001 37 17 10
-5.2360001 -4.4109998 -0.96200001 86 78 75
-5.237 -4.414 -0.96499997 90 82 80
-5.2280002 -4.3940001 -0.93900001 11 0 0
-5.2270002 -4.4060001 -0.92699999 113 84 66
-5.2329998 -4.3990002 -0.93099999 100 74 59
-5.243 -4.4310002 -1.03 155 146 139
-5.237 -4.4289999 -1.036 16 2 2
-5.1199999 -4.428 -0.93699998 92 55 28
-5.1240001 -4.4130001 -0.94199997 33 3 0
-5.2010002 -4.4330001 -0.954 22 3 0
-5.1999998 -4.4330001 -0.95099998 19 3 3
-5.2140002 -4.434 -0.97299999 68 43 21
-5.204 -4.4250002 -0.94999999 112 84 73
-5.2049999 -4.421 -0.94999999 56 29 20
-5.2459998 -4.434 -0.99699998 29 9 8
-5.2490001 -4.4310002 -0.99000001 25 14 18
-5.244 -4.427 -0.98699999 8 0 0
-5.243 -4.4250002 -0.991 38 23 20
-5.1300001 -4.4460001 -0.99000001 43 10 0
-5.1360002 -4.441 -0.99400002 34 10 0
-5.1240001 -4.4000001 -1.0089999 33 5 1
-5.1300001 -4.3959999 -1.011 81 44 26
-5.1269999 -4.4000001 -1.015 32 7 2
-5.132 -4.3979998 -1.0089999 42 10 0
-5.2080002 -4.408 -0.95899999 32 9 1
-5.21 -4.434 -0.98799998 99 78 73
-5.2179999 -4.441 -1.033 99 72 43
-5.224 -4.4359999 -1.027 112 82 58
-5.211 -4.4299998 -1.023 94 63 43
-5.2119999 -4.428 -1.026 174 147 126
-5.2069998 -4.434 -1.027 43 17 0
-5.21 -4.4310002 -1.028 25 4 3
-5.2199998 -4.4320002 -1.005 67 25 0
-5.217 -4.4369998 -0.99800003 20 11 14
-5.2290001 -4.4039998 -1.043 65 47 33
-5.21 -4.4070001 -1.046 15 9 9
-5.2119999 -4.4089999 -1.041 10 1 4
-5.2509999 -4.4169998 -1.0089999 11 2 3
-5.2449999 -4.4180002 -1.048 43 26 19
-5.2459998 -4.4130001 -1.04 30 10 0
-5.2459998 -4.4109998 -1.033 77 46 26
-5.2470002 -4.4120002 -1.034 145 134 130
-5.2480001 -4.4159999 -1.036 30 16 16
-5.244 -4.4359999 -1.011 93 65 53
-5.2119999 -4.4200001 -1.049 7 1 1
-5.2129998 -4.427 -1.031 34 10 0
-5.2059999 -4.4369998 -1.035 97 71 44
-5.125 -4.4400001 -1.043 13 3 1
-5.1209998 -4.454 -1.046 44 25 21
-5.1160002 -4.4520001 -1.046 34 17 10
-5.1149998 -4.4489999 -1.0369999 15 0 0
-5.1149998 -4.4349999 -1.049 7 0 0
-5.1160002 -4.4359999 -1.0420001 11 3 1
-5.1290002 -4.4559999 -1.015 101 40 12
-5.1279998 -4.4569998 -1.017 71 10 0
-5.145 -4.4499998 -1.0319999 97 86 82
-5.1209998 -4.4260001 -1.034 71 38 23
-5.118 -4.427 -1.028 48 24 14
-5.119 -4.454 -1.028 94 58 36
-5.1350002 -4.414 -1.049 34 17 7
-5.1300001 -4.4169998 -1.048 16 10 14
-5.1329999 -4.4120002 -1.0420001 125 120 124
-5.1490002 -4.408 -1.043 138 136 139
-5.1139998 -4.4390001 -1.008 52 19 10
-5.1430001 -4.434 -1.002 94 71 57
-5.2049999 -4.4089999 -0.96799999 39 25 24
-5.2090001 -4.408 -0.96899998 47 19 5
-5.1230001 -4.408 -0.99900001 88 41 21
-5.1160002 -4.4310002 -0.95999998 185 109 59
-5.1110001 -4.4369998 -0.99299997 70 18 0
-5.1129999 -4.4369998 -0.99000001 117 66 37
-5.1139998 -4.4489999 -1.017 57 14 0
-5.1329999 -4.4200001 -0.963 84 30 6
-5.131 -4.415 -0.97399998 90 65 60
-5.1440001 -4.4289999 -0.99299997 57 16 0
-5.1440001 -4.421 -0.98699999 103 71 56
-5.2189999 -4.4349999 -0.91799998 73 48 18
-5.2220001 -4.4320002 -0.92199999 51 14 5
-5.2480001 -4.3979998 -0.94300002 107 48 16
-5.2410002 -4.3979998 -0.94300002 93 46 16
-5.2410002 -4.3979998 -0.94099998 70 19 0
-5.2410002 -4.3990002 -0.93599999 100 37 2
-5.2410002 -4.4320002 -0.92900002 102 44 7
-5.257 -4.428 -0.96200001 103 48 17
-5.2519999 -4.4200001 -0.95999998 69 22 4
-5.2379999 -4.3940001 -0.93300003 109 88 83
-5.119 -4.4109998 -0.972 18 3 0
-5.2140002 -4.4060001 -0.94300002 103 73 63
-5.2210002 -4.4039998 -0.95300001 40 24 24
-5.1999998 -4.4299998 -0.94599998 19 5 4
-5.21 -4.427 -0.921 52 25 0
-5.2069998 -4.4190001 -0.91900003 58 31 4
-5.211 -4.4089999 -0.92500001 121 82 65
-5.1199999 -4.4349999 -0.94400001 168 100 51
-5.2059999 -4.4099998 -0.95899999 44 20 10
-5.204 -4.4289999 -0.95599997 85 33 12
-5.2179999 -4.4349999 -0.96200001 122 93 79
-5.2090001 -4.4260001 -0.963 52 33 27
-5.21 -4.4260001 -0.96700001 84 62 64
-5.1570001 -4.4400001 -1.021 96 81 74
-5.1469998 -4.4499998 -1.021 82 50 25
-5.1550002 -4.4369998 -1.017 71 39 28
-5.1409998 -4.448 -1.016 105 65 30
-5.1420002 -4.4390001 -1.011 104 94 84
-5.2119999 -4.4089999 -0.97500002 32 18 18
-5.2129998 -4.4390001 -1.031 104 69 50
-5.2129998 -4.421 -1.0089999 27 3 0
-5.237 -4.4060001 -1.025 105 74 54
-5.2220001 -4.402 -1.044 68 46 32
-5.2319999 -4.408 -1.0470001 12 3 4
-5.2410002 -4.408 -1.031 45 17 3
-5.2090001 -4.4060001 -1.051 7 1 1
-5.2480001 -4.4200001 -1.003 9 0 0
-5.2399998 -4.414 -1.018 15 4 2
-5.244 -4.4159999 -1.022 36 17 10
-5.2379999 -4.4070001 -1.008 33 20 14
-5.2329998 -4.4390001 -1.005 114 58 21
-5.2030001 -4.4219999 -1.045 13 0 0
-5.2360001 -4.4260001 -1.041 12 2 3
-5.2459998 -4.4229999 -1.043 9 0 0
-5.1139998 -4.4520001 -1.0369999 29 8 3
-5.1160002 -4.4429998 -1.041 17 0 0
-5.1290002 -4.4590001 -1.024 109 73 41
-5.1420002 -4.4510002 -1.02 96 77 63
-5.1550002 -4.441 -1.029 28 3 0
-5.1170001 -4.4530001 -1.031 42 10 0
-5.1170001 -4.4450002 -1.026 23 10 4
-5.138 -4.4200001 -1.05 151 146 150
-5.1209998 -4.4310002 -1.048 31 14 6
-5.1139998 -4.4239998 -1.002 21 7 6
-5.1110001 -4.4359999 -0.99800003 60 24 8
-5.1100001 -4.4380002 -0.99800003 48 9 2
-5.138 -4.4499998 -1.011 153 96 53
-5.1430001 -4.4359999 -1.006 100 82 70
-5.1430001 -4.428 -1.001 93 82 76
-5.1139998 -4.4310002 -1.012 86 44 20
-5.1149998 -4.421 -0.96899998 83 39 12
-5.2319999 -4.4380002 -0.96899998 57 10 0
-5.2259998 -4.4349999 -0.98199999 65 17 0
-5.2410002 -4.4190001 -0.99900001 55 36 21
-5.1199999 -4.4159999 -0.99400002 48 29 15
-5.1209998 -4.415 -1.001 15 0 0
-5.119 -4.4169998 -1.005 57 15 0
-5.1170001 -4.4320002 -0.97100002 187 142 103
-5.1059999 -4.4159999 -0.97799999 35 17 3
-5.1129999 -4.4460001 -1.008 105 71 44
-5.138 -4.421 -0.96700001 61 9 0
-5.1389999 -4.4200001 -0.98000002 119 60 28
-5.1339998 -4.4190001 -0.972 97 44 13
-5.2389998 -4.4380002 -0.93800002 20 11 12
-5.2420001 -4.4169998 -0.97899997 36 15 12
-5.2379999 -4.4169998 -0.97799999 18 0 0
-5.2360001 -4.415 -0.96799999 68 58 56
-5.2389998 -4.4200001 -0.98799998 4 0 0
-5.118 -4.415 -0.98400003 63 40 24
-5.2150002 -4.4050002 -0.94499999 73 45 41
-5.1999998 -4.4330001 -0.94099998 42 27 22
-5.223 -4.4289999 -0.91500002 69 16 0
-5.2080002 -4.415 -0.92699999 73 28 7
-5.2399998 -4.4400001 -1.022 51 30 11
-5.2059999 -4.4169998 -0.94599998 57 23 0
-5.2059999 -4.428 -0.958 69 20 3
-5.1199999 -4.428 -0.93900001 156 114 90
-5.1259999 -4.3990002 -1.01 68 34 22
-5.1279998 -4.415 -1.033 43 26 19
-5.1370001 -4.408 -1.036 12 7 11
-5.131 -4.4120002 -1.029 18 2 2
-5.119 -4.4180002 -1.002 14 0 0
-5.118 -4.4190001 -1.0039999 6 0 0
-5.2140002 -4.4330001 -0.97799999 52 25 18
-5.2150002 -4.427 -1.006 23 4 0
-5.2319999 -4.4060001 -1.007 28 0 0
-5.217 -4.4050002 -1.053 46 23 15
-5.2410002 -4.408 -1.035 141 130 126
-5.2420001 -4.4120002 -1.0039999 75 47 43
-5.2389998 -4.4109998 -1.023 12 2 1
-5.2490001 -4.4190001 -1.035 14 3 0
-5.2069998 -4.4359999 -1.045 39 22 14
-5.2189999 -4.4169998 -1.028 19 5 4
-5.211 -4.4229999 -1.039 59 40 26
-5.2179999 -4.4380002 -1.029 62 33 19
-5.2150002 -4.4359999 -1.027 30 11 4
-5.2119999 -4.4359999 -1.026 111 80 49
-5.1539998 -4.4330001 -1.024 21 7 4
-5.1199999 -4.4400001 -1.03 5 0 1
-5.1370001 -4.4219999 -1.051 29 14 7
-5.1259999 -4.4250002 -1.049 20 6 3
-5.1220002 -4.4200001 -1.03 107 92 85
-5.1160002 -4.4219999 -1.0190001 46 27 23
-5.1350002 -4.454 -1.005 24 13 11
-5.1430001 -4.4320002 -1.006 40 4 0
-5.112 -4.4219999 -1.0089999 24 13 11
-5.1139998 -4.4239998 -1.017 9 0 0
-5.1149998 -4.4169998 -0.95700002 224 152 94
-5.2340002 -4.415 -0.96899998 45 10 6
-5.223 -4.4380002 -0.96100003 145 116 72
-5.1230001 -4.4099998 -0.99699998 87 41 15
-5.1129999 -4.4299998 -1.017 67 21 5
-5.1129999 -4.4229999 -1.012 4 0 0
-5.1139998 -4.4310002 -0.95300001 104 50 22
-5.1020002 -4.4200001 -0.97899997 130 84 58
-5.2360001 -4.395 -0.93599999 104 80 70
-5.1999998 -4.4310002 -0.94499999 17 1 1
-5.2059999 -4.4180002 -0.91900003 80 53 36
-5.217 -4.414 -0.926 159 92 39
-5.2309999 -4.4089999 -0.96399999 66 39 18
-5.2389998 -4.4400001 -1.018 92 74 64
-5.2049999 -4.4169998 -0.97299999 25 4 0
-5.2049999 -4.4169998 -0.96899998 36 4 0
-5.2059999 -4.4180002 -0.96499997 69 45 17
-5.2049999 -4.4320002 -0.95499998 87 22 0
-5.204 -4.4299998 -0.95599997 73 16 0
-5.1479998 -4.448 -1.028 102 91 87
-5.1490002 -4.4239998 -1.027 40 11 0
-5.132 -4.3969998 -1.02 25 7 3
-5.1290002 -4.3979998 -1.013 89 56 37
-5.2150002 -4.4349999 -0.986 58 38 29
-5.2249999 -4.434 -1.011 177 123 85
-5.2160001 -4.4060001 -1.045 14 2 2
-5.1420002 -4.4510002 -1.017 28 3 0
-5.1500001 -4.4089999 -1.039 33 15 5
-5.112 -4.4310002 -0.98500001 46 19 0
-5.1139998 -4.421 -1.01 2 1 0
-5.1139998 -4.414 -0.95300001 251 182 125
-5.1139998 -4.4499998 -1.017 67 24 5
-5.1350002 -4.4050002 -0.98199999 16 0 0
-5.1999998 -4.434 -0.94400001 18 3 0
-5.2030001 -4.4299998 -0.95300001 104 39 11
-5.204 -4.415 -0.96499997 18 0 0
-5.211 -4.4289999 -0.96499997 72 30 14
-5.125 -4.4130001 -1.023 33 5 1
-5.1170001 -4.4190001 -1.0089999 4 0 0
-5.131 -4.3969998 -1.018 75 49 34
-5.1440001 -4.4089999 -1.0319999 91 85 87
-5.224 -4.408 -1.038 73 55 43
-5.2220001 -4.4130001 -1.034 45 27 15
-5.2399998 -4.427 -1.036 152 143 134
-5.2129998 -4.4180002 -1.039 42 24 10
-5.2329998 -4.4260001 -1.045 25 11 8
-5.1989999 -4.4369998 -0.94199997 19 1 0
-5.204 -4.414 -0.96799999 69 54 49
-5.151 -4.4429998 -1.029 54 31 23
-5.2259998 -4.4050002 -1.046 10 2 0
-5.2030001 -4.4349999 -1.038 17 0 0
-5.2350001 -4.4260001 -1.0420001 2 2 2
-5.1149998 -4.4250002 -0.972 33 12 0
-5.2470002 -4.421 -1.043 32 19 13
-5.2150002 -4.421 -1.035 40 20 13
-5.2160001 -4.4130001 -1.036 38 19 4
0 0 0 1 0 0 0 1 0 0 0 1 0 0 0 0 0 622 1 0 0
