ply
format ascii 1.0
comment PCL generated
element vertex 1340
property float x
property float y
property float z
property uchar red
property uchar green
property uchar blue
element camera 0
property float view_px
property float view_py
property float view_pz
property float x_axisx
property float x_axisy
property float x_axisz
property float y_axisx
property float y_axisy
property float y_axisz
property float z_axisx
property float z_axisy
property float z_axisz
property float focal
property float scalex
property float scaley
property float centerx
property float centery
property int viewportx
property int viewporty
property float k1
property float k2
end_header
2.822 1.036 -0.89300001 184 149 91
2.7550001 1.0650001 -0.79100001 56 37 33
2.756 1.067 -0.78500003 134 101 47
2.7290001 1.104 -0.77600002 144 111 78
2.734 1.104 -0.78500003 111 71 45
2.6900001 1.028 -0.82099998 62 35 26
2.684 1.036 -0.773 95 58 29
2.7850001 1.046 -0.85100001 46 21 16
2.789 1.0599999 -0.84500003 68 31 2
2.7909999 1.061 -0.852 19 1 0
2.79 1.058 -0.85399997 27 8 1
2.796 1.064 -0.85399997 128 110 108
2.8699999 1.054 -0.84899998 121 101 76
2.888 1.028 -0.847 68 30 9
2.7720001 1.036 -0.41499999 101 43 23
2.717 1.024 -0.78899997 39 25 22
2.7490001 0.99800003 -0.67900002 141 117 79
2.6619999 1.154 -0.88099998 26 10 0
2.651 1.165 -0.90600002 148 106 58
2.638 1.154 -0.84600002 121 75 41
2.569 1.13 -0.77100003 102 52 15
2.5599999 1.149 -0.77200001 74 69 75
2.5669999 1.136 -0.76800001 64 25 0
2.6270001 1.142 -0.79400003 69 32 13
2.3929999 1.345 -0.995 68 39 23
2.4030001 1.332 -0.97799999 235 178 125
2.3859999 1.318 -0.986 118 77 49
2.3139999 1.316 -0.91600001 81 36 5
2.2639999 1.323 -0.88 59 33 16
2.267 1.318 -0.88300002 53 22 1
2.326 1.312 -0.94300002 72 35 16
2.402 1.372 -0.81800002 137 135 146
2.516 1.29 -0.83099997 153 114 55
2.451 1.335 -0.83499998 58 20 0
2.4990001 1.326 -0.86199999 209 176 95
2.5050001 1.327 -0.86000001 123 80 45
2.5120001 1.317 -0.866 48 9 0
2.5309999 1.244 -0.852 40 26 25
2.517 1.279 -0.847 138 92 56
2.5150001 1.272 -0.847 178 130 94
2.5190001 1.319 -0.89499998 110 110 112
2.536 1.311 -0.88300002 17 5 5
2.513 1.23 -0.80299997 80 48 33
2.5090001 1.255 -0.82599998 108 58 25
2.4430001 1.324 -0.90899998 94 45 30
2.4330001 1.342 -0.91000003 84 38 15
2.4100001 1.302 -0.93800002 54 29 9
2.404 1.3 -0.93699998 134 82 6
2.411 1.2920001 -0.94099998 230 191 98
2.4690001 1.336 -0.91399997 143 117 102
2.467 1.325 -0.95999998 9 1 0
2.4860001 1.2920001 -0.958 23 5 1
2.369 1.278 -0.96600002 103 61 39
2.448 1.268 -0.94599998 208 128 57
2.4560001 1.295 -0.97100002 75 27 4
2.4460001 1.298 -0.96799999 57 29 15
2.4630001 1.293 -0.97799999 156 122 97
2.4059999 1.3049999 -0.93699998 64 19 0
2.4430001 1.296 -0.93800002 21 1 0
2.404 1.3430001 -0.88599998 102 48 10
2.3929999 1.35 -0.88499999 41 14 3
2.4319999 1.27 -0.96499997 73 36 18
2.5190001 1.3200001 -0.898 103 104 106
2.4990001 1.353 -0.90899998 38 17 14
2.441 1.326 -0.829 67 37 26
2.4360001 1.327 -0.84200001 233 152 71
2.4260001 1.334 -0.86400002 170 131 102
2.4449999 1.331 -0.86400002 171 159 161
2.441 1.3329999 -0.87 166 105 58
2.5339999 1.308 -0.83200002 53 21 8
2.5220001 1.3049999 -0.83399999 77 46 25
2.5680001 1.321 -0.80000001 46 21 17
2.5599999 1.303 -0.80400002 88 87 93
2.53 1.324 -0.93300003 80 37 3
2.7750001 1.045 -0.58099997 109 80 66
2.7130001 1.118 -0.67199999 241 190 135
2.711 1.108 -0.66600001 107 57 24
2.704 1.096 -0.66900003 134 87 43
2.7320001 1.04 -0.69499999 135 124 122
2.724 1.053 -0.68599999 129 88 60
2.733 1.054 -0.68400002 69 32 6
2.7720001 1.05 -0.60500002 113 77 51
2.78 1.049 -0.60799998 113 78 48
2.753 1.0599999 -0.67199999 195 138 61
2.766 1.039 -0.66100001 129 91 46
2.7520001 1.034 -0.667 161 137 109
2.7420001 1.048 -0.64499998 51 26 22
2.7539999 1.044 -0.66799998 52 16 0
2.7690001 1.051 -0.625 84 53 33
2.7850001 1.058 -0.64099997 73 35 16
2.5799999 1.289 -0.43200001 181 158 140
2.5699999 1.267 -0.42699999 152 147 153
2.5739999 1.273 -0.426 48 43 49
2.602 1.265 -0.52999997 134 91 57
2.573 1.267 -0.54500002 63 35 13
2.573 1.262 -0.55000001 65 33 12
2.55 1.166 -0.64499998 134 86 37
2.5580001 1.147 -0.62599999 39 19 12
2.563 1.15 -0.62800002 68 22 0
2.553 1.128 -0.61400002 64 28 0
2.553 1.128 -0.60699999 98 63 25
2.598 1.13 -0.60600001 54 22 11
2.582 1.122 -0.60000002 61 17 0
2.563 1.158 -0.57599998 133 89 54
2.5639999 1.159 -0.56199998 107 68 37
2.5599999 1.155 -0.56599998 96 51 20
2.7969999 1.194 -0.523 53 32 1
2.7780001 1.204 -0.53100002 36 21 16
2.6159999 1.251 -0.514 51 12 0
2.6040001 1.256 -0.51700002 68 34 9
2.6270001 1.274 -0.49700001 56 23 4
2.711 1.285 -0.47499999 115 75 24
2.71 1.284 -0.47299999 129 91 44
2.7079999 1.294 -0.48500001 64 45 38
2.7079999 1.294 -0.48100001 111 75 43
2.635 1.258 -0.493 129 102 95
2.6930001 1.308 -0.46599999 59 17 1
2.697 1.306 -0.46599999 50 10 0
2.687 1.3150001 -0.46799999 117 88 74
2.7 1.303 -0.45100001 56 18 7
2.727 1.279 -0.463 38 22 23
2.72 1.279 -0.458 102 45 15
2.882 0.98699999 -0.71799999 70 28 3
2.8940001 1.003 -0.69499999 249 241 204
2.895 1.002 -0.73199999 48 21 10
2.8970001 1.021 -0.69800001 99 66 35
2.8929999 1.024 -0.69300002 139 93 70
2.8989999 1.018 -0.70300001 129 83 47
2.8940001 1.007 -0.68199998 118 81 52
2.7980001 1.186 -0.63800001 254 244 232
2.7969999 1.2 -0.71200001 70 34 2
2.799 1.196 -0.699 30 3 0
2.8110001 1.201 -0.69199997 97 58 27
2.941 1.2460001 -0.50800002 107 37 0
2.947 1.232 -0.493 246 192 145
2.9519999 1.238 -0.48699999 214 148 72
2.96 1.25 -0.49399999 51 24 3
2.954 1.243 -0.48899999 130 88 14
2.8050001 1.1720001 -0.35100001 21 14 0
2.8050001 1.176 -0.35600001 82 65 39
2.7969999 1.173 -0.35100001 52 36 11
2.799 1.182 -0.37599999 30 10 3
2.796 1.181 -0.377 21 0 0
2.7980001 1.181 -0.37099999 34 3 0
2.803 1.189 -0.37200001 184 177 185
2.8010001 1.204 -0.44 77 37 12
2.809 1.198 -0.43700001 125 107 85
2.9219999 1.2410001 -0.47999999 123 101 88
2.78 1.182 -0.49599999 178 135 90
2.799 1.205 -0.44299999 54 43 39
2.7920001 1.184 -0.456 61 27 0
2.7920001 1.191 -0.45699999 37 9 0
2.79 1.184 -0.47 111 71 36
2.79 1.188 -0.47600001 112 71 39
2.793 1.184 -0.46799999 68 27 0
2.7909999 1.199 -0.421 209 161 123
2.776 1.205 -0.47999999 87 62 55
2.7850001 1.2029999 -0.47299999 110 60 27
2.7869999 1.1950001 -0.44600001 101 68 37
2.7850001 1.211 -0.40000001 53 11 0
2.7809999 1.212 -0.42699999 221 185 137
2.8 1.178 -0.42899999 46 34 36
2.8110001 1.191 -0.463 66 30 8
2.8039999 1.187 -0.43099999 127 86 64
2.789 1.1799999 -0.48300001 122 77 46
2.783 1.207 -0.495 102 76 63
2.7880001 1.1950001 -0.477 86 40 17
2.7920001 1.191 -0.45899999 34 6 0
2.8989999 1.2819999 -0.574 168 120 72
2.895 1.279 -0.57499999 159 97 38
2.8929999 1.274 -0.57599998 154 100 62
2.8870001 1.304 -0.60500002 212 153 87
2.8859999 1.306 -0.61199999 71 33 10
2.961 1.27 -0.505 181 148 129
2.944 1.314 -0.537 47 18 0
2.9400001 1.3150001 -0.54799998 135 104 84
2.9089999 1.248 -0.69999999 151 119 94
2.918 1.2690001 -0.68900001 155 108 80
2.9130001 1.256 -0.68900001 61 29 18
2.9230001 1.3099999 -0.71399999 69 34 4
2.891 1.2460001 -0.75999999 123 93 69
2.875 1.2460001 -0.75400001 52 17 0
2.8369999 1.265 -0.74699998 70 35 13
2.8329999 1.272 -0.74900001 157 132 112
2.79 1.206 -0.72100002 50 24 9
2.7980001 1.2029999 -0.72799999 50 19 1
2.767 1.2079999 -0.77399999 121 114 121
2.7709999 1.194 -0.759 252 227 196
2.766 1.192 -0.77100003 20 15 19
2.757 1.217 -0.77600002 89 89 91
2.8269999 1.1569999 -0.76499999 71 29 4
2.8740001 1.249 -0.70200002 72 32 7
2.8800001 1.249 -0.70099998 101 62 29
2.8280001 1.176 -0.76200002 25 11 8
2.8380001 1.182 -0.78100002 166 126 101
2.8380001 1.175 -0.77600002 79 43 9
2.8559999 1.226 -0.77600002 147 102 73
2.852 1.2 -0.78399998 102 63 20
2.8069999 1.222 -0.80599999 144 115 101
2.816 1.216 -0.79699999 45 26 20
2.8199999 1.0930001 -0.85100001 255 237 146
2.8329999 1.1059999 -0.87300003 92 62 54
2.8269999 1.1059999 -0.86000001 49 20 2
2.793 1.197 -0.73400003 111 70 38
2.776 1.1900001 -0.71700001 116 66 29
2.7850001 1.202 -0.70200002 158 109 51
2.8759999 1.023 -0.713 128 90 43
2.777 1.205 -0.52200001 48 33 30
2.8789999 1.295 -0.56599998 240 195 112
2.7349999 1.302 -0.57300001 28 0 0
2.7320001 1.298 -0.55299997 60 29 11
2.724 1.304 -0.565 46 20 7
2.7249999 1.3150001 -0.56699997 68 38 28
2.7390001 1.3150001 -0.53500003 91 52 35
2.7379999 1.313 -0.53200001 27 2 0
2.7219999 1.33 -0.537 52 31 26
2.7320001 1.316 -0.53799999 104 71 56
2.7249999 1.309 -0.542 93 68 61
2.723 1.308 -0.55299997 75 61 60
2.7160001 1.3430001 -0.53200001 119 75 50
2.737 1.293 -0.54699999 87 55 30
2.7360001 1.295 -0.542 139 113 90
2.7379999 1.311 -0.53399998 129 105 95
2.73 1.2869999 -0.523 36 25 23
2.7260001 1.289 -0.52100003 38 18 7
2.8900001 1.272 -0.583 158 121 92
2.878 1.272 -0.58600003 211 168 133
2.881 1.276 -0.57700002 255 191 113
2.576 1.123 -0.67900002 130 111 97
2.372 1.35 -0.75199997 197 144 102
2.3889999 1.3660001 -0.75300002 125 62 18
2.3239999 1.4299999 -0.76599997 103 75 63
2.411 1.492 -0.92699999 126 97 79
2.4000001 1.473 -0.92500001 48 21 0
2.4000001 1.4680001 -0.91100001 116 64 17
2.427 1.464 -0.97000003 181 179 184
2.427 1.4579999 -0.96899998 12 9 16
2.454 1.483 -0.96499997 154 140 137
2.335 1.452 -0.90700001 59 12 0
2.345 1.444 -0.912 255 246 178
2.3429999 1.434 -0.83600003 186 142 115
2.3629999 1.459 -0.84299999 88 67 10
2.4760001 1.4630001 -0.87900001 43 20 12
2.471 1.469 -0.86400002 19 0 0
2.451 1.4400001 -0.875 52 25 4
2.434 1.442 -0.87800002 100 66 41
2.4400001 1.438 -0.86900002 60 32 21
2.424 1.441 -0.87699997 46 22 18
2.464 1.443 -0.88 181 164 156
2.425 1.464 -0.85299999 29 8 3
2.4230001 1.467 -0.84799999 170 148 135
2.3210001 1.454 -0.861 56 23 6
2.348 1.457 -0.84799999 24 0 0
2.312 1.455 -0.86199999 158 131 120
2.3629999 1.4859999 -0.93599999 210 152 115
2.359 1.482 -0.93099999 107 48 16
2.3840001 1.438 -0.89099997 112 64 16
2.418 1.451 -0.89899999 84 46 23
2.4089999 1.431 -0.84500003 33 15 5
2.4159999 1.401 -0.884 119 87 66
2.4159999 1.413 -0.88800001 74 39 0
2.312 1.487 -0.77600002 88 52 36
2.312 1.4910001 -0.75400001 110 60 27
2.306 1.487 -0.792 57 37 36
2.3099999 1.485 -0.79100001 46 24 13
2.3080001 1.484 -0.78500003 37 20 13
2.279 1.438 -0.889 157 125 114
2.303 1.421 -0.87400001 70 31 0
2.3010001 1.427 -0.884 128 90 67
2.2690001 1.456 -0.86400002 176 170 180
2.267 1.452 -0.85600001 95 72 56
2.5710001 1.449 -0.79100001 57 36 31
2.5179999 1.353 -0.852 42 30 30
2.5179999 1.368 -0.85399997 37 19 9
2.5109999 1.3660001 -0.85500002 121 58 7
2.5369999 1.381 -0.87 45 19 4
2.313 1.331 -0.96200001 119 106 87
2.3239999 1.348 -0.97100002 201 156 123
2.312 1.3380001 -0.96100003 43 7 0
2.3599999 1.331 -0.995 44 13 0
2.323 1.337 -0.94099998 150 76 29
2.3239999 1.311 -0.95999998 120 89 71
2.319 1.318 -0.95200002 85 48 29
2.3859999 1.408 -0.93099999 174 131 99
2.4000001 1.414 -0.93300003 57 22 2
2.391 1.419 -0.92699999 164 154 152
2.4089999 1.385 -0.82200003 157 86 44
2.4070001 1.386 -0.81800002 177 95 47
2.375 1.378 -0.972 36 18 16
2.3789999 1.352 -0.88200003 108 55 13
2.352 1.339 -0.89600003 174 100 53
2.3269999 1.313 -0.89600003 132 110 97
2.29 1.324 -0.87800002 253 200 148
2.283 1.3200001 -0.85000002 255 228 173
2.303 1.3279999 -0.861 182 173 176
2.289 1.314 -0.84600002 85 62 46
2.303 1.313 -0.86900002 161 130 101
2.306 1.326 -0.86000001 45 22 6
2.309 1.3099999 -0.86000001 98 95 102
2.302 1.299 -0.87699997 38 11 2
2.378 1.354 -0.87400001 127 105 94
2.29 1.327 -0.90100002 83 49 24
2.3039999 1.309 -0.89700001 115 88 69
2.3299999 1.313 -0.91399997 99 56 24
2.3199999 1.337 -0.90600002 39 26 7
2.2820001 1.4910001 -0.90799999 12 0 0
2.286 1.498 -0.90600002 79 45 35
2.2820001 1.499 -0.90100002 181 161 150
2.345 1.454 -0.96399999 54 39 34
2.335 1.355 -0.89700001 29 0 0
2.342 1.368 -0.88599998 102 39 0
2.3050001 1.376 -0.84600002 73 55 51
2.303 1.3839999 -0.847 41 15 2
2.3150001 1.423 -0.93300003 14 2 4
2.257 1.455 -0.82200003 106 52 18
2.2590001 1.4529999 -0.833 187 124 80
2.2679999 1.456 -0.833 33 15 0
2.3329999 1.382 -0.89300001 127 84 52
2.2980001 1.424 -0.86799997 67 45 34
2.3110001 1.4220001 -0.91900003 100 96 97
2.3239999 1.409 -0.90700001 52 13 0
2.4070001 1.385 -0.83499998 43 17 4
2.378 1.4170001 -0.84200001 102 74 60
2.3959999 1.382 -0.87 117 95 82
2.378 1.414 -0.83399999 151 112 73
2.302 1.442 -0.79400003 128 101 84
2.3080001 1.444 -0.77999997 100 55 22
2.2609999 1.4630001 -0.80699998 96 77 44
2.2950001 1.484 -0.77899998 159 124 105
2.3169999 1.4630001 -0.76499999 174 126 80
2.3180001 1.474 -0.759 113 87 72
2.3139999 1.48 -0.764 57 38 31
2.247 1.4859999 -0.759 145 114 50
2.2509999 1.4910001 -0.76200002 164 139 117
2.24 1.478 -0.76099998 80 41 12
2.2409999 1.48 -0.75300002 90 41 11
2.26 1.488 -0.75999999 180 145 115
2.2969999 1.418 -0.76300001 74 55 49
2.2909999 1.436 -0.79400003 122 87 59
2.283 1.4299999 -0.74699998 48 20 6
2.2609999 1.429 -0.745 110 67 35
2.3069999 1.42 -0.75 121 82 53
2.2 1.482 -0.67299998 51 22 14
2.2 1.482 -0.67500001 38 9 3
2.197 1.4809999 -0.67799997 62 35 18
2.2049999 1.484 -0.671 55 27 13
2.2219999 1.506 -0.64399999 58 36 23
2.279 1.439 -0.69099998 77 25 4
2.2449999 1.488 -0.72299999 129 87 62
2.2490001 1.48 -0.70200002 99 60 31
2.2520001 1.49 -0.69700003 109 77 56
2.1989999 1.4809999 -0.66299999 114 75 42
2.201 1.477 -0.66000003 137 107 73
2.2019999 1.472 -0.66799998 78 52 27
2.2019999 1.472 -0.667 75 44 15
2.2019999 1.47 -0.67500001 67 40 23
2.2 1.476 -0.67699999 76 49 32
2.204 1.447 -0.65399998 66 24 0
2.2 1.4630001 -0.64499998 52 30 0
2.2090001 1.459 -0.68599999 53 34 19
2.2119999 1.5 -0.667 142 107 79
2.217 1.494 -0.66500002 221 174 128
2.22 1.494 -0.66600001 245 214 160
2.2090001 1.467 -0.704 40 16 6
2.2030001 1.462 -0.67699999 46 25 6
2.5569999 1.492 -0.75300002 87 40 14
2.5439999 1.487 -0.72399998 74 65 68
2.5420001 1.506 -0.71700001 85 83 86
2.5420001 1.5089999 -0.72299999 170 140 106
2.54 1.5140001 -0.745 41 28 35
2.5409999 1.517 -0.741 166 156 164
2.552 1.534 -0.704 83 54 40
2.527 1.5089999 -0.77100003 183 160 154
2.533 1.51 -0.759 117 74 65
2.533 1.5089999 -0.76300001 74 46 34
2.523 1.5319999 -0.76200002 93 97 98
2.5150001 1.511 -0.73799998 33 15 3
2.5190001 1.506 -0.74299997 135 106 90
2.5120001 1.522 -0.74599999 72 40 29
2.5209999 1.505 -0.75300002 10 0 0
2.523 1.5599999 -0.73400003 90 52 31
2.46 1.618 -0.80199999 252 216 154
2.438 1.493 -0.81999999 93 58 36
2.4560001 1.489 -0.824 89 40 23
2.483 1.441 -0.97000003 24 5 0
2.4590001 1.483 -0.99000001 186 173 164
2.4949999 1.528 -0.91399997 135 133 147
2.4949999 1.512 -0.91000003 157 148 143
2.5190001 1.517 -0.90200001 192 189 200
2.513 1.5190001 -0.884 157 148 149
2.5220001 1.518 -0.89399999 162 157 164
2.5209999 1.476 -0.89700001 130 121 126
2.5209999 1.447 -0.875 188 184 198
2.51 1.446 -0.86699998 80 46 34
2.497 1.449 -0.90100002 22 12 20
2.4430001 1.441 -0.95899999 45 18 0
2.5239999 1.474 -0.90100002 146 140 144
2.487 1.4809999 -0.93400002 41 17 5
2.477 1.49 -0.93199998 34 14 7
2.507 1.501 -0.92900002 52 23 17
2.4949999 1.4400001 -0.89399999 25 7 3
2.506 1.444 -0.889 24 8 8
2.4979999 1.459 -0.93800002 69 35 10
2.5209999 1.48 -0.84100002 86 68 64
2.3099999 1.472 -0.88099998 148 124 100
2.3510001 1.454 -0.89899999 64 13 0
2.451 1.572 -0.90200001 53 47 51
2.4579999 1.62 -0.81400001 229 170 114
2.4649999 1.529 -0.898 46 26 17
2.4660001 1.523 -0.90700001 171 144 115
2.4820001 1.506 -0.88300002 145 132 126
2.467 1.484 -0.89300001 128 110 108
2.4660001 1.477 -0.89399999 77 43 16
2.457 1.483 -0.91000003 209 168 138
2.477 1.483 -0.90700001 31 13 3
2.494 1.501 -0.89700001 30 12 8
2.4349999 1.564 -0.79400003 68 24 0
2.4400001 1.5650001 -0.78100002 83 44 1
2.4289999 1.579 -0.84500003 161 99 52
2.438 1.5779999 -0.83899999 139 110 94
2.425 1.584 -0.83399999 149 96 56
2.418 1.581 -0.80800003 151 122 106
2.431 1.572 -0.88700002 88 20 0
2.431 1.569 -0.88999999 46 14 0
2.444 1.574 -0.898 82 37 14
2.4389999 1.573 -0.89600003 39 24 19
2.3499999 1.388 -0.88700002 149 84 62
2.381 1.4 -0.91799998 114 69 48
2.7620001 1.113 -0.92299998 129 117 117
2.7539999 1.103 -0.93800002 122 110 72
2.747 1.09 -0.958 242 203 134
2.724 1.092 -0.94300002 55 28 7
2.858 1.0779999 -0.93900001 39 20 13
2.7869999 1.107 -0.90799999 34 12 1
2.7850001 1.113 -0.90700001 34 14 7
2.7609999 1.133 -0.91600001 120 121 141
2.7130001 1.189 -0.95599997 210 179 158
2.7090001 1.188 -0.95499998 36 27 32
2.7060001 1.187 -0.94499999 165 151 148
2.72 1.198 -0.88200003 42 18 6
2.7030001 1.149 -0.87900001 29 20 23
2.711 1.155 -0.88499999 184 158 145
2.6949999 1.15 -0.87800002 138 131 138
2.7409999 1.127 -0.88800001 104 77 60
2.6760001 1.148 -0.88200003 71 28 9
2.698 1.145 -0.94800001 29 0 0
2.7360001 1.161 -0.986 68 28 3
2.7460001 1.158 -0.98900002 156 136 125
2.7179999 1.163 -0.95899999 117 118 123
2.767 1.205 -0.86299998 90 61 45
2.8010001 1.237 -0.83499998 40 18 7
2.796 1.228 -0.82599998 56 40 27
2.7950001 1.2359999 -0.83499998 72 55 48
2.7909999 1.247 -0.82700002 81 25 10
2.802 1.242 -0.84500003 96 72 60
2.799 1.239 -0.838 120 102 92
2.7950001 1.249 -0.84600002 54 34 25
2.7980001 1.25 -0.85299999 40 18 7
2.7609999 1.077 -0.90499997 177 157 150
2.7379999 1.104 -0.93300003 50 42 21
2.7360001 1.102 -0.935 167 120 76
2.701 1.091 -0.92500001 115 114 119
2.7379999 1.0930001 -0.93800002 105 69 37
2.7190001 1.114 -0.82099998 58 34 30
2.7090001 1.146 -0.82999998 239 189 138
2.7060001 1.163 -0.833 67 39 28
2.707 1.152 -0.83600003 51 28 22
2.7650001 1.075 -0.88099998 40 20 9
2.7550001 1.0650001 -0.87900001 90 54 28
2.806 1.095 -0.94800001 140 114 77
2.8369999 1.152 -0.935 144 125 118
2.7869999 1.131 -0.94099998 62 22 0
2.786 1.174 -0.97899997 27 12 5
2.4130001 1.403 -0.83399999 57 28 14
2.4389999 1.4450001 -0.76899999 44 24 23
2.4189999 1.456 -0.73100001 126 83 51
2.415 1.4529999 -0.75099999 150 116 91
2.4130001 1.459 -0.75300002 66 25 0
2.4489999 1.484 -0.69199997 61 35 10
2.448 1.459 -0.76599997 154 119 91
2.4489999 1.478 -0.84299999 64 44 35
2.448 1.474 -0.84399998 54 35 29
2.428 1.476 -0.85500002 165 119 86
2.451 1.448 -0.80199999 73 43 19
2.457 1.449 -0.78799999 125 89 55
2.4300001 1.4450001 -0.77700001 118 77 47
2.415 1.433 -0.77999997 160 119 97
2.4089999 1.423 -0.80500001 62 27 0
2.418 1.423 -0.80599999 234 209 152
2.4130001 1.416 -0.79900002 141 134 142
2.4260001 1.4910001 -0.67900002 251 243 230
2.431 1.473 -0.68300003 91 65 50
2.4300001 1.477 -0.67799997 80 49 29
2.434 1.4680001 -0.68400002 23 6 0
2.4430001 1.487 -0.72100002 93 68 27
2.326 1.439 -0.82800001 144 129 122
2.3440001 1.45 -0.824 221 185 169
2.3469999 1.456 -0.83600003 132 93 78
2.349 1.457 -0.847 24 4 0
2.358 1.455 -0.838 89 54 35
2.352 1.448 -0.82999998 73 45 31
2.388 1.446 -0.829 90 55 25
2.378 1.456 -0.81999999 41 14 3
2.5150001 1.557 -0.78200001 110 111 113
2.4790001 1.492 -0.81199998 146 104 56
2.471 1.49 -0.81900001 201 162 121
2.4920001 1.493 -0.83700001 51 33 31
2.507 1.499 -0.80000001 39 20 16
2.527 1.521 -0.755 86 87 89
2.513 1.4960001 -0.75700003 47 29 19
2.5610001 1.499 -0.77700001 148 104 65
2.527 1.4960001 -0.787 144 124 113
2.483 1.456 -0.792 52 26 9
2.523 1.464 -0.792 75 66 69
2.5009999 1.508 -0.86299998 138 137 153
2.48 1.508 -0.91600001 217 190 123
2.4779999 1.511 -0.91299999 143 110 43
2.4890001 1.5470001 -0.91100001 93 91 92
2.4430001 1.5089999 -0.89899999 25 4 1
2.4449999 1.5140001 -0.90100002 29 4 0
2.5639999 1.563 -0.67799997 81 24 0
2.562 1.561 -0.68699998 192 123 90
2.5469999 1.52 -0.64399999 52 29 21
2.5409999 1.554 -0.65399998 45 30 35
2.424 1.493 -0.66900003 112 86 71
2.9200001 1.317 -0.56900001 141 89 49
2.8940001 1.2690001 -0.58099997 92 56 34
2.8859999 1.274 -0.57800001 53 13 1
2.934 1.247 -0.50999999 65 28 2
2.915 1.24 -0.49599999 143 125 103
2.934 1.28 -0.579 46 18 0
2.924 1.284 -0.57599998 111 72 57
2.9170001 1.28 -0.579 207 153 119
2.921 1.278 -0.58499998 158 113 90
2.9460001 1.273 -0.58999997 105 77 40
2.9419999 1.274 -0.59200001 71 25 2
2.9170001 1.272 -0.59299999 87 50 24
2.9059999 1.281 -0.59500003 113 67 44
2.931 1.284 -0.60900003 52 22 0
2.9200001 1.29 -0.60500002 33 18 15
2.941 1.275 -0.59200001 61 20 0
2.8759999 1.299 -0.63700002 129 114 111
2.9449999 1.302 -0.491 37 14 6
2.9619999 1.335 -0.46200001 79 50 36
2.576 1.108 -0.60600001 36 11 4
2.582 1.115 -0.65799999 148 107 51
2.5869999 1.115 -0.65499997 31 13 0
2.7520001 1.025 -0.66399997 72 24 1
2.75 1.03 -0.676 47 13 1
2.744 1.027 -0.66500002 63 36 27
2.7550001 1.031 -0.68199998 49 28 23
2.7420001 1.025 -0.66100001 45 22 8
2.7360001 1.015 -0.648 111 74 58
2.733 1.026 -0.66000003 100 81 75
2.763 1.0319999 -0.537 88 62 47
2.776 1.044 -0.50999999 97 61 35
2.711 1.041 -0.51800001 58 26 11
2.7090001 1.044 -0.51200002 63 31 20
2.7260001 1.035 -0.50599998 104 75 43
2.7079999 1.052 -0.50800002 75 50 43
2.9349999 1.317 -0.60600001 228 172 135
2.9400001 1.314 -0.60500002 89 41 19
2.937 1.313 -0.61400002 56 23 4
2.9330001 1.277 -0.61699998 159 129 101
2.9170001 1.3099999 -0.65399998 153 106 52
2.8940001 1.309 -0.65200001 72 31 9
2.9319999 1.33 -0.60799998 106 74 49
2.8859999 1.286 -0.68699998 91 59 44
2.918 1.308 -0.685 155 112 77
2.835 1.0549999 -0.85900003 83 49 24
2.7590001 1.041 -0.40700001 62 33 27
2.744 1.016 -0.43099999 60 17 1
2.7490001 1.0140001 -0.419 64 29 7
2.743 1.0700001 -0.37799999 255 217 140
2.7579999 1.074 -0.37799999 92 67 47
2.7650001 1.0650001 -0.37400001 214 148 126
2.7590001 1.084 -0.389 92 52 26
2.8010001 1.184 -0.39899999 56 25 5
2.802 1.1849999 -0.39500001 54 22 7
2.786 1.191 -0.39199999 55 22 13
2.77 1.085 -0.40900001 181 123 83
2.7850001 1.1900001 -0.38800001 46 12 3
2.793 1.191 -0.37200001 91 56 16
2.8099999 1.178 -0.685 117 73 48
2.809 1.176 -0.69099998 85 54 26
2.809 1.181 -0.69300002 106 70 48
2.8099999 1.173 -0.68199998 102 62 37
2.789 1.1670001 -0.68099999 162 121 101
2.8080001 1.178 -0.69400001 86 60 37
2.875 1.272 -0.67500001 51 11 3
2.878 1.265 -0.66900003 151 123 109
2.806 1.196 -0.68300003 84 56 42
2.7539999 1.229 -0.71700001 98 88 86
2.7460001 1.23 -0.72399998 18 0 0
2.816 1.199 -0.69800001 122 86 50
2.8050001 1.202 -0.653 137 104 85
2.816 1.2130001 -0.69400001 83 57 42
2.78 1.202 -0.69499999 175 157 145
2.777 1.192 -0.68199998 129 81 59
2.7820001 1.196 -0.69099998 160 93 40
2.7539999 1.165 -0.70499998 86 46 11
2.7720001 1.179 -0.66399997 25 6 2
2.7720001 1.177 -0.65899998 81 42 25
2.777 1.184 -0.65799999 168 137 116
2.766 1.188 -0.68199998 179 120 76
2.7709999 1.177 -0.65399998 70 26 1
2.776 1.183 -0.653 111 56 17
2.589 1.1619999 -0.50199997 89 54 34
2.586 1.155 -0.5 71 31 5
2.586 1.159 -0.49399999 107 73 48
2.569 1.159 -0.48199999 47 4 0
2.582 1.152 -0.491 155 87 38
2.5710001 1.154 -0.486 182 126 77
2.5739999 1.1569999 -0.48800001 176 132 67
2.5969999 1.175 -0.50300002 36 13 5
2.5929999 1.171 -0.49700001 172 118 10
2.6960001 1.27 -0.43799999 216 181 161
2.6240001 1.286 -0.44400001 93 38 8
2.6159999 1.274 -0.435 125 77 39
2.618 1.267 -0.43900001 142 71 17
2.5799999 1.215 -0.48699999 143 98 67
2.576 1.226 -0.48500001 74 58 58
2.5699999 1.192 -0.491 115 101 101
2.5899999 1.215 -0.484 133 70 35
2.599 1.228 -0.48100001 162 153 154
2.6040001 1.229 -0.48100001 204 140 78
2.563 1.217 -0.52200001 77 41 15
2.615 1.266 -0.46900001 46 22 10
2.6170001 1.26 -0.48899999 33 3 0
2.6210001 1.265 -0.49200001 153 125 103
2.5999999 1.256 -0.461 185 117 72
2.717 1.2869999 -0.53500003 73 37 15
2.721 1.289 -0.54100001 141 129 107
2.724 1.293 -0.52200001 80 54 29
2.723 1.295 -0.47600001 95 66 50
2.721 1.286 -0.47099999 27 11 11
2.7219999 1.295 -0.47 50 23 6
2.7349999 1.288 -0.44100001 61 29 6
2.7920001 1.2079999 -0.523 192 132 72
2.8010001 1.204 -0.50099999 81 61 26
2.8039999 1.2 -0.51200002 77 58 43
2.9560001 1.289 -0.59100002 41 11 3
2.803 1.194 -0.58700001 116 82 54
2.793 1.178 -0.648 88 66 52
2.789 1.178 -0.57999998 100 81 75
2.7820001 1.178 -0.58700001 24 0 0
2.783 1.179 -0.57300001 39 6 0
2.7179999 1.279 -0.625 148 129 114
2.8 1.1950001 -0.60399997 34 10 0
2.8050001 1.2029999 -0.56699997 53 18 0
2.882 1.284 -0.61900002 147 105 65
2.892 1.291 -0.62400001 30 17 11
2.8829999 1.286 -0.62199998 77 39 2
2.8870001 1.29 -0.61000001 59 26 7
2.8800001 1.283 -0.61500001 193 152 108
2.8770001 1.2819999 -0.61699998 146 107 66
2.8829999 1.277 -0.60100001 154 108 72
2.8900001 1.27 -0.65600002 121 83 64
2.793 1.199 -0.61799997 77 42 46
2.8 1.1849999 -0.59299999 30 6 2
2.7809999 1.177 -0.58899999 27 2 0
2.711 1.105 -0.66299999 123 79 34
2.7190001 1.105 -0.66299999 34 15 9
2.7720001 1.169 -0.62400001 57 30 9
2.7850001 1.165 -0.61299998 192 169 163
2.7909999 1.1670001 -0.62699997 65 51 51
2.5190001 1.47 -0.66100001 137 71 21
2.5120001 1.462 -0.66000003 148 97 52
2.5510001 1.522 -0.66500002 150 137 129
2.8740001 1.293 -0.59299999 109 71 48
2.7490001 1.289 -0.676 210 193 175
2.7479999 1.2869999 -0.67699999 93 73 64
2.7409999 1.296 -0.63700002 46 16 5
2.7409999 1.296 -0.63 116 78 57
2.747 1.2589999 -0.69199997 67 36 8
2.859 1.266 -0.67000002 44 28 28
2.8699999 1.2589999 -0.708 37 13 3
2.858 1.277 -0.73699999 101 64 46
2.9030001 1.277 -0.65399998 90 61 45
2.54 1.546 -0.597 87 72 67
2.552 1.573 -0.60600001 52 21 1
2.517 1.523 -0.65200001 72 55 29
2.5109999 1.566 -0.63300002 54 18 4
2.51 1.561 -0.62900001 56 22 10
2.5120001 1.556 -0.62800002 142 112 78
2.585 1.589 -0.56800002 98 59 20
2.582 1.579 -0.55900002 50 27 11
2.5780001 1.58 -0.54100001 35 6 0
2.5739999 1.579 -0.537 48 18 0
2.5840001 1.58 -0.55400002 55 32 16
2.569 1.5880001 -0.56400001 100 71 53
2.5780001 1.577 -0.56099999 145 117 103
2.688 1.294 -0.67199999 115 95 84
2.704 1.301 -0.67699999 125 89 67
2.6830001 1.276 -0.69300002 151 108 66
2.6819999 1.274 -0.69 165 124 80
2.6159999 1.2539999 -0.639 119 97 84
2.6159999 1.2589999 -0.64200002 42 22 11
2.681 1.2920001 -0.639 110 93 85
2.688 1.294 -0.634 150 84 23
2.7390001 1.034 -0.68400002 29 10 0
2.7460001 1.031 -0.68000001 36 14 3
2.7479999 1.034 -0.69099998 51 25 10
2.7539999 1.046 -0.67199999 91 51 26
2.7309999 1.145 -0.83399999 58 24 0
2.73 1.153 -0.83899999 44 22 9
2.73 1.071 -0.80400002 85 31 0
2.7420001 1.061 -0.80000001 104 72 57
2.743 1.0549999 -0.81800002 56 39 21
2.7590001 1.066 -0.81199998 127 105 94
2.763 1.097 -0.824 72 41 21
2.7479999 1.097 -0.755 58 26 13
2.7550001 1.104 -0.76800001 51 22 6
2.6830001 1.107 -0.85500002 67 37 29
2.697 1.095 -0.91000003 112 109 116
2.7360001 1.087 -0.86000001 101 63 42
2.7420001 1.082 -0.852 71 30 12
2.7409999 1.085 -0.85600001 147 115 102
2.7079999 1.099 -0.86000001 150 143 151
2.7060001 1.098 -0.85699999 129 93 77
2.704 1.101 -0.85500002 40 28 14
2.6659999 1.085 -0.83399999 198 133 75
2.6700001 1.09 -0.838 54 21 2
2.7409999 1.086 -0.86000001 75 37 14
2.6530001 1.085 -0.84299999 27 11 11
2.671 1.0930001 -0.82499999 86 47 14
2.678 1.143 -0.92299998 139 139 141
2.641 1.155 -0.77600002 46 20 3
2.7409999 1.087 -0.75300002 233 171 122
2.7160001 1.066 -0.755 170 129 77
2.7079999 1.052 -0.74199998 39 17 4
2.72 1.052 -0.81099999 87 51 19
2.717 1.049 -0.80400002 91 52 19
2.7290001 1.05 -0.82700002 58 32 9
2.7179999 1.046 -0.80699998 117 83 58
2.7309999 1.048 -0.824 174 142 119
2.711 1.0470001 -0.80199999 99 71 68
2.721 1.052 -0.796 64 35 17
2.7809999 1.152 -0.75999999 182 118 80
2.786 1.146 -0.74800003 72 70 73
2.7850001 1.152 -0.75599998 78 77 82
2.7869999 1.107 -0.76700002 121 84 68
2.7920001 1.156 -0.73299998 109 64 35
2.7839999 1.14 -0.73900002 70 69 74
2.79 1.154 -0.72899997 96 69 50
2.7909999 1.153 -0.759 68 35 2
2.7690001 1.0420001 -0.708 125 89 65
2.7449999 1.04 -0.71399999 240 187 145
2.7739999 1.0599999 -0.755 71 48 34
2.7620001 1.054 -0.75300002 84 64 55
2.6170001 1.135 -0.773 112 72 36
2.6370001 1.136 -0.73799998 21 9 9
2.6010001 1.1160001 -0.704 42 19 11
2.5969999 1.16 -0.74299997 81 61 52
2.697 1.0880001 -0.852 108 58 21
2.6930001 1.094 -0.84500003 191 144 102
2.701 1.091 -0.838 211 166 133
2.7130001 1.085 -0.833 103 89 86
2.7119999 1.09 -0.84100002 120 102 92
2.6949999 1.0369999 -0.796 70 29 11
2.7390001 1.113 -0.78399998 248 211 159
2.7379999 1.11 -0.787 68 32 6
2.6199999 1.165 -0.73299998 31 8 2
2.6289999 1.153 -0.75199997 126 94 83
2.632 1.154 -0.75400001 56 24 13
2.625 1.15 -0.74599999 70 34 20
2.5769999 1.136 -0.69300002 102 61 31
2.6930001 1.092 -0.83200002 174 151 143
2.6889999 1.097 -0.838 125 88 59
2.6919999 1.0930001 -0.83200002 113 72 42
2.6689999 1.097 -0.847 252 201 158
2.7850001 1.14 -0.74199998 71 70 75
2.7820001 1.147 -0.74599999 79 80 84
2.823 1.166 -0.759 144 101 59
2.822 1.1720001 -0.76200002 254 243 215
2.862 1.205 -0.87599999 173 130 111
2.8699999 1.1849999 -0.889 236 201 145
2.852 1.1950001 -0.89700001 77 39 28
2.852 1.197 -0.88999999 79 43 31
2.8559999 1.206 -0.89600003 109 68 40
2.645 1.158 -0.76599997 75 37 24
2.73 1.138 -0.824 63 28 8
2.7509999 1.0420001 -0.74699998 136 126 117
2.789 1.174 -0.699 114 90 62
2.7939999 1.177 -0.68699998 50 12 1
2.7409999 1.0779999 -0.66399997 202 137 83
2.717 1.089 -0.67000002 89 55 10
2.7780001 1.045 -0.70999998 108 87 70
2.7349999 1.258 -0.68699998 112 79 46
2.7360001 1.256 -0.68800002 34 14 3
2.7490001 1.255 -0.72399998 175 113 62
2.7290001 1.219 -0.70700002 43 14 6
2.7620001 1.1799999 -0.685 108 53 22
2.789 1.151 -0.71899998 238 202 178
2.806 1.177 -0.72799999 197 175 164
2.7980001 1.165 -0.72799999 47 25 14
2.8110001 1.177 -0.73799998 70 49 46
2.7 1.018 -0.78399998 28 1 0
2.7219999 1.061 -0.67500001 53 25 22
2.743 1.0549999 -0.69700003 222 175 103
2.7349999 1.052 -0.68900001 65 37 23
2.776 1.0829999 -0.76800001 89 70 64
2.756 1.076 -0.75999999 179 155 145
2.727 1.0420001 -0.792 188 144 107
2.734 1.057 -0.80699998 77 42 4
2.655 1.191 -0.80400002 43 14 0
2.7160001 1.179 -0.82999998 103 57 31
2.721 1.15 -0.83899999 171 156 153
2.674 1.197 -0.81300002 56 20 0
2.675 1.192 -0.82800001 249 226 195
2.675 1.194 -0.80400002 32 10 0
2.6800001 1.296 -0.65700001 121 100 81
2.75 1.252 -0.83200002 217 173 124
2.76 1.2460001 -0.838 198 161 108
2.76 1.253 -0.83899999 230 210 159
2.7539999 1.233 -0.83600003 34 7 0
2.7609999 1.258 -0.829 253 237 159
2.7320001 1.258 -0.824 159 110 78
2.7639999 1.257 -0.83999997 216 197 154
2.7179999 1.25 -0.82099998 27 12 5
2.733 1.224 -0.78899997 36 12 0
2.707 1.3 -0.667 123 78 49
2.622 1.212 -0.491 79 24 0
2.635 1.222 -0.50599998 138 69 10
2.6240001 1.232 -0.48300001 93 57 31
2.74 1.235 -0.81199998 149 131 121
2.74 1.209 -0.88099998 212 202 193
2.773 1.242 -0.87599999 176 116 62
2.763 1.242 -0.89899999 180 162 90
2.767 1.234 -0.89999998 53 26 19
2.71 1.2 -0.85799998 50 41 44
2.7090001 1.205 -0.85500002 31 20 24
2.721 1.21 -0.86699998 207 152 121
2.7479999 1.214 -0.81099999 164 131 78
2.7190001 1.212 -0.81999999 135 109 92
2.7460001 1.23 -0.83600003 249 224 168
2.77 1.253 -0.86000001 215 190 159
2.77 1.253 -0.85699999 118 100 64
2.7650001 1.177 -0.77600002 70 37 20
2.7650001 1.171 -0.78899997 62 38 34
2.707 1.25 -0.79400003 57 25 2
2.7260001 1.281 -0.773 182 140 115
2.7360001 1.316 -0.61000001 93 87 87
2.691 1.301 -0.63099998 157 123 95
2.7160001 1.304 -0.66100001 53 20 1
2.74 1.317 -0.68099999 121 79 57
2.723 1.3049999 -0.62900001 109 72 54
2.737 1.286 -0.60299999 117 72 31
2.7390001 1.289 -0.63300002 110 44 0
2.7390001 1.3 -0.62 86 62 58
2.7390001 1.301 -0.61799997 115 97 97
2.7 1.28 -0.61699998 116 65 20
2.6919999 1.283 -0.61500001 112 73 40
2.6800001 1.288 -0.616 63 34 18
2.6889999 1.276 -0.62199998 56 26 0
2.7030001 1.289 -0.597 132 102 74
2.5739999 1.295 -0.76099998 170 108 51
2.6199999 1.209 -0.51200002 86 42 17
2.609 1.197 -0.509 104 50 12
2.566 1.16 -0.55800003 164 132 107
2.5680001 1.1619999 -0.54699999 156 115 85
2.576 1.219 -0.54900002 167 125 87
2.5680001 1.216 -0.551 60 43 27
2.5639999 1.2180001 -0.54799998 74 32 7
2.595 1.206 -0.51599997 56 37 33
2.596 1.204 -0.51099998 37 13 9
2.5929999 1.1900001 -0.505 103 51 0
2.5599999 1.235 -0.56 73 27 3
2.5639999 1.2359999 -0.56300002 58 45 36
2.5539999 1.243 -0.565 55 39 39
2.556 1.247 -0.56800002 77 38 0
2.5769999 1.128 -0.68800002 55 18 0
2.5699999 1.161 -0.60799998 98 52 26
2.573 1.303 -0.67799997 8 0 0
2.523 1.475 -0.67699999 71 45 20
2.5220001 1.467 -0.676 254 229 198
2.5239999 1.461 -0.74699998 93 83 82
2.447 1.4809999 -0.70999998 150 123 106
2.4419999 1.476 -0.713 39 9 1
2.45 1.479 -0.72799999 102 68 41
2.45 1.478 -0.73299998 100 60 24
2.447 1.488 -0.72600001 81 72 75
2.424 1.498 -0.69800001 230 167 123
2.427 1.495 -0.625 187 132 91
2.5309999 1.497 -0.69999999 150 124 111
2.46 1.324 -0.57499999 84 67 60
2.4360001 1.3200001 -0.61000001 65 44 43
2.4300001 1.322 -0.60699999 105 61 22
2.5320001 1.263 -0.51300001 252 224 115
2.5239999 1.2460001 -0.52100003 78 50 36
2.5369999 1.265 -0.52899998 203 152 97
2.553 1.2690001 -0.52700001 185 90 8
2.552 1.272 -0.54000002 100 46 20
2.546 1.263 -0.546 70 15 0
2.5550001 1.27 -0.528 187 91 17
2.5339999 1.224 -0.52600002 155 87 52
2.53 1.235 -0.53399998 97 39 0
2.5220001 1.238 -0.52200001 76 29 0
2.5369999 1.255 -0.54400003 218 167 102
2.566 1.263 -0.63300002 96 59 30
2.556 1.253 -0.574 46 16 8
2.566 1.2539999 -0.56999999 98 55 4
2.5610001 1.2539999 -0.59600002 112 75 56
2.5699999 1.2410001 -0.63999999 78 43 1
2.5739999 1.2359999 -0.62 68 52 53
2.451 1.335 -0.58899999 153 129 85
2.4449999 1.326 -0.58600003 79 42 16
2.3900001 1.316 -0.46599999 65 30 10
2.4030001 1.303 -0.463 44 30 29
2.3900001 1.317 -0.47099999 101 64 38
2.404 1.3049999 -0.463 67 52 47
2.4200001 1.319 -0.528 58 33 2
2.425 1.318 -0.52200001 63 26 0
2.4300001 1.314 -0.52399999 106 89 82
2.461 1.331 -0.50800002 106 61 20
2.451 1.318 -0.52399999 34 24 25
2.4460001 1.319 -0.52999997 88 54 26
2.4460001 1.318 -0.51800001 76 46 22
2.4519999 1.3200001 -0.51300001 55 36 32
2.438 1.313 -0.50599998 106 57 17
2.4519999 1.3200001 -0.54100001 43 25 23
2.4749999 1.3380001 -0.56599998 113 73 37
2.589 1.273 -0.542 122 81 61
2.575 1.294 -0.47099999 165 112 72
2.5880001 1.299 -0.46700001 149 75 26
2.4549999 1.3279999 -0.546 105 75 49
2.4630001 1.342 -0.55900002 37 10 1
2.451 1.323 -0.53600001 42 26 26
2.454 1.335 -0.528 72 41 20
2.448 1.341 -0.53899997 63 29 1
2.4519999 1.3200001 -0.54799998 39 24 27
2.467 1.323 -0.56999999 180 128 80
2.5840001 1.235 -0.59799999 110 67 32
2.5940001 1.234 -0.58399999 72 25 7
2.573 1.137 -0.67500001 16 0 0
2.573 1.133 -0.74199998 117 83 71
2.5780001 1.146 -0.71899998 59 39 2
2.562 1.253 -0.611 94 61 46
2.599 1.229 -0.70300001 49 22 3
2.5899999 1.235 -0.69 61 43 43
2.5780001 1.261 -0.60699999 170 120 67
2.5910001 1.265 -0.58899999 48 21 10
2.5739999 1.258 -0.58600003 115 63 16
2.575 1.145 -0.66799998 42 21 4
2.5880001 1.222 -0.70899999 54 18 0
2.5769999 1.2589999 -0.55299997 102 63 32
2.5669999 1.255 -0.56300002 56 29 2
2.5680001 1.255 -0.56300002 42 14 2
2.5539999 1.257 -0.55400002 44 21 15
2.589 1.2 -0.50700003 48 20 16
2.573 1.197 -0.51800001 148 66 19
2.579 1.194 -0.50300002 194 121 80
2.5339999 1.232 -0.55000001 62 19 0
2.2579999 1.46 -0.634 130 60 9
2.2590001 1.464 -0.63300002 154 79 58
2.2620001 1.457 -0.639 132 56 7
2.26 1.471 -0.63 243 192 139
2.2739999 1.3559999 -0.51099998 155 89 55
2.2809999 1.365 -0.50300002 46 14 0
2.2869999 1.358 -0.50199997 195 123 47
2.309 1.339 -0.53399998 103 56 28
2.309 1.36 -0.53200001 130 77 37
2.3759999 1.385 -0.55800003 67 47 23
2.3840001 1.398 -0.55800003 39 6 0
2.3940001 1.409 -0.56800002 150 111 82
2.3840001 1.3940001 -0.57099998 90 54 28
2.392 1.39 -0.58099997 33 4 0
2.425 1.472 -0.65899998 78 38 13
2.2750001 1.452 -0.64399999 91 65 42
2.2720001 1.444 -0.67900002 47 23 13
2.2679999 1.448 -0.68099999 38 14 2
2.2709999 1.454 -0.67299998 62 17 0
2.2290001 1.518 -0.66399997 98 72 57
2.444 1.493 -0.66600001 69 37 12
2.4430001 1.4910001 -0.67400002 109 107 112
2.4189999 1.325 -0.56599998 79 56 40
2.431 1.322 -0.54699999 49 29 22
2.437 1.3200001 -0.53600001 137 94 49
2.4330001 1.322 -0.53600001 150 111 70
2.3940001 1.326 -0.56400001 39 12 0
2.4000001 1.326 -0.55699998 77 29 6
2.2690001 1.426 -0.64099997 75 23 0
2.263 1.432 -0.64099997 141 80 26
2.253 1.432 -0.639 161 93 46
2.4400001 1.321 -0.61799997 154 112 72
2.5599999 1.25 -0.63499999 148 113 59
2.428 1.321 -0.61500001 209 162 110
2.4200001 1.327 -0.60500002 61 24 6
2.421 1.331 -0.58399999 90 53 27
2.391 1.351 -0.42300001 40 10 0
2.3959999 1.35 -0.442 36 12 0
2.3870001 1.386 -0.40599999 67 38 30
2.388 1.393 -0.40400001 76 39 10
2.5569999 1.257 -0.442 111 36 4
2.5599999 1.2539999 -0.44 120 49 5
2.573 1.262 -0.43200001 255 252 201
2.562 1.273 -0.43799999 175 107 26
2.425 1.286 -0.442 125 68 41
2.421 1.2869999 -0.44299999 113 48 18
2.4349999 1.345 -0.47499999 146 100 76
2.4360001 1.335 -0.48100001 97 73 47
2.4349999 1.339 -0.46900001 114 86 65
2.4430001 1.3099999 -0.48300001 99 49 26
2.45 1.319 -0.505 144 95 55
2.447 1.318 -0.495 92 51 31
2.3829999 1.337 -0.53100002 148 131 121
2.388 1.3609999 -0.52399999 72 54 52
2.3829999 1.352 -0.52899998 152 131 126
2.3940001 1.318 -0.52999997 115 55 27
2.5910001 1.6059999 -0.45500001 115 51 15
2.5899999 1.586 -0.45500001 110 33 0
2.598 1.596 -0.45699999 93 39 13
2.582 1.584 -0.454 67 36 16
2.585 1.592 -0.449 170 141 125
2.566 1.577 -0.653 44 25 21
2.549 1.573 -0.62199998 161 87 48
2.549 1.573 -0.62 126 58 23
2.556 1.5779999 -0.59500003 97 52 13
2.5610001 1.586 -0.57599998 47 25 12
2.55 1.585 -0.57200003 43 7 0
2.559 1.5880001 -0.53200001 49 17 2
2.5580001 1.577 -0.528 28 9 5
2.559 1.591 -0.54100001 65 46 39
2.562 1.587 -0.5 22 7 2
2.5480001 1.563 -0.52600002 180 139 107
2.5380001 1.5039999 -0.58700001 202 156 106
2.5320001 1.544 -0.579 102 65 39
2.5209999 1.541 -0.579 208 153 112
2.3900001 1.385 -0.52700001 86 56 22
2.447 1.497 -0.602 46 35 17
2.4449999 1.489 -0.57800001 61 47 44
2.441 1.488 -0.57300001 64 30 5
2.448 1.493 -0.56 73 42 13
2.4489999 1.4910001 -0.565 191 154 112
2.4289999 1.487 -0.58099997 39 17 6
2.4289999 1.513 -0.56 37 2 0
2.448 1.511 -0.51499999 90 38 0
2.483 1.51 -0.537 204 124 73
2.4349999 1.499 -0.54799998 93 66 59
2.211 1.4960001 -0.63200003 46 24 13
2.3640001 1.398 -0.48899999 36 8 0
2.362 1.4119999 -0.484 72 39 20
2.3640001 1.396 -0.48699999 194 151 108
2.345 1.3940001 -0.449 112 59 28
2.3800001 1.3789999 -0.50800002 33 15 13
2.3559999 1.38 -0.52100003 45 25 14
2.355 1.381 -0.52600002 78 57 26
2.3699999 1.376 -0.51999998 116 73 28
2.358 1.413 -0.472 44 21 13
2.2490001 1.4680001 -0.60500002 19 1 1
2.4159999 1.464 -0.38699999 255 224 156
2.4119999 1.4680001 -0.38600001 108 73 45
2.425 1.47 -0.421 102 83 69
2.434 1.4960001 -0.51599997 85 49 35
2.4619999 1.286 -0.44299999 112 48 0
2.45 1.294 -0.44600001 120 56 18
2.4449999 1.306 -0.45699999 173 110 69
2.4549999 1.299 -0.43399999 193 147 111
2.4300001 1.306 -0.46399999 64 26 7
2.4300001 1.3099999 -0.47400001 39 9 0
2.441 1.465 -0.40599999 180 95 4
2.437 1.489 -0.412 32 10 0
2.444 1.4910001 -0.40599999 165 99 51
2.4460001 1.497 -0.40700001 52 32 21
2.428 1.5039999 -0.37099999 64 43 40
2.5610001 1.567 -0.40700001 225 160 80
2.553 1.573 -0.41 74 53 52
2.556 1.576 -0.40900001 50 29 24
2.4460001 1.503 -0.37799999 97 50 24
2.4419999 1.506 -0.375 77 49 37
2.4489999 1.512 -0.377 109 76 45
2.3829999 1.358 -0.34299999 168 117 70
2.3829999 1.3559999 -0.34299999 223 172 119
2.6619999 1.392 -0.37200001 89 47 22
2.585 1.28 -0.43000001 140 117 83
2.368 1.354 -0.34099999 119 72 30
2.3740001 1.353 -0.34200001 125 69 20
2.7079999 1.374 -0.30399999 201 156 97
2.698 1.376 -0.31099999 210 189 170
2.382 1.3710001 -0.34900001 67 27 0
2.8310001 1.209 -0.30199999 231 204 159
2.77 1.209 -0.292 174 148 123
2.777 1.2029999 -0.30599999 90 42 22
2.7739999 1.202 -0.29800001 113 52 7
2.802 1.228 -0.28799999 179 109 58
2.6930001 1.3430001 -0.30599999 248 216 155
2.6919999 1.348 -0.30599999 86 50 24
2.7079999 1.348 -0.30500001 224 170 108
2.711 1.346 -0.30700001 202 169 115
2.7019999 1.35 -0.308 60 33 24
2.7 1.36 -0.30899999 85 57 33
2.6849999 1.3430001 -0.308 255 237 161
2.6930001 1.347 -0.30700001 254 223 166
2.457 1.308 -0.42500001 237 184 130
2.4619999 1.304 -0.42300001 78 35 0
2.5469999 1.286 -0.44299999 97 74 66
2.5439999 1.29 -0.44499999 154 107 77
2.5639999 1.279 -0.428 170 135 105
2.5669999 1.288 -0.42899999 135 106 90
2.438 1.317 -0.41100001 34 7 0
2.5899999 1.314 -0.44999999 208 137 57
2.6670001 1.378 -0.389 75 33 9
2.5999999 1.281 -0.43000001 141 109 58
2.6010001 1.276 -0.42899999 161 108 64
2.6040001 1.2819999 -0.42899999 189 150 95
2.438 1.317 -0.44100001 184 122 75
2.437 1.306 -0.435 101 58 24
2.4389999 1.3150001 -0.41800001 178 136 114
2.4230001 1.326 -0.43599999 243 218 138
2.4349999 1.322 -0.41600001 194 161 108
2.4389999 1.324 -0.419 58 20 0
2.428 1.329 -0.43599999 217 162 82
2.454 1.303 -0.419 224 168 121
2.658 1.349 -0.33500001 168 137 80
2.648 1.369 -0.32499999 252 215 162
2.6800001 1.353 -0.35499999 58 42 17
2.6819999 1.354 -0.359 51 33 9
2.786 1.198 -0.30000001 88 38 3
2.7850001 1.198 -0.31200001 115 54 10
2.7809999 1.193 -0.30500001 194 112 54
2.7820001 1.182 -0.301 187 155 130
2.7839999 1.1950001 -0.29800001 95 57 20
2.721 1.2819999 -0.417 216 181 153
2.721 1.304 -0.417 97 70 59
2.724 1.291 -0.419 178 149 135
2.72 1.2920001 -0.419 54 33 30
2.8050001 1.244 -0.30500001 157 80 38
2.8039999 1.242 -0.303 118 75 30
2.79 1.228 -0.30199999 145 136 121
2.7809999 1.225 -0.29800001 104 69 47
2.7950001 1.149 -0.31299999 118 93 89
2.431 1.513 -0.433 37 4 0
2.431 1.52 -0.456 46 16 6
2.4319999 1.521 -0.46200001 135 93 77
2.428 1.516 -0.463 78 65 59
2.3859999 1.355 -0.368 129 81 45
2.3599999 1.367 -0.40599999 122 74 36
2.3429999 1.449 -0.41 228 156 84
2.3570001 1.441 -0.39899999 181 128 86
2.3280001 1.424 -0.41600001 255 213 109
2.349 1.448 -0.405 175 129 70
2.3469999 1.447 -0.41299999 230 172 109
2.3729999 1.408 -0.40000001 157 89 26
2.382 1.415 -0.40200001 180 128 78
2.3759999 1.423 -0.40000001 161 115 63
2.3859999 1.438 -0.39700001 155 101 39
2.3729999 1.423 -0.39700001 161 116 61
2.3710001 1.362 -0.36700001 255 251 232
2.3599999 1.4220001 -0.39899999 145 90 49
2.326 1.406 -0.405 191 160 140
2.392 1.488 -0.39399999 199 150 110
2.4000001 1.473 -0.38100001 228 147 68
2.418 1.456 -0.391 202 143 77
2.411 1.4809999 -0.37900001 254 194 96
2.362 1.399 -0.396 205 134 72
2.3529999 1.372 -0.403 205 161 134
2.2969999 1.36 -0.50199997 88 57 26
2.3299999 1.383 -0.428 69 41 19
2.293 1.36 -0.50199997 131 88 46
2.4030001 1.3099999 -0.36000001 120 58 17
2.395 1.304 -0.373 190 125 57
2.3889999 1.319 -0.34099999 64 31 22
2.3800001 1.316 -0.33899999 163 139 77
2.3789999 1.327 -0.34 157 94 41
2.3670001 1.321 -0.345 99 41 3
2.3659999 1.3150001 -0.34999999 119 63 12
2.3080001 1.372 -0.50400001 138 121 111
2.448 1.336 -0.442 83 19 0
2.438 1.344 -0.43599999 219 157 132
2.812 1.176 -0.31400001 249 220 178
2.7409999 1.017 -0.34799999 170 125 96
2.5539999 1.53 -0.42699999 82 34 0
2.5510001 1.5319999 -0.43200001 255 218 156
2.55 1.534 -0.43399999 198 108 48
2.546 1.538 -0.435 108 36 0
2.4100001 1.359 -0.352 63 26 0
2.4059999 1.352 -0.34799999 64 37 20
2.408 1.3430001 -0.36000001 241 199 127
2.4070001 1.327 -0.36000001 93 66 55
2.3929999 1.362 -0.34799999 125 99 86
2.405 1.341 -0.345 25 6 8
2.388 1.329 -0.33899999 188 128 56
2.6730001 1.3710001 -0.31200001 138 71 16
2.664 1.386 -0.32100001 255 214 138
2.388 1.349 -0.347 244 180 116
2.3870001 1.352 -0.36000001 88 32 0
2.3699999 1.342 -0.347 252 239 160
2.3859999 1.342 -0.34200001 60 28 7
2.414 1.446 -0.40000001 234 190 117
2.4360001 1.348 -0.41999999 231 185 133
2.4489999 1.49 -0.41600001 105 72 41
2.589 1.581 -0.45699999 102 57 24
2.5899999 1.574 -0.45500001 94 56 33
2.585 1.5779999 -0.454 132 70 33
2.575 1.574 -0.454 144 85 43
2.602 1.589 -0.465 114 54 17
2.5469999 1.582 -0.50700003 86 72 69
2.5220001 1.5650001 -0.52999997 124 85 18
2.5599999 1.571 -0.458 177 93 23
2.5639999 1.576 -0.465 52 19 4
2.566 1.568 -0.465 40 8 0
2.553 1.591 -0.46599999 63 36 19
2.5369999 1.251 -0.51300001 170 99 33
2.5380001 1.277 -0.456 104 69 29
2.546 1.27 -0.46700001 154 103 84
2.5409999 1.271 -0.45500001 139 79 45
2.5480001 1.283 -0.449 63 17 0
2.599 1.603 -0.52899998 169 123 90
2.605 1.604 -0.52399999 46 13 0
2.605 1.5880001 -0.57599998 49 16 1
2.5899999 1.5599999 -0.45699999 102 44 6
2.595 1.563 -0.456 160 135 115
2.566 1.534 -0.42699999 36 11 4
2.5680001 1.5369999 -0.42199999 129 77 27
2.6849999 1.426 -0.38800001 147 65 41
2.6830001 1.331 -0.528 95 61 34
2.684 1.3380001 -0.52200001 110 85 65
2.6819999 1.3380001 -0.51899999 116 90 73
2.694 1.353 -0.542 255 221 163
2.694 1.398 -0.442 47 36 32
2.6129999 1.61 -0.49399999 29 10 3
2.678 1.405 -0.39500001 64 17 1
2.54 1.513 -0.53399998 135 90 69
2.5280001 1.518 -0.546 128 74 30
2.54 1.52 -0.52399999 128 86 48
2.5369999 1.52 -0.52100003 198 151 99
2.536 1.523 -0.51999998 184 123 58
2.6070001 1.558 -0.44 217 138 71
2.7049999 1.358 -0.55699998 45 12 0
2.7179999 1.319 -0.54699999 126 102 92
2.7149999 1.289 -0.56599998 150 124 107
2.6860001 1.306 -0.55599999 88 38 3
2.6889999 1.3049999 -0.55000001 163 122 90
2.9200001 1.335 -0.458 118 53 23
2.9460001 1.374 -0.44100001 97 70 51
2.7309999 1.306 -0.426 49 30 23
2.7219999 1.309 -0.42199999 33 5 0
2.701 1.3099999 -0.42300001 48 15 0
2.697 1.304 -0.428 58 35 19
2.698 1.299 -0.42699999 79 38 0
2.7019999 1.38 -0.31299999 58 25 6
2.7820001 1.176 -0.34200001 190 157 114
2.783 1.184 -0.34 117 91 56
2.783 1.1849999 -0.34299999 140 112 75
2.7950001 1.1720001 -0.347 26 12 0
2.7939999 1.177 -0.34999999 158 134 108
2.7920001 1.201 -0.32699999 192 139 108
2.7820001 1.164 -0.30500001 143 61 3
2.78 1.183 -0.31400001 184 135 94
2.914 1.368 -0.43799999 239 223 138
2.915 1.367 -0.44100001 212 179 102
2.697 1.4 -0.42899999 11 0 0
2.7030001 1.349 -0.40700001 186 151 109
2.7079999 1.358 -0.433 32 13 15
2.7149999 1.341 -0.428 145 102 70
2.7179999 1.352 -0.449 62 20 0
2.714 1.352 -0.41499999 145 102 70
2.7130001 1.351 -0.391 98 57 37
2.7130001 1.368 -0.37599999 25 5 0
2.714 1.347 -0.41299999 155 128 121
2.72 1.275 -0.44600001 61 25 11
2.7219999 1.274 -0.44299999 155 97 47
2.7060001 1.339 -0.505 89 60 46
2.7190001 1.337 -0.484 69 27 5
2.7130001 1.36 -0.49700001 47 15 0
2.724 1.313 -0.44600001 56 32 28
2.724 1.36 -0.34299999 68 33 13
2.7249999 1.36 -0.34200001 139 66 34
2.707 1.318 -0.421 36 16 9
2.697 1.291 -0.454 69 38 18
2.6789999 1.3430001 -0.48800001 110 94 78
2.6819999 1.339 -0.48100001 80 48 23
2.7119999 1.354 -0.55599999 157 120 94
2.948 1.329 -0.523 15 6 0
2.931 1.355 -0.428 254 248 222
2.927 1.337 -0.45500001 60 18 4
2.928 1.3279999 -0.45300001 107 64 47
2.9300001 1.317 -0.44499999 55 30 0
2.9419999 1.3279999 -0.454 73 37 23
2.721 1.383 -0.361 166 79 8
2.7149999 1.378 -0.38 54 17 0
2.691 1.415 -0.36899999 254 240 193
2.6960001 1.3940001 -0.35800001 142 103 62
2.789 1.2180001 -0.28600001 85 22 0
2.78 1.217 -0.287 143 82 37
2.7019999 1.336 -0.34099999 71 44 27
2.707 1.319 -0.338 102 70 47
2.7119999 1.353 -0.336 86 45 25
2.7130001 1.346 -0.32100001 134 67 15
2.711 1.348 -0.34 111 93 81
2.7130001 1.358 -0.31400001 90 32 8
2.7130001 1.365 -0.315 96 65 47
2.7119999 1.358 -0.30500001 165 122 80
2.7130001 1.35 -0.31099999 254 198 141
2.721 1.367 -0.31200001 58 40 38
2.7160001 1.347 -0.33399999 135 107 85
2.7920001 1.199 -0.36300001 54 18 0
2.8010001 1.211 -0.33700001 117 92 70
2.8150001 1.2130001 -0.33700001 97 57 21
2.822 1.228 -0.331 109 83 50
2.8180001 1.221 -0.33000001 147 108 65
2.822 1.217 -0.333 132 97 67
2.849 1.207 -0.331 252 223 183
2.8429999 1.2079999 -0.31900001 56 17 0
2.79 1.209 -0.373 71 34 16
2.7909999 1.209 -0.36899999 38 18 19
2.793 1.21 -0.377 147 86 23
2.796 1.2 -0.398 34 10 0
2.8180001 1.232 -0.294 127 82 53
2.819 1.227 -0.289 167 101 43
2.826 1.219 -0.289 176 141 119
2.8280001 1.233 -0.303 137 109 95
2.9059999 1.365 -0.46000001 179 128 71
2.53 1.4680001 -0.66600001 87 47 12
2.5699999 1.568 -0.56699997 115 92 74
2.562 1.573 -0.55299997 51 26 21
2.5280001 1.516 -0.58099997 87 55 32
2.71 1.329 -0.59299999 40 23 16
2.714 1.3150001 -0.60299999 141 114 97
2.5929999 1.273 -0.505 68 48 39
2.5910001 1.274 -0.52399999 90 65 34
2.592 1.273 -0.50599998 33 10 2
2.704 1.352 -0.52999997 125 73 49
2.7079999 1.354 -0.52600002 96 42 18
2.72 1.336 -0.54900002 68 25 6
2.711 1.354 -0.523 37 19 7
2.707 1.352 -0.546 124 83 53
2.694 1.313 -0.54100001 57 22 2
2.6900001 1.3329999 -0.55299997 151 108 91
2.7420001 1.295 -0.66299999 96 62 50
2.733 1.276 -0.65700001 70 43 34
2.7149999 1.2589999 -0.704 122 90 77
2.697 1.274 -0.699 54 16 3
2.6860001 1.283 -0.69800001 35 2 0
2.602 1.579 -0.41600001 200 146 60
2.6059999 1.5700001 -0.42899999 150 89 24
2.6129999 1.584 -0.421 253 217 123
2.5139999 1.454 -0.66399997 59 37 14
2.5179999 1.455 -0.667 123 93 67
2.529 1.465 -0.67400002 103 74 58
