ply
format ascii 1.0
comment PCL generated
element vertex 484
property float x
property float y
property float z
property uchar red
property uchar green
property uchar blue
element camera 1
property float view_px
property float view_py
property float view_pz
property float x_axisx
property float x_axisy
property float x_axisz
property float y_axisx
property float y_axisy
property float y_axisz
property float z_axisx
property float z_axisy
property float z_axisz
property float focal
property float scalex
property float scaley
property float centerx
property float centery
property int viewportx
property int viewporty
property float k1
property float k2
end_header
-6.2309999 -2.2279999 -0.89300001 233 211 172
-6.2319999 -2.22 -0.89300001 251 216 176
-6.223 -2.2219999 -0.884 174 138 116
-6.2360001 -2.2360001 -0.89399999 151 128 94
-6.4460001 -2.546 -1.0420001 121 77 40
-6.4390001 -2.562 -1.051 64 54 27
-6.4359999 -2.5420001 -1.036 134 91 59
-6.2290001 -2.223 -0.87 241 206 106
-6.2350001 -2.2090001 -0.87199998 103 80 28
-6.2379999 -2.2260001 -0.85799998 151 123 102
-6.2340002 -2.2260001 -0.86299998 255 234 211
-6.243 -2.2179999 -0.87099999 244 210 172
-6.4450002 -2.5650001 -1.0470001 131 84 40
-6.4419999 -2.5669999 -1.0470001 145 112 67
-6.4460001 -2.55 -1.044 108 63 32
-6.4390001 -2.5580001 -1.0470001 101 83 81
-6.2329998 -2.2249999 -0.89300001 201 163 118
-6.2449999 -2.24 -0.89300001 187 151 101
-6.2340002 -2.23 -0.89300001 255 219 173
-6.4489999 -2.543 -1.038 158 123 83
-6.4369998 -2.536 -1.03 128 110 108
-6.4369998 -2.533 -1.028 119 63 26
-6.4260001 -2.529 -1.026 107 90 82
-6.4089999 -2.5339999 -1.016 83 68 73
-6.4089999 -2.5409999 -1.0190001 63 47 32
-6.428 -2.549 -1.034 83 56 45
-6.276 -2.296 -0.88200003 208 168 133
-6.2849998 -2.3069999 -0.90100002 255 226 166
-6.2880001 -2.3099999 -0.884 255 221 163
-6.2740002 -2.2880001 -0.89600003 223 178 139
-6.277 -2.3050001 -0.89600003 252 201 146
-6.2709999 -2.299 -0.89399999 150 102 66
-6.2259998 -2.237 -0.88200003 194 174 75
-6.2329998 -2.227 -0.89300001 254 239 180
-6.2290001 -2.2130001 -0.88200003 251 229 180
-6.2350001 -2.21 -0.88099998 252 214 169
-6.2410002 -2.2090001 -0.88700002 251 194 125
-6.2329998 -2.2149999 -0.884 164 112 72
-6.2340002 -2.2309999 -0.86299998 251 230 199
-6.237 -2.2130001 -0.87800002 169 139 87
-6.2459998 -2.2179999 -0.875 248 223 183
-6.244 -2.247 -0.86000001 154 128 105
-6.2410002 -2.2309999 -0.85900003 166 139 112
-6.2529998 -2.237 -0.87199998 169 127 89
-6.25 -2.2249999 -0.87400001 165 129 93
-6.4299998 -2.5369999 -1.028 135 91 56
-6.4120002 -2.53 -0.99599999 255 251 232
-6.4060001 -2.523 -0.98699999 138 126 110
-6.3990002 -2.539 -1 237 184 104
-6.2930002 -2.323 -0.88999999 241 193 129
-6.2839999 -2.3210001 -0.87400001 82 50 0
-6.2839999 -2.316 -0.87199998 82 48 11
-6.3959999 -2.5350001 -1.006 185 131 71
-6.4050002 -2.5420001 -1.015 133 84 26
-6.4239998 -2.543 -1.029 88 36 0
-6.2480001 -2.237 -0.889 255 229 178
-6.256 -2.2479999 -0.889 255 209 144
-6.2779999 -2.3080001 -0.87300003 120 88 37
-6.276 -2.299 -0.88200003 193 151 113
-6.277 -2.3050001 -0.88 189 149 97
-6.2719998 -2.2950001 -0.89399999 150 103 59
-6.2290001 -2.2279999 -0.88499999 98 63 41
-6.2779999 -2.339 -0.90399998 245 203 179
-6.2729998 -2.329 -0.89600003 105 64 44
-6.276 -2.323 -0.89899999 230 195 176
-6.375 -2.51 -0.977 249 206 138
-6.381 -2.5139999 -0.98199999 255 219 154
-6.3800001 -2.5050001 -0.98500001 92 80 82
-6.2350001 -2.23 -0.89200002 221 201 142
-6.2420001 -2.2260001 -0.889 116 85 67
-6.2420001 -2.2379999 -0.89200002 255 245 187
-6.3150001 -2.378 -0.91900003 241 197 148
-6.3060002 -2.3800001 -0.91799998 116 98 76
-6.3200002 -2.3970001 -0.92400002 255 228 179
-6.3959999 -2.5039999 -0.97299999 127 121 121
-6.4050002 -2.503 -0.98299998 254 214 165
-6.4089999 -2.513 -0.97899997 191 141 82
-6.3959999 -2.5079999 -0.97299999 125 121 122
-6.4050002 -2.5380001 -1.008 211 151 88
-6.408 -2.5420001 -1.0140001 246 187 121
-6.2480001 -2.2390001 -0.86500001 77 53 41
-6.2470002 -2.2520001 -0.861 114 88 65
-6.441 -2.5369999 -1.015 169 117 70
-6.4349999 -2.527 -1.011 155 119 69
-6.4369998 -2.54 -1.025 186 142 97
-6.3080001 -2.3540001 -0.90399998 188 152 118
-6.316 -2.3640001 -0.91500002 204 151 75
-6.309 -2.3629999 -0.90100002 167 128 89
-6.2859998 -2.316 -0.89099997 169 129 77
-6.2880001 -2.319 -0.89999998 206 154 79
-6.2940001 -2.332 -0.90600002 242 195 127
-6.3979998 -2.5209999 -1.003 63 43 34
-6.4289999 -2.5250001 -1.0140001 62 26 4
-6.421 -2.54 -1.024 125 90 52
-6.4099998 -2.546 -1.0190001 200 135 69
-6.2709999 -2.3210001 -0.88700002 249 217 160
-6.2649999 -2.3039999 -0.88700002 175 128 98
-6.2600002 -2.3169999 -0.86699998 156 93 26
-6.303 -2.3740001 -0.903 233 213 160
-6.3039999 -2.359 -0.89899999 151 109 69
-6.263 -2.3139999 -0.86299998 161 99 16
-6.2979999 -2.3410001 -0.90399998 148 108 83
-6.303 -2.342 -0.91299999 255 229 175
-6.322 -2.4089999 -0.91399997 240 223 154
-6.3179998 -2.4030001 -0.912 228 217 153
-6.3179998 -2.4000001 -0.91100001 223 209 136
-6.243 -2.244 -0.89300001 134 88 38
-6.256 -2.286 -0.88 255 220 161
-6.2589998 -2.2820001 -0.89200002 82 36 20
-6.2649999 -2.3 -0.88999999 169 127 103
-6.2649999 -2.2909999 -0.89300001 147 97 72
-6.2509999 -2.2349999 -0.884 255 225 181
-6.2529998 -2.2360001 -0.88099998 245 227 189
-6.2519999 -2.2320001 -0.87699997 241 203 167
-6.2810001 -2.3150001 -0.87400001 96 66 12
-6.2779999 -2.3039999 -0.89300001 207 139 76
-6.2670002 -2.313 -0.87199998 228 159 92
-6.2249999 -2.2279999 -0.88099998 156 94 35
-6.302 -2.358 -0.91299999 255 228 173
-6.2940001 -2.368 -0.90799999 226 183 132
-6.2989998 -2.378 -0.91600001 255 229 196
-6.3070002 -2.395 -0.91600001 194 131 88
-6.3189998 -2.4059999 -0.91900003 235 211 141
-6.2290001 -2.2309999 -0.884 192 136 77
-6.2449999 -2.2249999 -0.86900002 146 108 61
-6.2509999 -2.2279999 -0.87400001 201 168 135
-6.2379999 -2.244 -0.866 255 229 189
-6.2360001 -2.2349999 -0.86400002 141 87 25
-6.243 -2.2420001 -0.86000001 171 145 120
-6.447 -2.55 -1.035 128 93 51
-6.4369998 -2.553 -1.0319999 255 250 197
-6.441 -2.546 -1.015 134 89 47
-6.4390001 -2.5539999 -1.035 168 161 109
-6.4349999 -2.552 -1.028 255 245 192
-6.434 -2.559 -1.043 193 156 114
-6.434 -2.5599999 -1.04 235 167 92
-6.4330001 -2.5539999 -1.036 89 56 21
-6.4299998 -2.5510001 -1.0140001 120 77 32
-6.4310002 -2.5510001 -1.022 138 115 107
-6.4239998 -2.553 -1.02 121 101 100
-6.441 -2.543 -1.036 134 90 55
-6.4180002 -2.5339999 -1.005 148 141 115
-6.4180002 -2.5380001 -1.005 254 246 223
-6.3299999 -2.418 -0.91900003 163 114 56
-6.3299999 -2.415 -0.91900003 181 134 78
-6.3839998 -2.4920001 -0.96899998 228 190 81
-6.3870001 -2.494 -0.97000003 236 192 145
-6.3850002 -2.4920001 -0.977 249 230 136
-6.382 -2.4879999 -0.96600002 254 221 170
-6.2810001 -2.316 -0.89899999 255 226 159
-6.2880001 -2.3239999 -0.90200001 236 191 123
-6.283 -2.3180001 -0.89899999 242 200 128
-6.395 -2.5220001 -1.001 113 81 42
-6.3909998 -2.507 -0.98699999 112 64 28
-6.3940001 -2.4979999 -0.977 255 215 167
-6.4109998 -2.513 -0.991 255 219 174
-6.4109998 -2.529 -1.011 78 63 68
-6.4180002 -2.5250001 -1.003 255 209 163
-6.421 -2.5409999 -1.024 88 39 0
-6.4190001 -2.546 -1.022 226 181 126
-6.4180002 -2.5320001 -1.0190001 201 182 106
-6.4130001 -2.5439999 -1.015 230 185 100
-6.421 -2.5409999 -1.011 208 158 99
-6.3140001 -2.3840001 -0.91799998 252 205 163
-6.289 -2.319 -0.88800001 249 203 141
-6.2789998 -2.326 -0.88800001 255 241 189
-6.276 -2.326 -0.89099997 255 228 168
-6.3010001 -2.368 -0.90200001 238 221 169
-6.3070002 -2.369 -0.90399998 226 192 154
-6.3130002 -2.3829999 -0.90700001 178 137 85
-6.3099999 -2.3759999 -0.90600002 179 138 94
-6.3070002 -2.378 -0.90600002 242 220 160
-6.2839999 -2.3440001 -0.89899999 215 167 129
-6.2849998 -2.3429999 -0.903 253 209 174
-6.3000002 -2.346 -0.89700001 182 137 95
-6.29 -2.3499999 -0.89499998 254 233 178
-6.2940001 -2.3629999 -0.90200001 255 235 165
-6.329 -2.421 -0.91900003 193 144 85
-6.323 -2.404 -0.91600001 181 144 91
-6.2729998 -2.289 -0.88099998 215 177 138
-6.2709999 -2.2820001 -0.88 209 171 132
-6.2639999 -2.27 -0.88999999 225 163 106
-6.2509999 -2.263 -0.88800001 129 78 51
-6.2600002 -2.2909999 -0.88200003 155 110 51
-6.27 -2.283 -0.89200002 206 158 122
-6.2639999 -2.2739999 -0.889 216 157 101
-6.25 -2.233 -0.88200003 255 238 199
-6.2729998 -2.313 -0.89499998 89 51 14
-6.2670002 -2.303 -0.88999999 192 150 125
-6.2709999 -2.3150001 -0.88700002 154 115 48
-6.2740002 -2.299 -0.89300001 135 83 33
-6.2690001 -2.313 -0.87800002 180 134 75
-6.2659998 -2.312 -0.86299998 182 124 40
-6.276 -2.306 -0.875 161 131 79
-6.303 -2.3559999 -0.91000003 252 202 133
-6.243 -2.224 -0.88800001 241 208 173
-6.2420001 -2.221 -0.88599998 211 182 150
-6.244 -2.2249999 -0.884 215 169 75
-6.244 -2.217 -0.88 202 161 117
-6.336 -2.4319999 -0.926 241 207 146
-6.3340001 -2.428 -0.92500001 242 206 146
-6.335 -2.438 -0.926 226 184 126
-6.3800001 -2.5109999 -0.97000003 136 97 54
-6.382 -2.4909999 -0.96100003 70 53 45
-6.3740001 -2.48 -0.95200002 73 53 44
-6.3759999 -2.4920001 -0.96100003 143 105 58
-6.3870001 -2.4890001 -0.96200001 219 179 120
-6.2529998 -2.25 -0.875 191 150 118
-6.25 -2.253 -0.87199998 255 243 182
-6.2420001 -2.2460001 -0.86500001 255 236 215
-6.2470002 -2.257 -0.875 252 236 159
-6.4380002 -2.5599999 -1.04 255 208 124
-6.4299998 -2.556 -1.034 245 181 107
-6.4380002 -2.543 -1.021 161 110 67
-6.4450002 -2.5450001 -1.011 186 134 74
-6.428 -2.5320001 -1.006 218 166 109
-6.4239998 -2.5420001 -1.011 179 132 88
-6.4219999 -2.5380001 -1.007 138 93 51
-6.4109998 -2.536 -1.006 208 161 115
-6.336 -2.4100001 -0.92799997 72 40 0
-6.3460002 -2.428 -0.93400002 97 67 33
-6.3210001 -2.3940001 -0.912 254 226 161
-6.3340001 -2.4059999 -0.92699999 85 47 0
-6.3169999 -2.3900001 -0.90899998 150 107 54
-6.3249998 -2.3970001 -0.921 201 141 79
-6.3000002 -2.372 -0.90700001 144 120 60
-6.3889999 -2.5020001 -0.98000002 91 75 62
-6.3959999 -2.5050001 -0.98199999 255 214 162
-6.3920002 -2.5150001 -0.99400002 112 97 102
-6.3889999 -2.517 -0.98699999 234 183 120
-6.309 -2.3929999 -0.92000002 249 205 170
-6.316 -2.391 -0.92000002 249 210 169
-6.3239999 -2.4070001 -0.926 255 225 178
-6.323 -2.4100001 -0.92299998 148 95 61
-6.3239999 -2.4219999 -0.93199998 255 225 187
-6.3260002 -2.4230001 -0.92699999 190 136 100
-6.3280001 -2.4330001 -0.93300003 204 161 118
-6.3610001 -2.464 -0.95200002 250 238 180
-6.3649998 -2.457 -0.95200002 73 53 26
-6.3629999 -2.47 -0.95599997 194 145 102
-6.4130001 -2.5239999 -1.001 248 199 156
-6.408 -2.52 -0.98699999 145 135 125
-6.4039998 -2.5320001 -1.0089999 42 27 32
-6.4239998 -2.549 -1.025 229 196 115
-6.4169998 -2.5309999 -1.018 255 192 108
-6.4130001 -2.539 -1.01 255 237 128
-6.3099999 -2.3729999 -0.91600001 224 175 108
-6.29 -2.329 -0.89200002 255 218 166
-6.3119998 -2.3800001 -0.90700001 174 132 84
-6.3140001 -2.3859999 -0.90799999 156 115 63
-6.3080001 -2.3870001 -0.91100001 235 217 145
-6.2870002 -2.329 -0.90100002 253 203 130
-6.2839999 -2.3410001 -0.89600003 255 230 170
-6.2950001 -2.3410001 -0.90799999 255 218 162
-6.296 -2.346 -0.90799999 204 158 81
-6.2930002 -2.355 -0.89700001 219 197 140
-6.3249998 -2.4119999 -0.917 243 229 166
-6.3239999 -2.4070001 -0.91600001 206 170 112
-6.2600002 -2.2590001 -0.88800001 229 170 100
-6.27 -2.267 -0.87900001 182 136 100
-6.2670002 -2.3010001 -0.88499999 255 206 123
-6.263 -2.3139999 -0.86699998 155 92 15
-6.2639999 -2.296 -0.88599998 147 100 74
-6.263 -2.286 -0.88099998 247 222 155
-6.2649999 -2.2839999 -0.88 239 213 154
-6.2639999 -2.2909999 -0.88099998 202 164 101
-6.2680001 -2.276 -0.889 205 147 99
-6.2649999 -2.273 -0.87699997 161 119 81
-6.2639999 -2.2690001 -0.87699997 184 138 102
-6.2480001 -2.2309999 -0.88099998 227 200 157
-6.2519999 -2.2420001 -0.88599998 232 178 92
-6.237 -2.2460001 -0.88499999 255 242 173
-6.2729998 -2.3080001 -0.89499998 85 49 17
-6.277 -2.303 -0.88999999 73 34 5
-6.2750001 -2.3039999 -0.87699997 96 69 16
-6.2680001 -2.2909999 -0.88099998 81 48 0
-6.2709999 -2.309 -0.87800002 174 113 56
-6.2249999 -2.224 -0.87699997 125 63 2
-6.2309999 -2.2360001 -0.88499999 254 231 127
-6.3930001 -2.5309999 -0.99299997 210 148 75
-6.3759999 -2.5120001 -0.97600001 161 128 97
-6.3870001 -2.4979999 -0.96899998 136 128 126
-6.3779998 -2.4990001 -0.97899997 71 59 63
-6.3769999 -2.4879999 -0.97100002 168 120 72
-6.3099999 -2.369 -0.91600001 255 217 153
-6.3730001 -2.4760001 -0.95700002 67 46 15
-6.3709998 -2.471 -0.94700003 224 180 131
-6.3340001 -2.424 -0.92400002 234 221 151
-6.3379998 -2.4360001 -0.92699999 191 152 93
-6.3410001 -2.4389999 -0.92900002 186 172 101
-6.3390002 -2.4349999 -0.92799997 200 191 114
-6.388 -2.4949999 -0.96899998 142 129 123
-6.2490001 -2.234 -0.87099999 158 115 72
-6.2620001 -2.263 -0.87599999 176 132 95
-6.2519999 -2.26 -0.87599999 247 223 151
-6.2399998 -2.2409999 -0.86400002 251 234 208
-6.4369998 -2.5610001 -1.039 189 156 113
-6.4260001 -2.553 -1.029 188 147 95
-6.4289999 -2.5450001 -1.031 255 232 158
-6.4400001 -2.5420001 -1.01 141 98 63
-6.4320002 -2.5380001 -1.011 77 55 34
-6.3210001 -2.3889999 -0.917 145 120 98
-6.369 -2.4660001 -0.94800001 118 96 55
-6.381 -2.4820001 -0.963 236 195 87
-6.369 -2.4719999 -0.95700002 63 42 13
-6.3759999 -2.48 -0.96600002 117 66 35
-6.355 -2.454 -0.94099998 205 170 88
-6.3530002 -2.457 -0.93800002 175 135 47
-6.3520002 -2.451 -0.93800002 180 157 63
-6.3600001 -2.454 -0.94599998 75 54 27
-6.369 -2.47 -0.95300001 255 228 141
-6.3439999 -2.434 -0.93199998 234 191 149
-6.349 -2.444 -0.93599999 214 166 120
-6.3470001 -2.447 -0.93400002 194 178 91
-6.3429999 -2.4489999 -0.93300003 213 172 116
-6.382 -2.487 -0.96499997 172 161 143
-6.3049998 -2.378 -0.90899998 255 243 169
-6.3979998 -2.5139999 -0.98299998 152 142 140
-6.3839998 -2.5 -0.98000002 138 89 46
-6.3930001 -2.507 -0.986 253 216 135
-6.3210001 -2.4000001 -0.92400002 255 221 167
-6.3470001 -2.437 -0.93900001 70 43 13
-6.3340001 -2.4300001 -0.935 255 226 184
-6.3429999 -2.45 -0.94400001 255 229 186
-6.3390002 -2.4189999 -0.93300003 66 41 11
-6.3309999 -2.4319999 -0.935 254 215 174
-6.3559999 -2.457 -0.94199997 249 224 132
-6.4060001 -2.523 -1.001 254 212 138
-6.4070001 -2.5190001 -0.99599999 225 189 93
-6.4130001 -2.52 -0.99199998 154 96 48
-6.4109998 -2.5239999 -1.001 157 122 80
-6.421 -2.5280001 -1.007 226 180 131
-6.3979998 -2.5179999 -0.99599999 136 88 50
-6.4120002 -2.5309999 -1.013 202 182 109
-6.2919998 -2.329 -0.90200001 213 155 81
-6.2940001 -2.339 -0.89399999 253 209 162
-6.2909999 -2.335 -0.89300001 201 159 109
-6.2849998 -2.336 -0.89200002 182 160 102
-6.2989998 -2.3559999 -0.90899998 247 208 143
-6.2969999 -2.3559999 -0.90700001 220 167 87
-6.3010001 -2.3440001 -0.90799999 221 176 109
-6.3249998 -2.411 -0.917 199 160 101
-6.256 -2.253 -0.88800001 242 187 123
-6.263 -2.3139999 -0.86500001 152 89 9
-6.257 -2.279 -0.87900001 255 237 168
-6.2529998 -2.276 -0.87800002 161 127 56
-6.2529998 -2.2360001 -0.87699997 167 131 95
-6.2529998 -2.237 -0.87599999 255 223 188
-6.2509999 -2.27 -0.88200003 160 108 84
-6.2389998 -2.2520001 -0.884 255 236 153
-6.27 -2.286 -0.88 172 134 95
-6.2729998 -2.2920001 -0.88099998 255 219 183
-6.2309999 -2.221 -0.87400001 151 117 20
-6.2290001 -2.2260001 -0.875 134 100 26
-6.2340002 -2.2420001 -0.87800002 193 164 72
-6.2309999 -2.234 -0.88599998 206 187 85
-6.2470002 -2.2509999 -0.88700002 192 131 86
-6.302 -2.362 -0.912 255 222 161
-6.3959999 -2.5239999 -0.98699999 133 91 49
-6.408 -2.5339999 -0.99900001 145 111 66
-6.3189998 -2.3929999 -0.921 121 75 25
-6.3790002 -2.4849999 -0.97000003 255 237 148
-6.3649998 -2.4879999 -0.96399999 253 220 151
-6.3709998 -2.483 -0.96499997 158 109 68
-6.3759999 -2.4920001 -0.972 88 76 80
-6.3340001 -2.4430001 -0.93599999 253 230 189
-6.3410001 -2.4519999 -0.93300003 220 179 123
-6.3720002 -2.477 -0.95999998 255 216 170
-6.3530002 -2.441 -0.94 72 49 18
-6.348 -2.441 -0.93699998 255 250 236
-6.342 -2.4400001 -0.93900001 236 213 161
-6.3379998 -2.427 -0.92799997 205 195 123
-6.3319998 -2.4170001 -0.92400002 253 244 185
-6.237 -2.24 -0.87400001 107 83 57
-6.4320002 -2.5539999 -1.031 159 125 80
-6.3169999 -2.3759999 -0.91600001 229 169 115
-6.322 -2.3940001 -0.921 149 97 40
-6.3189998 -2.385 -0.92000002 170 121 52
-6.3260002 -2.404 -0.921 167 119 83
-6.3779998 -2.4809999 -0.96200001 255 217 108
-6.3759999 -2.4790001 -0.95899999 210 167 116
-6.3499999 -2.4489999 -0.93699998 239 223 138
-6.309 -2.3729999 -0.90499997 255 221 179
-6.381 -2.513 -0.98199999 167 136 105
-6.4039998 -2.513 -0.98900002 255 221 169
-6.329 -2.4159999 -0.92900002 255 218 179
-6.3600001 -2.4630001 -0.94499999 250 214 128
-6.3569999 -2.4619999 -0.94300002 197 167 81
-6.3600001 -2.4649999 -0.94599998 255 238 158
-6.3569999 -2.4649999 -0.94499999 251 239 157
-6.3579998 -2.46 -0.94999999 255 240 178
-6.3590002 -2.4690001 -0.94700003 150 112 73
-6.3590002 -2.4760001 -0.94800001 175 132 87
-6.4070001 -2.5239999 -1.002 126 83 48
-6.3860002 -2.5079999 -0.97399998 131 94 52
-6.3909998 -2.51 -0.97899997 147 108 67
-6.2979999 -2.3510001 -0.91000003 255 224 163
-6.296 -2.358 -0.90399998 255 243 178
-6.2979999 -2.3429999 -0.89600003 213 169 122
-6.29 -2.3429999 -0.89600003 255 236 157
-6.2529998 -2.27 -0.87599999 226 205 122
-6.2540002 -2.2690001 -0.88499999 192 146 122
-6.2680001 -2.299 -0.884 180 135 54
-6.257 -2.279 -0.88200003 157 123 59
-6.2519999 -2.2409999 -0.88200003 255 238 201
-6.2579999 -2.253 -0.87800002 140 95 66
-6.2480001 -2.2620001 -0.87800002 249 227 144
-6.2350001 -2.2320001 -0.87400001 92 71 88
-6.2410002 -2.2479999 -0.88700002 255 243 172
-6.3039999 -2.365 -0.912 225 185 124
-6.3790002 -2.4979999 -0.96700001 152 113 70
-6.3769999 -2.4990001 -0.96799999 171 130 86
-6.375 -2.506 -0.97000003 216 157 77
-6.368 -2.4879999 -0.95599997 146 109 64
-6.3600001 -2.483 -0.94999999 152 115 71
-6.3660002 -2.4920001 -0.95999998 193 147 69
-6.322 -2.4000001 -0.917 186 127 85
-6.382 -2.493 -0.97500002 112 88 64
-6.3740001 -2.497 -0.972 249 201 125
-6.3699999 -2.493 -0.96799999 245 201 126
-6.3470001 -2.4560001 -0.94800001 255 227 175
-6.3569999 -2.4809999 -0.95599997 255 214 162
-6.348 -2.4690001 -0.949 174 131 78
-6.3530002 -2.4760001 -0.95200002 254 217 165
-6.355 -2.471 -0.94700003 153 110 67
-6.3309999 -2.4400001 -0.93300003 219 168 125
-6.3369999 -2.4419999 -0.93000001 240 197 144
-6.336 -2.4449999 -0.93699998 187 142 103
-6.3530002 -2.45 -0.94 230 188 140
-6.3390002 -2.441 -0.93800002 255 222 184
-6.3369999 -2.425 -0.92799997 183 134 93
-6.3299999 -2.424 -0.92299998 244 205 146
-6.395 -2.53 -1.001 220 165 108
-6.4039998 -2.5250001 -1.003 93 47 13
-6.2449999 -2.25 -0.87400001 255 240 188
-6.3260002 -2.4059999 -0.92000002 177 123 89
-6.3439999 -2.4460001 -0.93300003 205 162 107
-6.3940001 -2.51 -0.98799998 93 76 60
-6.3870001 -2.5179999 -0.98299998 239 185 113
-6.3379998 -2.4300001 -0.92799997 255 249 187
-6.3319998 -2.427 -0.93199998 243 207 175
-6.4109998 -2.5250001 -1.002 204 138 41
-6.3909998 -2.516 -0.99000001 160 121 64
-6.2930002 -2.3529999 -0.90200001 255 237 169
-6.3249998 -2.411 -0.92500001 255 220 192
-6.3299999 -2.4119999 -0.92199999 170 157 102
-6.256 -2.2579999 -0.88700002 249 190 120
-6.2509999 -2.266 -0.88200003 166 118 95
-6.25 -2.2639999 -0.87599999 254 234 161
-6.3720002 -2.4849999 -0.96600002 123 108 113
-6.3709998 -2.4920001 -0.96100003 141 107 61
-6.369 -2.494 -0.96399999 194 155 112
-6.3660002 -2.4820001 -0.96200001 255 221 157
-6.3649998 -2.4790001 -0.95899999 205 160 101
-6.3540001 -2.4560001 -0.94599998 185 131 84
-6.3540001 -2.461 -0.949 255 220 160
-6.3540001 -2.45 -0.94400001 56 36 11
-6.3509998 -2.467 -0.94099998 183 141 93
-6.3670001 -2.473 -0.958 248 231 141
-6.3909998 -2.513 -0.98199999 253 220 125
-6.3410001 -2.4319999 -0.93000001 255 246 179
-6.3520002 -2.4679999 -0.94999999 255 233 177
-6.349 -2.4619999 -0.94700003 255 228 173
-6.3520002 -2.448 -0.93900001 138 114 86
-6.3889999 -2.5139999 -0.98799998 86 68 28
-6.3150001 -2.3929999 -0.91000003 229 218 154
-6.283 -2.336 -0.89499998 255 235 168
-6.2930002 -2.3510001 -0.90200001 252 205 163
-6.3260002 -2.4089999 -0.92699999 249 209 160
-6.2519999 -2.2690001 -0.87699997 255 237 158
-6.3829999 -2.4960001 -0.96700001 211 156 99
-6.3740001 -2.5009999 -0.97100002 188 149 110
-6.3449998 -2.447 -0.94199997 255 227 167
-6.362 -2.473 -0.95499998 235 193 133
-6.3449998 -2.4630001 -0.93800002 188 148 97
-6.335 -2.4230001 -0.92699999 251 247 186
-6.4000001 -2.527 -0.99400002 107 68 29
-6.3959999 -2.5320001 -1.001 245 200 141
-6.342 -2.4460001 -0.94099998 253 232 177
-6.3400002 -2.424 -0.93300003 84 55 23
-6.3579998 -2.467 -0.95200002 235 199 137
-6.29 -2.3499999 -0.89999998 255 236 175
-6.2579999 -2.2739999 -0.87900001 249 228 149
-6.3600001 -2.467 -0.95300001 255 230 181
0 0 0 1 0 0 0 1 0 0 0 1 0 0 0 0 0 484 1 0 0
