ply
format ascii 1.0
comment PCL generated
element vertex 622
property float x
property float y
property float z
property uchar red
property uchar green
property uchar blue
element camera 1
property float view_px
property float view_py
property float view_pz
property float x_axisx
property float x_axisy
property float x_axisz
property float y_axisx
property float y_axisy
property float y_axisz
property float z_axisx
property float z_axisy
property float z_axisz
property float focal
property float scalex
property float scaley
property float centerx
property float centery
property int viewportx
property int viewporty
property float k1
property float k2
end_header
-1.9220001 7.1420002 -0.93000001 135 94 64
-1.925 7.1609998 -0.93300003 159 95 33
-1.929 7.145 -0.92799997 93 56 27
-1.925 7.152 -0.93199998 92 53 24
-1.99 7.1479998 -1.063 128 108 84
-1.9859999 7.1409998 -1.0650001 190 171 154
-1.999 7.1389999 -1.048 73 36 18
-2.0050001 7.1630001 -1.091 13 2 0
-1.9960001 7.1599998 -1.075 32 1 0
-2.0109999 7.1620002 -1.089 35 15 8
-1.938 7.1079998 -1.092 91 92 84
-1.938 7.1079998 -1.096 85 84 79
-1.938 7.1020002 -1.09 67 66 61
-1.9910001 7.1399999 -1.036 209 132 64
-1.992 7.1479998 -1.043 217 136 70
-1.905 7.198 -1.01 95 69 44
-1.902 7.191 -1.026 174 104 70
-1.902 7.2030001 -1.029 155 121 96
-1.8940001 7.1789999 -1.0369999 64 47 37
-1.895 7.1789999 -1.036 70 50 39
-1.902 7.191 -1.029 159 88 46
-1.892 7.1729999 -1.036 169 101 54
-1.901 7.1830001 -1.023 65 34 14
-2 7.164 -1.0880001 13 0 0
-1.995 7.1620002 -1.075 107 82 77
-1.994 7.177 -1.0930001 48 0 0
-1.9910001 7.177 -1.091 50 5 2
-2.0009999 7.164 -1.091 23 3 2
-2.0079999 7.165 -1.084 83 60 52
-1.924 7.158 -0.93400002 188 117 51
-1.9 7.177 -1.05 81 67 56
-1.898 7.1789999 -1.044 93 84 77
-1.901 7.1789999 -1.05 88 83 79
-1.898 7.1799998 -1.043 99 89 87
-1.956 7.1129999 -1.028 119 83 51
-1.951 7.1030002 -1.029 167 116 87
-1.962 7.0960002 -1.031 128 84 57
-1.957 7.1129999 -1.007 255 200 107
-1.9 7.0999999 -1.043 87 49 28
-1.897 7.098 -1.049 63 31 18
-1.908 7.092 -1.043 217 139 73
-2.003 7.165 -1.094 17 0 0
-1.9450001 7.118 -1.092 89 85 84
-1.9579999 7.098 -1.0319999 250 211 182
-1.943 7.1030002 -1.029 165 93 34
-1.952 7.1020002 -1.04 121 81 56
-2.003 7.1890001 -1.097 80 31 16
-2.0079999 7.1799998 -1.097 121 37 3
-2.006 7.1890001 -1.1 61 12 5
-2.0050001 7.1890001 -1.101 48 8 0
-1.9170001 7.1960001 -1.015 109 71 52
-1.915 7.2080002 -1.017 92 47 26
-1.915 7.1869998 -1.001 89 37 0
-1.904 7.1960001 -1.025 144 111 92
-1.914 7.1300001 -0.97399998 113 68 35
-1.9119999 7.1230001 -0.97500002 178 136 98
-1.9069999 7.1389999 -0.98000002 123 83 58
-1.9170001 7.1420002 -0.95599997 120 103 96
-1.921 7.1370001 -0.954 66 51 44
-1.913 7.1599998 -0.99599999 98 19 0
-1.9 7.1609998 -0.99199998 177 158 151
-1.903 7.1599998 -0.98799998 208 182 155
-1.906 7.198 -1.033 168 103 75
-1.914 7.2119999 -1.0319999 119 110 115
-1.9170001 7.204 -1.038 100 94 78
-1.904 7.1880002 -1.0369999 73 52 33
-1.994 7.1620002 -1.071 24 0 0
-1.9960001 7.1620002 -1.074 18 0 0
-1.9859999 7.1469998 -1.063 182 164 144
-1.904 7.125 -1.041 158 124 97
-1.9069999 7.1290002 -1.0319999 193 128 88
-1.905 7.1350002 -1.035 102 42 14
-1.904 7.1110001 -1.035 126 67 37
-1.91 7.1300001 -1.024 179 129 102
-1.9119999 7.152 -1.0190001 118 49 8
-1.913 7.1479998 -1.025 66 46 39
-1.9910001 7.178 -1.0880001 39 0 0
-1.942 7.1209998 -1.002 63 48 43
-1.934 7.1139998 -1.016 82 70 72
-1.951 7.119 -1.015 134 99 79
-1.9170001 7.0970001 -1.059 77 25 11
-1.9069999 7.0929999 -1.049 163 92 36
-1.9170001 7.098 -1.043 150 79 23
-1.9119999 7.1220002 -0.97799999 123 76 46
-1.916 7.132 -0.99000001 100 89 93
-1.916 7.1100001 -0.98900002 123 80 46
-1.96 7.0949998 -1.031 117 50 7
-1.962 7.1020002 -1.038 95 58 31
-1.919 7.118 -0.98500001 101 72 54
-1.927 7.118 -0.99199998 94 47 19
-1.9400001 7.1090002 -1.09 98 97 92
-1.938 7.1129999 -1.094 91 91 83
-1.982 7.1329999 -1.054 125 106 92
-1.982 7.1370001 -1.0599999 170 149 132
-1.978 7.1350002 -1.063 192 167 147
-1.982 7.1389999 -1.0650001 192 171 152
-1.978 7.132 -1.054 124 101 93
-1.974 7.1360002 -1.059 157 128 110
-1.989 7.1529999 -1.045 131 91 66
-1.988 7.151 -1.043 18 0 0
-1.998 7.1529999 -1.05 144 100 71
-1.99 7.158 -1.05 252 187 133
-1.992 7.164 -1.068 145 96 56
-1.908 7.1719999 -0.97399998 70 51 45
-1.908 7.1890001 -0.98900002 190 139 82
-1.902 7.178 -0.98500001 55 21 9
-1.9859999 7.1659999 -1.062 11 0 0
-1.931 7.1589999 -0.93599999 157 122 54
-1.918 7.1859999 -1.003 173 118 77
-1.925 7.1820002 -0.99400002 139 88 59
-1.9400001 7.1810002 -1.007 162 131 110
-1.936 7.1849999 -1.012 140 109 80
-1.957 7.1789999 -1.0140001 52 23 5
-1.906 7.1669998 -0.986 238 216 177
-1.919 7.1420002 -0.97100002 131 73 33
-1.924 7.138 -1.0140001 98 54 29
-1.9220001 7.1339998 -1.003 169 124 103
-1.9220001 7.1430001 -1.007 197 121 85
-1.915 7.204 -1.034 97 95 82
-1.911 7.1960001 -1.04 111 108 103
-1.908 7.1950002 -1.039 114 101 93
-1.939 7.1810002 -1.049 122 80 56
-1.9400001 7.184 -1.041 110 57 17
-1.938 7.2010002 -1.0549999 105 41 16
-1.96 7.1700001 -1.04 54 27 10
-1.939 7.1669998 -1.061 93 46 28
-1.9450001 7.171 -1.044 97 47 14
-1.943 7.178 -1.039 42 10 0
-1.903 7.178 -0.99800003 115 88 59
-1.9069999 7.191 -1.015 139 83 50
-1.908 7.1630001 -0.99900001 117 73 46
-1.908 7.1750002 -1.001 97 63 26
-1.98 7.1570001 -1.063 115 81 56
-1.9680001 7.1469998 -1.0599999 59 21 2
-1.919 7.1009998 -1.052 231 145 94
-1.911 7.1030002 -1.034 213 128 48
-1.914 7.151 -1.041 178 130 90
-1.913 7.1539998 -1.04 132 96 74
-1.919 7.1570001 -1.044 137 66 24
-1.914 7.1669998 -1.013 128 113 108
-1.9119999 7.1570001 -1.015 98 61 35
-1.913 7.164 -1.005 172 80 31
-1.925 7.1290002 -1.012 73 41 30
-1.904 7.1690001 -1.0319999 132 122 121
-1.9119999 7.164 -1.0319999 126 114 114
-1.962 7.1059999 -1.034 201 156 127
-1.973 7.1300001 -1.028 23 2 1
-1.9859999 7.131 -1.01 144 100 65
-1.976 7.1350002 -1.031 16 0 0
-1.97 7.1290002 -1.026 150 114 100
-1.9680001 7.1259999 -1.033 165 105 79
-1.976 7.138 -1.02 17 0 0
-1.978 7.1329999 -1.013 116 71 38
-1.911 7.1230001 -1.034 90 29 0
-1.943 7.125 -1.046 143 127 128
-1.929 7.1240001 -1.053 172 116 93
-1.932 7.1199999 -1.064 89 81 78
-1.97 7.1069999 -1.033 52 26 13
-1.979 7.1409998 -1.0190001 27 6 1
-1.969 7.1240001 -1.015 48 21 12
-1.943 7.1199999 -1.089 97 87 86
-1.9400001 7.1100001 -1.089 99 98 93
-1.994 7.178 -1.102 55 20 14
-1.999 7.177 -1.097 66 21 15
-1.988 7.1789999 -1.09 51 16 10
-1.9809999 7.138 -1.064 153 109 70
-1.982 7.138 -1.0420001 183 140 108
-1.97 7.1680002 -1.017 119 102 95
-1.9630001 7.177 -1.023 27 9 0
-1.9960001 7.151 -1.048 211 131 72
-1.9960001 7.1469998 -1.049 91 51 26
-1.906 7.1719999 -0.98500001 223 202 171
-1.92 7.1560001 -0.93900001 144 65 0
-2.0039999 7.1810002 -1.094 185 107 68
-1.965 7.1659999 -1.041 51 22 6
-1.9400001 7.1789999 -1.0089999 177 139 92
-1.949 7.1789999 -1.016 157 113 76
-1.992 7.1859999 -1.0880001 34 0 0
-1.998 7.1890001 -1.0930001 44 1 0
-1.9960001 7.1890001 -1.0930001 31 0 0
-1.933 7.2030001 -1.053 125 81 52
-1.924 7.1999998 -1.049 91 88 83
-1.926 7.198 -1.052 88 77 71
-1.906 7.1799998 -1.051 139 85 57
-1.934 7.152 -0.93699998 159 122 95
-1.934 7.1469998 -0.93599999 70 33 4
-1.938 7.1329999 -0.93300003 128 77 50
-1.924 7.1360002 -0.93300003 186 147 114
-1.942 7.1240001 -0.94099998 137 79 33
-1.904 7.1950002 -1.03 142 107 85
-1.926 7.1659999 -0.93800002 222 134 45
-1.923 7.1690001 -0.94300002 220 135 55
-1.9299999 7.1700001 -0.93900001 247 163 73
-1.9349999 7.164 -0.93900001 152 93 51
-1.949 7.1719999 -0.98799998 34 3 0
-1.925 7.1490002 -0.93599999 120 77 45
-1.916 7.152 -1.003 112 54 30
-1.923 7.1430001 -1.013 193 121 71
-1.923 7.2030001 -1.036 177 131 79
-1.92 7.2030001 -1.031 246 211 155
-1.909 7.1999998 -1.018 148 113 81
-1.909 7.2020001 -1.024 70 18 0
-1.927 7.1999998 -1.036 93 29 0
-1.927 7.1659999 -1.05 122 62 28
-1.925 7.1620002 -1.046 24 1 0
-1.921 7.1739998 -1.05 42 37 33
-1.908 7.1869998 -0.991 93 55 44
-1.909 7.1799998 -1.005 183 148 106
-1.905 7.171 -0.98900002 105 37 16
-1.909 7.1999998 -1.015 210 178 140
-1.988 7.1420002 -1.053 107 70 41
-1.9910001 7.164 -1.069 103 85 83
-1.9170001 7.0970001 -1.0369999 173 95 33
-1.924 7.1240001 -1.007 180 142 121
-1.91 7.1269999 -1.052 100 56 21
-1.9220001 7.1350002 -1.044 101 75 62
-1.904 7.099 -1.0549999 118 85 70
-1.918 7.1079998 -1.0650001 73 65 63
-1.933 7.1700001 -1.064 58 43 36
-1.926 7.177 -1.062 104 81 63
-1.9349999 7.1750002 -1.068 64 49 44
-1.908 7.1329999 -1.0319999 142 74 39
-1.944 7.119 -0.99699998 93 39 13
-1.942 7.1170001 -0.991 180 104 44
-1.962 7.112 -1 71 36 8
-1.9680001 7.1100001 -1.005 185 109 49
-1.926 7.1469998 -0.94400001 133 60 19
-1.966 7.119 -1.012 73 40 25
-1.971 7.1170001 -1.006 33 9 0
-1.916 7.118 -1.034 117 52 22
-1.946 7.138 -1.046 73 36 9
-1.9529999 7.1389999 -1.054 74 35 6
-1.9349999 7.1350002 -1.041 123 87 61
-1.951 7.1479998 -1.0599999 42 19 5
-1.947 7.152 -1.061 65 23 1
-1.921 7.1090002 -1.066 70 71 66
-1.936 7.1100001 -1.0829999 89 88 83
-1.982 7.1440001 -1.018 17 0 0
-1.932 7.1160002 -0.98100001 184 139 100
-1.951 7.1139998 -0.93800002 121 94 75
-1.949 7.112 -0.94 56 33 15
-1.921 7.1399999 -0.99900001 62 56 56
-1.977 7.119 -1.003 78 61 45
-1.969 7.112 -1.0039999 70 23 0
-1.9809999 7.1209998 -0.991 168 146 123
-1.99 7.132 -1.001 142 89 37
-1.962 7.1160002 -1.028 104 67 40
-1.9170001 7.1479998 -1.0190001 230 151 94
-1.943 7.1139998 -1.082 81 80 78
-2 7.1890001 -1.098 37 6 3
-1.9910001 7.1859999 -1.098 47 7 5
-1.989 7.184 -1.102 36 3 0
-1.989 7.1849999 -1.099 43 10 5
-1.987 7.1849999 -1.096 38 4 2
-1.9859999 7.1820002 -1.092 38 5 0
-1.985 7.184 -1.09 41 6 0
-1.987 7.1789999 -1.086 39 0 1
-1.988 7.1799998 -1.092 40 7 0
-1.992 7.1370001 -0.995 170 110 50
-1.971 7.1630001 -0.97399998 101 48 14
-1.978 7.158 -0.96399999 77 43 18
-1.979 7.164 -0.97299999 192 132 69
-1.964 7.1630001 -0.97000003 115 69 53
-1.965 7.1690001 -0.97799999 58 21 5
-1.923 7.1599998 -0.93900001 186 106 33
-1.966 7.1459999 -1.058 189 148 130
-1.966 7.1690001 -1.024 105 66 35
-1.961 7.165 -1.04 72 38 26
-1.971 7.158 -1.059 64 35 17
-1.952 7.1539998 -1.044 41 3 0
-1.948 7.1739998 -1.031 61 28 13
-1.933 7.1869998 -1.018 91 67 67
-1.941 7.191 -1.033 78 43 23
-1.936 7.2049999 -1.049 117 107 106
-1.992 7.1820002 -1.085 34 0 0
-1.984 7.1810002 -1.084 35 4 1
-1.983 7.1820002 -1.082 38 7 4
-1.994 7.1869998 -1.09 35 0 1
-1.994 7.1880002 -1.092 34 0 0
-1.992 7.1869998 -1.091 38 1 0
-1.992 7.1869998 -1.0930001 117 78 61
-1.998 7.1880002 -1.092 47 2 0
-1.993 7.1869998 -1.097 55 18 2
-1.995 7.1880002 -1.095 35 5 3
-1.998 7.1799998 -1.089 78 15 0
-1.925 7.204 -1.041 255 217 172
-1.929 7.2030001 -1.044 90 38 0
-1.921 7.204 -1.041 75 64 34
-1.9170001 7.1960001 -1.046 112 107 103
-1.901 7.178 -1.05 95 86 77
-1.919 7.1950002 -1.053 104 103 99
-1.91 7.1810002 -1.052 165 87 49
-1.931 7.1389999 -0.92900002 99 62 33
-1.903 7.1929998 -1.026 122 90 67
-1.905 7.1919999 -1.022 161 106 76
-1.928 7.1820002 -1 172 135 109
-1.9119999 7.1620002 -0.977 158 128 104
-1.984 7.164 -0.97799999 122 66 17
-1.943 7.1659999 -0.93699998 231 187 150
-1.952 7.1360002 -0.94199997 96 77 47
-1.942 7.1420002 -0.94199997 88 27 0
-1.947 7.1659999 -1.016 44 16 0
-1.9529999 7.1589999 -1.002 68 22 6
-1.937 7.1659999 -1.002 57 27 16
-1.9170001 7.2010002 -1.027 120 85 27
-1.923 7.2010002 -1.033 81 29 0
-1.913 7.1869998 -0.995 83 37 3
-1.909 7.1789999 -1.007 187 152 114
-1.993 7.1479998 -1.054 126 90 56
-1.988 7.1659999 -1.068 10 0 0
-1.975 7.1539998 -1.043 178 142 116
-1.982 7.1560001 -1.051 93 62 42
-1.9119999 7.0960002 -1.038 206 125 59
-1.925 7.1240001 -1.011 91 46 25
-1.934 7.1230001 -0.99699998 72 64 62
-1.913 7.132 -1.044 78 56 33
-1.921 7.1290002 -1.0470001 136 85 66
-1.904 7.1090002 -1.05 100 63 34
-1.91 7.1199999 -1.048 101 102 97
-1.911 7.118 -1.053 99 95 92
-1.92 7.1149998 -1.068 88 85 80
-1.934 7.164 -1.058 113 56 29
-1.952 7.1160002 -0.99800003 254 210 115
-1.926 7.1360002 -0.95099998 124 106 94
-1.942 7.1199999 -0.95300001 78 12 0
-1.927 7.1360002 -0.96399999 60 36 12
-1.9 7.178 -1.043 94 80 71
-1.908 7.177 -1.0470001 60 24 0
-1.966 7.1149998 -1.007 119 84 65
-1.928 7.145 -1.041 43 30 14
-1.931 7.164 -1.057 107 44 13
-1.95 7.151 -1.052 79 52 43
-1.954 7.1490002 -1.057 80 48 37
-1.962 7.1500001 -1.056 59 27 16
-1.9299999 7.1170001 -1.062 75 71 68
-1.9220001 7.1030002 -1.0549999 158 90 45
-1.923 7.1139998 -1.069 92 92 84
-1.9859999 7.138 -1.007 157 105 65
-1.921 7.1129999 -0.98000002 78 43 23
-1.915 7.1420002 -0.98699999 191 124 72
-1.9680001 7.1620002 -0.99900001 145 113 102
-1.96 7.1680002 -0.98699999 37 3 1
-1.975 7.1669998 -0.98799998 80 45 26
-1.972 7.1220002 -1.044 147 83 48
-1.962 7.1040001 -1.04 93 64 48
-1.9630001 7.132 -1.054 77 41 7
-1.965 7.1240001 -1.0470001 58 21 3
-1.973 7.1339998 -1.036 145 81 53
-1.9680001 7.112 -1.006 75 47 33
-1.943 7.1149998 -1.082 87 86 84
-1.941 7.118 -1.052 67 48 33
-1.936 7.2020001 -1.0549999 78 22 0
-1.9960001 7.1869998 -1.099 65 27 14
-1.99 7.1820002 -1.1 40 10 0
-1.989 7.1810002 -1.097 41 8 1
-1.988 7.1859999 -1.091 40 3 0
-1.984 7.132 -0.98100001 134 63 7
-1.9859999 7.1630001 -0.98100001 125 102 86
-1.984 7.1500001 -0.97000003 65 27 8
-1.99 7.1529999 -0.98100001 150 130 106
-1.992 7.1479998 -0.97799999 124 104 79
-1.994 7.145 -0.977 142 116 89
-1.993 7.1469998 -0.98500001 253 207 113
-1.915 7.1570001 -0.963 66 47 40
-1.916 7.1529999 -0.97799999 95 45 18
-1.983 7.152 -1.041 31 12 5
-1.9809999 7.151 -1.0369999 76 45 17
-1.973 7.1529999 -1.031 37 4 0
-1.961 7.1589999 -1.006 66 19 0
-1.951 7.1719999 -1.018 90 53 35
-1.9299999 7.1989999 -1.038 118 43 4
-1.948 7.1810002 -1.026 128 86 62
-1.99 7.1830001 -1.085 28 0 1
-1.964 7.1490002 -1.059 41 15 0
-1.9960001 7.1859999 -1.09 44 3 0
-1.997 7.1869998 -1.091 46 1 0
-2.0009999 7.1799998 -1.09 182 106 74
-1.9299999 7.178 -1.062 65 52 46
-1.9220001 7.177 -1.054 89 80 73
-1.937 7.1859999 -1.044 92 41 20
-1.908 7.1929998 -1.039 187 159 147
-1.914 7.1900001 -1.0470001 95 62 47
-1.905 7.1810002 -1.048 181 109 71
-1.944 7.1350002 -0.93900001 252 203 144
-1.954 7.1160002 -0.93900001 156 128 106
-1.931 7.1789999 -1.001 255 226 171
-1.939 7.1719999 -0.98500001 54 20 18
-1.966 7.138 -0.95700002 150 123 94
-1.972 7.1329999 -0.954 131 85 59
-1.962 7.138 -0.95300001 177 140 111
-1.915 7.1620002 -0.97500002 160 134 121
-1.925 7.1659999 -0.97799999 59 17 0
-1.92 7.1760001 -0.98000002 151 103 55
-1.946 7.178 -0.98000002 35 4 1
-1.952 7.1810002 -0.98199999 187 154 121
-1.932 7.1719999 -0.94 169 136 95
-1.944 7.1719999 -0.958 33 21 23
-1.957 7.1789999 -0.98199999 73 29 0
-1.956 7.1149998 -0.93900001 189 159 133
-1.9579999 7.1620002 -0.995 43 5 0
-1.926 7.1830001 -1.013 57 0 0
-1.909 7.1859999 -0.99299997 45 5 0
-1.92 7.1820002 -0.99199998 77 17 0
-1.9119999 7.1869998 -0.99699998 119 75 48
-1.983 7.1609998 -1.059 133 85 45
-1.989 7.1810002 -1.085 37 6 4
-1.974 7.1620002 -1.061 98 60 39
-1.919 7.099 -1.036 120 52 5
-1.9299999 7.1100001 -1.036 220 142 104
-1.936 7.1079998 -1.0369999 208 135 100
-1.9349999 7.112 -1.033 152 77 38
-1.934 7.119 -0.98799998 107 61 38
-1.916 7.119 -1.056 91 92 86
-1.954 7.1149998 -0.99900001 255 219 126
-1.967 7.1129999 -0.98500001 200 129 87
-1.9579999 7.1129999 -0.98400003 91 32 0
-1.955 7.1139998 -0.97399998 95 36 0
-1.937 7.1300001 -0.95599997 119 63 30
-1.931 7.1350002 -0.94700003 134 107 88
-1.923 7.1599998 -0.96200001 69 33 7
-1.928 7.1599998 -0.97100002 75 44 16
-1.904 7.177 -1.044 78 49 33
-1.914 7.1739998 -1.045 62 22 10
-1.933 7.1490002 -1.038 82 35 9
-1.921 7.1209998 -1.031 139 74 46
-1.927 7.1160002 -1.03 77 19 0
-1.9450001 7.1069999 -1.04 187 124 91
-1.95 7.1139998 -1.04 172 126 90
-1.939 7.1090002 -1.045 147 101 68
-1.987 7.1459999 -1.013 40 17 1
-1.992 7.1479998 -1.008 74 39 9
-1.99 7.1500001 -1.012 107 77 51
-1.9910001 7.1570001 -1.0089999 95 52 18
-1.919 7.1139998 -0.98000002 123 92 72
-1.943 7.1149998 -0.95499998 179 133 107
-1.949 7.1149998 -0.95599997 72 34 13
-1.957 7.1199999 -0.94400001 155 125 101
-1.959 7.1160002 -0.94300002 159 128 100
-1.957 7.125 -0.94499999 174 130 105
-1.9529999 7.1139998 -0.94400001 139 95 56
-1.949 7.1149998 -0.95300001 104 68 44
-1.947 7.1160002 -0.94400001 136 109 92
-1.954 7.1199999 -0.94199997 132 99 80
-1.9630001 7.1230001 -0.95099998 140 91 61
-1.978 7.1609998 -1.005 100 69 51
-1.972 7.1300001 -1.016 19 0 0
-1.9680001 7.1149998 -1.0420001 127 73 37
-1.967 7.112 -1.044 113 75 52
-1.929 7.118 -1.018 88 82 82
-1.941 7.1170001 -1.0779999 92 88 87
-1.959 7.1240001 -1.044 28 6 0
-1.959 7.131 -1.048 74 43 25
-1.988 7.1859999 -1.094 36 1 0
-1.989 7.1859999 -1.089 57 19 6
-1.985 7.1500001 -1.018 25 5 0
-1.987 7.1479998 -1.0319999 94 84 92
-1.9809999 7.138 -0.96899998 190 164 141
-1.982 7.131 -0.97299999 183 173 161
-1.992 7.1389999 -0.98900002 254 219 127
-1.952 7.158 -0.95300001 145 75 24
-1.967 7.1539998 -0.96100003 202 148 104
-1.9450001 7.1630001 -0.95599997 194 156 117
-1.915 7.1539998 -0.96600002 157 96 67
-1.918 7.1550002 -0.954 206 141 85
-1.976 7.1570001 -1.015 85 62 44
-1.964 7.1659999 -1.027 143 126 110
-1.927 7.2020001 -1.039 81 29 0
-1.995 7.1849999 -1.089 37 0 0
-2.003 7.1789999 -1.0930001 191 116 87
-1.999 7.1810002 -1.089 90 27 9
-1.932 7.1789999 -1.056 227 160 82
-1.9299999 7.165 -1.059 132 58 33
-1.902 7.1799998 -1.049 98 81 74
-1.943 7.131 -0.94 115 54 0
-1.909 7.1789999 -0.98500001 107 43 16
-1.975 7.1290002 -0.96799999 101 74 55
-1.924 7.1739998 -0.98199999 62 16 1
-1.927 7.1789999 -0.995 83 38 17
-1.965 7.1690001 -0.98199999 65 37 25
-1.937 7.1560001 -0.93900001 131 93 57
-1.939 7.1560001 -0.94199997 142 74 35
-1.954 7.1620002 -0.99400002 58 11 3
-1.955 7.1739998 -0.98000002 29 4 0
-1.9119999 7.2049999 -1.024 99 86 44
-1.98 7.152 -1.041 58 22 8
-1.921 7.1009998 -1.038 182 107 49
-1.933 7.1149998 -1.028 91 78 70
-1.9349999 7.1209998 -0.99199998 63 45 41
-1.918 7.1199999 -1.056 86 87 82
-1.92 7.125 -1.051 79 75 72
-1.903 7.1030002 -1.043 58 5 0
-1.961 7.118 -0.958 83 51 38
-1.9630001 7.1209998 -0.96200001 202 121 56
-1.954 7.1170001 -0.96700001 91 54 27
-1.951 7.1160002 -0.97399998 60 7 0
-1.967 7.1139998 -0.98199999 163 85 37
-1.969 7.1149998 -0.99699998 90 49 17
-1.934 7.1329999 -0.95300001 100 66 39
-1.926 7.1430001 -0.949 176 108 61
-1.926 7.1680002 -0.94700003 153 70 0
-1.944 7.1599998 -0.95099998 188 139 96
-1.913 7.1059999 -1.034 243 152 79
-1.943 7.151 -1.0420001 47 11 0
-1.948 7.151 -1.048 129 92 66
-1.938 7.1149998 -1.052 127 113 112
-1.947 7.1149998 -0.949 235 177 129
-1.962 7.1160002 -0.95300001 140 100 65
-1.964 7.1230001 -0.95499998 72 44 23
-1.948 7.164 -0.99199998 65 13 0
-1.972 7.125 -0.977 119 92 81
-1.96 7.1059999 -1.041 149 114 92
-1.961 7.1129999 -1.0420001 151 115 91
-1.9680001 7.119 -1.045 102 73 57
-1.951 7.1329999 -1.048 43 21 8
-1.928 7.1209998 -1.0190001 88 84 81
-1.959 7.1149998 -1.043 150 109 77
-1.9910001 7.1849999 -1.087 32 1 0
-1.987 7.1849999 -1.09 48 11 2
-1.982 7.1479998 -1.023 29 10 4
-1.987 7.1409998 -0.97399998 95 47 25
-1.984 7.1430001 -0.972 148 123 101
-1.9630001 7.1269999 -0.95099998 157 127 101
-1.978 7.165 -0.97600001 130 73 28
-1.98 7.1550002 -0.972 194 143 77
-1.9809999 7.1599998 -0.98400003 92 42 15
-1.975 7.1550002 -0.98900002 78 58 31
-1.988 7.1529999 -0.98100001 117 95 74
-1.9910001 7.1469998 -0.98400003 191 142 76
-1.957 7.1469998 -0.95300001 207 151 104
-1.916 7.1529999 -0.97399998 63 15 0
-1.9170001 7.152 -0.96100003 202 142 90
-1.966 7.1609998 -1.025 147 120 101
-1.929 7.1999998 -1.039 119 54 14
-1.995 7.1799998 -1.0880001 52 3 0
-1.9069999 7.1810002 -1.05 174 104 70
-1.92 7.184 -0.98400003 198 138 84
-1.9680001 7.1469998 -0.95999998 133 99 72
-1.976 7.138 -0.96600002 175 120 79
-1.927 7.177 -0.98500001 116 61 20
-1.939 7.1700001 -0.98000002 104 68 36
-1.924 7.1939998 -1.029 109 43 11
-1.924 7.198 -1.031 147 83 47
-1.931 7.105 -1.041 178 108 72
-1.939 7.119 -0.986 148 76 17
-1.939 7.1199999 -0.98000002 141 91 66
-1.903 7.0999999 -1.0420001 36 2 0
-1.952 7.1160002 -0.99000001 77 18 0
-1.951 7.1170001 -0.99400002 252 224 141
-1.9450001 7.1170001 -0.991 191 126 46
-1.951 7.1160002 -0.95599997 160 82 0
-1.952 7.1160002 -0.97000003 109 56 24
-1.962 7.1139998 -0.98100001 112 52 16
-1.9579999 7.1149998 -0.977 104 55 25
-1.932 7.1290002 -0.97100002 132 109 95
-1.923 7.1279998 -0.97299999 166 143 127
-1.924 7.1220002 -0.97500002 85 51 26
-1.923 7.1170001 -0.97500002 124 77 49
-1.939 7.1659999 -0.95099998 139 105 57
-1.9299999 7.165 -0.954 84 49 7
-1.9119999 7.1700001 -1.0420001 181 128 88
-1.9119999 7.1820002 -1.051 125 57 20
-1.948 7.152 -1.05 36 16 7
-1.9450001 7.112 -1.024 137 76 45
-1.9349999 7.1230001 -0.97399998 97 50 24
-1.943 7.1220002 -0.972 107 71 49
-1.919 7.1300001 -0.97100002 162 113 55
-1.9220001 7.1220002 -0.97500002 82 47 25
-1.9170001 7.125 -0.97399998 129 80 48
-1.947 7.1149998 -0.95200002 118 55 22
-1.949 7.1149998 -0.94999999 84 49 27
-1.962 7.1199999 -0.94999999 82 52 28
-1.929 7.119 -1.016 88 85 80
-1.916 7.1469998 -1.036 69 34 12
-1.961 7.1209998 -1.044 109 97 97
-1.95 7.1240001 -1.044 163 120 88
-1.9809999 7.145 -1.001 34 7 0
-1.978 7.138 -0.96700001 141 117 89
-1.9450001 7.1539998 -0.94800001 202 137 95
-1.918 7.1469998 -0.97000003 123 101 88
-1.962 7.151 -1.049 26 6 0
-1.914 7.1760001 -0.98100001 81 23 1
-1.942 7.1680002 -0.96700001 110 72 33
-1.926 7.198 -1.033 149 79 20
-1.923 7.1430001 -1.039 70 22 0
-1.923 7.118 -1.058 89 85 82
-1.9579999 7.1129999 -0.99400002 117 41 0
-1.95 7.1170001 -0.97000003 99 47 26
-1.916 7.1570001 -0.96100003 77 47 36
-1.934 7.165 -0.95899999 79 27 3
-1.919 7.1160002 -0.97799999 117 83 58
-1.919 7.118 -0.97600001 100 63 36
-1.933 7.1240001 -0.97399998 83 30 0
-1.924 7.1160002 -0.97799999 82 44 25
-1.947 7.1230001 -0.94300002 208 146 97
-1.965 7.125 -0.95300001 101 73 49
-1.965 7.1259999 -0.95899999 135 106 92
-1.9680001 7.1259999 -0.96499997 95 72 54
-1.929 7.1199999 -1.015 90 89 85
-1.928 7.1199999 -1.016 85 84 80
-1.966 7.118 -1.045 67 39 27
-1.9859999 7.1490002 -1.008 171 138 123
-1.974 7.1329999 -0.96499997 136 58 0
-1.916 7.152 -0.972 137 109 95
-1.938 7.1680002 -0.97600001 36 0 0
-1.911 7.1069999 -1.054 79 62 52
-1.9680001 7.1209998 -0.97299999 118 47 5
-1.961 7.1129999 -0.995 167 99 50
-1.954 7.1149998 -0.97500002 90 31 0
-1.95 7.1170001 -0.95999998 56 18 0
-1.921 7.1170001 -0.97500002 84 47 20
-1.921 7.1149998 -0.977 103 65 42
-1.954 7.1160002 -0.95300001 136 92 55
-1.971 7.158 -1.0190001 82 46 30
-1.9579999 7.1550002 -0.95899999 107 34 0
-1.949 7.1750002 -0.97799999 31 1 0
-1.9450001 7.165 -0.96200001 88 44 17
-1.9450001 7.164 -0.96700001 113 76 32
-1.921 7.164 -0.94300002 75 16 0
-1.91 7.1750002 -1.045 65 28 9
-1.951 7.1160002 -0.98699999 86 21 0
-1.952 7.1160002 -0.98900002 100 63 45
-1.95 7.1620002 -0.972 57 19 6
0 0 0 1 0 0 0 1 0 0 0 1 0 0 0 0 0 622 1 0 0
