ply
format ascii 1.0
comment PCL generated
element vertex 910
property float x
property float y
property float z
property uchar red
property uchar green
property uchar blue
element camera 1
property float view_px
property float view_py
property float view_pz
property float x_axisx
property float x_axisy
property float x_axisz
property float y_axisx
property float y_axisy
property float y_axisz
property float z_axisx
property float z_axisy
property float z_axisz
property float focal
property float scalex
property float scaley
property float centerx
property float centery
property int viewportx
property int viewporty
property float k1
property float k2
end_header
-9.6750002 4.6869998 -1.105 116 81 51
-9.6739998 4.6830001 -1.101 167 126 94
-9.684 4.6869998 -1.1160001 183 122 75
-9.6800003 4.6810002 -1.105 201 153 104
-9.6660004 4.7030001 -1.087 107 89 79
-9.6269999 4.914 -1.118 158 87 25
-9.6339998 4.9169998 -1.112 159 72 1
-9.6269999 4.921 -1.1160001 178 126 68
-9.5699997 4.849 -0.99599999 65 26 0
-9.5710001 4.8460002 -0.99900001 124 84 15
-9.5769997 4.8410001 -0.99299997 182 119 65
-9.5699997 4.8449998 -1.001 147 96 65
-9.6929998 4.6739998 -1.039 129 85 38
-9.684 4.6719999 -1.0319999 146 100 48
-9.6850004 4.665 -1.043 193 109 39
-9.7080002 4.6719999 -1.048 149 101 55
-9.6960001 4.6739998 -1.044 179 114 48
-9.5369997 4.809 -1.034 95 69 36
-9.5469999 4.8070002 -1.03 178 110 45
-9.5369997 4.8010001 -1.041 179 105 42
-9.5310001 4.8099999 -1.039 175 116 76
-9.5360003 4.8099999 -1.0369999 98 64 29
-9.6099997 4.7919998 -1.008 217 156 102
-9.6059999 4.7909999 -1.027 139 88 57
-9.6149998 4.783 -1.016 118 64 28
-9.7119999 4.7059999 -1.049 168 114 54
-9.7139997 4.6830001 -1.059 131 79 29
-9.7010002 4.6900001 -1.0470001 150 101 34
-9.7159996 4.6789999 -1.0549999 143 85 22
-9.717 4.6789999 -1.0599999 200 141 81
-9.7209997 4.678 -1.072 88 47 19
-9.7119999 4.6700001 -1.0549999 157 121 99
-9.6269999 4.914 -1.115 161 121 95
-9.6230001 4.8959999 -1.113 132 89 47
-9.6309996 4.9180002 -1.113 186 121 55
-9.6960001 4.6880002 -1.1109999 133 65 16
-9.6920004 4.6950002 -1.117 97 38 0
-9.71 4.7020001 -1.118 71 44 37
-9.5299997 4.803 -1.048 170 135 115
-9.5209999 4.8080001 -1.054 168 112 63
-9.5159998 4.7979999 -1.067 214 171 118
-9.5380001 4.802 -1.053 188 119 54
-9.5190001 4.796 -1.067 139 87 37
-9.6199999 4.7839999 -1.01 196 136 73
-9.6309996 4.7719998 -1.02 149 95 59
-9.6400003 4.8049998 -0.96499997 156 110 58
-9.6379995 4.8010001 -0.96799999 80 38 0
-9.632 4.802 -0.972 233 183 124
-9.6330004 4.8000002 -0.958 136 86 23
-9.6339998 4.8010001 -0.95499998 135 81 21
-9.6149998 4.783 -1.031 95 49 16
-9.6190004 4.776 -1.03 144 97 69
-9.6199999 4.7789998 -1.022 160 108 71
-9.6260004 4.763 -1.0420001 199 106 36
-9.6739998 4.6869998 -1.101 210 170 135
-9.6750002 4.6919999 -1.103 200 151 111
-9.6829996 4.7360001 -1.135 174 125 82
-9.6809998 4.7329998 -1.128 127 83 46
-9.6809998 4.7350001 -1.14 121 83 74
-9.6809998 4.7319999 -1.135 200 147 93
-9.6800003 4.6989999 -1.1109999 106 81 61
-9.7019997 4.6700001 -1.052 137 85 27
-9.6969995 4.671 -1.063 83 29 0
-9.6800003 4.6719999 -1.0369999 156 117 76
-9.6759996 4.6719999 -1.038 113 73 38
-9.677 4.6810002 -1.033 167 133 108
-9.5190001 4.7950001 -1.0779999 206 156 107
-9.6750002 4.6750002 -1.039 210 153 108
-9.5679998 4.8460002 -1.003 86 37 5
-9.7220001 4.7090001 -1.061 215 139 77
-9.7159996 4.7129998 -1.05 182 113 58
-9.5719995 4.881 -1.058 209 148 83
-9.5790005 4.8909998 -1.0549999 125 86 57
-9.5699997 4.8870001 -1.046 53 24 10
-9.585 4.7750001 -1.142 202 145 115
-9.5839996 4.763 -1.153 151 99 62
-9.5839996 4.7680001 -1.155 101 59 43
-9.5799999 4.77 -1.152 135 74 19
-9.6680002 4.9050002 -1.114 198 121 51
-9.6660004 4.9000001 -1.112 188 110 48
-9.6599998 4.914 -1.1109999 197 122 57
-9.6470003 4.908 -1.11 184 105 36
-9.5760002 4.8790002 -1.041 113 69 40
-9.5780001 4.8779998 -1.04 223 182 100
-9.5760002 4.882 -1.0420001 129 86 51
-9.5790005 4.849 -0.99400002 152 99 57
-9.5780001 4.8520002 -1.001 93 37 2
-9.5760002 4.8720002 -1.039 255 222 151
-9.7110004 4.6919999 -1.102 190 145 104
-9.7119999 4.6989999 -1.113 116 73 28
-9.7080002 4.6900001 -1.1059999 124 55 13
-9.7110004 4.6869998 -1.094 215 136 77
-9.6960001 4.6830001 -1.089 145 66 0
-9.6890001 4.6830001 -1.087 141 88 36
-9.6949997 4.6750002 -1.077 189 106 14
-9.6789999 4.6789999 -1.097 253 222 176
-9.7060003 4.6960001 -1.113 103 44 4
-9.7030001 4.7030001 -1.113 67 19 0
-9.5209999 4.8119998 -1.072 130 105 100
-9.5249996 4.8119998 -1.0549999 217 172 117
-9.5190001 4.8169999 -1.08 100 64 32
-9.6759996 4.678 -1.038 146 112 84
-9.6400003 4.7579999 -1.0369999 159 120 103
-9.5439997 4.8049998 -1.0369999 24 4 0
-9.6309996 4.7880001 -1.002 164 112 73
-9.6280003 4.7930002 -0.99699998 168 127 97
-9.6160002 4.7909999 -1.007 145 90 26
-9.632 4.888 -1.024 116 69 27
-9.6389999 4.8959999 -1.033 213 163 90
-9.6450005 4.882 -1.03 143 98 57
-9.6339998 4.875 -1.031 247 200 122
-9.6169996 4.8969998 -1.023 201 157 122
-9.6149998 4.8909998 -1.016 176 137 104
-9.6359997 4.921 -1.108 202 134 51
-9.5760002 4.8860002 -1.044 145 107 71
-9.6140003 4.7870002 -1.022 132 78 40
-9.6070004 4.802 -1.0140001 204 156 90
-9.6940002 4.6880002 -1.109 68 32 0
-9.6809998 4.6820002 -1.034 96 61 41
-9.6850004 4.684 -1.0470001 90 52 15
-9.6829996 4.677 -1.044 172 146 129
-9.7080002 4.6950002 -1.091 201 117 29
-9.7150002 4.6830001 -1.0700001 110 42 0
-9.7069998 4.7010002 -1.084 134 91 56
-9.7150002 4.7090001 -1.0700001 180 108 58
-9.717 4.7150002 -1.094 86 42 0
-9.7080002 4.6960001 -1.092 167 104 37
-9.7159996 4.6810002 -1.064 148 91 48
-9.6800003 4.6719999 -1.04 154 115 82
-9.7060003 4.7049999 -1.049 159 92 37
-9.6999998 4.704 -1.046 169 127 77
-9.7110004 4.6849999 -1.0700001 162 119 64
-9.7229996 4.7090001 -1.062 81 66 69
-9.7080002 4.7119999 -1.063 139 69 17
-9.6999998 4.7049999 -1.061 110 71 28
-9.7130003 4.7210002 -1.0650001 105 70 40
-9.7019997 4.711 -1.112 77 35 0
-9.7110004 4.723 -1.0930001 195 133 74
-9.7139997 4.7140002 -1.096 174 90 46
-9.5790005 4.8169999 -1.153 122 68 22
-9.5880003 4.8189998 -1.152 191 113 65
-9.5810003 4.8130002 -1.152 153 91 34
-9.5790005 4.8109999 -1.151 179 105 66
-9.6429996 4.7930002 -1.09 156 89 37
-9.6440001 4.7919998 -1.081 172 121 74
-9.6499996 4.802 -1.094 127 67 15
-9.6450005 4.796 -1.0829999 123 70 16
-9.6160002 4.802 -1.084 152 90 49
-9.6210003 4.7870002 -1.096 156 78 4
-9.6230001 4.7880001 -1.0880001 98 55 21
-9.6190004 4.7930002 -1.099 147 98 68
-9.6669998 4.901 -1.1059999 171 82 16
-9.6630001 4.9200001 -1.1059999 196 111 44
-9.5220003 4.8000002 -1.0650001 183 137 88
-9.5749998 4.8439999 -0.99900001 185 98 27
-9.5710001 4.8449998 -1.002 103 42 0
-9.7110004 4.6989999 -1.099 166 103 60
-9.71 4.6900001 -1.099 147 82 40
-9.5299997 4.809 -1.044 168 123 100
-9.5780001 4.809 -1.092 59 18 0
-9.5769997 4.802 -1.086 87 78 83
-9.5790005 4.8109999 -1.091 88 42 18
-9.5699997 4.8060002 -1.089 106 71 52
-9.6350002 4.7969999 -0.96799999 59 23 0
-9.6289997 4.7979999 -0.96700001 130 68 19
-9.6300001 4.7950001 -0.99599999 149 104 73
-9.533 4.7849998 -1.098 156 90 30
-9.5249996 4.7950001 -1.098 150 86 25
-9.526 4.7880001 -1.109 106 71 39
-9.5480003 4.7789998 -1.107 224 174 121
-9.6520004 4.7979999 -1.0700001 148 97 44
-9.6700001 4.711 -1.086 37 16 0
-9.6800003 4.71 -1.077 128 93 74
-9.6359997 4.881 -1.03 232 183 116
-9.5799999 4.8920002 -1.053 201 157 128
-9.6560001 4.9159999 -1.109 83 39 14
-9.6260004 4.9130001 -1.105 190 125 59
-9.6190004 4.8899999 -1.102 232 181 126
-9.5769997 4.8870001 -1.0470001 210 165 124
-9.6120005 4.789 -1.029 94 48 22
-9.5760002 4.8410001 -1.01 143 96 66
-9.5699997 4.8400002 -1.023 138 76 39
-9.6160002 4.8039999 -1.013 100 78 54
-9.6079998 4.8109999 -1.0190001 85 30 0
-9.6160002 4.882 -1.0190001 183 128 87
-9.6020002 4.8740001 -1.005 113 66 38
-9.6059999 4.882 -1.0039999 191 142 101
-9.6309996 4.8049998 -0.963 184 128 69
-9.5819998 4.8499999 -1.001 128 66 17
-9.6400003 4.8850002 -1.039 176 120 69
-9.6829996 4.6859999 -1.109 83 74 59
-9.7019997 4.6950002 -1.112 90 41 9
-9.6870003 4.6739998 -1.046 149 106 71
-9.6929998 4.6750002 -1.039 169 94 29
-9.6890001 4.6849999 -1.051 57 30 11
-9.6929998 4.7020001 -1.057 197 117 48
-9.6850004 4.6859999 -1.101 183 134 93
-9.6800003 4.7049999 -1.099 123 97 80
-9.7110004 4.7069998 -1.05 255 219 174
-9.7019997 4.6830001 -1.077 118 79 50
-9.6960001 4.7129998 -1.1059999 23 12 10
-9.698 4.717 -1.097 35 18 11
-9.6960001 4.7220001 -1.084 69 32 6
-9.684 4.724 -1.09 143 70 17
-9.7030001 4.7249999 -1.076 95 56 17
-9.698 4.73 -1.072 107 57 8
-9.6280003 4.7880001 -1.079 125 86 69
-9.6210003 4.7870002 -1.068 133 89 60
-9.6289997 4.783 -1.072 141 82 38
-9.6289997 4.7750001 -1.051 194 123 69
-9.5719995 4.7750001 -1.109 222 170 113
-9.5740004 4.777 -1.119 161 90 24
-9.5760002 4.7810001 -1.113 158 82 30
-9.5640001 4.7989998 -1.076 155 91 47
-9.5480003 4.7940001 -1.077 130 60 0
-9.552 4.7979999 -1.089 219 175 112
-9.5539999 4.8000002 -1.0880001 249 156 78
-9.7110004 4.7080002 -1.049 162 97 33
-9.6260004 4.777 -1.017 150 66 6
-9.6569996 4.8060002 -1.0700001 236 177 121
-9.677 4.7859998 -1.045 226 175 122
-9.6890001 4.7729998 -1.0470001 175 131 84
-9.6940002 4.7740002 -1.041 157 107 58
-9.6759996 4.789 -1.048 136 105 84
-9.6759996 4.7839999 -1.052 141 96 63
-9.6350002 4.8099999 -1.015 110 75 47
-9.6330004 4.8140001 -1.02 153 119 82
-9.6420002 4.809 -1.031 123 98 67
-9.6409998 4.803 -1.017 213 134 59
-9.6359997 4.7989998 -0.99599999 150 100 67
-9.6190004 4.796 -1.052 53 10 0
-9.6190004 4.7870002 -1.043 110 62 39
-9.618 4.796 -1.0549999 57 14 0
-9.632 4.8649998 -1.075 130 45 4
-9.6450005 4.869 -1.082 175 89 28
-9.6359997 4.868 -1.071 150 65 0
-9.6739998 4.79 -1.05 116 68 19
-9.6719999 4.7909999 -1.05 242 179 100
-9.658 4.8839998 -1.103 176 94 34
-9.6619997 4.8959999 -1.104 179 122 79
-9.6420002 4.8200002 -1.102 199 135 74
-9.6470003 4.8169999 -1.101 255 196 146
-9.6420002 4.8189998 -1.098 150 120 112
-9.6300001 4.9120002 -1.115 244 192 142
-9.6379995 4.9070001 -1.1109999 250 194 117
-9.6409998 4.9089999 -1.112 251 201 128
-9.6440001 4.9029999 -1.108 181 103 41
-9.5719995 4.881 -1.044 80 47 28
-9.5790005 4.8460002 -0.99400002 207 116 45
-9.7130003 4.7069998 -1.101 77 43 5
-9.71 4.7080002 -1.095 65 37 23
-9.6999998 4.6869998 -1.092 97 52 11
-9.6990004 4.6869998 -1.098 83 39 0
-9.7030001 4.6880002 -1.098 187 124 71
-9.5299997 4.8109999 -1.043 36 9 2
-9.533 4.8130002 -1.043 36 13 7
-9.5799999 4.8699999 -1.041 255 231 161
-9.6359997 4.7989998 -0.97000003 84 41 0
-9.6330004 4.7779999 -1.015 143 88 47
-9.6269999 4.7779999 -1.05 236 183 133
-9.6289997 4.7810001 -1.0549999 239 183 134
-9.6730003 4.7010002 -1.09 206 134 75
-9.6759996 4.7030001 -1.092 45 23 10
-9.6309996 4.763 -1.044 211 172 141
-9.6400003 4.8850002 -1.029 201 156 97
-9.5780001 4.8800001 -1.041 251 214 144
-9.5799999 4.888 -1.049 252 189 120
-9.6079998 4.8839998 -1.008 214 165 124
-9.6020002 4.881 -1.003 206 161 119
-9.6049995 4.882 -1.007 137 89 49
-9.6440001 4.7579999 -1.034 133 86 60
-9.6370001 4.7670002 -1.034 138 85 53
-9.651 4.7610002 -1.024 133 78 37
-9.6479998 4.7529998 -1.0319999 192 127 63
-9.5710001 4.8449998 -1.003 156 106 45
-9.5699997 4.8470001 -1.012 172 119 51
-9.618 4.8039999 -1.013 131 74 29
-9.6129999 4.7880001 -1.018 112 54 14
-9.6309996 4.8049998 -0.96200001 218 164 104
-9.5869999 4.8499999 -1.005 117 56 11
-9.592 4.8569999 -1.016 144 81 27
-9.5939999 4.8509998 -1.013 255 190 130
-9.5860004 4.8520002 -1.016 130 70 18
-9.5880003 4.888 -1.048 245 174 108
-9.7069998 4.7140002 -1.097 68 42 29
-9.691 4.6789999 -1.069 77 46 25
-9.691 4.684 -1.075 48 20 0
-9.6879997 4.6799998 -1.0369999 205 166 91
-9.6879997 4.6849999 -1.051 86 48 12
-9.6890001 4.697 -1.081 66 25 0
-9.5450001 4.8400002 -1.033 116 46 0
-9.54 4.836 -1.033 171 99 49
-9.5430002 4.8390002 -1.036 190 126 80
-9.5410004 4.8299999 -1.04 153 77 19
-9.5509996 4.8340001 -1.036 139 59 0
-9.691 4.7010002 -1.064 99 46 12
-9.6829996 4.711 -1.063 166 141 119
-9.7150002 4.7119999 -1.0650001 115 80 52
-9.7159996 4.7189999 -1.068 55 20 0
-9.7089996 4.7270002 -1.0599999 148 125 107
-9.7060003 4.724 -1.071 245 207 160
-9.7040005 4.7249999 -1.063 131 95 81
-9.7049999 4.724 -1.075 42 7 0
-9.7110004 4.7140002 -1.087 99 48 17
-9.6009998 4.8039999 -1.048 90 55 36
-9.5670004 4.8070002 -1.081 167 124 69
-9.5710001 4.809 -1.086 72 34 13
-9.6099997 4.8099999 -1.024 108 52 17
-9.6140003 4.809 -1.022 102 62 36
-9.6169996 4.809 -1.03 184 131 97
-9.6070004 4.8000002 -1.0319999 170 105 49
-9.5609999 4.8000002 -1.069 169 101 36
-9.5419998 4.8309999 -1.094 73 32 2
-9.5500002 4.842 -1.0880001 168 108 56
-9.5509996 4.8449998 -1.098 70 34 10
-9.5649996 4.8460002 -1.109 181 122 62
-9.5740004 4.849 -1.094 211 156 99
-9.559 4.8509998 -1.098 253 183 113
-9.6379995 4.7880001 -1.095 160 103 58
-9.6359997 4.7820001 -1.061 164 119 80
-9.6339998 4.789 -1.072 194 169 147
-9.6330004 4.79 -1.079 77 25 0
-9.6260004 4.7950001 -1.069 71 26 5
-9.6289997 4.8039999 -1.058 168 73 5
-9.6160002 4.8039999 -1.084 211 128 58
-9.6260004 4.7950001 -1.077 77 35 11
-9.6219997 4.7930002 -1.081 198 110 47
-9.5539999 4.7779999 -1.109 188 137 80
-9.5439997 4.7820001 -1.103 119 66 22
-9.5780001 4.77 -1.14 150 90 40
-9.6210003 4.8150001 -1.107 126 96 88
-9.6269999 4.8200002 -1.1109999 166 119 67
-9.6330004 4.796 -1.112 127 56 0
-9.5710001 4.783 -1.118 153 78 23
-9.5719995 4.7789998 -1.118 177 125 88
-9.6490002 4.7989998 -1.044 160 106 34
-9.6420002 4.8039999 -1.03 103 61 47
-9.6459999 4.7969999 -1.04 150 77 32
-9.6230001 4.7729998 -1.036 199 156 124
-9.6429996 4.7969999 -1.012 166 123 106
-9.6389999 4.7989998 -1.024 163 121 83
-9.6759996 4.7740002 -1.036 219 171 125
-9.658 4.7849998 -1.0369999 168 113 56
-9.625 4.8769999 -1.104 225 173 133
-9.6239996 4.8909998 -1.107 187 143 106
-9.6289997 4.881 -1.11 255 203 143
-9.632 4.8839998 -1.1109999 208 149 89
-9.6440001 4.8790002 -1.1160001 203 125 53
-9.6330004 4.8829999 -1.1109999 181 129 71
-9.6499996 4.8039999 -1.074 128 69 25
-9.6339998 4.802 -1.068 175 96 37
-9.6389999 4.802 -1.074 116 80 64
-9.632 4.8000002 -1.087 195 155 119
-9.6470003 4.8150001 -1.095 255 209 142
-9.651 4.8130002 -1.107 108 74 49
-9.6470003 4.809 -1.112 118 57 12
-9.6300001 4.823 -1.117 130 60 11
-9.6309996 4.908 -1.112 250 197 129
-9.6499996 4.8829999 -1.108 190 110 41
-9.6470003 4.8790002 -1.113 178 91 24
-9.6490002 4.882 -1.102 103 76 47
-9.6409998 4.8920002 -1.108 147 68 1
-9.5839996 4.8449998 -1.0039999 154 93 48
-9.5830002 4.8460002 -1.015 223 161 102
-9.6960001 4.6869998 -1.107 141 81 27
-9.533 4.789 -1.098 182 105 49
-9.5229998 4.796 -1.0700001 184 132 82
-9.54 4.7979999 -1.073 96 55 35
-9.5270004 4.8130002 -1.063 34 6 0
-9.5299997 4.8119998 -1.046 49 20 12
-9.5340004 4.8309999 -1.049 230 165 109
-9.5810003 4.8340001 -1.0319999 249 202 112
-9.5710001 4.8299999 -1.031 186 140 91
-9.632 4.802 -0.97000003 176 126 67
-9.5439997 4.7880001 -1.101 126 77 34
-9.625 4.7870002 -1.057 198 145 103
-9.6300001 4.7789998 -1.054 216 158 95
-9.6339998 4.7750001 -1.053 205 147 97
-9.6400003 4.7690001 -1.053 100 53 27
-9.6450005 4.7620001 -1.048 139 100 69
-9.6499996 4.7659998 -1.054 180 139 107
-9.6829996 4.704 -1.081 33 4 0
-9.6700001 4.7030001 -1.0880001 125 89 55
-9.677 4.7160001 -1.094 40 13 4
-9.632 4.7649999 -1.038 89 52 25
-9.6660004 4.7779999 -1.0369999 204 148 87
-9.6719999 4.7709999 -1.03 62 39 21
-9.6890001 4.7129998 -1.044 181 117 73
-9.6850004 4.7210002 -1.039 167 123 94
-9.6730003 4.7140002 -1.0599999 88 66 52
-9.6960001 4.7090001 -1.0369999 114 69 28
-9.6040001 4.8779998 -1.007 144 91 59
-9.5780001 4.8639998 -1.039 172 116 79
-9.6219997 4.8070002 -1.0190001 91 50 30
-9.6239996 4.8039999 -1.011 170 121 80
-9.6000004 4.8720002 -1.007 154 100 64
-9.5939999 4.868 -1.045 179 123 72
-9.6120005 4.8889999 -1.016 139 96 62
-9.6160002 4.8909998 -1.02 121 80 48
-9.6350002 4.8839998 -1.0420001 150 69 13
-9.632 4.8839998 -1.048 188 98 35
-9.6339998 4.8870001 -1.049 204 149 82
-9.5869999 4.8870001 -1.05 226 160 102
-9.7040005 4.6719999 -1.063 76 29 0
-9.7069998 4.677 -1.053 188 132 83
-9.691 4.6750002 -1.054 171 143 131
-9.6920004 4.677 -1.0650001 128 80 42
-9.6890001 4.6799998 -1.041 176 132 85
-9.6850004 4.7020001 -1.079 130 83 39
-9.6920004 4.684 -1.092 203 151 101
-9.5369997 4.8299999 -1.038 193 151 93
-9.7110004 4.7179999 -1.079 160 89 47
-9.6940002 4.7150002 -1.1 21 10 6
-9.691 4.7129998 -1.108 16 2 1
-9.6960001 4.7119999 -1.108 47 15 2
-9.6929998 4.7059999 -1.113 154 129 109
-9.6829996 4.7179999 -1.0880001 113 80 49
-9.6899996 4.7199998 -1.0880001 255 224 189
-9.691 4.7189999 -1.0779999 116 70 44
-9.6110001 4.8049998 -1.04 80 31 1
-9.6009998 4.8039999 -1.044 64 26 7
-9.5950003 4.8080001 -1.049 113 80 63
-9.6049995 4.803 -1.039 92 55 36
-9.625 4.8039999 -1.0369999 145 96 63
-9.5480003 4.8060002 -1.046 44 23 18
-9.533 4.7969999 -1.1109999 223 143 82
-9.5279999 4.7930002 -1.102 167 105 56
-9.6199999 4.888 -1.066 159 122 95
-9.6210003 4.8909998 -1.077 205 126 59
-9.6120005 4.882 -1.067 145 103 65
-9.5489998 4.836 -1.0930001 157 92 24
-9.5579996 4.7909999 -1.099 175 84 13
-9.5340004 4.7870002 -1.105 192 118 57
-9.6140003 4.8070002 -1.089 113 65 27
-9.6169996 4.8119998 -1.095 114 85 79
-9.6219997 4.7979999 -1.098 234 142 59
-9.5810003 4.8449998 -1.097 176 109 38
-9.5939999 4.8499999 -1.09 165 129 105
-9.5889997 4.8470001 -1.089 143 82 28
-9.5900002 4.8449998 -1.1109999 112 59 17
-9.5959997 4.8439999 -1.115 139 62 16
-9.5900002 4.842 -1.113 116 68 20
-9.5780001 4.8790002 -1.058 204 140 76
-9.5909996 4.8699999 -1.063 120 68 29
-9.5620003 4.8410001 -1.09 223 158 94
-9.573 4.848 -1.075 247 186 141
-9.6309996 4.7839999 -1.103 108 71 29
-9.5559998 4.7969999 -1.127 127 69 21
-9.5500002 4.7969999 -1.125 134 75 41
-9.5570002 4.7989998 -1.125 149 87 30
-9.5620003 4.777 -1.11 225 175 116
-9.5439997 4.789 -1.114 129 53 1
-9.5539999 4.8249998 -1.119 101 47 19
-9.5439997 4.8109999 -1.11 166 114 74
-9.5469999 4.829 -1.119 173 119 59
-9.5600004 4.8210001 -1.098 86 50 16
-9.5699997 4.822 -1.0930001 190 133 104
-9.573 4.8410001 -1.102 166 86 33
-9.5710001 4.8390002 -1.113 153 71 21
-9.5699997 4.836 -1.126 123 44 1
-9.566 4.8379998 -1.119 160 78 30
-9.5880003 4.8260002 -1.103 140 60 7
-9.5900002 4.8330002 -1.097 152 97 43
-9.6210003 4.809 -1.097 119 75 30
-9.625 4.8060002 -1.102 133 87 37
-9.6260004 4.7989998 -1.046 229 180 148
-9.6379995 4.8010001 -1.04 116 77 62
-9.6599998 4.79 -1.054 174 99 44
-9.6529999 4.79 -1.0599999 157 95 38
-9.6719999 4.7709999 -1.045 146 81 39
-9.6709995 4.7610002 -1.045 216 152 108
-9.6700001 4.7610002 -1.046 87 56 28
-9.677 4.7270002 -1.0700001 54 20 0
-9.6560001 4.7709999 -1.052 232 190 140
-9.6630001 4.7839999 -1.038 203 149 87
-9.6379995 4.8000002 -1.012 161 100 53
-9.6379995 4.7989998 -1.011 145 90 49
-9.6459999 4.8720002 -1.1109999 163 133 99
-9.6389999 4.803 -1.0880001 203 153 104
-9.6350002 4.8130002 -1.091 129 76 42
-9.6309996 4.8330002 -1.1109999 157 87 35
-9.6190004 4.8330002 -1.11 153 70 18
-9.6280003 4.829 -1.117 149 68 13
-9.6239996 4.8270001 -1.112 189 138 75
-9.6429996 4.8130002 -1.105 101 62 31
-9.6400003 4.7930002 -1.096 170 98 39
-9.6429996 4.7989998 -1.099 123 60 9
-9.6409998 4.8920002 -1.05 213 128 64
-9.6289997 4.8990002 -1.046 141 85 26
-9.6420002 4.9070001 -1.103 243 190 124
-9.5719995 4.8779998 -1.045 182 149 130
-9.5699997 4.8759999 -1.048 94 61 44
-9.5270004 4.8169999 -1.077 99 59 34
-9.5279999 4.8169999 -1.08 109 67 43
-9.5459995 4.7989998 -1.085 208 128 69
-9.5419998 4.7979999 -1.08 205 142 99
-9.5410004 4.7989998 -1.0779999 118 78 53
-9.5369997 4.8010001 -1.072 170 91 35
-9.5869999 4.849 -1.025 196 160 136
-9.5769997 4.8470001 -1.011 152 117 89
-9.5799999 4.8470001 -1.015 137 75 34
-9.5690002 4.8460002 -1.022 110 76 49
-9.5530005 4.8369999 -1.034 221 160 116
-9.5889997 4.8439999 -1.0319999 163 79 7
-9.6009998 4.8000002 -1.038 117 71 47
-9.6070004 4.8000002 -1.04 95 49 26
-9.6370001 4.809 -1.0319999 127 94 53
-9.5509996 4.7979999 -1.073 139 54 0
-9.5340004 4.8280001 -1.051 248 186 127
-9.5319996 4.8169999 -1.052 158 109 66
-9.5389996 4.8299999 -1.0599999 186 137 79
-9.5360003 4.8080001 -1.112 154 94 42
-9.5319996 4.8049998 -1.104 164 102 45
-9.5310001 4.8239999 -1.1 186 130 73
-9.6920004 4.7579999 -1.043 113 58 4
-9.6920004 4.7550001 -1.0420001 229 175 111
-9.6719999 4.756 -1.04 111 55 6
-9.6680002 4.756 -1.041 185 128 85
-9.6759996 4.7659998 -1.03 134 83 38
-9.6300001 4.796 -1 96 80 55
-9.6420002 4.7969999 -1.0650001 227 169 123
-9.6269999 4.7789998 -1.05 224 166 103
-9.6379995 4.7740002 -1.0549999 210 159 112
-9.6569996 4.75 -1.043 73 26 0
-9.6689997 4.7449999 -1.033 118 68 33
-9.6730003 4.7220001 -1.062 74 52 28
-9.6750002 4.7249999 -1.062 144 114 88
-9.7119999 4.7199998 -1.04 87 44 10
-9.6969995 4.717 -1.0369999 166 131 111
-9.6920004 4.7129998 -1.0420001 140 109 89
-9.5670004 4.8579998 -1.0369999 159 101 55
-9.6269999 4.802 -1.008 235 189 155
-9.6230001 4.8049998 -1.0140001 126 73 31
-9.6129999 4.8829999 -1.022 196 141 110
-9.6260004 4.8850002 -1.031 167 82 17
-9.6289997 4.8829999 -1.031 215 161 114
-9.6199999 4.8920002 -1.021 117 78 45
-9.6289997 4.8860002 -1.026 185 143 101
-9.5760002 4.8499999 -1.005 111 59 20
-9.7040005 4.6739998 -1.066 86 40 4
-9.7019997 4.6719999 -1.059 102 56 20
-9.6999998 4.6939998 -1.0650001 142 91 38
-9.7030001 4.677 -1.068 71 29 5
-9.6929998 4.6739998 -1.059 40 6 0
-9.691 4.6799998 -1.057 176 148 137
-9.6859999 4.6789999 -1.048 180 156 144
-9.691 4.6869998 -1.073 119 73 37
-9.6940002 4.6859999 -1.0650001 78 33 0
-9.6829996 4.7010002 -1.084 181 140 112
-9.5360003 4.8330002 -1.043 182 136 74
-9.5369997 4.8299999 -1.043 163 90 39
-9.54 4.836 -1.035 216 145 93
-9.5319996 4.8140001 -1.046 24 0 0
-9.5349998 4.829 -1.049 232 159 90
-9.691 4.7059999 -1.0599999 83 53 29
-9.7110004 4.7220001 -1.074 121 63 25
-9.7130003 4.7179999 -1.089 118 78 43
-9.7040005 4.7179999 -1.092 123 71 34
-9.6789999 4.7010002 -1.089 110 71 42
-9.6800003 4.7160001 -1.104 159 141 137
-9.691 4.6999998 -1.115 66 36 28
-9.691 4.7189999 -1.089 53 17 0
-9.6090002 4.7989998 -1.0369999 63 16 0
-9.6049995 4.802 -1.0420001 184 142 118
-9.5459995 4.803 -1.071 177 113 69
-9.5550003 4.8119998 -1.067 109 29 0
-9.552 4.8200002 -1.05 111 75 59
-9.5710001 4.8299999 -1.0319999 198 148 95
-9.5459995 4.8060002 -1.043 177 106 62
-9.5439997 4.8130002 -1.04 186 133 89
-9.5469999 4.823 -1.0470001 130 79 34
-9.5780001 4.8330002 -1.073 222 142 69
-9.585 4.836 -1.068 175 96 30
-9.5740004 4.8319998 -1.068 211 140 78
-9.5629997 4.8130002 -1.073 163 126 97
-9.5740004 4.8319998 -1.074 156 122 94
-9.5609999 4.8410001 -1.067 206 144 83
-9.5629997 4.849 -1.061 190 112 63
-9.5500002 4.8470001 -1.0549999 167 91 33
-9.5830002 4.7779999 -1.143 171 112 46
-9.5550003 4.7979999 -1.099 159 115 50
-9.5559998 4.8200002 -1.102 111 53 5
-9.5489998 4.7800002 -1.107 145 55 0
-9.6190004 4.8670001 -1.076 106 60 26
-9.6289997 4.8730001 -1.079 244 182 109
-9.6190004 4.8759999 -1.077 147 92 36
-9.632 4.8720002 -1.081 234 171 100
-9.5869999 4.868 -1.072 87 22 0
-9.6049995 4.8740001 -1.0700001 126 99 56
-9.6420002 4.7940001 -1.11 215 155 101
-9.6289997 4.79 -1.108 92 46 12
-9.6219997 4.7870002 -1.097 122 79 47
-9.6260004 4.7880001 -1.097 190 129 85
-9.6389999 4.79 -1.09 198 103 11
-9.6199999 4.7979999 -1.09 173 110 66
-9.6300001 4.79 -1.086 131 52 0
-9.6350002 4.7909999 -1.0880001 128 79 21
-9.5620003 4.8390002 -1.114 116 34 0
-9.5579996 4.7810001 -1.108 142 85 42
-9.5439997 4.7849998 -1.113 132 53 10
-9.5360003 4.822 -1.107 95 41 5
-9.5509996 4.8299999 -1.1 129 73 16
-9.6199999 4.8249998 -1.109 167 87 28
-9.6300001 4.7930002 -1.109 111 52 18
-9.6350002 4.8000002 -1.0549999 98 58 32
-9.6199999 4.783 -1.036 84 38 14
-9.6759996 4.7189999 -1.067 95 73 52
-9.6730003 4.7880001 -1.045 117 75 53
-9.6619997 4.789 -1.0470001 167 135 112
-9.6619997 4.7919998 -1.052 149 98 55
-9.6389999 4.8779998 -1.107 223 140 72
-9.6199999 4.8870001 -1.079 179 106 51
-9.6420002 4.8049998 -1.091 158 101 56
-9.6190004 4.8080001 -1.087 203 153 120
-9.6260004 4.8119998 -1.098 255 196 143
-9.6309996 4.8200002 -1.101 196 131 65
-9.6120005 4.8590002 -1.073 133 45 0
-9.6099997 4.862 -1.076 143 96 54
-9.6409998 4.8720002 -1.074 121 78 62
-9.6450005 4.8790002 -1.073 195 108 41
-9.6339998 4.8870001 -1.0549999 194 140 76
-9.6289997 4.881 -1.053 165 117 69
-9.6499996 4.8899999 -1.075 120 77 58
-9.6339998 4.8870001 -1.072 183 126 59
-9.6450005 4.8790002 -1.082 84 42 20
-9.6529999 4.888 -1.081 169 90 47
-9.6260004 4.9099998 -1.102 249 176 107
-9.6260004 4.9029999 -1.107 101 65 29
-9.6260004 4.8969998 -1.11 128 76 26
-9.7080002 4.6999998 -1.094 255 217 168
-9.5310001 4.8140001 -1.086 133 93 68
-9.5900002 4.8520002 -1.033 195 159 133
-9.5860004 4.8579998 -1.041 200 165 99
-9.6040001 4.8699999 -1.043 139 78 23
-9.5909996 4.8470001 -1.0369999 218 154 90
-9.6029997 4.8559999 -1.051 255 223 162
-9.573 4.8429999 -1.016 137 98 67
-9.5889997 4.875 -1.0470001 150 76 13
-9.5970001 4.8509998 -1.054 206 148 108
-9.5880003 4.8340001 -1.05 248 193 126
-9.6070004 4.855 -1.057 224 145 68
-9.5889997 4.8429999 -1.034 255 213 129
-9.5439997 4.7989998 -1.071 153 72 16
-9.5380001 4.8340001 -1.0470001 199 136 83
-9.5459995 4.8470001 -1.054 203 143 81
-9.5459995 4.8330002 -1.061 176 113 72
-9.5310001 4.7969999 -1.103 199 143 92
-9.6899996 4.7620001 -1.031 111 69 47
-9.6870003 4.756 -1.027 175 96 19
-9.6739998 4.7610002 -1.0420001 233 185 139
-9.6680002 4.7610002 -1.028 240 189 136
-9.6370001 4.789 -1.033 202 149 95
-9.6370001 4.7810001 -1.0369999 170 107 63
-9.6459999 4.7810001 -1.038 235 194 115
-9.6230001 4.7810001 -1.015 202 143 101
-9.6409998 4.7729998 -1.0369999 91 55 33
-9.6479998 4.776 -1.0369999 95 51 22
-9.6400003 4.7649999 -1.046 118 73 44
-9.6490002 4.7969999 -1.0599999 250 188 131
-9.6389999 4.789 -1.064 214 155 97
-9.6540003 4.756 -1.027 164 112 65
-9.665 4.7509999 -1.038 168 107 60
-9.6599998 4.7529998 -1.0420001 171 122 89
-9.6809998 4.724 -1.064 156 121 93
-9.6850004 4.7210002 -1.05 51 20 2
-9.6739998 4.7470002 -1.03 161 84 30
-9.6829996 4.744 -1.0319999 189 146 77
-9.7030001 4.717 -1.0420001 129 72 17
-9.6960001 4.7519999 -1.035 132 70 19
-9.6890001 4.7529998 -1.038 237 175 102
-9.6850004 4.7470002 -1.034 240 186 112
-9.6280003 4.8940001 -1.03 224 178 142
-9.6239996 4.8930001 -1.029 221 175 141
-9.6389999 4.9039998 -1.103 228 173 109
-9.552 4.836 -1.058 210 140 89
-9.5559998 4.848 -1.0369999 143 76 24
-9.5579996 4.8540001 -1.046 141 69 19
-9.5539999 4.8439999 -1.044 129 57 9
-9.5609999 4.8559999 -1.039 170 103 50
-9.592 4.8629999 -1.045 255 178 98
-9.6219997 4.7989998 -1.0089999 165 104 49
-9.6070004 4.881 -1.012 135 76 36
-9.5900002 4.882 -1.046 188 109 34
-9.6379995 4.888 -1.041 136 60 2
-9.618 4.8740001 -1.048 172 111 67
-9.6210003 4.8769999 -1.044 102 43 11
-9.6129999 4.8779998 -1.043 98 75 33
-9.6099997 4.8790002 -1.046 109 74 36
-9.6079998 4.8730001 -1.046 202 151 108
-9.6199999 4.8759999 -1.046 162 103 63
-9.7010002 4.6719999 -1.061 78 32 0
-9.5509996 4.842 -1.045 132 61 19
-9.5690002 4.869 -1.052 96 51 18
-9.5419998 4.8379998 -1.046 215 157 94
-9.5369997 4.8340001 -1.045 217 137 74
-9.5349998 4.8319998 -1.0470001 197 123 60
-9.5389996 4.835 -1.041 209 143 93
-9.5410004 4.8280001 -1.066 250 213 142
-9.5290003 4.816 -1.074 163 127 105
-9.6879997 4.7080002 -1.066 122 69 35
-9.698 4.7249999 -1.0599999 77 31 7
-9.6899996 4.7179999 -1.095 24 11 5
-9.6809998 4.711 -1.1 30 3 0
-9.6129999 4.7969999 -1.041 169 88 23
-9.5360003 4.8270001 -1.054 187 128 62
-9.5480003 4.8080001 -1.048 174 132 94
-9.5799999 4.8200002 -1.0930001 160 73 19
-9.5749998 4.8260002 -1.1059999 122 39 0
-9.552 4.848 -1.054 204 124 65
-9.559 4.8600001 -1.053 197 143 96
-9.5620003 4.8569999 -1.046 165 95 46
-9.5579996 4.7979999 -1.094 125 72 20
-9.5970001 4.8390002 -1.0700001 88 72 73
-9.585 4.835 -1.073 178 103 48
-9.5930004 4.8379998 -1.085 146 84 23
-9.5780001 4.8540001 -1.076 200 129 73
-9.5939999 4.8460002 -1.086 175 132 98
-9.5769997 4.8449998 -1.098 146 62 0
-9.5769997 4.8449998 -1.098 146 62 0
-9.5869999 4.835 -1.103 234 162 86
-9.6350002 4.8730001 -1.0880001 153 104 63
-9.6040001 4.882 -1.054 85 50 31
-9.6339998 4.789 -1.0930001 118 75 24
-9.5640001 4.835 -1.119 110 60 11
-9.5649996 4.8330002 -1.118 203 135 70
-9.5389996 4.8119998 -1.11 149 100 59
-9.5550003 4.8410001 -1.101 142 81 16
-9.5719995 4.816 -1.085 155 74 21
-9.6429996 4.7989998 -1.0549999 171 117 73
-9.665 4.7849998 -1.0549999 176 105 59
-9.6549997 4.7909999 -1.044 178 117 62
-9.6269999 4.8870001 -1.079 156 129 108
-9.6260004 4.8189998 -1.104 181 133 71
-9.6029997 4.8629999 -1.074 149 74 19
-9.6359997 4.8889999 -1.052 150 70 1
-9.6309996 4.8839998 -1.067 157 108 49
-9.6470003 4.875 -1.0779999 121 37 0
-9.6260004 4.9000001 -1.107 183 135 89
-9.6239996 4.8940001 -1.112 144 94 45
-9.5749998 4.862 -1.062 157 92 28
-9.5799999 4.8590002 -1.072 128 56 18
-9.573 4.8559999 -1.0650001 102 28 0
-9.5299997 4.8150001 -1.063 34 7 0
-9.54 4.8000002 -1.081 143 99 72
-9.552 4.8309999 -1.074 149 81 20
-9.5579996 4.8369999 -1.081 97 56 26
-9.599 4.8740001 -1.0470001 170 91 14
-9.6070004 4.868 -1.049 187 99 35
-9.585 4.836 -1.063 121 78 46
-9.6210003 4.8740001 -1.067 137 48 8
-9.6190004 4.8769999 -1.056 93 46 16
-9.5469999 4.8070002 -1.112 231 156 88
-9.5360003 4.8010001 -1.1109999 159 95 34
-9.5389996 4.8239999 -1.079 118 65 33
-9.5380001 4.8189998 -1.085 165 80 26
-9.6330004 4.7919998 -1.024 169 105 57
-9.6420002 4.7909999 -1.035 151 96 42
-9.6309996 4.7909999 -1.011 89 42 12
-9.6540003 4.7750001 -1.034 196 145 92
-9.6569996 4.7719998 -1.033 190 103 34
-9.6520004 4.7870002 -1.058 156 94 47
-9.6560001 4.7540002 -1.03 120 89 61
-9.6809998 4.724 -1.067 116 81 53
-9.6750002 4.7199998 -1.059 144 120 92
-9.6820002 4.7459998 -1.029 200 153 107
-9.677 4.7509999 -1.036 140 80 30
-9.6700001 4.7470002 -1.031 225 186 131
-9.6890001 4.7270002 -1.0420001 107 60 32
-9.6969995 4.7220001 -1.0420001 180 136 109
-9.6359997 4.9000001 -1.101 200 145 88
-9.6370001 4.8959999 -1.107 255 201 127
-9.5649996 4.8039999 -1.071 179 116 72
-9.6020002 4.8629999 -1.049 166 111 54
-9.6219997 4.8070002 -1.027 78 56 33
-9.6090002 4.8839998 -1.012 116 68 28
-9.5959997 4.8790002 -1.0470001 162 76 17
-9.6190004 4.8920002 -1.054 96 60 38
-9.632 4.882 -1.041 184 128 79
-9.6120005 4.8670001 -1.054 64 31 12
-9.618 4.8860002 -1.039 158 78 5
-9.7119999 4.6750002 -1.062 129 56 3
-9.5419998 4.8379998 -1.043 217 141 89
-9.5430002 4.8379998 -1.04 205 132 79
-9.5410004 4.8249998 -1.071 241 199 125
-9.5340004 4.8169999 -1.073 109 47 10
-9.5439997 4.8270001 -1.069 230 196 122
-9.7030001 4.7199998 -1.085 60 32 18
-9.6920004 4.7049999 -1.112 48 16 5
-9.6120005 4.8010001 -1.044 174 124 89
-9.5799999 4.8340001 -1.0829999 207 150 123
-9.5839996 4.836 -1.081 165 100 44
-9.5900002 4.8330002 -1.094 176 93 39
-9.585 4.829 -1.094 92 32 0
-9.5799999 4.835 -1.0700001 190 132 84
-9.5710001 4.869 -1.057 224 165 121
-9.5749998 4.8660002 -1.058 102 53 20
-9.5550003 4.7940001 -1.097 57 24 9
-9.5769997 4.8540001 -1.072 133 62 16
-9.5740004 4.8540001 -1.068 201 137 73
-9.5869999 4.8610001 -1.0779999 113 46 0
-9.5839996 4.8330002 -1.107 82 52 16
-9.5900002 4.8429999 -1.101 155 107 58
-9.618 4.8779998 -1.0779999 120 94 71
-9.6389999 4.8779998 -1.102 181 95 34
-9.6029997 4.8720002 -1.061 146 96 63
-9.625 4.789 -1.091 161 84 14
-9.6280003 4.7880001 -1.103 200 141 97
-9.6389999 4.7930002 -1.103 114 51 8
-9.5740004 4.8330002 -1.113 117 35 0
-9.5690002 4.829 -1.114 111 27 0
-9.5509996 4.796 -1.115 111 55 4
-9.5699997 4.8249998 -1.112 135 56 15
-9.5620003 4.8270001 -1.11 141 91 42
-9.5719995 4.8260002 -1.108 177 124 70
-9.5649996 4.8239999 -1.097 134 48 0
-9.552 4.842 -1.099 174 116 70
-9.5649996 4.8460002 -1.097 129 81 35
-9.5760002 4.8179998 -1.092 121 67 39
-9.6420002 4.796 -1.109 166 107 63
-9.6619997 4.7709999 -1.0470001 101 48 16
-9.6599998 4.7709999 -1.048 139 94 53
-9.6499996 4.7950001 -1.048 153 121 100
-9.6330004 4.8899999 -1.0779999 126 90 56
-9.6280003 4.8150001 -1.1 208 140 79
-9.5950003 4.8470001 -1.084 173 124 83
-9.6169996 4.8720002 -1.075 157 111 78
-9.5640001 4.8579998 -1.044 151 81 30
-9.5319996 4.8039999 -1.079 59 28 10
-9.5600004 4.8379998 -1.069 126 87 54
-9.5769997 4.8429999 -1.017 119 59 7
-9.5790005 4.8439999 -1.023 137 79 39
-9.5839996 4.842 -1.031 152 95 40
-9.5819998 4.848 -1.026 77 49 27
-9.5690002 4.8449998 -1.018 255 222 194
-9.6099997 4.8699999 -1.05 176 114 77
-9.5839996 4.836 -1.063 227 174 108
-9.5780001 4.8330002 -1.044 153 98 42
-9.5740004 4.8330002 -1.043 122 64 14
-9.5939999 4.8509998 -1.052 191 127 66
-9.5469999 4.7979999 -1.071 177 117 54
-9.5439997 4.796 -1.079 189 107 49
-9.5419998 4.8249998 -1.08 83 51 30
-9.6569996 4.7600002 -1.0470001 170 111 69
-9.6610003 4.757 -1.044 144 96 60
-9.6459999 4.7789998 -1.038 235 194 130
-9.6569996 4.7779999 -1.033 238 196 136
-9.6540003 4.7600002 -1.024 198 146 96
-9.6599998 4.763 -1.031 205 154 101
-9.6490002 4.7849998 -1.0599999 200 141 99
-9.6759996 4.756 -1.026 197 152 110
-9.6669998 4.75 -1.024 248 202 166
-9.6929998 4.7280002 -1.04 205 161 126
-9.6949997 4.723 -1.049 125 73 34
-9.6389999 4.8959999 -1.1 201 126 59
-9.6370001 4.895 -1.099 236 157 98
-9.6330004 4.8969998 -1.1 114 58 9
-9.5559998 4.836 -1.056 161 85 27
-9.5719995 4.836 -1.05 68 35 18
-9.5500002 4.8309999 -1.052 123 47 0
-9.5690002 4.8379998 -1.039 182 134 85
-9.6040001 4.8610001 -1.051 143 88 49
-9.5939999 4.881 -1.05 220 174 114
-9.625 4.8959999 -1.057 106 57 25
-9.6289997 4.882 -1.0420001 160 118 68
-9.6090002 4.862 -1.057 173 125 79
-9.6199999 4.8670001 -1.071 248 188 115
-9.6160002 4.8829999 -1.04 199 154 95
-9.6120005 4.881 -1.0470001 247 197 134
-9.5450001 4.8280001 -1.068 152 92 32
-9.7030001 4.7220001 -1.0470001 166 111 57
-9.6099997 4.802 -1.044 60 13 0
-9.5299997 4.8150001 -1.067 54 22 11
-9.5710001 4.8670001 -1.056 179 117 68
-9.5679998 4.8499999 -1.0700001 223 148 83
-9.5860004 4.8639998 -1.073 84 18 0
-9.5860004 4.8720002 -1.058 138 78 18
-9.6099997 4.881 -1.049 151 109 71
-9.5450001 4.7820001 -1.107 155 82 29
-9.5570002 4.7859998 -1.112 165 102 51
-9.5620003 4.8270001 -1.115 136 59 17
-9.5349998 4.809 -1.098 222 134 47
-9.6409998 4.8010001 -1.038 73 39 12
-9.6280003 4.8870001 -1.069 211 179 156
-9.5740004 4.8340001 -1.048 116 74 52
-9.5389996 4.835 -1.043 212 133 76
-9.6280003 4.7870002 -1.0089999 171 137 102
-9.6569996 4.7529998 -1.039 175 103 53
-9.6639996 4.7519999 -1.026 133 84 44
-9.6260004 4.8920002 -1.045 64 28 6
-9.6440001 4.8860002 -1.08 124 63 6
-9.6289997 4.882 -1.084 156 109 81
-9.5550003 4.8239999 -1.061 145 81 20
-9.573 4.835 -1.043 99 54 33
-9.6940002 4.723 -1.0549999 68 18 0
-9.5939999 4.848 -1.0700001 117 71 38
-9.6260004 4.888 -1.072 141 109 84
-9.5719995 4.8410001 -1.021 133 70 29
-9.585 4.8629999 -1.044 184 133 70
-9.6149998 4.8709998 -1.0650001 199 157 97
-9.5410004 4.7979999 -1.1109999 188 132 83
-9.632 4.8839998 -1.096 137 85 38
-9.5740004 4.8330002 -1.044 127 76 29
-9.5699997 4.835 -1.0369999 204 158 108
-9.625 4.8769999 -1.0779999 125 83 45
-9.6190004 4.8790002 -1.043 145 95 60
-9.5690002 4.8449998 -1.026 92 58 31
-9.6110001 4.8649998 -1.0650001 130 41 1
-9.5389996 4.8010001 -1.1109999 226 154 80
-9.6040001 4.8569999 -1.064 186 119 49
-9.5679998 4.8340001 -1.062 183 107 47
0 0 0 1 0 0 0 1 0 0 0 1 0 0 0 0 0 910 1 0 0
