ply
format ascii 1.0
comment PCL generated
element vertex 1320
property float x
property float y
property float z
property uchar red
property uchar green
property uchar blue
element camera 0
property float view_px
property float view_py
property float view_pz
property float x_axisx
property float x_axisy
property float x_axisz
property float y_axisx
property float y_axisy
property float y_axisz
property float z_axisx
property float z_axisy
property float z_axisz
property float focal
property float scalex
property float scaley
property float centerx
property float centery
property int viewportx
property int viewporty
property float k1
property float k2
end_header
-2.6589999 -1.044 -1.0369999 46 18 7
-2.671 -1.05 -1.0089999 17 0 0
-2.6689999 -1.05 -1.007 31 7 0
-2.6689999 -1.043 -1.001 61 29 4
-2.671 -1.04 -1.01 48 12 0
-2.53 -1.08 -0.847 255 204 134
-2.766 -1.063 -1.0190001 105 57 19
-2.7679999 -1.067 -1.028 42 13 9
-2.766 -1.066 -1.025 43 15 11
-2.7390001 -1.1109999 -1.015 23 0 0
-2.6689999 -1.0420001 -0.96499997 97 30 11
-2.687 -1.041 -0.96100003 34 20 19
-2.668 -1.036 -0.97299999 22 4 0
-2.664 -1.036 -0.96100003 90 58 35
-2.793 -1.0420001 -0.991 114 88 61
-2.7950001 -1.045 -0.98299998 103 73 47
-2.806 -1.053 -0.98299998 57 15 0
-2.8080001 -1.056 -0.99199998 186 144 84
-2.756 -1.048 -0.96399999 175 148 101
-2.7750001 -1.051 -0.972 77 68 29
-2.766 -1.059 -0.95599997 122 111 117
-2.757 -1.0470001 -0.97500002 118 63 9
-2.7490001 -1.04 -0.96200001 73 36 10
-2.76 -1.049 -0.972 249 188 108
-2.8080001 -1.062 -1.002 132 86 37
-2.5109999 -1.0549999 -0.96700001 165 131 104
-2.507 -1.0420001 -0.97100002 193 158 128
-2.51 -1.046 -0.96700001 138 109 67
-2.483 -1.1390001 -1.013 57 30 35
-2.4820001 -1.1390001 -1.013 112 80 85
-2.7939999 -1.049 -0.98000002 43 31 31
-2.799 -1.053 -0.98100001 131 98 67
-2.7609999 -1.08 -0.95700002 220 145 78
-2.763 -1.0930001 -0.96600002 118 78 42
-2.7679999 -1.091 -0.96700001 141 96 57
-2.7650001 -1.076 -0.95700002 65 34 29
-2.77 -1.096 -0.97500002 148 100 60
-2.806 -1.072 -0.98000002 108 52 5
-2.609 -1.061 -0.85600001 98 58 7
-2.779 -1.066 -0.963 182 120 45
-2.622 -1.053 -0.85299999 129 50 0
-2.618 -1.039 -0.85299999 21 0 0
-2.615 -1.026 -0.84600002 185 96 16
-2.757 -1.099 -0.99900001 102 83 76
-2.7590001 -1.098 -0.99699998 95 60 41
-2.602 -1.058 -0.85100001 159 94 40
-2.7390001 -1.1059999 -0.97500002 95 48 18
-2.7379999 -1.098 -0.97000003 96 38 0
-2.7360001 -1.099 -0.97100002 85 36 6
-2.7460001 -1.068 -0.95300001 146 97 56
-2.743 -1.064 -0.95700002 62 34 30
-2.7320001 -1.069 -0.95499998 154 116 69
-2.7279999 -1.05 -0.96700001 28 9 2
-2.73 -1.049 -0.96600002 38 18 9
-2.7750001 -1.076 -1.048 36 16 7
-2.773 -1.079 -1.053 18 1 0
-2.7449999 -1.109 -1.027 43 24 10
-2.7090001 -1.0880001 -1.029 141 74 47
-2.7060001 -1.087 -1.026 133 90 73
-2.717 -1.097 -0.995 19 1 1
-2.7149999 -1.1 -0.97899997 86 55 26
-2.7019999 -1.092 -0.986 46 19 10
-2.4630001 -1.115 -1.036 46 19 2
-2.461 -1.124 -1.031 162 153 146
-2.454 -1.112 -1.036 151 120 92
-2.5139999 -1.033 -1.006 113 57 8
-2.5150001 -1.035 -1.0089999 80 21 0
-2.517 -1.049 -1.005 123 108 105
-2.484 -1.11 -1.02 29 34 30
-2.483 -1.11 -1.018 37 36 34
-2.473 -1.117 -1.039 62 61 56
-2.4849999 -1.117 -1.0319999 50 16 0
-2.6559999 -1.0319999 -1.036 48 22 9
-2.6370001 -1.033 -1.0369999 77 49 38
-2.5680001 -1.072 -1.038 45 18 1
-2.5699999 -1.071 -1.033 28 11 4
-2.5669999 -1.073 -1.035 52 24 12
-2.5610001 -1.079 -1.043 24 7 0
-2.652 -1.043 -1.033 77 55 42
-2.651 -1.043 -1.035 55 35 24
-2.6589999 -1.0369999 -1.036 130 71 53
-2.573 -1.068 -1.0319999 83 57 44
-2.5699999 -1.068 -1.036 72 40 25
-2.573 -1.068 -1.029 41 16 9
-2.6700001 -1.049 -1.013 82 54 42
-2.7119999 -1.081 -1.0369999 37 0 0
-2.7 -1.072 -1.033 49 16 0
-2.658 -1.044 -1.017 227 176 129
-2.6689999 -1.048 -1.011 68 40 26
-2.688 -1.039 -0.95499998 55 17 0
-2.6600001 -1.052 -0.89499998 81 55 40
-2.664 -1.033 -0.89899999 157 121 99
-2.6570001 -1.038 -0.88700002 111 74 47
-2.6270001 -1.0369999 -0.86199999 171 145 86
-2.641 -1.039 -0.87400001 83 51 0
-2.6329999 -1.024 -0.87 126 50 0
-2.6129999 -1.023 -0.85000002 68 23 0
-2.6129999 -1.02 -0.84899998 113 81 56
-2.6159999 -1.03 -0.861 106 62 33
-2.5220001 -1.092 -0.84799999 125 72 22
-2.5209999 -1.091 -0.85000002 132 78 34
-2.5999999 -1.074 -0.89499998 163 129 104
-2.6029999 -1.0700001 -0.90600002 22 8 0
-2.6070001 -1.071 -0.90200001 58 21 3
-2.598 -1.069 -0.89899999 91 47 20
-2.585 -1.069 -0.90700001 190 139 122
-2.444 -1.132 -1.031 141 113 110
-2.444 -1.13 -1.026 149 106 100
-2.4449999 -1.127 -1.034 180 107 101
-2.4400001 -1.131 -1.03 217 174 167
-2.4449999 -1.127 -1.026 204 142 131
-2.4449999 -1.126 -1.027 192 124 113
-2.4460001 -1.1160001 -1.024 176 133 98
-2.5120001 -1.061 -0.86699998 51 23 9
-2.507 -1.077 -0.87599999 104 76 64
-2.5179999 -1.051 -0.86199999 88 56 31
-2.5190001 -1.082 -0.85299999 150 104 54
-2.5190001 -1.089 -0.85600001 103 51 11
-2.5350001 -1.043 -0.852 44 4 0
-2.546 -1.04 -0.85299999 57 15 1
-2.52 -1.068 -0.84899998 100 65 45
-2.546 -1.057 -0.84299999 102 63 34
-2.546 -1.0599999 -0.84399998 192 127 73
-2.5480001 -1.071 -0.84299999 170 125 86
-2.5369999 -1.074 -0.84200001 189 170 127
-2.536 -1.087 -0.84799999 230 171 103
-2.539 -1.0779999 -0.84600002 250 236 189
-2.5550001 -1.081 -0.84600002 75 39 7
-2.5539999 -1.098 -0.84100002 98 45 5
-2.553 -1.104 -0.852 161 113 73
-2.546 -1.108 -0.84500003 117 70 28
-2.5320001 -1.079 -0.84600002 231 172 102
-2.6470001 -1.013 -0.91100001 34 9 2
-2.648 -1.021 -0.921 49 32 24
-2.6370001 -1.002 -0.91900003 120 82 71
-2.6440001 -1.017 -0.91600001 117 91 78
-2.744 -1.117 -1.017 38 16 2
-2.6630001 -1.025 -1.033 14 0 0
-2.661 -1.02 -1.024 81 45 23
-2.6619999 -1.025 -1.036 10 0 0
-2.6429999 -1.0140001 -0.96799999 51 17 7
-2.6559999 -1.022 -0.954 144 100 73
-2.645 -1.017 -0.95099998 43 34 25
-2.6500001 -1.017 -0.94499999 174 152 141
-2.661 -1.025 -0.95300001 44 25 21
-2.701 -1.067 -0.98799998 49 10 0
-2.721 -1.062 -0.99599999 69 12 1
-2.7160001 -1.069 -0.986 94 80 79
-2.7119999 -1.073 -0.99400002 115 75 50
-2.698 -1.061 -0.986 74 61 44
-2.664 -1.036 -0.96600002 78 46 25
-2.763 -1.051 -0.977 89 59 25
-2.8010001 -1.057 -0.97899997 66 39 12
-2.7609999 -1.05 -0.96899998 173 114 56
-2.7579999 -1.056 -0.95599997 132 88 43
-2.7579999 -1.049 -0.96899998 191 129 54
-2.483 -1.138 -1.008 143 107 111
-2.4990001 -1.14 -1.008 86 58 47
-2.5 -1.132 -1.012 29 1 0
-2.5050001 -1.138 -1.01 108 80 58
-2.7490001 -1.112 -1.003 61 33 12
-2.75 -1.109 -1.0039999 65 33 12
-2.556 -1.096 -0.84399998 132 84 48
-2.773 -1.077 -0.96399999 120 71 28
-2.799 -1.0829999 -0.99400002 145 81 37
-2.615 -1.062 -0.861 221 151 91
-2.612 -1.0549999 -0.84899998 120 75 46
-2.5669999 -1.084 -0.85100001 170 127 12
-2.5999999 -1.056 -0.847 110 44 0
-2.642 -1.059 -0.926 47 13 1
-2.654 -1.059 -0.93599999 35 13 0
-2.641 -1.064 -0.93099999 42 19 3
-2.6470001 -1.062 -0.91100001 100 81 74
-2.641 -1.059 -0.92000002 128 101 82
-2.7190001 -1.068 -0.98299998 54 18 6
-2.7379999 -1.105 -0.97500002 161 111 76
-2.71 -1.0930001 -0.97000003 91 62 32
-2.701 -1.091 -0.97100002 56 20 0
-2.8010001 -1.054 -1.001 121 93 72
-2.789 -1.046 -0.99800003 100 82 78
-2.7720001 -1.0829999 -1.051 69 43 28
-2.7809999 -1.074 -1.0319999 42 9 0
-2.7920001 -1.0650001 -1.024 64 20 7
-2.7490001 -1.1109999 -1.029 16 0 1
-2.75 -1.108 -1.031 18 0 0
-2.7539999 -1.113 -1.0190001 37 12 5
-2.7449999 -1.1059999 -1.027 49 26 8
-2.7049999 -1.087 -1.008 10 0 1
-2.711 -1.09 -1.006 89 82 76
-2.7030001 -1.084 -1.026 147 90 45
-2.76 -1.08 -1.046 25 6 2
-2.76 -1.0880001 -1.0369999 92 67 60
-2.74 -1.084 -1.033 17 3 0
-2.7409999 -1.098 -1.027 69 45 17
-2.753 -1.108 -1.0089999 61 32 14
-2.4460001 -1.119 -1.026 211 168 123
-2.444 -1.128 -1.03 180 110 100
-2.457 -1.114 -1.031 113 74 43
-2.5350001 -1.015 -0.972 48 31 24
-2.533 -1.015 -0.96499997 92 75 67
-2.53 -1.015 -0.96399999 89 71 61
-2.5409999 -1.021 -0.97100002 20 4 4
-2.5350001 -1.017 -0.96700001 18 1 0
-2.4879999 -1.127 -1.029 29 27 28
-2.4790001 -1.113 -1.036 25 27 24
-2.474 -1.14 -1.007 144 93 62
-2.648 -1.01 -1.028 35 8 0
-2.527 -1.028 -1.005 107 81 64
-2.484 -1.1109999 -1.023 21 26 20
-2.4760001 -1.109 -1.034 219 165 105
-2.474 -1.117 -1.021 74 43 14
-2.523 -1.0779999 -1.029 128 93 63
-2.5239999 -1.0829999 -1.029 141 103 67
-2.527 -1.0829999 -1.028 111 74 47
-2.4860001 -1.11 -1.011 43 43 41
-2.4849999 -1.11 -1.0089999 224 178 118
-2.4979999 -1.119 -0.99699998 122 87 55
-2.4779999 -1.114 -0.99400002 134 127 135
-2.5109999 -1.1210001 -1.007 40 18 5
-2.5039999 -1.122 -1.006 80 71 72
-2.5079999 -1.12 -1.0039999 44 15 1
-2.5539999 -1.061 -1.038 54 30 20
-2.5480001 -1.079 -1.038 69 45 33
-2.5580001 -1.072 -1.038 61 42 35
-2.549 -1.08 -1.034 62 38 28
-2.5469999 -1.102 -0.99900001 122 83 50
-2.562 -1.1059999 -1.001 111 59 35
-2.556 -1.102 -0.995 86 68 58
-2.52 -1.1210001 -1.001 99 68 50
-2.5239999 -1.127 -0.99400002 75 39 5
-2.527 -1.125 -0.991 80 39 7
-2.6589999 -1.03 -1.0369999 10 1 2
-2.661 -1.0319999 -1.0369999 8 2 4
-2.6619999 -1.031 -1.0369999 8 0 2
-2.642 -1.044 -1.026 50 25 18
-2.5710001 -1.064 -1.0369999 70 46 34
-2.5699999 -1.0650001 -1.0369999 86 58 44
-2.664 -1.0319999 -1.036 58 40 38
-2.6619999 -1.04 -1.028 33 4 0
-2.7 -1.079 -1.027 92 45 15
-2.7130001 -1.071 -1.029 44 7 0
-2.7179999 -1.077 -1.036 37 2 0
-2.7279999 -1.063 -0.99900001 52 32 23
-2.7279999 -1.077 -1.036 29 5 1
-2.7090001 -1.086 -1.022 110 55 14
-2.7130001 -1.087 -1.013 61 28 13
-2.7179999 -1.052 -0.96100003 24 0 0
-2.7260001 -1.0549999 -0.958 27 8 1
-2.483 -1.1390001 -0.93300003 87 62 21
-2.4820001 -1.1390001 -0.92900002 113 86 41
-2.6630001 -1.034 -0.96399999 35 16 12
-2.743 -1.082 -0.95300001 79 34 5
-2.757 -1.071 -0.95599997 200 128 52
-2.7490001 -1.096 -0.96399999 151 97 59
-2.7509999 -1.0880001 -0.95999998 63 37 10
-2.75 -1.089 -0.96100003 217 154 100
-2.7420001 -1.091 -0.96399999 134 59 4
-2.7390001 -1.087 -0.96100003 144 100 73
-2.7539999 -1.067 -0.95499998 185 135 82
-2.655 -1.0319999 -0.90100002 52 20 5
-2.651 -1.015 -0.90700001 99 80 74
-2.6489999 -1.027 -0.89899999 39 25 0
-2.6589999 -1.046 -0.90100002 73 29 2
-2.6300001 -1.041 -0.86400002 195 139 92
-2.6240001 -1.0039999 -0.91100001 18 0 0
-2.632 -1.006 -0.91500002 73 72 80
-2.638 -1.0140001 -0.89300001 85 44 40
-2.6289999 -1.015 -0.87800002 154 79 22
-2.6340001 -1.0190001 -0.87099999 179 101 39
-2.6259999 -1.011 -0.87900001 184 102 42
-2.625 -1.015 -0.87300003 100 56 31
-2.6129999 -1.016 -0.87900001 237 162 45
-2.6229999 -1.0369999 -0.85799998 155 104 23
-2.6129999 -1.035 -0.84799999 235 177 131
-2.5120001 -1.0829999 -0.86500001 155 122 87
-2.6429999 -1.048 -0.87800002 28 5 0
-2.6359999 -1.0549999 -0.87199998 202 136 75
-2.441 -1.132 -1.03 224 191 184
-2.4489999 -1.123 -1.015 187 133 121
-2.526 -1.046 -0.85699999 57 22 0
-2.5090001 -1.074 -0.875 97 64 57
-2.605 -1.044 -0.84299999 146 92 58
-2.609 -1.017 -0.85000002 137 83 47
-2.609 -1.026 -0.84600002 213 132 43
-2.5910001 -1.02 -0.85299999 68 33 3
-2.5999999 -1.034 -0.847 226 158 87
-2.598 -1.035 -0.847 231 169 94
-2.608 -1.038 -0.84200001 208 139 74
-2.6270001 -1.011 -0.90399998 43 24 17
-2.6400001 -1.0140001 -0.96399999 14 5 6
-2.6199999 -1.015 -0.88200003 162 82 19
-2.608 -1.023 -0.89399999 194 110 40
-2.5840001 -1.034 -0.90399998 45 12 0
-2.585 -1.038 -0.88099998 84 48 22
-2.579 -1.035 -0.903 37 19 7
-2.5769999 -1.033 -0.90899998 25 6 0
-2.543 -1.048 -0.847 82 53 39
-2.651 -1.024 -0.926 48 18 20
-2.6500001 -1.022 -0.93599999 35 16 9
-2.641 -1.022 -0.93300003 83 27 2
-2.6429999 -1.02 -0.94400001 10 0 0
-2.6559999 -1.033 -0.93300003 17 6 0
-2.7249999 -1.064 -0.99900001 17 4 0
-2.733 -1.067 -1.006 11 2 0
-2.8 -1.0650001 -1.03 235 209 184
-2.8 -1.0599999 -1.024 117 90 71
-2.7820001 -1.064 -1.018 39 15 11
-2.777 -1.054 -1.0089999 120 70 35
-2.7349999 -1.0599999 -0.99699998 118 91 80
-2.743 -1.063 -1.01 53 10 0
-2.6630001 -1.026 -1.036 18 4 3
-2.665 -1.033 -1.035 43 22 19
-2.635 -1.0089999 -0.92299998 26 9 0
-2.6329999 -1.015 -0.93199998 82 56 33
-2.6300001 -1.013 -0.92500001 118 77 45
-2.658 -1.026 -0.94999999 58 28 17
-2.655 -1.029 -0.94400001 187 143 98
-2.5179999 -1.026 -0.99699998 53 24 6
-2.602 -1.034 -0.89999998 87 59 19
-2.596 -1.036 -0.88999999 136 109 98
-2.5969999 -1.035 -0.91299999 160 126 101
-2.655 -1.022 -0.97600001 25 12 6
-2.6530001 -1.021 -0.972 26 9 2
-2.6559999 -1.027 -0.96600002 132 63 32
-2.5899999 -1.041 -0.954 94 42 18
-2.5929999 -1.033 -0.93900001 104 101 108
-2.6059999 -1.036 -0.95999998 33 2 0
-2.596 -1.038 -0.94400001 46 19 0
-2.7019999 -1.068 -0.98400003 64 29 10
-2.767 -1.053 -0.96899998 167 110 31
-2.7479999 -1.045 -0.97100002 40 29 1
-2.52 -1.142 -0.93699998 63 21 5
-2.517 -1.131 -0.95099998 40 6 0
-2.516 -1.14 -0.935 219 186 143
-2.55 -1.091 -0.875 83 51 28
-2.5450001 -1.102 -0.861 103 61 19
-2.562 -1.089 -0.87300003 67 36 5
-2.556 -1.069 -0.90700001 69 58 30
-2.562 -1.079 -0.89499998 21 12 0
-2.55 -1.075 -0.91000003 42 20 7
-2.556 -1.077 -0.89600003 42 37 17
-2.5699999 -1.081 -0.97000003 138 122 107
-2.562 -1.095 -0.96100003 108 82 59
-2.559 -1.0930001 -0.963 114 74 39
-2.5550001 -1.097 -0.97000003 131 95 63
-2.559 -1.085 -0.98299998 136 113 105
-2.562 -1.1 -0.99900001 122 94 82
-2.553 -1.094 -0.98699999 126 102 90
-2.5420001 -1.095 -0.96700001 123 79 40
-2.4820001 -1.118 -0.99599999 72 29 0
-2.4749999 -1.115 -1 36 12 2
-2.5050001 -1.044 -0.97600001 65 40 20
-2.53 -1.02 -0.958 21 16 12
-2.7880001 -1.08 -1.007 44 12 0
-2.8080001 -1.062 -1.012 113 68 27
-2.737 -1.1109999 -0.99299997 88 82 86
-2.7409999 -1.117 -1.002 204 195 198
-2.7409999 -1.113 -1 87 55 34
-2.733 -1.101 -0.99900001 108 90 66
-2.737 -1.103 -1.001 238 221 195
-2.783 -1.075 -0.97100002 71 25 0
-2.7690001 -1.081 -0.96499997 139 83 26
-2.806 -1.072 -0.98699999 133 68 10
-2.7639999 -1.096 -0.986 72 23 6
-2.7590001 -1.101 -1.01 46 12 0
-2.7720001 -1.069 -0.96100003 211 150 70
-2.74 -1.108 -0.995 78 33 14
-2.7490001 -1.103 -0.98900002 94 28 2
-2.6470001 -1.057 -0.93199998 81 58 44
-2.6489999 -1.052 -0.92699999 102 85 67
-2.7539999 -1.099 -0.96700001 82 53 35
-2.763 -1.097 -0.97299999 122 82 47
-2.7520001 -1.0930001 -0.963 87 60 41
-2.7190001 -1.068 -0.98100001 52 18 6
-2.721 -1.067 -0.97600001 30 12 8
-2.733 -1.089 -0.96499997 104 39 7
-2.7349999 -1.097 -0.97000003 71 17 0
-2.7320001 -1.094 -0.96899998 70 29 0
-2.7349999 -1.0779999 -0.95899999 86 60 47
-2.727 -1.097 -0.96899998 68 26 2
-2.7119999 -1.073 -0.95599997 52 18 8
-2.704 -1.087 -0.97000003 138 129 124
-2.7030001 -1.067 -0.95899999 22 1 0
-2.7839999 -1.049 -0.98699999 179 128 62
-2.7939999 -1.058 -1.007 85 54 36
-2.7650001 -1.084 -1.0470001 103 80 64
-2.753 -1.109 -1.027 43 20 6
-2.707 -1.0880001 -1.003 9 0 0
-2.757 -1.075 -1.0369999 27 6 3
-2.7320001 -1.0779999 -1.0369999 30 5 1
-2.74 -1.075 -1.029 36 7 0
-2.743 -1.097 -1.029 10 1 2
-2.7479999 -1.099 -1.03 10 0 0
-2.744 -1.094 -1.029 14 4 3
-2.737 -1.0880001 -1.03 16 5 1
-2.7290001 -1.087 -1.03 76 59 41
-2.734 -1.095 -1.022 4 0 0
-2.7249999 -1.089 -1.027 107 55 7
-2.7750001 -1.0829999 -1.01 61 33 19
-2.779 -1.084 -1.017 50 21 7
-2.723 -1.08 -1.0369999 36 8 4
-2.723 -1.0829999 -1.036 58 16 0
-2.7260001 -1.084 -1.0369999 52 15 6
-2.7880001 -1.084 -1.035 126 87 54
-2.803 -1.079 -1.026 8 0 0
-2.803 -1.08 -1.0319999 17 3 0
-2.793 -1.081 -1.0470001 31 13 3
-2.806 -1.0599999 -1.024 90 51 22
-2.806 -1.076 -1.0190001 21 10 6
-2.7939999 -1.076 -1.006 94 50 15
-2.809 -1.072 -1.021 84 64 55
-2.8110001 -1.073 -1.015 96 44 7
-2.454 -1.114 -1.0319999 157 118 87
-2.46 -1.1160001 -1.026 106 65 35
-2.464 -1.133 -1.023 172 133 134
-2.52 -1.062 -1.015 28 3 0
-2.5220001 -1.0650001 -1.0140001 106 66 31
-2.5090001 -1.064 -0.99699998 79 40 23
-2.5239999 -1.077 -1.012 29 6 0
-2.4920001 -1.117 -1.005 97 48 18
-2.494 -1.119 -1.001 255 225 166
-2.5050001 -1.1289999 -1.01 27 2 0
-2.5220001 -1.082 -1.027 158 118 83
-2.5250001 -1.072 -1.024 75 44 15
-2.543 -1.086 -1.0190001 36 19 11
-2.553 -1.0650001 -1.035 32 8 0
-2.566 -1.0829999 -1.002 48 19 3
-2.576 -1.081 -1 107 53 17
-2.563 -1.073 -1.038 44 20 8
-2.5539999 -1.081 -1.031 38 14 2
-2.5420001 -1.0599999 -1.02 22 1 0
-2.536 -1.052 -1.0190001 26 1 0
-2.529 -1.059 -1.0140001 48 20 9
-2.5650001 -1.085 -0.87800002 92 64 40
-2.4760001 -1.143 -0.98199999 115 72 27
-2.4719999 -1.141 -0.98199999 179 137 95
-2.4749999 -1.147 -0.98299998 63 41 30
-2.484 -1.147 -0.97899997 185 162 154
-2.4960001 -1.148 -0.95599997 69 50 35
-2.4879999 -1.143 -0.95099998 45 23 0
-2.4809999 -1.146 -0.94999999 70 48 24
-2.51 -1.1390001 -0.98000002 85 33 9
-2.5109999 -1.1390001 -0.97100002 46 20 3
-2.52 -1.1339999 -0.98100001 85 49 23
-2.5120001 -1.138 -0.98699999 143 108 80
-2.503 -1.14 -0.97299999 144 113 95
-2.5039999 -1.142 -0.98400003 92 63 33
-2.6359999 -1.012 -1.012 8 0 2
-2.6259999 -1.013 -1.017 37 10 1
-2.631 -1.005 -1.002 88 70 68
-2.641 -1.044 -1.031 62 31 13
-2.5710001 -1.061 -1.038 23 8 3
-2.5639999 -1.048 -1.043 47 32 25
-2.661 -1.034 -1.024 26 1 0
-2.665 -1.045 -1.0369999 31 7 3
-2.7079999 -1.0779999 -0.99599999 31 16 9
-2.73 -1.072 -1.025 99 74 54
-2.7290001 -1.075 -1.015 31 1 0
-2.72 -1.076 -1.023 66 26 16
-2.7379999 -1.075 -1.027 44 11 2
-2.7060001 -1.084 -1.023 44 11 4
-2.5699999 -1.069 -1.0140001 100 97 106
-2.5680001 -1.073 -1.0089999 122 103 96
-2.5699999 -1.073 -1.006 87 60 49
-2.579 -1.073 -0.991 22 8 5
-2.582 -1.073 -1 29 2 0
-2.6570001 -1.034 -0.93699998 16 6 4
-2.721 -1.057 -0.963 106 55 12
-2.687 -1.045 -0.95200002 15 5 3
-2.493 -1.136 -0.93099999 79 65 30
-2.4849999 -1.14 -0.926 109 82 27
-2.484 -1.135 -0.92799997 104 88 29
-2.48 -1.1339999 -0.935 122 97 66
-2.484 -1.141 -0.94 68 44 20
-2.4909999 -1.136 -0.94199997 131 112 97
-2.484 -1.136 -0.93199998 130 109 66
-2.6570001 -1.0599999 -0.898 104 59 26
-2.655 -1.053 -0.89399999 85 46 17
-2.7460001 -1.063 -0.95700002 143 111 98
-2.753 -1.0650001 -0.95499998 126 101 47
-2.6559999 -1.054 -0.90600002 58 23 4
-2.6600001 -1.052 -0.898 137 109 87
-2.6600001 -1.0369999 -0.90200001 112 74 53
-2.652 -1.054 -0.91000003 21 1 0
-2.6440001 -1.062 -0.90499997 54 25 11
-2.6670001 -1.034 -0.94800001 34 21 12
-2.668 -1.038 -0.93199998 87 67 58
-2.671 -1.043 -0.93099999 39 21 9
-2.664 -1.04 -0.95999998 80 75 81
-2.6630001 -1.035 -0.95899999 33 5 0
-2.631 -1.044 -0.86500001 142 84 38
-2.6359999 -1.0140001 -0.88300002 81 32 0
-2.645 -1.033 -0.88300002 74 48 25
-2.612 -1.044 -0.84500003 244 201 169
-2.5239999 -1.105 -0.86199999 29 7 0
-2.5339999 -1.098 -0.87400001 47 38 9
-2.5239999 -1.0930001 -0.889 130 84 68
-2.5250001 -1.092 -0.884 125 78 62
-2.5380001 -1.102 -0.86299998 98 53 32
-2.5369999 -1.105 -0.85699999 113 56 27
-2.6530001 -1.04 -0.88499999 133 98 58
-2.527 -1.091 -0.87699997 128 85 68
-2.5339999 -1.0779999 -0.91299999 147 111 77
-2.5369999 -1.0779999 -0.90899998 56 28 16
-2.54 -1.08 -0.92500001 20 1 0
-2.527 -1.0779999 -0.91399997 186 145 113
-2.54 -1.077 -0.91500002 31 18 1
-2.447 -1.1289999 -1.023 189 144 138
-2.513 -1.073 -0.87 97 60 52
-2.5179999 -1.063 -0.85699999 65 34 14
-2.517 -1.072 -0.85500002 138 100 77
-2.809 -1.0599999 -1 146 97 39
-2.5969999 -1.023 -0.85399997 79 43 7
-2.5999999 -1.022 -0.86000001 80 45 17
-2.585 -1.031 -0.91299999 10 0 0
-2.645 -1.016 -0.89899999 129 94 66
-2.6199999 -1.013 -0.91399997 138 116 102
-2.6329999 -1.0549999 -0.90899998 73 58 37
-2.6359999 -1.053 -0.89600003 149 102 72
-2.6470001 -1.02 -0.96200001 57 21 0
-2.599 -1.024 -0.87699997 125 77 54
-2.5829999 -1.027 -0.87 69 50 43
-2.6170001 -1.022 -0.89700001 122 68 34
-2.5369999 -1.052 -0.847 134 88 26
-2.5350001 -1.0369999 -0.86000001 70 28 6
-2.5250001 -1.052 -0.87 66 15 0
-2.5480001 -1.041 -0.86299998 80 49 20
-2.54 -1.053 -0.87099999 52 24 10
-2.52 -1.053 -0.875 77 52 48
-2.54 -1.072 -0.84200001 168 117 74
-2.55 -1.041 -0.86199999 140 111 103
-2.5510001 -1.043 -0.86299998 81 41 6
-2.7279999 -1.068 -1.003 88 31 2
-2.7909999 -1.079 -1.045 28 10 0
-2.7850001 -1.069 -1.023 33 0 0
-2.75 -1.117 -1.011 79 46 37
-2.6389999 -1.021 -1.036 83 55 43
-2.6589999 -1.025 -1.035 5 1 0
-2.6589999 -1.024 -0.95300001 117 83 71
-2.609 -1.033 -0.96499997 36 3 0
-2.5929999 -1.043 -0.972 67 35 12
-2.523 -1.0369999 -1.008 110 58 34
-2.5580001 -1.051 -0.90100002 70 41 11
-2.5369999 -1.052 -0.89499998 103 69 59
-2.5539999 -1.053 -0.89300001 53 27 4
-2.5650001 -1.051 -0.90700001 84 57 30
-2.553 -1.054 -0.917 15 1 0
-2.5769999 -1.039 -0.90399998 40 20 0
-2.5680001 -1.0650001 -0.92799997 33 0 0
-2.5599999 -1.069 -0.91500002 53 1 0
-2.5639999 -1.0700001 -0.93599999 14 0 0
-2.6129999 -1.026 -0.89700001 115 31 0
-2.5880001 -1.04 -0.94700003 29 24 31
-2.586 -1.062 -0.91799998 43 5 0
-2.599 -1.064 -0.90899998 84 58 33
-2.6010001 -1.061 -0.912 21 11 2
-2.5969999 -1.0549999 -0.91900003 62 11 0
-2.592 -1.056 -0.92400002 89 47 25
-2.573 -1.0420001 -0.96100003 113 106 114
-2.5569999 -1.04 -0.954 57 54 35
-2.5780001 -1.046 -0.94999999 40 23 13
-2.5880001 -1.064 -0.98100001 23 9 6
-2.635 -1.0700001 -0.93199998 51 23 12
-2.652 -1.059 -0.93900001 46 28 14
-2.6070001 -1.072 -0.898 56 15 0
-2.7679999 -1.056 -0.96799999 230 164 88
-2.7550001 -1.048 -0.97899997 66 44 23
-2.757 -1.051 -0.98400003 125 113 113
-2.7479999 -1.0470001 -0.97399998 156 110 84
-2.7539999 -1.0470001 -0.97000003 76 42 4
-2.7360001 -1.053 -0.95599997 245 226 157
-2.7449999 -1.044 -0.96600002 73 64 31
-2.799 -1.0779999 -1 109 62 36
-2.7920001 -1.0779999 -1.002 62 28 18
-2.5039999 -1.131 -0.94199997 174 141 106
-2.5450001 -1.094 -0.87300003 43 16 0
-2.539 -1.094 -0.88700002 51 20 17
-2.5369999 -1.095 -0.88599998 81 57 55
-2.612 -1.068 -0.89600003 75 48 31
-2.6170001 -1.056 -0.912 41 19 0
-2.635 -1.053 -0.89300001 97 66 35
-2.5439999 -1.075 -0.903 76 46 36
-2.563 -1.082 -0.88700002 123 100 84
-2.5650001 -1.08 -0.89200002 17 8 0
-2.562 -1.068 -0.90499997 92 80 54
-2.5880001 -1.069 -0.85699999 153 118 36
-2.585 -1.064 -0.85399997 235 172 105
-2.595 -1.059 -0.85500002 206 169 88
-2.5550001 -1.091 -0.963 131 90 58
-2.5179999 -1.034 -0.99400002 24 6 2
-2.4790001 -1.147 -0.99599999 102 60 36
-2.471 -1.147 -0.99699998 99 73 50
-2.4719999 -1.143 -0.98299998 134 95 52
-2.4690001 -1.141 -0.98400003 149 112 70
-2.4679999 -1.132 -0.977 186 162 116
-2.464 -1.137 -0.991 61 18 1
-2.4690001 -1.142 -0.98699999 46 29 21
-2.47 -1.143 -0.99299997 121 98 80
-2.5139999 -1.034 -0.963 27 7 0
-2.5409999 -1.021 -0.97399998 25 7 3
-2.5090001 -1.141 -0.99599999 150 110 74
-2.51 -1.142 -0.991 92 52 16
-2.7639999 -1.051 -0.98100001 43 27 2
-2.76 -1.05 -0.97899997 119 93 66
-2.7379999 -1.107 -0.97600001 103 59 30
-2.5409999 -1.104 -0.85100001 252 247 181
-2.7739999 -1.0829999 -0.96899998 157 105 57
-2.7909999 -1.073 -0.977 67 29 0
-2.7550001 -1.108 -1.02 24 0 0
-2.7539999 -1.101 -1.026 53 38 33
-2.7539999 -1.105 -1.018 52 31 12
-2.7720001 -1.076 -0.963 200 132 57
-2.7449999 -1.103 -0.98000002 71 34 8
-2.7550001 -1.1 -0.99699998 83 47 23
-2.552 -1.091 -0.866 84 54 16
-2.5999999 -1.061 -0.85699999 120 89 45
-2.598 -1.0650001 -0.861 171 89 13
-2.6010001 -1.062 -0.85900003 114 60 22
-2.615 -1.056 -0.90799999 48 26 12
-2.6140001 -1.033 -0.90499997 67 10 1
-2.609 -1.017 -0.92299998 48 15 8
-2.6530001 -1.053 -0.91100001 85 48 4
-2.6630001 -1.045 -0.93000001 15 0 0
-2.7639999 -1.085 -0.96499997 160 77 23
-2.7550001 -1.085 -0.95899999 178 108 46
-2.7079999 -1.069 -0.96499997 44 21 3
-2.7060001 -1.068 -0.96100003 141 121 110
-2.733 -1.102 -0.97399998 84 27 0
-2.737 -1.1059999 -0.977 144 98 65
-2.7130001 -1.094 -0.97399998 70 30 5
-2.786 -1.053 -0.98000002 104 79 59
-2.7720001 -1.076 -1.045 45 23 12
-2.7539999 -1.1 -1.033 94 71 55
-2.7550001 -1.101 -1.029 36 7 0
-2.517 -1.11 -0.99400002 73 39 12
-2.7520001 -1.071 -1.024 138 101 93
-2.7550001 -1.08 -1.0369999 41 25 12
-2.7179999 -1.086 -1.026 152 129 113
-2.727 -1.09 -1.0140001 23 4 0
-2.7249999 -1.087 -1.03 72 29 13
-2.793 -1.084 -1.0420001 69 37 14
-2.7869999 -1.0829999 -1.052 38 11 0
-2.7869999 -1.082 -1.043 54 26 12
-2.8099999 -1.075 -1.022 77 58 51
-2.467 -1.115 -1.031 185 160 138
-2.45 -1.127 -1.022 180 121 115
-2.454 -1.125 -1.018 144 70 71
-2.4449999 -1.127 -1.033 186 111 106
-2.4460001 -1.131 -1.033 133 105 101
-2.4679999 -1.119 -1.023 167 133 105
-2.4560001 -1.123 -1.018 172 106 107
-2.4719999 -1.131 -1.0089999 55 20 26
-2.572 -1.0650001 -1.033 43 21 10
-2.517 -1.0420001 -1.008 194 150 113
-2.4890001 -1.122 -1.022 104 62 24
-2.4849999 -1.11 -1.0190001 31 35 34
-2.526 -1.075 -1.022 147 112 80
-2.549 -1.089 -1.012 94 41 10
-2.5680001 -1.08 -1.002 102 88 77
-2.5639999 -1.068 -1.036 89 63 50
-2.5650001 -1.067 -1.036 50 21 7
-2.5639999 -1.074 -1.034 56 36 25
-2.553 -1.08 -1.034 34 12 1
-2.5090001 -1.1440001 -0.95499998 53 30 14
-2.52 -1.146 -0.954 11 2 3
-2.5079999 -1.146 -0.95300001 196 170 153
-2.5139999 -1.135 -0.96600002 90 42 22
-2.6370001 -1.021 -1.0369999 58 36 23
-2.631 -1.022 -1.0369999 83 64 58
-2.5650001 -1.0880001 -0.87099999 90 60 24
-2.5680001 -1.085 -0.86799997 150 121 45
-2.4760001 -1.14 -0.98100001 75 35 10
-2.483 -1.127 -0.96899998 157 141 108
-2.507 -1.145 -0.95499998 193 168 148
-2.5009999 -1.154 -0.95599997 29 12 5
-2.5 -1.156 -0.95899999 23 6 0
-2.503 -1.16 -0.95099998 38 15 0
-2.5020001 -1.1619999 -0.95300001 43 21 8
-2.4960001 -1.136 -0.97500002 44 22 1
-2.507 -1.1440001 -0.98900002 80 49 18
-2.6289999 -1.018 -1.031 48 24 14
-2.6370001 -1.0190001 -1.0319999 135 106 90
-2.648 -1.0140001 -1.022 21 11 10
-2.651 -1.039 -1.021 54 28 15
-2.6259999 -1.04 -1.018 37 0 0
-2.6370001 -1.039 -1.03 77 35 11
-2.5829999 -1.068 -1.0039999 93 61 36
-2.6110001 -1.04 -1.021 61 36 29
-2.605 -1.041 -1.005 21 1 0
-2.625 -1.04 -1.012 36 28 15
-2.6129999 -1.03 -1.023 13 0 0
-2.6029999 -1.0369999 -1.0190001 40 13 2
-2.6619999 -1.0319999 -1.016 68 33 14
-2.6619999 -1.027 -1.027 134 93 37
-2.664 -1.034 -1.0319999 23 2 1
-2.701 -1.084 -1.035 161 91 32
-2.6619999 -1.036 -1.029 20 1 0
-2.664 -1.036 -1.033 27 9 5
-2.75 -1.0549999 -1.003 95 75 66
-2.7609999 -1.0650001 -1.01 139 125 116
-2.7690001 -1.061 -1.001 37 4 0
-2.767 -1.058 -0.99400002 30 16 13
-2.7179999 -1.076 -1.002 128 94 67
-2.707 -1.08 -1.018 119 63 46
-2.7219999 -1.096 -1.006 17 1 1
-2.5569999 -1.036 -0.98799998 86 68 58
-2.5510001 -1.036 -0.99000001 158 100 52
-2.563 -1.036 -0.99000001 97 87 88
-2.5599999 -1.034 -1.021 47 24 18
-2.5480001 -1.033 -1.0319999 82 69 63
-2.5450001 -1.034 -1.023 119 84 65
-2.5840001 -1.073 -0.958 187 139 90
-2.5940001 -1.063 -0.96100003 92 61 32
-2.6619999 -1.036 -0.926 30 17 11
-2.711 -1.068 -0.95499998 41 21 12
-2.6600001 -1.05 -0.94 124 107 99
-2.5239999 -1.0930001 -0.89099997 128 85 68
-2.5239999 -1.0700001 -0.87900001 69 34 12
-2.513 -1.084 -0.88300002 66 22 19
-2.5280001 -1.072 -0.88 81 49 28
-2.4890001 -1.1390001 -0.95099998 71 46 16
-2.4820001 -1.131 -0.94599998 108 92 56
-2.48 -1.136 -0.94499999 127 100 70
-2.4979999 -1.138 -0.93699998 106 90 56
-2.494 -1.143 -0.94 52 33 16
-2.5 -1.146 -0.93900001 189 162 143
-2.4960001 -1.145 -0.94099998 45 20 0
-2.6270001 -1.017 -0.89399999 86 83 92
-2.6259999 -1.022 -0.87099999 55 17 0
-2.6300001 -1.035 -0.866 173 121 71
-2.612 -1.035 -0.84500003 94 53 21
-2.598 -1.0470001 -0.84299999 198 130 65
-2.527 -1.105 -0.85699999 76 30 4
-2.5020001 -1.1160001 -0.949 129 92 76
-2.5079999 -1.114 -0.94700003 59 32 23
-2.451 -1.123 -1.0140001 198 136 125
-2.467 -1.1390001 -1.002 191 158 153
-2.513 -1.082 -0.87699997 108 65 58
-2.516 -1.084 -0.87400001 113 74 67
-2.52 -1.056 -0.875 76 43 38
-2.523 -1.061 -0.89999998 114 99 92
-2.5239999 -1.0549999 -0.89999998 90 67 53
-2.517 -1.054 -0.86500001 79 44 24
-2.5179999 -1.062 -0.87199998 64 47 40
-2.5829999 -1.0369999 -0.91600001 22 3 0
-2.5910001 -1.039 -0.92400002 36 21 14
-2.6059999 -1.023 -0.87400001 138 100 64
-2.6129999 -1.022 -0.889 38 14 2
-2.6389999 -1.031 -0.87699997 62 42 17
-2.638 -1.034 -0.87300003 54 32 0
-2.5280001 -1.0190001 -0.95999998 95 69 54
-2.5250001 -1.021 -0.95999998 51 38 32
-2.552 -1.046 -0.86400002 82 54 30
-2.5320001 -1.066 -0.89999998 126 112 103
-2.53 -1.0650001 -0.89600003 33 16 6
-2.572 -1.073 -0.85799998 167 98 39
-2.786 -1.079 -1.045 26 1 0
-2.806 -1.0650001 -1.022 139 94 53
-2.7320001 -1.062 -0.99800003 11 0 0
-2.753 -1.1059999 -1.008 71 36 14
-2.6600001 -1.024 -1.034 7 1 1
-2.602 -1.049 -0.972 34 0 0
-2.533 -1.016 -0.97399998 17 2 0
-2.52 -1.028 -0.99199998 135 105 77
-2.5179999 -1.036 -0.99199998 25 10 7
-2.513 -1.0420001 -0.98299998 93 60 43
-2.53 -1.029 -0.99900001 15 5 4
-2.552 -1.054 -0.90100002 94 63 32
-2.5669999 -1.057 -0.92000002 38 12 0
-2.5650001 -1.054 -0.935 103 87 61
-2.5569999 -1.0599999 -0.926 32 4 1
-2.664 -1.031 -0.97500002 20 2 0
-2.6559999 -1.027 -0.96700001 87 82 86
-2.6429999 -1.0089999 -0.99400002 55 28 19
-2.6340001 -1.017 -0.96399999 30 21 6
-2.602 -1.053 -0.96700001 53 14 0
-2.615 -1.063 -0.94999999 66 43 27
-2.589 -1.058 -0.97600001 65 6 0
-2.763 -1.054 -0.96600002 173 113 43
-2.7509999 -1.048 -0.95899999 131 106 52
-2.4990001 -1.147 -0.94199997 43 17 0
-2.6070001 -1.068 -0.889 48 11 0
-2.5510001 -1.075 -0.91500002 21 2 0
-2.556 -1.0700001 -0.91600001 26 7 3
-2.563 -1.0650001 -0.93000001 11 0 0
-2.5439999 -1.089 -0.87800002 61 36 16
-2.5639999 -1.061 -0.89499998 74 45 27
-2.6070001 -1.064 -0.86299998 70 42 3
-2.608 -1.064 -0.86799997 39 22 0
-2.5599999 -1.091 -0.95899999 106 71 41
-2.5569999 -1.0880001 -0.958 132 94 58
-2.529 -1.0650001 -0.97100002 59 39 12
-2.5350001 -1.0829999 -0.97399998 69 58 62
-2.533 -1.0880001 -0.96700001 67 36 15
-2.517 -1.0599999 -0.963 54 34 0
-2.5179999 -1.064 -0.97899997 12 1 0
-2.526 -1.064 -0.95899999 42 23 0
-2.5190001 -1.061 -0.95999998 47 27 0
-2.5680001 -1.0650001 -0.935 19 7 7
-2.5039999 -1.113 -0.958 198 142 68
-2.5150001 -1.1109999 -0.94599998 54 25 30
-2.5109999 -1.115 -0.96100003 113 78 46
-2.517 -1.114 -0.94800001 46 20 19
-2.5139999 -1.1160001 -0.96499997 155 119 105
-2.517 -1.128 -0.963 62 26 12
-2.516 -1.13 -0.95300001 44 13 0
-2.5150001 -1.1109999 -0.94499999 70 41 46
-2.4779999 -1.12 -1.003 61 24 0
-2.4690001 -1.1289999 -0.99599999 59 32 5
-2.4679999 -1.1289999 -0.991 79 52 25
-2.4679999 -1.122 -0.98900002 34 15 9
-2.471 -1.145 -0.99299997 54 31 15
-2.474 -1.145 -0.98299998 56 33 25
-2.47 -1.146 -0.986 9 0 0
-2.467 -1.128 -0.98500001 61 40 35
-2.5179999 -1.0420001 -0.95700002 39 27 1
-2.5190001 -1.056 -0.90899998 91 69 56
-2.5469999 -1.027 -0.97399998 31 14 6
-2.55 -1.03 -0.97000003 57 27 16
-2.5420001 -1.026 -0.96700001 28 18 9
-2.5409999 -1.027 -0.96600002 25 0 0
-2.5350001 -1.023 -0.96200001 27 0 0
-2.536 -1.021 -0.96399999 21 1 3
-2.54 -1.029 -0.96399999 46 16 5
-2.536 -1.0190001 -0.96499997 219 158 104
-2.5610001 -1.038 -0.96200001 118 77 55
-2.5309999 -1.023 -0.95700002 147 119 98
-2.5139999 -1.125 -0.995 43 16 0
-2.7780001 -1.061 -0.96600002 204 157 103
-2.776 -1.052 -0.99699998 60 48 22
-2.517 -1.147 -0.94300002 48 21 0
-2.5179999 -1.146 -0.94499999 102 75 58
-2.727 -1.097 -0.995 106 79 52
-2.724 -1.097 -0.98799998 105 74 45
-2.5450001 -1.104 -0.85699999 121 79 39
-2.546 -1.096 -0.86400002 123 70 26
-2.5320001 -1.082 -0.84799999 186 127 49
-2.7709999 -1.089 -0.98199999 79 27 6
-2.786 -1.082 -0.98799998 83 48 8
-2.8010001 -1.077 -0.99199998 117 73 38
-2.7550001 -1.107 -1.016 48 16 3
-2.7550001 -1.094 -1.02 20 0 0
-2.6129999 -1.059 -0.86900002 139 78 31
-2.618 -1.058 -0.86500001 98 70 56
-2.757 -1.099 -0.99400002 117 84 65
-2.5539999 -1.102 -0.85000002 136 89 43
-2.585 -1.061 -0.93300003 46 17 1
-2.5799999 -1.063 -0.917 34 1 0
-2.572 -1.053 -0.949 21 10 6
-2.5699999 -1.054 -0.93699998 27 7 0
-2.605 -1.034 -0.91299999 61 12 0
-2.658 -1.04 -0.91399997 35 13 2
-2.6570001 -1.035 -0.92000002 39 15 3
-2.7509999 -1.079 -0.95599997 138 104 69
-2.7160001 -1.082 -0.96799999 39 21 19
-2.6989999 -1.081 -0.98100001 20 5 0
-2.714 -1.0700001 -0.96799999 66 40 25
-2.7920001 -1.0549999 -0.97600001 170 126 91
-2.7820001 -1.054 -0.97799999 73 64 35
-2.7839999 -1.059 -1.012 33 21 7
-2.8069999 -1.063 -1.02 125 81 34
-2.7709999 -1.084 -1.038 61 35 20
-2.7620001 -1.084 -1.025 23 2 0
-2.773 -1.077 -1.043 60 32 20
-2.779 -1.0829999 -1.048 78 46 25
-2.7550001 -1.1 -1.028 44 14 3
-2.7119999 -1.08 -1.035 60 17 1
-2.7090001 -1.084 -1.0369999 110 63 35
-2.5280001 -1.0829999 -1.011 17 6 4
-2.517 -1.122 -0.96899998 83 47 25
-2.7579999 -1.071 -1.029 18 2 2
-2.7579999 -1.071 -1.025 30 6 4
-2.7449999 -1.073 -1.016 78 64 53
-2.753 -1.077 -1.036 47 33 24
-2.7820001 -1.08 -0.99699998 39 3 0
-2.7609999 -1.096 -0.99400002 119 88 70
-2.7720001 -1.0829999 -0.99800003 57 26 8
-2.733 -1.089 -1.027 24 4 3
-2.7750001 -1.077 -1.044 64 36 22
-2.7839999 -1.0779999 -1.038 60 28 13
-2.793 -1.08 -1.041 46 17 0
-2.773 -1.084 -1.039 63 37 20
-2.786 -1.0829999 -1.036 82 46 20
-2.7939999 -1.074 -1.036 86 48 35
-2.4630001 -1.115 -1.03 173 145 121
-2.5699999 -1.0599999 -1.033 91 76 69
-2.55 -1.0599999 -1.036 40 20 11
-2.529 -1.04 -1.008 35 6 2
-2.5350001 -1.043 -1.012 80 48 33
-2.5420001 -1.038 -1.008 99 94 98
-2.5369999 -1.026 -0.99199998 80 45 25
-2.5339999 -1.031 -0.99599999 9 0 1
-2.5339999 -1.036 -1.0039999 25 7 5
-2.529 -1.0470001 -1.011 54 25 9
-2.5339999 -1.05 -1.017 28 11 4
-2.5680001 -1.044 -1.038 26 6 0
-2.493 -1.1289999 -1.025 8 8 10
-2.5369999 -1.074 -1.025 34 13 8
-2.493 -1.122 -1.0089999 42 31 35
-2.4909999 -1.119 -1.002 236 195 141
-2.5190001 -1.067 -1 110 79 51
-2.5220001 -1.0650001 -0.99400002 19 5 2
-2.526 -1.069 -0.99199998 12 3 0
-2.5239999 -1.069 -1.008 96 60 28
-2.5250001 -1.082 -1.026 152 113 82
-2.533 -1.084 -1.0140001 40 17 3
-2.5369999 -1.086 -1.012 40 21 15
-2.5580001 -1.095 -1 87 36 0
-2.523 -1.135 -0.95499998 61 35 20
-2.6570001 -1.029 -1.036 18 0 0
-2.5650001 -1.085 -0.875 87 58 28
-2.49 -1.119 -0.97000003 100 82 46
-2.4809999 -1.119 -0.972 109 86 45
-2.471 -1.123 -0.97399998 104 73 53
-2.4990001 -1.1569999 -0.95999998 21 2 0
-2.4879999 -1.145 -0.94999999 77 53 27
-2.4920001 -1.1390001 -0.95499998 79 55 29
-2.648 -1.0369999 -1.018 59 31 17
-2.582 -1.059 -0.991 80 22 2
-2.602 -1.04 -1.007 111 95 95
-2.5910001 -1.049 -1.007 21 1 0
-2.592 -1.048 -1.005 18 0 0
-2.589 -1.054 -1.008 57 24 9
-2.586 -1.051 -0.98900002 121 95 94
-2.6570001 -1.033 -1.01 76 40 14
-2.655 -1.029 -1.016 52 43 26
-2.6630001 -1.027 -1.033 24 9 4
-2.7320001 -1.098 -1.0140001 23 5 3
-2.7279999 -1.099 -1.008 15 0 0
-2.7379999 -1.107 -1.011 14 0 0
-2.559 -1.0369999 -0.97399998 64 31 22
-2.573 -1.038 -0.97600001 39 11 0
-2.5569999 -1.043 -1.036 18 5 0
-2.612 -1.013 -1.0089999 11 0 0
-2.618 -1.017 -1.0190001 26 7 1
-2.6140001 -1.016 -1.0140001 31 9 0
-2.608 -1.015 -1.013 59 50 55
-2.5339999 -1.024 -0.99000001 73 37 3
-2.533 -1.024 -0.98799998 53 19 0
-2.5380001 -1.027 -0.98199999 23 5 3
-2.5610001 -1.071 -1.016 16 5 1
-2.562 -1.073 -1.011 52 30 19
-2.546 -1.044 -0.96100003 47 36 34
-2.5320001 -1.0369999 -0.95999998 54 13 0
-2.54 -1.036 -0.963 41 32 15
-2.539 -1.048 -0.963 60 33 16
-2.579 -1.073 -0.97000003 50 32 20
-2.585 -1.073 -0.95499998 196 151 96
-2.566 -1.084 -0.98799998 90 57 40
-2.5769999 -1.069 -0.97799999 75 48 37
-2.5799999 -1.04 -0.96100003 131 128 137
-2.585 -1.038 -0.97399998 91 80 74
-2.585 -1.0420001 -0.95599997 11 0 0
-2.6630001 -1.036 -0.93199998 15 0 0
-2.655 -1.025 -0.92000002 82 55 48
-2.7249999 -1.063 -0.95899999 106 88 84
-2.6619999 -1.043 -0.95899999 14 0 0
-2.6619999 -1.0470001 -0.96499997 62 25 6
-2.6600001 -1.048 -0.96399999 92 54 33
-2.5120001 -1.087 -0.884 79 46 31
-2.5139999 -1.086 -0.88200003 117 83 71
-2.5209999 -1.089 -0.87199998 133 100 81
-2.4920001 -1.1440001 -0.94300002 141 120 101
-2.5120001 -1.142 -0.93800002 97 55 30
-2.641 -1.0190001 -0.89300001 100 77 69
-2.6440001 -1.029 -0.88999999 65 42 1
-2.6210001 -1.018 -0.87400001 115 70 41
-2.6289999 -1.051 -0.88300002 165 98 43
-2.6470001 -1.056 -0.89499998 122 68 44
-2.4790001 -1.133 -0.93800002 95 70 40
-2.5369999 -1.076 -0.926 90 61 31
-2.4460001 -1.13 -1.028 142 105 99
-2.5439999 -1.075 -0.89700001 47 19 5
-2.5350001 -1.08 -0.898 44 16 5
-2.5309999 -1.0650001 -0.90200001 23 8 1
-2.5309999 -1.0549999 -0.87599999 255 228 145
-2.54 -1.058 -0.87599999 112 76 44
-2.5769999 -1.039 -0.90700001 82 61 34
-2.5940001 -1.035 -0.91600001 101 98 105
-2.595 -1.035 -0.92400002 13 0 0
-2.592 -1.034 -0.93599999 74 23 4
-2.585 -1.041 -0.92299998 56 27 19
-2.5880001 -1.04 -0.93599999 61 46 41
-2.6300001 -1.0089999 -0.91799998 39 22 14
-2.652 -1.023 -0.96799999 45 22 16
-2.6040001 -1.027 -0.88099998 58 11 0
-2.6059999 -1.022 -0.87099999 73 35 0
-2.608 -1.024 -0.861 95 42 2
-2.596 -1.022 -0.86299998 26 8 4
-2.5969999 -1.026 -0.87400001 137 97 61
-2.5899999 -1.027 -0.87 144 121 113
-2.6110001 -1.023 -0.87199998 103 60 25
-2.5550001 -1.066 -0.84299999 179 140 101
-2.5369999 -1.0549999 -0.90200001 70 40 30
-2.546 -1.075 -0.89300001 87 49 28
-2.539 -1.0829999 -0.88499999 96 37 7
-2.5239999 -1.089 -0.86400002 175 125 36
-2.793 -1.074 -1.017 77 42 22
-2.618 -1.011 -0.99800003 140 114 81
-2.5610001 -1.086 -0.95499998 131 108 94
-2.566 -1.076 -0.949 118 83 63
-2.586 -1.068 -0.94400001 68 40 29
-2.517 -1.039 -0.98299998 182 145 100
-2.517 -1.041 -0.99199998 54 26 4
-2.533 -1.022 -0.97799999 4 0 1
-2.5150001 -1.035 -0.97000003 224 158 72
-2.5120001 -1.04 -0.97600001 71 26 0
-2.579 -1.044 -0.93000001 21 4 0
-2.585 -1.043 -0.94099998 38 23 18
-2.589 -1.051 -0.89600003 61 23 10
-2.5829999 -1.0470001 -0.90499997 57 32 12
-2.5680001 -1.064 -0.917 86 67 60
-2.5829999 -1.061 -0.90100002 79 34 3
-2.575 -1.064 -0.88 85 63 50
-2.6329999 -1.03 -0.94499999 27 3 1
-2.628 -1.025 -0.93400002 135 92 58
-2.6259999 -1.0319999 -0.93699998 147 102 71
-2.6010001 -1.038 -0.93900001 16 3 0
-2.6129999 -1.029 -0.95999998 69 39 31
-2.635 -1.02 -0.93800002 42 16 0
-2.6600001 -1.028 -0.97500002 136 92 45
-2.6659999 -1.038 -0.98299998 23 3 2
-2.635 -1.01 -0.991 129 97 74
-2.6370001 -1.018 -0.93800002 12 0 0
-2.6389999 -1.021 -0.94199997 48 30 26
-2.6429999 -1.02 -0.94800001 9 0 0
-2.6440001 -1.044 -1.003 105 68 42
-2.6400001 -1.036 -1.0140001 69 42 31
-2.598 -1.0549999 -0.96600002 16 5 3
-2.6099999 -1.036 -0.958 53 19 0
-2.592 -1.043 -0.95899999 155 119 95
-2.635 -1.0599999 -0.92500001 58 29 15
-2.6300001 -1.0599999 -0.92900002 69 34 14
-2.6270001 -1.059 -0.93599999 55 26 10
-2.6289999 -1.061 -0.93699998 116 94 81
-2.658 -1.029 -0.95899999 78 50 49
-2.806 -1.062 -0.98199999 144 97 51
-2.7909999 -1.0779999 -0.99900001 50 13 0
-2.507 -1.148 -0.95099998 141 116 96
-2.6110001 -1.059 -0.88599998 104 62 40
-2.602 -1.064 -0.86799997 62 17 0
-2.5899999 -1.064 -0.86799997 93 59 34
-2.5439999 -1.082 -0.88099998 70 42 31
-2.572 -1.071 -0.87900001 67 26 8
-2.5710001 -1.081 -0.85900003 149 100 67
-2.543 -1.0930001 -0.96700001 84 44 18
-2.5409999 -1.087 -0.97799999 248 203 138
-2.5350001 -1.0829999 -0.96600002 135 125 126
-2.5280001 -1.072 -0.95300001 11 0 0
-2.572 -1.066 -0.94300002 23 4 0
-2.582 -1.067 -0.94099998 62 31 3
-2.5869999 -1.0650001 -0.94099998 69 32 13
-2.4960001 -1.122 -0.96399999 33 16 0
-2.5450001 -1.092 -0.96600002 58 27 7
-2.553 -1.0829999 -0.95700002 95 59 27
-2.7119999 -1.072 -0.97899997 103 65 44
-2.5179999 -1.034 -0.99699998 15 0 0
-2.474 -1.15 -0.98500001 41 22 15
-2.52 -1.054 -0.95899999 30 11 4
-2.5250001 -1.024 -0.958 30 15 8
-2.53 -1.025 -0.95700002 97 63 36
-2.52 -1.057 -0.91500002 92 37 0
-2.529 -1.071 -0.91900003 35 21 12
-2.5250001 -1.062 -0.91399997 19 0 0
-2.5250001 -1.059 -0.91900003 56 33 19
-2.5220001 -1.058 -0.91399997 73 50 36
-2.527 -1.061 -0.92299998 59 36 20
-2.552 -1.0369999 -0.95999998 43 0 0
-2.5079999 -1.143 -0.98799998 155 112 70
-2.7820001 -1.062 -0.96899998 106 55 8
-2.7750001 -1.064 -1.017 30 6 4
-2.7720001 -1.074 -0.963 107 59 13
-2.776 -1.079 -0.98199999 154 115 74
-2.779 -1.053 -0.98500001 179 109 39
-2.763 -1.0829999 -1.021 15 0 0
-2.596 -1.049 -0.84500003 198 146 96
-2.5880001 -1.0599999 -0.93199998 43 14 6
-2.592 -1.059 -0.93800002 67 37 26
-2.5829999 -1.061 -0.93400002 108 77 59
-2.622 -1.056 -0.921 68 40 19
-2.6129999 -1.058 -0.91799998 30 12 2
-2.6159999 -1.017 -0.926 121 79 63
-2.6029999 -1.056 -0.91600001 25 7 0
-2.7520001 -1.069 -0.95499998 202 152 99
-2.721 -1.082 -0.96700001 85 59 32
-2.7049999 -1.079 -0.977 57 29 15
-2.704 -1.084 -0.97100002 83 55 33
-2.7090001 -1.073 -0.963 106 78 67
-2.789 -1.061 -1.015 82 54 40
-2.7739999 -1.084 -1.043 52 25 6
-2.763 -1.072 -1.034 45 17 14
-2.7590001 -1.095 -1.031 100 79 60
-2.7179999 -1.077 -1.0190001 63 26 17
-2.707 -1.077 -1.029 54 8 0
-2.513 -1.109 -0.97000003 114 78 44
-2.5109999 -1.114 -0.96399999 146 108 71
-2.4979999 -1.109 -0.96700001 61 28 13
-2.4949999 -1.109 -0.97000003 131 85 26
-2.5190001 -1.12 -0.97899997 79 43 21
-2.5139999 -1.115 -0.97600001 41 21 12
-2.5039999 -1.115 -0.97299999 87 59 35
-2.5209999 -1.118 -0.99299997 62 34 12
-2.527 -1.081 -1.008 39 25 24
-2.523 -1.0650001 -0.98900002 25 10 5
-2.516 -1.13 -0.96899998 134 94 59
-2.513 -1.114 -0.96899998 80 40 14
-2.7550001 -1.0700001 -1.018 146 129 119
-2.7609999 -1.085 -1.013 23 0 0
-2.7690001 -1.082 -1.011 27 0 0
-2.7590001 -1.097 -1.01 117 90 81
-2.76 -1.0930001 -1.003 68 34 0
-2.7449999 -1.075 -1.029 39 9 1
-2.7620001 -1.0930001 -0.99900001 109 71 34
-2.7920001 -1.079 -1.0420001 37 13 1
-2.786 -1.0779999 -1.03 78 41 12
-2.7909999 -1.0779999 -1.041 39 15 5
-2.4649999 -1.1160001 -1.028 119 104 97
-2.5120001 -1.061 -0.991 70 31 14
-2.55 -1.0930001 -0.98799998 123 101 87
-2.536 -1.084 -0.986 104 60 31
-2.5510001 -1.081 -1.03 44 22 11
-2.5050001 -1.118 -0.99699998 52 16 4
-2.5150001 -1.114 -0.99299997 107 64 30
-2.4990001 -1.12 -0.991 52 35 41
-2.546 -1.087 -1.012 69 50 43
-2.55 -1.096 -0.99400002 130 111 97
-2.5539999 -1.08 -1.025 35 13 2
-2.556 -1.0829999 -1.012 36 14 3
-2.5550001 -1.089 -1.007 98 79 72
-2.562 -1.08 -1.007 97 50 24
-2.562 -1.0829999 -1.0039999 47 18 4
-2.569 -1.0599999 -1.0369999 24 9 4
-2.4979999 -1.1109999 -0.96200001 247 193 119
-2.47 -1.118 -0.98400003 67 47 46
-2.5 -1.159 -0.95200002 27 10 2
-2.494 -1.131 -0.97299999 41 22 8
-2.6370001 -1.036 -1.0319999 41 8 0
-2.6040001 -1.038 -1.01 57 21 7
-2.602 -1.038 -1.0039999 27 4 0
-2.6040001 -1.033 -0.99599999 29 8 5
-2.5829999 -1.058 -0.99000001 61 31 5
-2.661 -1.026 -1.025 46 13 8
-2.6619999 -1.033 -1.028 27 12 7
-2.733 -1.103 -1.0190001 45 25 18
-2.7249999 -1.097 -1.001 12 6 6
-2.7290001 -1.099 -1.003 15 0 0
-2.5669999 -1.082 -0.99800003 58 29 13
-2.5539999 -1.0420001 -1.006 20 0 0
-2.549 -1.0420001 -1.005 40 15 10
-2.566 -1.043 -1 176 142 117
-2.549 -1.0369999 -1.025 65 34 14
-2.566 -1.056 -1.0369999 113 88 81
-2.6099999 -1.021 -1.016 12 1 0
-2.562 -1.04 -1.0369999 33 10 4
-2.5569999 -1.036 -0.98500001 78 57 54
-2.526 -1.045 -0.95700002 154 114 89
-2.5699999 -1.077 -0.97299999 134 120 109
-2.652 -1.02 -0.91299999 30 8 0
-2.73 -1.066 -0.95700002 145 127 117
-2.664 -1.046 -0.93699998 19 8 6
-2.5190001 -1.09 -0.88800001 133 96 90
-2.536 -1.075 -0.89399999 105 65 40
-2.5209999 -1.062 -0.90700001 24 10 1
-2.487 -1.146 -0.94599998 58 33 11
-2.654 -1.036 -0.889 68 33 11
-2.6389999 -1.02 -0.88999999 90 41 0
-2.6159999 -1.0549999 -0.884 185 120 64
-2.628 -1.052 -0.87699997 233 172 118
-2.598 -1.035 -0.889 123 79 52
-2.622 -1.017 -0.88499999 78 36 14
-2.5150001 -1.084 -0.86500001 67 34 0
-2.655 -1.0470001 -0.89200002 58 27 0
-2.599 -1.063 -0.87300003 89 45 16
-2.5929999 -1.063 -0.87300003 95 62 29
-2.5999999 -1.0599999 -0.87800002 115 78 51
-2.5339999 -1.061 -0.91799998 121 99 85
-2.529 -1.062 -0.92699999 60 37 19
-2.533 -1.074 -0.93300003 62 32 8
-2.4690001 -1.141 -0.99400002 71 48 32
-2.51 -1.074 -0.87699997 65 32 25
-2.5220001 -1.054 -0.875 77 49 46
-2.5280001 -1.063 -0.88099998 59 32 11
-2.599 -1.031 -0.92299998 130 94 70
-2.5829999 -1.039 -0.917 15 0 0
-2.6300001 -1.01 -0.912 43 14 0
-2.6270001 -1.052 -0.90899998 37 2 0
-2.6489999 -1.0190001 -0.96700001 55 18 0
-2.589 -1.025 -0.86400002 23 0 0
-2.6159999 -1.024 -0.86799997 99 68 39
-2.6329999 -1.043 -0.86900002 128 89 46
-2.5669999 -1.061 -0.84500003 150 102 56
-2.5739999 -1.058 -0.84899998 94 54 29
-2.586 -1.04 -0.847 139 81 43
-2.5569999 -1.0470001 -0.85699999 101 43 5
-2.562 -1.049 -0.85399997 57 22 3
-2.562 -1.056 -0.84399998 100 57 15
-2.533 -1.057 -0.91000003 14 4 5
-2.5280001 -1.058 -0.90600002 50 27 13
-2.5699999 -1.062 -0.87699997 106 72 35
-2.5599999 -1.062 -0.87699997 65 23 1
-2.5469999 -1.057 -0.87300003 33 10 2
-2.543 -1.056 -0.90200001 79 65 62
-2.5599999 -1.092 -0.861 97 42 12
-2.5650001 -1.085 -0.85699999 120 49 0
-2.8 -1.071 -1.029 71 29 17
-2.796 -1.073 -1.015 24 3 0
-2.6229999 -1.036 -1.007 48 42 28
-2.6129999 -1.035 -1.011 27 20 14
-2.6329999 -1.018 -1.017 44 11 4
-2.6459999 -1.017 -1.0190001 73 55 43
-2.618 -1.024 -1.023 73 55 45
-2.5409999 -1.038 -1.002 25 0 0
-2.5439999 -1.04 -0.99800003 29 2 0
-2.5220001 -1.026 -0.98900002 104 73 42
-2.5179999 -1.0369999 -0.99299997 39 11 0
-2.5150001 -1.045 -0.98500001 57 34 26
-2.55 -1.031 -0.97799999 15 0 0
-2.517 -1.059 -0.97799999 123 87 51
-2.53 -1.031 -1.001 40 7 0
-2.586 -1.041 -0.93800002 54 39 34
-2.579 -1.049 -0.91799998 49 13 0
-2.575 -1.063 -0.91000003 54 6 2
-2.5450001 -1.08 -0.94300002 49 29 18
-2.5439999 -1.079 -0.93900001 34 11 3
-2.5439999 -1.077 -0.93000001 55 28 19
-2.595 -1.0549999 -0.92699999 65 14 0
-2.6110001 -1.058 -0.91900003 118 92 67
-2.599 -1.054 -0.93099999 29 7 0
-2.5869999 -1.0650001 -0.91000003 91 43 29
-2.596 -1.0599999 -0.94700003 21 0 0
-2.6029999 -1.059 -0.94599998 106 84 71
-2.599 -1.061 -0.94199997 41 18 4
-2.608 -1.043 -0.92799997 75 43 32
-2.625 -1.031 -0.93000001 224 174 137
-2.6199999 -1.045 -0.94800001 143 108 80
-2.612 -1.0470001 -0.94499999 44 7 0
-2.6170001 -1.046 -0.94800001 57 26 5
-2.6210001 -1.011 -0.995 24 0 0
-2.618 -1.046 -0.935 81 78 87
-2.638 -1.025 -0.95300001 111 91 84
-2.648 -1.045 -0.97500002 15 0 0
-2.6429999 -1.04 -0.96799999 23 0 0
-2.6429999 -1.043 -0.96200001 97 60 52
-2.641 -1.044 -0.98100001 104 80 76
-2.645 -1.016 -0.97100002 99 65 19
-2.6500001 -1.022 -0.977 19 6 0
-2.6440001 -1.017 -0.99199998 79 57 46
-2.6359999 -1.0190001 -0.97799999 48 42 46
-2.6370001 -1.018 -0.97299999 45 33 19
-2.631 -1.029 -0.97500002 27 4 0
-2.6289999 -1.024 -0.97299999 24 6 6
-2.631 -1.029 -0.98199999 35 12 0
-2.6370001 -1.034 -0.97799999 14 0 0
-2.635 -1.033 -0.96799999 35 12 4
-2.6259999 -1.038 -1.002 20 0 0
-2.619 -1.048 -0.95099998 24 9 4
-2.609 -1.05 -0.94999999 11 1 0
-2.5899999 -1.0599999 -0.96799999 38 16 3
-2.595 -1.058 -0.96399999 60 34 21
-2.6140001 -1.046 -0.949 39 13 0
-2.6389999 -1.0599999 -0.92299998 95 68 51
-2.655 -1.025 -0.958 53 30 24
-2.76 -1.053 -0.963 199 138 55
-2.5109999 -1.146 -0.94099998 195 158 106
-2.6059999 -1.066 -0.889 151 97 53
-2.536 -1.084 -0.97899997 175 132 87
-2.5239999 -1.063 -0.977 28 15 0
-2.5799999 -1.068 -0.94800001 71 34 18
-2.5669999 -1.074 -0.95099998 109 72 54
-2.5420001 -1.056 -0.94599998 9 0 0
-2.549 -1.057 -0.94800001 104 59 20
-2.5480001 -1.058 -0.94400001 136 88 48
-2.53 -1.0369999 -0.95899999 8 0 0
-2.533 -1.064 -0.935 121 102 87
-2.5339999 -1.064 -0.93900001 129 111 97
-2.5309999 -1.033 -0.95899999 70 30 0
-2.79 -1.073 -0.977 78 38 3
-2.6210001 -1.054 -0.85900003 162 97 43
-2.779 -1.053 -0.98100001 41 29 7
-2.73 -1.104 -0.98199999 102 40 3
-2.7279999 -1.102 -0.98000002 115 45 9
-2.589 -1.05 -0.84600002 164 104 32
-2.595 -1.046 -0.84399998 170 126 89
-2.592 -1.05 -0.86900002 26 9 2
-2.596 -1.054 -0.852 197 129 90
-2.612 -1.045 -0.85399997 170 117 75
-2.573 -1.0650001 -0.94 36 1 0
-2.6099999 -1.056 -0.93000001 49 21 7
-2.6110001 -1.018 -0.92699999 65 19 3
-2.7509999 -1.072 -0.95599997 164 127 74
-2.724 -1.084 -0.96700001 146 126 117
-2.789 -1.066 -1.022 42 3 0
-2.4860001 -1.125 -0.97000003 63 48 27
-2.4849999 -1.1210001 -0.99199998 121 108 74
-2.4920001 -1.122 -0.986 122 76 42
-2.5309999 -1.085 -1.002 48 17 0
-2.7620001 -1.094 -0.99199998 80 42 21
-2.7650001 -1.09 -0.991 48 11 0
-2.7650001 -1.0880001 -0.99400002 83 49 21
-2.79 -1.079 -1.045 34 16 4
-2.5769999 -1.054 -1.02 27 8 2
-2.507 -1.051 -0.97899997 151 119 98
-2.5150001 -1.035 -0.972 135 95 46
-2.619 -1.027 -1.021 10 0 0
-2.4909999 -1.124 -1.018 186 147 106
-2.5539999 -1.081 -1.028 31 9 0
-2.5039999 -1.117 -0.97600001 74 48 25
-2.497 -1.118 -0.977 146 94 44
-2.527 -1.081 -1.012 9 0 0
-2.5480001 -1.096 -0.995 137 99 78
-2.553 -1.089 -1.007 60 28 15
-2.55 -1.089 -1.008 110 61 28
-2.5610001 -1.084 -1.0039999 205 151 105
-2.569 -1.057 -1.038 16 2 0
-2.569 -1.054 -1.036 21 7 6
-2.523 -1.066 -0.954 65 50 29
-2.47 -1.1210001 -0.98199999 93 59 34
-2.5799999 -1.069 -0.99900001 78 47 27
-2.595 -1.04 -1.008 30 10 0
-2.6010001 -1.033 -1.0089999 47 10 1
