ply
format ascii 1.0
comment PCL generated
element vertex 274
property float x
property float y
property float z
property uchar red
property uchar green
property uchar blue
element camera 1
property float view_px
property float view_py
property float view_pz
property float x_axisx
property float x_axisy
property float x_axisz
property float y_axisx
property float y_axisy
property float y_axisz
property float z_axisx
property float z_axisy
property float z_axisz
property float focal
property float scalex
property float scaley
property float centerx
property float centery
property int viewportx
property int viewporty
property float k1
property float k2
end_header
-9.3730001 10.812 -0.34999999 169 94 29
-9.3719997 10.817 -0.345 196 119 51
-9.3730001 10.822 -0.36399999 219 157 74
-9.3719997 10.819 -0.34799999 124 73 30
-9.2989998 10.818 -0.42899999 121 67 21
-9.2810001 10.813 -0.43200001 82 48 11
-9.2869997 10.818 -0.42699999 163 87 53
-9.3400002 10.858 -0.40900001 110 56 20
-9.3339996 10.837 -0.40599999 120 53 10
-9.3459997 10.855 -0.40000001 193 132 85
-9.2819996 10.792 -0.42500001 183 125 88
-9.283 10.795 -0.426 138 90 41
-9.2740002 10.791 -0.419 167 137 101
-9.29 10.774 -0.42399999 187 122 56
-9.2980003 10.767 -0.41999999 155 95 43
-9.2939997 10.776 -0.40900001 201 140 77
-9.3690004 10.813 -0.35600001 171 100 36
-9.3599997 10.801 -0.366 215 139 64
-9.3590002 10.835 -0.36700001 108 36 0
-9.3599997 10.836 -0.36399999 221 145 85
-9.302 10.839 -0.42699999 109 82 35
-9.3039999 10.836 -0.43099999 158 88 28
-9.3050003 10.845 -0.43000001 196 121 53
-9.3280001 10.828 -0.41100001 123 62 17
-9.3339996 10.832 -0.40400001 126 42 0
-9.3109999 10.795 -0.44400001 117 80 35
-9.3280001 10.794 -0.43399999 146 78 29
-9.3249998 10.782 -0.43099999 148 98 63
-9.2950001 10.791 -0.43799999 153 57 9
-9.3030005 10.78 -0.44600001 163 94 35
-9.2880001 10.809 -0.41600001 143 61 14
-9.2819996 10.798 -0.41800001 244 218 108
-9.2869997 10.804 -0.41299999 161 85 33
-9.3339996 10.838 -0.40400001 129 65 30
-9.3400002 10.813 -0.331 236 175 94
-9.3599997 10.821 -0.329 225 150 92
-9.3590002 10.81 -0.329 250 158 71
-9.3529997 10.823 -0.33000001 148 109 66
-9.3699999 10.829 -0.34200001 215 129 56
-9.3640003 10.82 -0.336 159 98 43
-9.3660002 10.827 -0.36300001 247 188 112
-9.3699999 10.818 -0.35499999 217 147 77
-9.2950001 10.794 -0.40200001 196 110 33
-9.3039999 10.779 -0.405 133 79 33
-9.3310003 10.803 -0.361 211 151 79
-9.3290005 10.808 -0.36500001 155 84 40
-9.3249998 10.821 -0.352 174 124 71
-9.3540001 10.815 -0.37 152 83 50
-9.2869997 10.781 -0.421 202 143 27
-9.2849998 10.792 -0.41600001 123 74 34
-9.2819996 10.789 -0.42500001 85 52 19
-9.3000002 10.766 -0.426 239 164 96
-9.3549995 10.826 -0.36700001 138 87 42
-9.3509998 10.827 -0.37 149 74 9
-9.2810001 10.795 -0.42199999 143 66 12
-9.3170004 10.854 -0.41499999 196 128 67
-9.3190002 10.869 -0.414 200 113 46
-9.3310003 10.829 -0.405 196 116 63
-9.3219995 10.841 -0.41100001 165 81 19
-9.3280001 10.808 -0.40799999 193 134 94
-9.3269997 10.801 -0.42399999 104 29 0
-9.3369999 10.811 -0.426 133 52 5
-9.3369999 10.807 -0.42300001 97 43 5
-9.3219995 10.797 -0.43200001 102 57 24
-9.2910004 10.808 -0.42899999 157 101 52
-9.2950001 10.806 -0.43000001 105 69 35
-9.3039999 10.799 -0.43399999 132 54 6
-9.309 10.799 -0.44 226 166 112
-9.2939997 10.85 -0.414 248 189 131
-9.3389997 10.851 -0.39899999 228 165 124
-9.368 10.826 -0.34900001 133 76 33
-9.3559999 10.809 -0.331 247 189 105
-9.3339996 10.848 -0.34400001 238 158 69
-9.3369999 10.85 -0.34799999 225 183 143
-9.335 10.848 -0.33199999 246 166 77
-9.349 10.844 -0.336 255 234 102
-9.3529997 10.828 -0.33399999 167 99 26
-9.3629999 10.811 -0.33500001 220 147 92
-9.3690004 10.81 -0.34799999 166 96 45
-9.3520002 10.799 -0.35499999 149 91 28
-9.3380003 10.806 -0.36899999 154 85 18
-9.3129997 10.77 -0.41800001 155 92 49
-9.3269997 10.848 -0.389 166 98 37
-9.3210001 10.856 -0.38699999 156 90 32
-9.3310003 10.844 -0.368 194 122 50
-9.3190002 10.853 -0.38600001 137 63 16
-9.3009996 10.82 -0.398 189 124 70
-9.3170004 10.829 -0.38499999 203 135 90
-9.3170004 10.824 -0.39500001 124 81 39
-9.3140001 10.827 -0.396 189 122 67
-9.309 10.777 -0.412 113 44 2
-9.2919998 10.791 -0.405 144 86 36
-9.2930002 10.804 -0.40700001 162 83 27
-9.3079996 10.771 -0.42699999 149 75 26
-9.3100004 10.771 -0.42300001 187 131 94
-9.3179998 10.842 -0.35100001 209 159 110
-9.3170004 10.83 -0.35499999 102 66 32
-9.3210001 10.838 -0.33500001 250 243 227
-9.3430004 10.851 -0.36399999 246 207 190
-9.342 10.837 -0.368 191 103 39
-9.3319998 10.858 -0.39700001 117 69 33
-9.3260002 10.865 -0.40099999 210 138 79
-9.3269997 10.86 -0.39199999 253 166 89
-9.3339996 10.854 -0.39300001 197 129 84
-9.3210001 10.869 -0.391 224 132 47
-9.2840004 10.795 -0.417 109 85 75
-9.3000002 10.826 -0.42399999 105 52 21
-9.3000002 10.821 -0.42199999 197 143 96
-9.3120003 10.855 -0.41800001 144 84 32
-9.3129997 10.871 -0.41499999 213 131 45
-9.3330002 10.855 -0.40799999 102 59 27
-9.3199997 10.856 -0.41100001 182 101 38
-9.3009996 10.804 -0.428 179 113 52
-9.3109999 10.809 -0.41 119 57 6
-9.3140001 10.823 -0.40900001 157 87 25
-9.3240004 10.825 -0.40200001 211 135 85
-9.3249998 10.805 -0.40200001 216 145 83
-9.3400002 10.804 -0.42699999 152 107 78
-9.3290005 10.789 -0.41 148 63 9
-9.3280001 10.797 -0.419 150 77 26
-9.29 10.797 -0.43000001 150 60 8
-9.2860003 10.813 -0.426 90 46 33
-9.3070002 10.794 -0.442 130 62 15
-9.349 10.838 -0.34099999 168 118 65
-9.3570004 10.83 -0.366 255 195 126
-9.3520002 10.808 -0.36500001 193 102 31
-9.342 10.808 -0.366 130 62 17
-9.3579998 10.807 -0.34 215 132 38
-9.342 10.81 -0.37200001 143 75 28
-9.2930002 10.812 -0.405 176 96 35
-9.3030005 10.83 -0.403 122 46 0
-9.3149996 10.832 -0.39700001 89 49 37
-9.3269997 10.851 -0.36199999 121 80 52
-9.3280001 10.847 -0.333 233 152 71
-9.3219995 10.86 -0.38699999 176 113 70
-9.3190002 10.864 -0.39199999 200 144 97
-9.3050003 10.864 -0.39399999 89 56 41
-9.3100004 10.857 -0.39300001 158 115 80
-9.3389997 10.852 -0.39399999 130 77 35
-9.3310003 10.842 -0.39700001 183 101 45
-9.3369999 10.863 -0.40799999 124 56 17
-9.3199997 10.875 -0.40099999 224 153 101
-9.3170004 10.881 -0.403 212 118 44
-9.3199997 10.869 -0.403 202 110 33
-9.3009996 10.808 -0.405 165 114 71
-9.3109999 10.857 -0.41499999 199 115 27
-9.3249998 10.844 -0.40799999 140 86 42
-9.309 10.841 -0.421 161 76 19
-9.316 10.819 -0.40000001 107 64 29
-9.3149996 10.816 -0.40200001 216 141 76
-9.3290005 10.799 -0.428 123 51 1
-9.3269997 10.802 -0.40799999 145 92 50
-9.3260002 10.801 -0.40599999 150 79 15
-9.2880001 10.792 -0.43200001 85 48 19
-9.2959995 10.783 -0.43700001 146 67 8
-9.2869997 10.819 -0.42199999 161 97 61
-9.2930002 10.828 -0.41499999 191 96 6
-9.3109999 10.787 -0.405 231 184 140
-9.3109999 10.794 -0.40799999 115 83 34
-9.3179998 10.799 -0.40799999 113 44 11
-9.302 10.795 -0.405 176 127 84
-9.349 10.841 -0.34099999 102 61 33
-9.3430004 10.833 -0.33399999 224 164 94
-9.3290005 10.851 -0.347 173 126 110
-9.349 10.834 -0.36199999 251 217 128
-9.3430004 10.835 -0.359 185 131 84
-9.3590002 10.804 -0.34599999 210 142 77
-9.3479996 10.807 -0.347 225 163 102
-9.3549995 10.809 -0.34099999 191 117 54
-9.3559999 10.809 -0.33899999 154 107 63
-9.3439999 10.826 -0.37599999 134 88 39
-9.3249998 10.82 -0.361 208 145 76
-9.3280001 10.833 -0.37400001 175 95 34
-9.335 10.819 -0.37 190 119 77
-9.2930002 10.837 -0.40900001 188 116 66
-9.3059998 10.848 -0.39700001 107 69 58
-9.3170004 10.838 -0.38999999 169 109 47
-9.3190002 10.834 -0.37900001 180 113 68
-9.3039999 10.827 -0.41100001 160 86 37
-9.3369999 10.844 -0.35600001 226 165 84
-9.2930002 10.787 -0.433 153 92 48
-9.3170004 10.777 -0.41499999 147 61 2
-9.335 10.796 -0.428 175 105 54
-9.3240004 10.782 -0.42500001 155 102 68
-9.3269997 10.792 -0.42399999 152 81 27
-9.3369999 10.857 -0.36700001 137 90 72
-9.3249998 10.838 -0.36199999 255 226 137
-9.3059998 10.809 -0.403 75 35 9
-9.3050003 10.81 -0.41299999 217 146 82
-9.3000002 10.856 -0.41299999 123 50 0
-9.3059998 10.859 -0.41100001 146 96 59
-9.3030005 10.861 -0.405 234 161 110
-9.3140001 10.804 -0.40799999 111 37 0
-9.3190002 10.835 -0.40700001 130 70 20
-9.2930002 10.787 -0.412 204 122 62
-9.316 10.799 -0.42500001 101 35 1
-9.3509998 10.813 -0.33500001 164 130 92
-9.3380003 10.837 -0.33199999 251 172 79
-9.3299999 10.812 -0.359 177 119 71
-9.342 10.81 -0.35299999 255 204 147
-9.3249998 10.855 -0.36000001 127 81 58
-9.335 10.85 -0.35299999 199 128 62
-9.3479996 10.831 -0.347 238 170 95
-9.3599997 10.804 -0.36000001 130 58 8
-9.3380003 10.81 -0.37200001 216 158 108
-9.323 10.827 -0.366 142 78 34
-9.3190002 10.827 -0.37599999 120 72 26
-9.3260002 10.836 -0.38999999 184 110 47
-9.3269997 10.839 -0.36899999 157 112 73
-9.3269997 10.847 -0.361 200 126 37
-9.2980003 10.859 -0.40400001 174 113 56
-9.2950001 10.82 -0.40400001 192 117 62
-9.3109999 10.852 -0.39199999 139 81 18
-9.3059998 10.852 -0.398 196 119 73
-9.3100004 10.841 -0.40099999 136 92 53
-9.2969999 10.835 -0.414 175 111 63
-9.3409996 10.854 -0.359 174 119 78
-9.3389997 10.851 -0.35800001 241 190 143
-9.302 10.784 -0.442 128 77 32
-9.3079996 10.775 -0.43000001 121 52 13
-9.302 10.775 -0.43000001 181 103 64
-9.3000002 10.776 -0.43200001 190 121 79
-9.3079996 10.778 -0.43399999 147 83 47
-9.309 10.779 -0.435 126 68 20
-9.2969999 10.777 -0.43700001 112 59 25
-9.3249998 10.783 -0.419 148 94 60
-9.3170004 10.78 -0.41299999 183 121 80
-9.3199997 10.871 -0.39199999 255 171 83
-9.3149996 10.872 -0.40099999 231 151 54
-9.3120003 10.866 -0.40700001 123 81 43
-9.316 10.87 -0.39700001 237 140 71
-9.3249998 10.847 -0.35800001 161 122 89
-9.3039999 10.796 -0.40599999 162 100 49
-9.3079996 10.781 -0.40900001 205 131 82
-9.3269997 10.793 -0.40900001 158 80 31
-9.3050003 10.803 -0.40599999 129 79 42
-9.3610001 10.808 -0.34200001 253 198 105
-9.349 10.811 -0.34099999 236 172 108
-9.342 10.809 -0.347 255 215 153
-9.3389997 10.825 -0.33199999 255 187 95
-9.3439999 10.837 -0.33399999 254 176 93
-9.3280001 10.814 -0.366 157 109 63
-9.3210001 10.832 -0.345 185 116 47
-9.3559999 10.827 -0.34400001 232 154 90
-9.3629999 10.814 -0.361 150 89 34
-9.3199997 10.831 -0.384 198 106 39
-9.3199997 10.838 -0.37799999 203 142 87
-9.2980003 10.85 -0.40700001 116 69 53
-9.2930002 10.826 -0.41100001 133 65 20
-9.3079996 10.852 -0.396 156 84 34
-9.3059998 10.845 -0.40000001 195 127 80
-9.3170004 10.78 -0.43099999 167 107 70
-9.316 10.776 -0.42500001 146 83 42
-9.3170004 10.872 -0.398 139 88 57
-9.3079996 10.855 -0.396 195 128 76
-9.3290005 10.851 -0.35600001 241 177 113
-9.3000002 10.799 -0.403 196 138 98
-9.29 10.786 -0.428 102 64 53
-9.2889996 10.806 -0.428 71 38 21
-9.3299999 10.816 -0.35100001 226 158 83
-9.3450003 10.811 -0.34400001 195 123 41
-9.3330002 10.824 -0.33500001 245 240 218
-9.3360004 10.82 -0.34099999 134 80 18
-9.3310003 10.823 -0.34200001 180 106 33
-9.323 10.827 -0.35100001 180 109 47
-9.323 10.828 -0.34200001 164 88 26
-9.3360004 10.809 -0.34599999 241 180 100
-9.3170004 10.83 -0.391 124 83 39
-9.3190002 10.835 -0.384 179 119 65
-9.3070002 10.784 -0.44100001 198 113 58
-9.3409996 10.828 -0.333 195 111 39
-9.323 10.829 -0.34200001 183 127 66
-9.3319998 10.814 -0.35100001 186 150 100
-9.3330002 10.813 -0.36899999 190 138 39
0 0 0 1 0 0 0 1 0 0 0 1 0 0 0 0 0 274 1 0 0
