ply
format ascii 1.0
comment PCL generated
element vertex 127
property float x
property float y
property float z
property uchar red
property uchar green
property uchar blue
element camera 1
property float view_px
property float view_py
property float view_pz
property float x_axisx
property float x_axisy
property float x_axisz
property float y_axisx
property float y_axisy
property float y_axisz
property float z_axisx
property float z_axisy
property float z_axisz
property float focal
property float scalex
property float scaley
property float centerx
property float centery
property int viewportx
property int viewporty
property float k1
property float k2
end_header
-5.0279999 10.799 -0.49200001 118 56 15
-5.0240002 10.8 -0.49399999 146 92 56
-5.0310001 10.8 -0.48100001 121 56 14
-5.0289998 10.777 -0.48300001 175 99 41
-5.0289998 10.775 -0.47299999 182 104 42
-5.0229998 10.765 -0.48899999 88 83 80
-5.0300002 10.787 -0.48100001 132 68 24
-5.0229998 10.791 -0.486 69 26 9
-5.0159998 10.787 -0.49200001 122 59 18
-5.0029998 10.768 -0.49900001 129 78 49
-5.0009999 10.753 -0.498 132 49 0
-4.9910002 10.763 -0.49599999 208 155 105
-4.9910002 10.773 -0.50199997 217 141 55
-5.0040002 10.775 -0.50199997 83 52 31
-5.007 10.786 -0.50700003 116 80 46
-5.0110002 10.786 -0.509 124 72 35
-4.9910002 10.781 -0.49700001 232 186 137
-4.9770002 10.799 -0.49700001 115 77 41
-4.9829998 10.795 -0.49599999 121 36 0
-4.9889998 10.811 -0.49200001 115 63 24
-5.0289998 10.795 -0.48500001 80 19 0
-5.0229998 10.8 -0.48899999 138 89 48
-4.9970002 10.809 -0.47799999 171 83 19
-4.9889998 10.795 -0.46200001 183 91 28
-4.9860001 10.798 -0.46900001 91 36 0
-4.9829998 10.805 -0.47600001 130 85 44
-5.0219998 10.775 -0.49000001 123 61 22
-5.0170002 10.786 -0.463 97 52 11
-5.0100002 10.776 -0.461 129 66 25
-4.994 10.79 -0.456 186 100 41
-5.0180001 10.777 -0.45899999 158 90 45
-5.0019999 10.745 -0.45899999 156 93 40
-4.9980001 10.741 -0.456 141 74 19
-5.0110002 10.734 -0.47099999 190 87 18
-5.02 10.761 -0.491 136 79 34
-4.987 10.793 -0.49700001 221 179 139
-4.994 10.794 -0.493 182 130 91
-4.993 10.787 -0.49599999 159 72 1
-5.007 10.787 -0.50199997 122 57 25
-4.9790001 10.8 -0.486 129 84 45
-4.974 10.791 -0.48699999 177 140 98
-4.9790001 10.798 -0.48100001 146 62 16
-5.0009999 10.797 -0.48500001 61 50 54
-4.9959998 10.813 -0.48899999 213 182 138
-4.9840002 10.793 -0.45899999 153 87 37
-5.0240002 10.799 -0.47600001 110 63 21
-5.0159998 10.788 -0.47600001 119 70 30
-5 10.798 -0.47799999 125 86 53
-4.9889998 10.811 -0.48100001 123 68 27
-5.0240002 10.802 -0.47999999 53 18 0
-5.0240002 10.793 -0.461 155 88 45
-5.0240002 10.775 -0.45899999 108 57 26
-5.0170002 10.774 -0.45899999 187 138 106
-5.0209999 10.762 -0.45899999 73 70 65
-4.9899998 10.74 -0.472 118 53 25
-5.0009999 10.743 -0.47999999 190 126 78
-5.0209999 10.767 -0.49200001 87 53 28
-5.0149999 10.784 -0.505 113 108 104
-4.98 10.777 -0.49200001 221 140 51
-4.9770002 10.777 -0.48699999 238 206 167
-4.9829998 10.796 -0.47600001 168 76 11
-4.9759998 10.775 -0.484 200 116 20
-4.9840002 10.761 -0.48199999 227 134 56
-4.9759998 10.776 -0.47400001 218 181 136
-4.9780002 10.785 -0.484 172 78 6
-4.9920001 10.804 -0.491 138 85 67
-5.0029998 10.796 -0.47999999 119 77 52
-5.0209999 10.781 -0.46200001 197 134 83
-5.0279999 10.786 -0.46399999 171 94 38
-5.0300002 10.79 -0.477 175 102 61
-5.0279999 10.8 -0.477 104 39 0
-4.9850001 10.767 -0.47099999 150 69 14
-4.9829998 10.744 -0.47099999 195 103 38
-4.9889998 10.754 -0.47499999 216 135 56
-4.9840002 10.737 -0.46900001 104 63 31
-4.9860001 10.74 -0.46700001 149 87 40
-5.0040002 10.739 -0.472 229 138 67
-4.98 10.786 -0.493 124 78 44
-4.9860001 10.78 -0.49399999 155 79 1
-4.9809999 10.786 -0.46700001 213 111 36
-4.9829998 10.787 -0.45899999 180 78 12
-4.9770002 10.781 -0.46700001 64 35 17
-4.993 10.783 -0.456 149 64 0
-4.9879999 10.771 -0.45899999 220 115 32
-5.0019999 10.783 -0.46799999 90 31 0
-5.0079999 10.772 -0.45899999 166 104 57
-4.9829998 10.772 -0.49000001 102 66 54
-4.9850001 10.755 -0.48500001 187 126 71
-5.0089998 10.794 -0.49200001 132 73 55
-5.026 10.777 -0.46700001 126 57 15
-5.0190001 10.767 -0.47299999 184 93 22
-5.027 10.79 -0.46799999 144 91 51
-4.9790001 10.777 -0.46700001 212 107 16
-4.9829998 10.771 -0.47299999 136 102 77
-4.9980001 10.744 -0.465 165 92 39
-5.013 10.745 -0.472 129 65 17
-5.0089998 10.741 -0.472 84 44 9
-5.0050001 10.751 -0.48100001 242 167 112
-5.0149999 10.749 -0.47400001 109 104 108
-5.013 10.752 -0.46799999 167 108 50
-4.9920001 10.788 -0.461 178 120 70
-5.006 10.782 -0.465 171 113 63
-5.0110002 10.77 -0.45899999 168 101 56
-4.9790001 10.785 -0.47600001 226 127 44
-4.987 10.768 -0.49200001 216 123 53
-5 10.75 -0.48899999 224 154 92
-5.013 10.797 -0.493 102 72 62
-5.0190001 10.761 -0.48199999 178 89 21
-4.9860001 10.77 -0.46700001 232 128 31
-4.98 10.779 -0.461 196 154 104
-4.994 10.762 -0.461 204 101 22
-4.9920001 10.764 -0.46799999 248 153 63
-5.0019999 10.756 -0.461 234 156 81
-4.9819999 10.769 -0.484 255 192 82
-5.0009999 10.769 -0.456 149 69 0
-4.9819999 10.791 -0.46900001 154 90 44
-4.9980001 10.753 -0.49000001 186 109 53
-5.0159998 10.755 -0.477 88 48 22
-4.9840002 10.77 -0.47600001 247 150 43
-5.0120001 10.748 -0.46900001 159 102 57
-4.9949999 10.767 -0.45899999 194 128 78
-5.0050001 10.76 -0.456 228 135 76
-4.9790001 10.783 -0.47499999 130 80 31
-4.987 10.782 -0.45899999 152 89 38
-5.0149999 10.756 -0.47999999 166 109 56
-5.0019999 10.779 -0.46200001 198 128 77
-4.9990001 10.776 -0.45699999 202 123 54
0 0 0 1 0 0 0 1 0 0 0 1 0 0 0 0 0 127 1 0 0
