ply
format ascii 1.0
comment PCL generated
element vertex 121
property float x
property float y
property float z
property uchar red
property uchar green
property uchar blue
element camera 1
property float view_px
property float view_py
property float view_pz
property float x_axisx
property float x_axisy
property float x_axisz
property float y_axisx
property float y_axisy
property float y_axisz
property float z_axisx
property float z_axisy
property float z_axisz
property float focal
property float scalex
property float scaley
property float centerx
property float centery
property int viewportx
property int viewporty
property float k1
property float k2
end_header
-13.19 8.4890003 -0.98799998 136 87 44
-13.172 8.4910002 -0.97000003 105 57 11
-13.193 8.4899998 -0.98000002 117 66 19
-13.169 8.4879999 -0.977 162 99 32
-13.167 8.493 -0.96799999 177 85 8
-13.153 8.4910002 -0.95099998 233 137 53
-13.162 8.4829998 -0.93400002 218 163 107
-13.156 8.4849997 -0.93000001 145 94 91
-13.188 8.4870005 -0.98400003 179 133 73
-13.17 8.4840002 -0.95899999 217 138 61
-13.141 8.448 -1.028 166 101 43
-13.142 8.4499998 -1.022 158 113 84
-13.156 8.448 -1.026 235 189 130
-13.162 8.4499998 -1.0140001 237 164 96
-13.152 8.4630003 -1.0650001 157 84 31
-13.156 8.46 -1.054 206 117 37
-13.155 8.4560003 -1.064 134 83 52
-13.168 8.4799995 -0.98799998 194 114 55
-13.169 8.4870005 -0.96499997 155 79 17
-13.164 8.4530001 -1.05 208 121 44
-13.173 8.4510002 -1.0549999 199 116 46
-13.191 8.4840002 -0.97899997 202 117 53
-13.168 8.4829998 -0.96899998 139 77 18
-13.162 8.474 -1.01 224 143 88
-13.153 8.474 -0.99599999 160 106 60
-13.159 8.4770002 -1 166 121 98
-13.156 8.4759998 -1.045 148 96 57
-13.154 8.467 -1.0599999 137 81 44
-13.156 8.4759998 -1.053 133 81 44
-13.149 8.4879999 -0.94400001 224 173 126
-13.141 8.4799995 -0.94199997 248 187 106
-13.139 8.4860001 -0.93400002 225 167 104
-13.146 8.4870005 -0.95599997 157 85 27
-13.147 8.4890003 -0.958 119 73 24
-13.145 8.4829998 -0.95300001 205 143 66
-13.16 8.4870005 -0.97500002 172 91 26
-13.152 8.4540005 -1.028 150 97 65
-13.137 8.4519997 -1.025 162 109 65
-13.167 8.4560003 -1.069 173 118 77
-13.161 8.4560003 -1.082 181 110 66
-13.157 8.4680004 -1.076 128 70 32
-13.161 8.4659996 -1.0700001 157 90 38
-13.157 8.46 -1.0829999 161 100 55
-13.161 8.4549999 -1.052 161 115 91
-13.187 8.4799995 -0.98699999 146 90 43
-13.169 8.4820004 -0.96499997 176 110 50
-13.165 8.4759998 -0.97000003 143 102 50
-13.166 8.4799995 -0.96100003 125 72 18
-13.16 8.4709997 -1.003 180 102 38
-13.151 8.4650002 -0.986 167 116 73
-13.156 8.4689999 -0.98799998 178 116 57
-13.156 8.4610004 -0.98400003 158 96 35
-13.161 8.4770002 -1.003 176 110 50
-13.146 8.4680004 -1.0650001 156 75 19
-13.158 8.4680004 -1.068 137 81 44
-13.163 8.4779997 -1.048 217 131 54
-13.167 8.4820004 -0.97799999 148 92 33
-13.163 8.4809999 -0.98299998 167 122 101
-13.145 8.4729996 -0.96600002 150 89 32
-13.156 8.4619999 -0.98299998 173 100 32
-13.149 8.4860001 -0.96200001 246 177 100
-13.144 8.4849997 -0.93300003 221 164 111
-13.145 8.4829998 -0.93099999 229 167 90
-13.147 8.4729996 -0.93400002 163 99 38
-13.156 8.4759998 -0.92699999 247 189 141
-13.145 8.4799995 -0.93400002 194 132 71
-13.139 8.4770002 -0.94300002 145 119 104
-13.157 8.4729996 -0.949 177 97 28
-13.153 8.4580002 -1.091 180 120 68
-13.158 8.4569998 -1.085 121 72 40
-13.156 8.4510002 -1.034 186 142 117
-13.158 8.474 -0.99400002 182 120 61
-13.165 8.4689999 -0.99400002 215 151 90
-13.16 8.4750004 -0.98500001 193 137 80
-13.166 8.4790001 -0.977 195 130 72
-13.15 8.4750004 -0.96600002 108 28 0
-13.141 8.4779997 -0.94800001 166 115 62
-13.164 8.4840002 -0.95599997 125 81 42
-13.155 8.4709997 -0.93300003 245 157 86
-13.156 8.4790001 -0.93599999 144 92 32
-13.15 8.4689999 -0.94700003 138 92 68
-13.182 8.4589996 -1.052 177 97 36
-13.179 8.46 -1.048 128 76 37
-13.174 8.4580002 -1.0549999 171 119 80
-13.185 8.4630003 -1.049 122 66 19
-13.169 8.4840002 -1.0140001 182 113 48
-13.167 8.4720001 -1.031 147 94 50
-13.165 8.4510002 -1.023 248 166 84
-13.167 8.4580002 -1.064 232 140 65
-13.162 8.4589996 -1.044 140 91 61
-13.169 8.4729996 -0.99199998 127 73 29
-13.165 8.4750004 -0.98199999 213 170 115
-13.16 8.4729996 -0.97899997 226 147 78
-13.157 8.4799995 -0.94400001 184 136 88
-13.147 8.4729996 -0.94199997 169 107 48
-13.165 8.4709997 -1.054 122 69 29
-13.167 8.4720001 -1.0470001 146 93 53
-13.166 8.4720001 -1.038 159 106 64
-13.173 8.4759998 -1.027 165 119 67
-13.183 8.4729996 -1.033 110 90 66
-13.161 8.4560003 -1.017 175 130 107
-13.18 8.4680004 -1.0420001 159 110 78
-13.173 8.4650002 -1.027 124 70 23
-13.17 8.4589996 -1.034 187 105 32
-13.166 8.4759998 -0.995 237 157 96
-13.16 8.4799995 -0.95200002 215 165 104
-13.142 8.4770002 -0.95200002 126 72 72
-13.14 8.4689999 -0.94700003 228 149 80
-13.168 8.4639997 -1.023 119 68 25
-13.182 8.4720001 -1.04 205 122 46
-13.185 8.4680004 -1.04 248 159 67
-13.175 8.4680004 -1.028 209 161 112
-13.168 8.4560003 -1.061 149 96 56
-13.169 8.4809999 -1.008 115 67 29
-13.167 8.4639997 -1.03 135 82 40
-13.171 8.4750004 -1.013 199 126 58
-13.168 8.4720001 -1.023 139 86 44
-13.148 8.4720001 -0.949 115 73 51
-13.169 8.4729996 -1.006 151 106 51
-13.169 8.4729996 -1.021 231 156 88
-13.168 8.4720001 -1.0039999 191 123 62
0 0 0 1 0 0 0 1 0 0 0 1 0 0 0 0 0 121 1 0 0
