ply
format ascii 1.0
comment PCL generated
element vertex 1290
property float x
property float y
property float z
property uchar red
property uchar green
property uchar blue
element camera 0
property float view_px
property float view_py
property float view_pz
property float x_axisx
property float x_axisy
property float x_axisz
property float y_axisx
property float y_axisy
property float y_axisz
property float z_axisx
property float z_axisy
property float z_axisz
property float focal
property float scalex
property float scaley
property float centerx
property float centery
property int viewportx
property int viewporty
property float k1
property float k2
end_header
-11.022 4.4369998 -0.86400002 255 216 158
-11.005 4.3119998 -0.81900001 196 132 61
-11 4.309 -0.81199998 198 126 44
-11.008 4.3070002 -0.81 168 115 47
-10.994 4.3109999 -0.81300002 125 80 51
-10.99 4.3189998 -0.82499999 154 90 28
-11.234 4.3670001 -1.066 158 111 69
-11.223 4.3639998 -1.066 96 61 41
-11.235 4.362 -1.061 225 180 139
-11.268 4.4629998 -1.114 202 137 71
-11.266 4.4580002 -1.117 177 121 64
-11.267 4.4660001 -1.113 228 177 130
-11.269 4.4640002 -1.112 154 110 65
-11.257 4.4520001 -1.105 168 103 37
-11.268 4.4380002 -1.103 186 126 66
-11.263 4.4380002 -1.101 137 88 55
-11.257 4.447 -1.115 172 108 46
-11.258 4.4559999 -1.119 147 82 18
-11.241 4.4450002 -1.12 251 183 118
-11.248 4.4260001 -1.12 203 127 67
-11.248 4.4330001 -1.114 165 114 59
-10.951 4.3559999 -0.75199997 208 158 73
-10.952 4.3509998 -0.75400001 255 222 118
-10.973 4.368 -0.74900001 221 173 125
-11.204 4.4780002 -1.0829999 137 83 45
-11.205 4.4780002 -1.0779999 158 99 57
-11.19 4.4699998 -1.077 210 123 54
-11.201 4.4679999 -1.098 193 149 104
-10.979 4.4860001 -0.86199999 137 94 41
-10.977 4.4850001 -0.85299999 124 78 29
-10.978 4.4770002 -0.85399997 204 135 60
-10.98 4.4749999 -0.85100001 203 163 91
-10.98 4.4679999 -0.84600002 242 201 135
-10.984 4.4720001 -0.847 234 180 120
-10.999 4.4429998 -0.84100002 176 91 24
-11.255 4.454 -1.1160001 125 81 56
-11.221 4.3639998 -1.075 126 46 13
-11.225 4.3600001 -1.0700001 238 169 104
-11.226 4.3569999 -1.0829999 169 78 34
-11.157 4.336 -1.069 178 122 75
-11.094 4.2309999 -0.875 215 139 51
-11.1 4.2410002 -0.87400001 160 91 34
-11.035 4.4520001 -0.93400002 161 101 39
-11.042 4.4380002 -0.94499999 214 149 95
-11.037 4.4510002 -0.94400001 191 123 74
-11.193 4.3530002 -1.077 108 34 0
-11.184 4.3530002 -1.0779999 94 25 0
-11.184 4.3639998 -1.076 117 39 0
-11.166 4.3670001 -1.074 148 94 48
-11.156 4.3629999 -1.081 194 113 47
-11.169 4.3709998 -1.0880001 170 75 9
-11.159 4.362 -1.076 160 68 3
-11.151 4.336 -1.062 231 161 92
-11.143 4.3299999 -1.0779999 178 118 64
-11.135 4.329 -1.08 191 93 28
-11.138 4.329 -1.073 216 116 31
-11.122 4.3319998 -1.071 210 149 92
-11.089 4.2410002 -1.0700001 87 37 4
-11.082 4.243 -1.074 115 53 12
-11.04 4.2729998 -1.067 243 206 117
-11.025 4.427 -0.93099999 248 190 106
-11 4.414 -0.89399999 144 76 31
-10.999 4.408 -0.89499998 115 70 41
-10.993 4.336 -0.96700001 81 33 0
-10.991 4.3319998 -0.95599997 80 25 0
-11.089 4.2509999 -0.87599999 212 145 74
-11.098 4.2420001 -0.87300003 234 171 100
-11.051 4.2259998 -0.884 225 161 89
-11.045 4.2329998 -0.88999999 132 93 76
-11.047 4.2290001 -0.89200002 195 148 122
-11.069 4.2150002 -0.87900001 248 169 74
-11.067 4.2069998 -0.88999999 251 171 84
-11.068 4.2220001 -0.88700002 182 119 76
-10.999 4.3260002 -0.92299998 107 49 12
-11.007 4.335 -0.921 240 184 109
-10.999 4.3260002 -0.866 203 139 65
-11.003 4.3270001 -0.86299998 241 171 99
-11.099 4.204 -0.93199998 193 113 42
-11.106 4.2020001 -0.92400002 247 156 75
-11.029 4.421 -1.049 210 129 76
-11.034 4.4330001 -1.057 137 74 21
-11.024 4.4190001 -1.052 78 32 8
-10.997 4.3559999 -1.0319999 80 35 0
-10.99 4.349 -1.023 163 98 42
-10.995 4.3499999 -1.033 86 47 18
-10.997 4.3590002 -1.041 152 110 85
-10.975 4.335 -1.051 100 62 41
-10.978 4.3330002 -1.051 114 47 0
-10.97 4.3330002 -1.0599999 183 117 41
-11.03 4.289 -1.061 205 146 90
-11.026 4.289 -1.0599999 238 133 41
-11.015 4.329 -1.036 67 30 12
-11.013 4.329 -1.0369999 119 56 2
-11.017 4.3429999 -1.0369999 114 56 18
-11.014 4.3249998 -1.036 69 29 4
-11.028 4.3130002 -1.071 191 118 65
-11.014 4.3210001 -1.069 144 77 24
-11.037 4.3130002 -1.0650001 175 128 84
-11.017 4.309 -1.069 157 90 47
-11.01 4.3319998 -1.038 135 56 0
-11.002 4.3280001 -1.049 191 146 81
-10.996 4.3330002 -1.087 210 141 82
-11.002 4.3340001 -1.086 122 65 0
-10.986 4.3280001 -1.057 166 99 46
-10.987 4.3309999 -1.0880001 211 135 83
-11.007 4.3179998 -1.0549999 110 57 5
-11.002 4.3460002 -1.091 57 16 0
-11.009 4.3509998 -1.099 91 59 34
-11.008 4.3590002 -1.109 133 75 38
-11.021 4.349 -1.102 113 61 22
-10.991 4.3470001 -1.096 241 206 164
-11.018 4.3439999 -1.09 110 93 86
-11.005 4.3470001 -1.045 122 90 69
-11.008 4.355 -1.045 139 68 16
-10.997 4.3540001 -1.044 151 111 59
-11.005 4.3559999 -1.126 84 31 0
-10.993 4.302 -0.98699999 177 122 91
-10.99 4.3060002 -0.98900002 255 221 124
-10.993 4.3210001 -0.97000003 135 74 30
-10.987 4.3309999 -0.99800003 163 104 44
-10.989 4.3239999 -0.98699999 118 55 14
-10.98 4.3410001 -0.96899998 90 45 16
-10.997 4.3319998 -0.94700003 255 211 129
-10.992 4.336 -0.95200002 108 44 8
-11.099 4.211 -0.90200001 222 136 77
-11.075 4.2150002 -0.88099998 236 149 54
-11.089 4.2160001 -0.884 140 75 37
-11.074 4.2080002 -0.89200002 190 131 51
-11.071 4.223 -0.87800002 175 68 0
-11.074 4.223 -0.87300003 182 124 86
-10.964 4.329 -0.75 249 165 53
-10.968 4.3210001 -0.75 204 133 79
-10.97 4.3260002 -0.74599999 208 142 68
-10.956 4.3179998 -0.77200001 180 113 45
-10.959 4.3169999 -0.77700001 215 129 42
-10.945 4.329 -0.78200001 117 69 31
-10.955 4.3140001 -0.76800001 197 115 33
-10.963 4.3080001 -0.76999998 164 108 57
-10.965 4.3150001 -0.755 210 145 45
-11.001 4.3080001 -0.79799998 255 199 100
-11.085 4.217 -0.92400002 152 74 12
-11.067 4.211 -0.91900003 252 194 120
-11.069 4.2160001 -0.92299998 185 114 48
-11.066 4.2290001 -0.89700001 134 62 12
-10.98 4.3109999 -0.97000003 248 183 117
-10.984 4.3189998 -1.02 130 68 11
-10.968 4.3109999 -1.0369999 77 34 0
-10.969 4.3629999 -0.90200001 92 56 32
-10.971 4.3569999 -0.90600002 147 89 43
-10.969 4.355 -0.90600002 112 65 35
-10.973 4.3740001 -0.91000003 100 60 34
-10.958 4.3410001 -0.94499999 117 83 48
-10.965 4.3520002 -0.93400002 129 79 44
-10.972 4.309 -0.94099998 165 99 38
-10.98 4.3060002 -0.93900001 167 92 34
-10.981 4.3070002 -0.935 243 167 81
-10.974 4.3049998 -0.94499999 133 69 21
-10.994 4.3179998 -0.93000001 203 121 39
-10.969 4.3249998 -0.86199999 171 120 63
-10.986 4.3270001 -0.86699998 254 205 128
-10.975 4.3150001 -0.93000001 167 120 90
-10.976 4.3210001 -0.921 101 48 4
-10.978 4.3080001 -0.949 181 120 40
-10.98 4.3119998 -0.954 249 190 110
-10.984 4.3150001 -0.949 121 55 0
-10.985 4.3179998 -0.954 126 65 0
-10.995 4.3449998 -1.015 219 154 90
-11.005 4.3309999 -1.013 229 149 86
-11.014 4.342 -1.0140001 197 142 103
-11.006 4.316 -1.0039999 222 159 105
-11.02 4.3150001 -1.0190001 185 134 89
-11.018 4.3280001 -1.017 245 154 81
-11.013 4.3150001 -1.017 195 140 76
-11.008 4.3060002 -1.0140001 255 206 120
-11.017 4.322 -1.018 128 58 9
-11.009 4.2849998 -1.0089999 177 132 103
-11.002 4.277 -1.008 148 89 45
-11.005 4.289 -1.011 176 130 71
-10.999 4.2729998 -1.011 206 132 69
-11.01 4.3130002 -1.023 197 141 80
-11.004 4.2740002 -1.005 191 115 40
-11.008 4.2620001 -1.011 134 72 25
-10.994 4.2950001 -1.0089999 249 236 131
-11.002 4.2979999 -1.021 172 116 41
-11.252 4.4159999 -1.114 146 88 38
-11.268 4.4130001 -1.104 142 98 61
-11.274 4.4239998 -1.114 136 45 0
-11.272 4.4289999 -1.115 108 68 33
-11.23 4.3379998 -1.048 122 87 59
-11.222 4.3379998 -1.0470001 182 111 49
-11.074 4.2189999 -1.04 113 61 21
-11.086 4.2059999 -1.026 251 182 113
-11.06 4.2930002 -1.073 163 104 46
-11.008 4.323 -1.0089999 194 119 61
-11.005 4.3189998 -1.0039999 198 131 78
-11.004 4.2940001 -0.99599999 231 186 163
-11.024 4.3150001 -1.024 140 73 21
-10.986 4.4070001 -1.123 214 154 91
-11.003 4.2979999 -1.123 149 89 35
-10.982 4.3410001 -1.105 225 189 139
-10.988 4.3309999 -1.101 134 97 71
-10.995 4.3499999 -1.128 115 59 12
-10.956 4.3119998 -1.0779999 157 87 28
-10.95 4.3150001 -1.0779999 148 92 45
-10.959 4.3210001 -1.082 125 104 99
-10.948 4.323 -1.059 245 200 143
-10.944 4.3150001 -1.071 162 116 92
-10.953 4.329 -1.066 209 158 79
-10.949 4.3189998 -1.064 249 202 120
-10.995 4.303 -1.107 185 104 51
-10.987 4.3319998 -1.089 109 68 50
-11.063 4.2309999 -1.031 217 159 113
-11.058 4.2329998 -1.041 161 132 92
-11.054 4.2309999 -1.0420001 250 220 182
-11.058 4.2249999 -1.034 173 144 110
-11.054 4.2290001 -1.049 123 56 11
-11.062 4.2249999 -1.027 210 151 109
-11.059 4.2329998 -1.0140001 156 93 49
-11.056 4.2290001 -1.045 84 49 7
-11.059 4.2350001 -1.045 105 72 27
-10.966 4.3049998 -1.061 144 109 77
-10.955 4.3070002 -1.077 186 111 44
-10.963 4.3099999 -1.038 138 72 22
-10.969 4.3130002 -1.0369999 162 94 33
-11.077 4.2150002 -1.123 240 186 124
-11.083 4.2399998 -1.081 173 136 107
-11.073 4.2150002 -1.102 224 154 84
-11.076 4.224 -1.103 170 144 117
-11.058 4.23 -1.084 135 73 26
-11.028 4.2729998 -1.096 127 71 24
-11.026 4.2729998 -1.091 168 103 49
-11.018 4.2750001 -1.0930001 117 48 6
-11.06 4.2280002 -1.062 134 121 115
-11.084 4.2129998 -1.08 240 172 97
-11.086 4.2150002 -1.082 129 90 49
-11.086 4.2199998 -1.087 175 115 63
-11.086 4.2119999 -1.049 229 174 143
-11.078 4.2150002 -1.056 252 215 144
-11.107 4.2179999 -1.057 195 124 60
-11.108 4.2189999 -1.051 197 127 58
-11.08 4.2049999 -1.124 179 131 83
-11.076 4.2069998 -1.126 87 41 8
-11.092 4.2160001 -1.073 177 109 62
-11.085 4.223 -1.103 160 73 4
-11.095 4.211 -1.073 177 141 89
-11.013 4.3520002 -1.109 79 42 13
-11.011 4.3470001 -1.117 119 35 0
-11.009 4.309 -1.124 137 88 22
-11.01 4.3070002 -1.123 121 43 0
-11.026 4.3109999 -1.109 133 80 38
-11.009 4.3080001 -1.125 181 128 84
-11.053 4.289 -1.091 158 83 26
-11.078 4.2150002 -1.0700001 253 214 145
-11.078 4.2199998 -1.061 115 62 22
-11 4.4089999 -0.86799997 191 130 75
-11.002 4.4060001 -0.87300003 100 33 0
-10.995 4.3979998 -0.86500001 209 153 118
-10.994 4.388 -0.88499999 198 128 77
-10.989 4.395 -0.898 130 71 31
-10.943 4.3590002 -0.84500003 207 144 93
-10.944 4.3670001 -0.847 167 114 64
-11.093 4.2059999 -1.024 201 130 76
-11.08 4.2150002 -1.015 163 104 62
-11.103 4.23 -1.007 138 77 14
-11.101 4.2189999 -1.008 235 162 109
-11.103 4.217 -1.016 255 210 123
-11.1 4.244 -0.97399998 178 127 84
-11.109 4.2059999 -1.029 150 86 40
-11.103 4.2259998 -1.0190001 201 124 70
-11.098 4.237 -1.02 225 181 134
-11.103 4.2309999 -1.008 239 180 104
-11.099 4.2090001 -1.0089999 208 149 57
-11.099 4.21 -1.017 241 143 72
-11.119 4.3330002 -1.063 163 93 41
-11.025 4.3429999 -1.0319999 83 35 0
-11.028 4.4250002 -0.95499998 145 97 59
-11.028 4.4330001 -0.96700001 161 102 62
-11.035 4.3039999 -1.074 199 127 68
-11.04 4.2969999 -1.0829999 218 155 104
-11.038 4.302 -1.064 211 130 65
-10.991 4.4380002 -0.991 250 202 156
-10.995 4.4429998 -0.991 162 115 59
-10.996 4.4359999 -0.97399998 95 53 11
-11.001 4.4439998 -0.995 157 138 131
-11.026 4.427 -1.041 241 168 91
-11.016 4.4229999 -1.04 214 139 72
-11.024 4.4229999 -1.038 166 100 40
-11.013 4.4200001 -1.0319999 161 153 151
-11.012 4.349 -1.094 138 86 46
-11.029 4.3439999 -1.09 111 81 57
-11.012 4.3590002 -1.046 69 30 0
-11.009 4.4530001 -1.11 138 74 30
-10.976 4.4289999 -1.131 185 152 121
-11.019 4.348 -1.107 184 118 66
-11.032 4.3439999 -1.095 89 50 21
-10.961 4.4720001 -1.095 135 72 29
-10.961 4.4660001 -1.092 75 30 1
-10.96 4.4689999 -1.101 129 74 35
-10.981 4.4699998 -1.094 86 45 17
-11.007 4.4260001 -1.115 146 64 8
-10.959 4.4380002 -0.977 118 71 29
-10.957 4.441 -0.98100001 116 78 41
-10.96 4.4530001 -0.97600001 80 39 9
-11.003 4.4460001 -0.93099999 103 66 47
-10.996 4.447 -0.93300003 152 100 60
-11.009 4.4460001 -0.93400002 173 107 57
-10.998 4.4060001 -0.89099997 114 65 35
-11 4.402 -0.88 135 67 20
-11.232 4.3829999 -1.104 145 73 33
-11.231 4.3660002 -1.099 82 62 55
-11.252 4.3610001 -1.092 152 118 93
-11.215 4.4060001 -1.1160001 79 44 25
-11.213 4.3990002 -1.114 224 170 96
-11.189 4.3909998 -1.1 156 98 58
-11.179 4.3940001 -1.094 231 172 128
-11.18 4.3769999 -1.098 158 96 45
-10.979 4.4549999 -0.98199999 95 52 18
-10.98 4.4510002 -0.97799999 117 78 45
-10.987 4.4349999 -0.96600002 58 25 6
-10.991 4.4439998 -0.954 132 86 52
-10.98 4.4390001 -0.93400002 89 45 10
-10.953 4.3460002 -0.78100002 92 56 24
-10.961 4.349 -0.78100002 146 78 41
-10.96 4.3460002 -0.79299998 138 103 81
-10.965 4.3499999 -0.78600001 153 122 104
-10.96 4.3340001 -0.82800001 77 30 2
-10.961 4.3319998 -0.82599998 107 46 2
-10.981 4.3930001 -0.89999998 106 51 12
-10.987 4.3889999 -0.88499999 206 138 91
-10.975 4.3959999 -0.88800001 194 144 111
-10.953 4.3860002 -0.88200003 63 26 0
-10.951 4.3899999 -0.88300002 82 51 30
-10.974 4.395 -0.88499999 122 63 29
-10.963 4.3790002 -0.88099998 105 55 20
-10.95 4.3870001 -0.87900001 161 120 90
-10.983 4.474 -0.86699998 129 68 21
-10.974 4.48 -0.85699999 196 135 72
-10.967 4.4180002 -0.85799998 225 159 98
-10.969 4.4330001 -0.875 153 105 39
-10.968 4.4159999 -0.86199999 197 124 55
-10.982 4.4099998 -0.86299998 164 121 86
-10.98 4.4289999 -0.86000001 180 95 30
-10.972 4.4130001 -0.86199999 161 81 28
-10.968 4.4349999 -0.88499999 97 40 11
-10.968 4.4330001 -0.88999999 160 132 92
-10.984 4.4169998 -0.89600003 55 19 3
-10.988 4.4039998 -0.89399999 109 50 16
-10.984 4.421 -0.91000003 67 35 10
-10.99 4.4109998 -0.89300001 73 29 2
-10.948 4.335 -0.78299999 101 43 0
-10.951 4.336 -0.78399998 120 77 34
-11.012 4.4400001 -0.85299999 214 137 55
-11.011 4.3520002 -0.79500002 180 119 52
-11 4.3530002 -0.79500002 139 69 10
-11.011 4.3520002 -0.792 87 27 0
-11 4.4320002 -0.88200003 169 107 60
-10.999 4.4260001 -0.88200003 179 109 57
-10.997 4.4239998 -0.89700001 54 29 22
-10.972 4.4689999 -0.86400002 180 122 74
-10.994 4.4520001 -0.88300002 167 109 61
-10.981 4.4520001 -0.87300003 116 71 30
-11.01 4.3130002 -0.81699997 207 131 55
-10.99 4.3169999 -0.82099998 140 71 32
-11.245 4.3959999 -1.079 186 143 108
-11.241 4.3959999 -1.0779999 82 36 10
-11.247 4.3920002 -1.08 152 112 63
-11.26 4.3899999 -1.081 255 171 92
-11.245 4.402 -1.0779999 155 121 93
-11.242 4.3429999 -1.05 176 127 84
-11.233 4.348 -1.0549999 167 100 45
-11.234 4.3540001 -1.072 226 152 89
-11.234 4.3470001 -1.066 160 107 65
-11.23 4.3540001 -1.0700001 153 99 52
-11.226 4.3390002 -1.059 149 132 124
-11.233 4.3369999 -1.061 207 137 78
-11.266 4.4580002 -1.113 202 151 98
-11.26 4.4400001 -1.109 178 128 75
-11.276 4.4250002 -1.095 171 136 106
-10.981 4.3559999 -0.74900001 196 144 84
-10.984 4.3540001 -0.74900001 212 156 95
-10.984 4.3210001 -0.75599998 207 145 104
-10.991 4.342 -0.75400001 188 110 46
-10.979 4.3270001 -0.74800003 253 189 102
-10.972 4.3189998 -0.75 204 113 40
-10.981 4.3210001 -0.755 246 176 81
-10.974 4.3559999 -0.764 202 127 62
-10.976 4.3579998 -0.755 127 91 57
-10.979 4.3590002 -0.75300002 135 86 20
-10.961 4.3590002 -0.75099999 231 176 93
-10.953 4.3629999 -0.759 68 37 17
-10.963 4.3629999 -0.75700003 164 110 66
-10.964 4.336 -0.74900001 209 156 102
-10.966 4.3379998 -0.74599999 192 126 52
-10.972 4.348 -0.80500001 76 37 6
-10.983 4.348 -0.79900002 129 65 17
-10.977 4.3530002 -0.81699997 102 57 26
-10.974 4.362 -0.792 212 125 56
-11.204 4.473 -1.091 169 110 70
-11.207 4.473 -1.096 163 101 50
-10.986 4.4710002 -0.84399998 182 117 63
-10.994 4.4619999 -0.84200001 133 87 28
-10.995 4.4569998 -0.84100002 124 77 21
-10.999 4.461 -0.84200001 185 145 86
-11.006 4.4689999 -0.84799999 187 143 96
-11.229 4.4889998 -1.11 163 114 82
-11.163 4.355 -1.085 177 114 60
-11.192 4.348 -1.081 153 101 44
-11.2 4.348 -1.077 214 121 41
-11.222 4.3639998 -1.094 108 73 53
-11.23 4.3470001 -1.115 165 130 66
-11.119 4.2290001 -0.91399997 223 149 78
-11.11 4.2270002 -0.90200001 243 199 124
-11.117 4.2350001 -0.91500002 222 184 87
-11.112 4.2309999 -0.917 232 144 80
-11.093 4.2350001 -0.87400001 251 206 103
-11.022 4.4460001 -0.93199998 119 65 31
-11.029 4.4450002 -0.92699999 235 179 128
-11.03 4.448 -0.93199998 194 133 76
-11.019 4.4549999 -0.85500002 180 109 63
-11.017 4.4549999 -0.866 184 94 18
-11.038 4.4390001 -0.93699998 123 85 62
-11.037 4.447 -0.93699998 133 101 63
-11.035 4.448 -0.93199998 161 107 61
-11.025 4.4510002 -0.93699998 146 119 110
-11.03 4.4520001 -0.94 190 127 76
-11.018 4.454 -0.94300002 164 100 52
-11.027 4.4530001 -0.94700003 84 49 29
-11.042 4.4380002 -0.95499998 207 146 92
-11.196 4.3720002 -1.073 161 107 61
-11.134 4.3400002 -1.066 106 68 47
-11.207 4.473 -1.074 246 189 112
-11.191 4.467 -1.072 188 114 53
-11.076 4.2509999 -1.0650001 123 51 11
-11.075 4.2490001 -1.057 255 226 158
-11.071 4.2480001 -1.0650001 134 81 27
-11.021 4.4380002 -0.93000001 106 42 7
-11.009 4.4380002 -0.926 143 64 7
-11.014 4.4349999 -0.93400002 131 59 1
-10.992 4.3280001 -0.96499997 209 165 92
-10.994 4.3239999 -0.95200002 181 114 44
-11.005 4.336 -0.93000001 169 95 30
-10.97 4.3569999 -0.93000001 143 94 53
-10.969 4.348 -0.92500001 125 71 43
-10.977 4.3600001 -0.94199997 179 110 55
-10.997 4.3280001 -0.85900003 232 177 87
-11.003 4.3390002 -0.93099999 187 110 40
-10.995 4.329 -0.917 189 116 47
-11.103 4.2270002 -0.88999999 216 137 62
-11.104 4.2319999 -0.88999999 250 195 113
-11.002 4.3299999 -0.86000001 224 141 65
-11.115 4.2129998 -0.92900002 148 64 20
-11.109 4.2069998 -0.93199998 205 129 77
-11.008 4.362 -1.036 112 61 18
-10.974 4.3410001 -1.0470001 145 79 19
-11.015 4.3670001 -1.043 124 81 39
-11.013 4.3629999 -1.035 206 162 127
-11.016 4.3629999 -1.0470001 96 55 23
-11.032 4.3590002 -1.039 114 56 19
-11.03 4.3579998 -1.0319999 95 45 12
-11.031 4.427 -1.043 238 142 66
-11.029 4.4229999 -1.035 138 134 133
-11 4.473 -1.054 108 63 34
-11.001 4.4660001 -1.04 180 134 101
-11.007 4.4640002 -1.046 156 94 43
-10.989 4.3340001 -1.043 148 113 59
-10.993 4.3449998 -1.095 207 174 131
-10.993 4.3429999 -1.095 195 102 33
-11.023 4.329 -1.02 118 80 44
-11.015 4.3439999 -1.017 161 112 71
-11.042 4.342 -1.039 115 32 0
-11.031 4.3130002 -1.071 176 84 11
-11.004 4.3239999 -1.0599999 179 114 50
-11.002 4.3179998 -1.076 191 90 18
-10.988 4.3239999 -1.059 228 127 55
-10.993 4.3590002 -1.122 145 101 66
-10.989 4.3509998 -1.122 86 46 11
-10.991 4.3569999 -1.12 77 26 0
-10.996 4.3530002 -1.125 111 57 23
-11.013 4.414 -1.048 230 137 70
-10.98 4.3179998 -0.99199998 124 84 49
-10.987 4.3400002 -1.015 205 132 79
-10.992 4.3270001 -0.98699999 171 110 43
-10.991 4.3249998 -0.98299998 187 127 57
-11.096 4.211 -0.90100002 222 136 75
-10.966 4.3080001 -0.75700003 255 203 133
-10.974 4.309 -0.76300001 254 181 79
-10.965 4.316 -0.787 250 156 69
-10.959 4.3249998 -0.79799998 113 50 7
-10.968 4.316 -0.79100001 236 141 47
-10.962 4.322 -0.78500003 196 130 69
-10.982 4.3130002 -0.76499999 211 146 66
-10.983 4.3119998 -0.78600001 231 121 36
-10.967 4.3099999 -0.77600002 184 136 88
-10.995 4.3099999 -0.79699999 255 173 79
-11.079 4.2160001 -0.87599999 248 165 69
-11.083 4.2189999 -0.87599999 246 181 81
-11.114 4.2160001 -0.93400002 197 142 78
-11.09 4.2150002 -0.92900002 165 90 35
-11.086 4.2129998 -0.95300001 208 136 64
-11.088 4.224 -0.94499999 187 155 117
-11.092 4.217 -0.89300001 230 141 61
-10.977 4.2989998 -0.958 153 91 44
-10.99 4.3000002 -1.01 255 206 130
-10.99 4.309 -1.027 253 180 127
-10.986 4.3080001 -0.991 214 140 77
-10.982 4.3130002 -0.99299997 161 85 33
-10.982 4.3239999 -1.024 140 79 32
-10.979 4.3179998 -1.033 129 84 43
-11.003 4.309 -0.99199998 220 175 84
-11.002 4.3070002 -0.99400002 140 78 27
-10.962 4.342 -0.90100002 128 72 35
-10.969 4.3390002 -0.90200001 176 124 76
-10.973 4.3569999 -0.90700001 91 44 16
-10.975 4.302 -0.949 137 76 31
-10.964 4.3239999 -0.93300003 134 64 12
-10.957 4.3400002 -0.92900002 172 111 64
-10.956 4.335 -0.935 132 89 55
-10.961 4.335 -0.93199998 175 143 96
-10.996 4.3280001 -0.85699999 156 89 19
-11.008 4.3189998 -0.81699997 226 151 84
-10.993 4.329 -0.83099997 92 41 10
-10.996 4.3200002 -0.93000001 152 95 52
-10.969 4.3249998 -0.85900003 83 40 6
-10.98 4.3070002 -0.935 175 116 72
-10.974 4.3249998 -0.90700001 119 52 9
-10.98 4.3109999 -0.94700003 156 107 49
-10.996 4.336 -1.015 245 175 106
-10.996 4.349 -1.0190001 140 107 76
-11 4.3260002 -0.99900001 146 79 36
-11.006 4.2930002 -1.007 252 198 126
-11.026 4.27 -1.0700001 211 164 82
-11.022 4.2709999 -1.072 104 53 22
-11.007 4.2740002 -1.0650001 178 94 22
-11.033 4.2719998 -1.081 192 152 100
-11.03 4.2719998 -1.081 220 127 50
-11.019 4.2810001 -1.064 121 65 18
-11.021 4.2919998 -1.061 126 90 28
-11.013 4.296 -1.058 218 171 103
-11.002 4.2659998 -1.011 218 150 77
-10.997 4.2690001 -1.01 211 141 72
-10.997 4.3070002 -1.034 168 103 49
-11.006 4.3099999 -1.043 94 56 33
-11.239 4.3520002 -1.077 176 84 33
-11.231 4.329 -1.0549999 203 153 116
-11.057 4.2930002 -1.073 113 71 23
-11.06 4.289 -1.073 194 95 2
-11.012 4.3319998 -1.015 157 100 55
-11.085 4.2550001 -1.0140001 147 115 66
-11.077 4.25 -1.022 122 75 23
-11.084 4.2529998 -1.023 200 130 71
-11.034 4.3010001 -1.063 171 114 59
-10.951 4.4510002 -1.0369999 217 118 33
-10.947 4.434 -1.035 108 62 38
-10.952 4.448 -1.049 166 114 75
-10.997 4.2989998 -1.13 172 114 76
-11.004 4.3060002 -1.125 141 87 53
-11.021 4.283 -1.108 134 81 37
-11.015 4.2870002 -1.101 60 24 2
-10.961 4.3080001 -1.075 226 167 123
-10.965 4.3099999 -1.082 71 26 3
-11.065 4.2989998 -1.0829999 159 86 31
-10.96 4.3319998 -1.048 250 199 146
-10.96 4.3319998 -1.051 216 164 106
-10.962 4.3130002 -1.045 255 220 155
-10.993 4.3319998 -1.0880001 245 207 162
-10.985 4.3189998 -1.082 172 112 60
-10.973 4.3169999 -1.081 212 119 52
-10.971 4.3169999 -1.075 163 108 54
-10.971 4.3099999 -1.074 240 157 89
-10.983 4.3239999 -1.092 132 93 62
-10.986 4.3319998 -1.0930001 150 65 10
-11.074 4.2410002 -1.025 249 157 72
-11.064 4.2389998 -1.0470001 209 176 125
-11.065 4.2389998 -1.051 141 93 53
-11.061 4.2360001 -1.049 133 76 33
-10.949 4.3169999 -1.073 252 218 147
-10.953 4.309 -1.0650001 240 177 126
-11.043 4.2919998 -1.096 154 101 51
-11.08 4.21 -1.122 134 73 16
-11.076 4.2140002 -1.126 131 78 44
-11.034 4.2810001 -1.066 201 157 70
-11.034 4.2909999 -1.0650001 176 117 59
-11.018 4.2729998 -1.0829999 192 139 73
-11.01 4.277 -1.079 188 107 41
-11.013 4.283 -1.091 214 171 116
-11.008 4.2849998 -1.0779999 152 75 33
-11.079 4.2270002 -1.096 132 83 53
-11.07 4.2449999 -1.074 154 101 51
-11.062 4.2399998 -1.064 103 63 28
-11.071 4.244 -1.081 85 38 10
-11.074 4.2140002 -1.1059999 223 153 93
-11.071 4.2199998 -1.099 182 111 55
-11.026 4.277 -1.103 165 111 67
-11.033 4.2709999 -1.0880001 200 130 79
-11.056 4.2280002 -1.0549999 116 81 41
-11.09 4.2090001 -1.056 129 76 45
-11.094 4.2059999 -1.059 144 91 51
-11.103 4.2199998 -1.046 161 113 77
-11.108 4.2150002 -1.066 105 86 82
-11.101 4.224 -1.057 134 42 0
-11.092 4.2259998 -1.051 96 47 6
-11.089 4.2280002 -1.056 240 208 151
-11.015 4.3060002 -1.114 144 72 22
-11.011 4.3390002 -1.117 141 70 26
-11.01 4.335 -0.80000001 187 132 32
-11.009 4.3299999 -0.81099999 168 108 35
-11.009 4.3470001 -0.90499997 249 201 125
-11.008 4.3530002 -0.90399998 198 144 80
-10.972 4.4120002 -0.87400001 118 43 3
-10.982 4.3579998 -0.89499998 122 57 15
-10.984 4.362 -0.889 177 110 65
-11.01 4.428 -0.86299998 194 131 51
-10.997 4.421 -0.866 184 129 75
-10.952 4.3829999 -0.87800002 97 51 17
-10.946 4.3759999 -0.87199998 97 52 19
-10.954 4.3470001 -0.85299999 172 123 90
-10.95 4.3569999 -0.847 127 80 38
-10.952 4.355 -0.85299999 184 101 31
-10.948 4.3460002 -0.86299998 178 129 96
-10.963 4.3390002 -0.86400002 129 77 38
-10.952 4.336 -0.87400001 120 72 32
-10.951 4.3439999 -0.87099999 102 61 31
-10.931 4.3559999 -0.87599999 133 87 54
-10.972 4.3309999 -0.88 118 54 8
-11.076 4.2270002 -0.92199999 151 89 50
-11.086 4.2329998 -0.92900002 117 74 40
-11.095 4.2010002 -0.99900001 170 105 23
-11.096 4.2030001 -1.005 184 164 95
-11.098 4.2069998 -1.005 199 132 43
-11.083 4.191 -1.005 198 108 45
-11.094 4.2189999 -0.98799998 239 167 95
-11.103 4.2199998 -0.97799999 166 92 21
-11.108 4.2160001 -0.96399999 218 139 73
-11.108 4.2210002 -0.96700001 131 86 45
-11.095 4.204 -1.008 187 125 76
-11.083 4.1950002 -1.008 180 95 38
-11.101 4.243 -0.96700001 125 82 48
-11.098 4.2069998 -1.01 212 126 49
-11.045 4.3470001 -1.0420001 118 37 0
-11.028 4.4260001 -0.94800001 255 194 104
-11.007 4.434 -0.95599997 95 43 6
-11.007 4.4369998 -0.963 240 185 129
-11 4.4330001 -0.96399999 167 134 115
-11.017 4.4380002 -0.958 119 76 41
-10.992 4.4390001 -0.97500002 219 179 144
-10.976 4.4289999 -1.128 178 144 117
-10.979 4.4000001 -1.1289999 154 98 49
-10.969 4.4089999 -1.128 114 58 9
-11.021 4.3470001 -1.104 134 66 3
-11.028 4.336 -1.099 190 108 48
-11.031 4.3379998 -1.092 248 153 73
-10.98 4.4349999 -1.103 124 75 43
-10.982 4.4629998 -1.099 102 55 9
-10.968 4.4660001 -1.073 160 98 59
-10.967 4.4619999 -1.089 191 123 74
-11.005 4.4720001 -1.068 182 96 23
-10.998 4.427 -1.109 187 132 76
-10.949 4.4289999 -1.048 127 71 24
-10.947 4.427 -1.029 94 55 12
-10.95 4.4289999 -1.027 89 50 9
-10.973 4.448 -0.972 85 44 14
-10.972 4.441 -1 132 88 41
-11.001 4.415 -0.88800001 157 105 65
-11.219 4.3899999 -1.107 246 149 80
-11.212 4.3870001 -1.1059999 82 50 29
-11.231 4.3920002 -1.112 173 129 104
-11.222 4.4050002 -1.117 81 48 31
-11.222 4.4169998 -1.119 183 125 52
-11.182 4.3829999 -1.092 119 61 23
-11.187 4.3959999 -1.097 183 104 45
-11.179 4.3979998 -1.092 76 41 19
-11.196 4.408 -1.108 155 81 32
-11.198 4.4660001 -1.075 255 211 136
-11.219 4.4650002 -1.077 157 96 51
-10.999 4.448 -0.93800002 222 174 128
-11.003 4.4489999 -0.94300002 84 38 5
-10.976 4.4510002 -0.98400003 181 124 71
-10.983 4.4530001 -0.98500001 161 141 132
-10.981 4.4380002 -0.921 156 123 69
-11.001 4.4310002 -0.926 165 120 87
-10.993 4.427 -0.91100001 115 75 50
-10.955 4.323 -0.76899999 137 76 31
-10.947 4.3319998 -0.773 153 97 60
-10.967 4.3400002 -0.81300002 100 58 20
-10.955 4.3410001 -0.801 168 100 65
-11.002 4.4510002 -0.83999997 83 51 0
-10.997 4.4499998 -0.83899999 144 114 78
-10.985 4.3839998 -0.85500002 159 92 49
-10.974 4.3860002 -0.84899998 133 78 39
-10.974 4.3769999 -0.84799999 185 137 91
-10.979 4.3829999 -0.884 110 46 11
-10.976 4.3610001 -0.89499998 141 79 38
-10.975 4.3649998 -0.89099997 133 79 45
-10.975 4.3590002 -0.90200001 108 52 15
-10.955 4.3839998 -0.875 90 34 1
-10.965 4.3759999 -0.884 91 47 18
-10.957 4.3730001 -0.87800002 96 46 11
-10.969 4.3649998 -0.88700002 65 24 2
-10.968 4.368 -0.884 83 42 20
-10.983 4.4250002 -0.89099997 156 106 73
-10.972 4.4299998 -0.86799997 165 118 64
-10.982 4.4380002 -0.86400002 216 131 67
-10.994 4.421 -0.89999998 214 150 104
-10.976 4.4489999 -0.97299999 105 66 37
-11.004 4.4400001 -0.84899998 182 115 63
-11.018 4.447 -0.85500002 250 178 93
-10.999 4.4499998 -0.98100001 186 151 123
-10.994 4.4499998 -0.98799998 117 62 21
-10.971 4.4749999 -0.866 129 91 72
-10.975 4.454 -0.866 121 84 65
-10.979 4.4530001 -0.85600001 135 107 93
-11.26 4.3769999 -1.082 184 125 83
-11.25 4.3860002 -1.081 65 21 0
-11.253 4.3649998 -1.074 218 144 79
-11.265 4.3850002 -1.082 166 83 29
-11.232 4.3759999 -1.076 140 96 49
-11.23 4.401 -1.086 123 85 64
-11.218 4.4050002 -1.082 114 71 39
-11.217 4.408 -1.077 101 59 35
-11.231 4.3899999 -1.0829999 135 57 8
-11.218 4.3940001 -1.092 168 131 102
-11.233 4.4130001 -1.117 119 64 23
-11.237 4.4510002 -1.11 106 66 41
-11.255 4.4390001 -1.099 204 143 80
-11.243 4.4330001 -1.096 207 162 121
-11.262 4.4029999 -1.087 120 76 47
-11.242 4.4000001 -1.11 159 72 19
-11.235 4.3600001 -1.062 237 175 134
-11.246 4.3559999 -1.0650001 194 141 101
-11.246 4.3410001 -1.0549999 183 121 48
-11.225 4.3499999 -1.057 183 112 66
-11.223 4.348 -1.061 241 157 71
-11.222 4.3400002 -1.0599999 220 146 81
-11.256 4.4590001 -1.119 206 145 82
-11.228 4.461 -1.107 126 82 55
-11.222 4.4390001 -1.107 82 45 19
-11.224 4.4629998 -1.113 158 79 23
-11.246 4.4450002 -1.112 245 185 122
-11.262 4.4629998 -1.114 217 154 111
-11.262 4.461 -1.1109999 99 54 25
-11.26 4.4650002 -1.112 206 138 73
-11.254 4.4559999 -1.1109999 187 121 61
-11.259 4.448 -1.1059999 211 143 80
-11.277 4.4190001 -1.096 179 122 77
-11.273 4.4169998 -1.09 155 92 38
-11.27 4.4239998 -1.109 158 118 82
-11.267 4.3839998 -1.09 179 117 78
-10.989 4.3590002 -0.75099999 194 134 84
-10.99 4.348 -0.75099999 233 171 114
-10.996 4.3530002 -0.75300002 203 151 101
-10.995 4.3590002 -0.75199997 156 98 52
-11.01 4.3130002 -0.801 245 178 91
-10.994 4.348 -0.755 137 81 30
-10.966 4.3649998 -0.75400001 139 113 96
-10.974 4.3610001 -0.75 98 48 0
-10.96 4.3520002 -0.74900001 193 127 69
-10.953 4.3530002 -0.75199997 196 149 57
-10.952 4.3470001 -0.75400001 130 60 0
-10.988 4.349 -0.80500001 250 190 118
-10.983 4.3610001 -0.78899997 211 149 90
-11.003 4.3390002 -0.81300002 201 130 74
-10.985 4.3460002 -0.78200001 119 49 13
-10.996 4.3470001 -0.78100002 150 74 14
-10.978 4.3460002 -0.77899998 115 72 38
-11.208 4.4759998 -1.09 101 52 19
-11.217 4.4790001 -1.1 219 143 94
-11.005 4.4749999 -0.852 176 122 76
-11.006 4.4749999 -0.85799998 173 121 71
-11.002 4.4770002 -0.86199999 152 105 61
-11.002 4.473 -0.85100001 198 156 116
-11.008 4.4590001 -0.84600002 186 152 107
-11.006 4.4530001 -0.84100002 93 58 18
-10.999 4.467 -0.847 208 140 77
-11.205 4.4109998 -1.11 183 110 41
-11.21 4.421 -1.1 233 166 98
-11.205 4.401 -1.105 172 108 47
-11.207 4.3660002 -1.091 120 89 71
-11.176 4.3579998 -1.084 186 118 43
-11.162 4.3600001 -1.0779999 85 43 19
-11.175 4.368 -1.099 74 36 15
-11.154 4.3379998 -1.079 192 111 46
-11.146 4.342 -1.0779999 197 116 51
-11.22 4.3709998 -1.0930001 89 54 34
-11.198 4.3649998 -1.101 121 49 0
-11.195 4.3629999 -1.097 134 88 36
-11.234 4.3559999 -1.103 121 99 76
-11.11 4.2319999 -0.90399998 255 219 148
-11.088 4.237 -0.87300003 255 196 100
-11.088 4.2309999 -0.87099999 174 117 64
-11.089 4.2280002 -0.87199998 186 129 60
-11.08 4.2399998 -0.87099999 181 129 82
-11.012 4.447 -0.87099999 201 104 25
-11.008 4.4489999 -0.875 111 84 67
-11.001 4.4489999 -0.88599998 134 101 86
-11.014 4.441 -0.93000001 141 93 47
-11.038 4.4419999 -0.94499999 135 78 0
-11.019 4.4499998 -0.93800002 155 118 76
-11.042 4.434 -0.95300001 244 185 117
-11.041 4.434 -1.051 227 174 124
-11.041 4.4380002 -1.053 245 157 94
-11.209 4.3660002 -1.084 89 70 63
-11.198 4.3649998 -1.079 104 72 49
-11.194 4.3649998 -1.077 250 155 73
-11.182 4.3769999 -1.092 140 79 34
-11.135 4.3309999 -1.075 217 156 99
-11.219 4.4809999 -1.102 112 50 9
-11.221 4.474 -1.115 166 106 44
-11.222 4.4819999 -1.124 105 64 44
-11.225 4.4879999 -1.11 129 86 51
-11.228 4.4879999 -1.114 132 81 24
-11.235 4.4809999 -1.1059999 157 100 57
-11.216 4.4720001 -1.076 191 138 88
-11.085 4.244 -1.067 135 88 42
-11.068 4.2410002 -1.056 112 71 17
-11.019 4.441 -0.93099999 88 31 1
-10.974 4.3670001 -0.93000001 124 75 34
-10.984 4.3460002 -0.92400002 194 131 80
-10.972 4.3559999 -0.93300003 83 31 0
-10.991 4.3470001 -0.90899998 124 86 63
-10.991 4.3410001 -0.866 164 127 98
-10.994 4.3439999 -0.88700002 174 137 92
-11.081 4.2329998 -0.95300001 90 49 29
-11.088 4.2389998 -0.95999998 128 89 50
-11.086 4.2459998 -0.96600002 221 182 149
-11.088 4.2329998 -0.94499999 186 154 116
-11.081 4.2319999 -0.92299998 135 89 55
-11.094 4.223 -0.87900001 253 160 56
-11.001 4.3299999 -0.92199999 216 148 73
-11.107 4.2290001 -0.93599999 198 151 81
-11.105 4.2309999 -0.92000002 217 144 75
-11.102 4.2490001 -0.93099999 204 149 84
-11.104 4.2129998 -0.93400002 153 115 79
-11.004 4.3039999 -1.0470001 250 207 152
-11.007 4.2789998 -1.069 224 125 40
-10.971 4.3070002 -1.051 224 164 112
-10.961 4.3330002 -1.054 161 96 54
-10.957 4.3280001 -1.058 164 103 36
-10.972 4.3369999 -1.045 212 140 68
-11.001 4.4169998 -1.063 101 49 10
-10.996 4.4169998 -1.068 147 88 30
-11.003 4.414 -1.058 213 116 35
-10.99 4.4159999 -1.064 208 116 39
-11.029 4.428 -1.044 116 58 10
-11.02 4.4299998 -1.0470001 244 175 100
-11.028 4.4200001 -1.035 213 144 75
-11.011 4.448 -1.079 213 122 52
-11.006 4.4460001 -1.069 131 87 60
-11 4.4499998 -1.069 115 63 26
-10.988 4.3239999 -0.977 136 69 24
-10.989 4.3239999 -0.97899997 144 84 47
-10.988 4.323 -0.98299998 134 72 31
-10.984 4.3379998 -1.04 114 71 29
-10.991 4.329 -1.049 147 79 30
-11.084 4.2490001 -1.0190001 255 178 106
-11.085 4.2459998 -1.018 222 180 138
-11.037 4.316 -1.072 151 112 73
-11.029 4.3039999 -1.081 203 127 78
-11.027 4.3210001 -1.089 172 84 21
-11.037 4.3130002 -1.067 205 128 72
-11.012 4.3499999 -1.039 189 113 55
-11.017 4.3499999 -1.0369999 152 90 43
-11.006 4.3559999 -1.1160001 136 92 55
-11.002 4.3559999 -1.123 93 45 9
-10.998 4.3600001 -1.117 150 60 8
-11.001 4.4099998 -1.052 156 91 33
-10.993 4.4120002 -1.041 96 71 30
-11.022 4.427 -1.058 147 63 0
-11.017 4.4229999 -1.0650001 114 58 23
-10.985 4.3449998 -0.94499999 244 176 93
-10.999 4.322 -0.93900001 254 171 93
-11.093 4.2119999 -0.89700001 225 136 44
-11.075 4.243 -0.90499997 106 56 21
-11.052 4.2319999 -0.88999999 188 121 53
-11.073 4.2249999 -0.87699997 152 100 63
-11.083 4.2210002 -0.87599999 199 122 54
-10.958 4.3099999 -0.76499999 255 182 93
-10.993 4.342 -0.764 176 108 33
-10.978 4.322 -0.75300002 230 145 78
-10.976 4.316 -0.75800002 254 155 51
-10.979 4.3140001 -0.77100003 247 183 112
-10.988 4.322 -0.77899998 198 134 73
-10.983 4.3200002 -0.77700001 215 114 36
-10.99 4.3130002 -0.80199999 144 95 65
-10.97 4.3130002 -0.78799999 125 55 21
-11.079 4.2160001 -0.87699997 246 173 81
-11.097 4.2410002 -0.958 164 112 73
-11.097 4.2410002 -0.96200001 147 91 40
-11.097 4.21 -0.93400002 193 133 60
-11.071 4.2270002 -0.91500002 248 213 173
-10.981 4.3150001 -0.96499997 138 68 0
-10.977 4.3119998 -1.035 185 153 96
-10.989 4.2979999 -1.006 192 145 67
-10.99 4.2859998 -1.005 216 155 101
-10.987 4.289 -0.99599999 134 111 105
-10.996 4.2849998 -0.99800003 238 185 105
-10.985 4.3099999 -1 200 109 39
-10.959 4.3340001 -0.94 248 184 123
-10.966 4.3369999 -0.90200001 161 127 79
-10.969 4.3319998 -0.89300001 141 94 50
-11.001 4.3150001 -0.81800002 166 97 30
-11.001 4.3429999 -0.84399998 169 105 57
-10.997 4.3400002 -0.83399999 153 110 65
-10.994 4.322 -0.92699999 225 136 54
-10.965 4.3449998 -0.884 123 88 58
-10.985 4.3330002 -0.898 243 202 150
-10.985 4.3379998 -0.89099997 140 70 18
-10.98 4.3260002 -0.89399999 199 146 94
-10.988 4.3390002 -0.89499998 136 64 6
-10.981 4.309 -0.93199998 248 186 73
-10.981 4.3099999 -0.93099999 209 139 67
-10.983 4.316 -0.92400002 184 120 49
-10.973 4.3270001 -0.89700001 91 47 10
-10.98 4.3260002 -0.90600002 218 163 109
-10.994 4.3210001 -0.95599997 212 158 84
-11.003 4.3520002 -1.021 194 175 169
-11.001 4.3169999 -0.98900002 216 172 127
-11.004 4.2940001 -1 246 188 138
-10.991 4.283 -1.005 216 150 89
-11.026 4.2750001 -1.0650001 209 148 85
-11.031 4.2740002 -1.074 201 133 68
-11.241 4.3369999 -1.057 148 94 56
-11.24 4.336 -1.059 239 152 83
-11.237 4.3340001 -1.062 162 115 73
-11.24 4.3410001 -1.066 213 135 69
-11.241 4.3559999 -1.092 167 76 5
-11.245 4.349 -1.072 164 117 73
-11.234 4.3400002 -1.063 196 143 99
-11.06 4.296 -1.0829999 193 104 38
-11.061 4.2849998 -1.081 195 127 62
-11.051 4.2740002 -1.091 182 112 52
-11.098 4.2470002 -0.972 158 86 28
-10.954 4.323 -1.077 253 213 128
-10.962 4.3270001 -1.063 219 140 65
-10.961 4.3210001 -1.069 187 134 92
-10.969 4.4120002 -1.138 112 71 43
-10.997 4.3610001 -1.115 91 37 3
-10.993 4.3590002 -1.112 46 18 0
-11.007 4.296 -1.108 169 87 31
-10.992 4.3010001 -1.091 190 108 52
-11.012 4.3010001 -1.091 165 88 46
-11.012 4.2969999 -1.123 128 75 31
-11.061 4.2979999 -1.085 144 76 31
-11.013 4.342 -1.092 120 58 21
-11.012 4.3200002 -1.072 150 85 31
-11.014 4.3210001 -1.077 117 49 0
-10.952 4.3260002 -1.061 197 140 73
-10.958 4.3280001 -1.054 229 163 89
-10.992 4.342 -1.115 117 63 27
-10.994 4.342 -1.115 184 102 55
-10.996 4.3140001 -1.074 187 103 33
-10.964 4.309 -1.073 221 143 71
-10.967 4.3109999 -1.085 133 56 4
-10.988 4.3150001 -1.094 209 137 87
-10.988 4.3140001 -1.091 181 111 52
-11.086 4.244 -1.053 140 87 45
-11.069 4.237 -1.018 175 141 70
-11.078 4.25 -1.026 92 49 7
-11.07 4.2340002 -1.041 151 94 39
-11.078 4.23 -1.04 236 188 116
-11.093 4.2399998 -1.01 128 43 0
-11.094 4.2360001 -1.006 103 50 0
-10.946 4.3119998 -1.068 143 118 113
-10.952 4.3109999 -1.075 184 101 31
-11.035 4.3000002 -1.086 186 115 61
-11.025 4.3130002 -1.098 137 75 28
-11.076 4.2140002 -1.119 125 72 40
-11.041 4.277 -1.0700001 196 102 6
-11.039 4.289 -1.069 149 89 29
-11.027 4.2859998 -1.063 214 174 113
-11.013 4.2750001 -1.075 158 105 55
-11.017 4.2800002 -1.0930001 193 96 27
-11.004 4.3000002 -1.084 183 125 77
-11.062 4.2309999 -1.085 130 88 38
-11.069 4.2210002 -1.094 107 57 30
-11.076 4.2150002 -1.1109999 249 189 117
-11.041 4.277 -1.108 218 150 85
-11.024 4.2740002 -1.0930001 167 85 25
-11.057 4.2360001 -1.058 144 107 78
-11.082 4.23 -1.03 125 48 0
-11.087 4.2290001 -1.036 205 152 112
-11.097 4.204 -1.059 149 75 14
-11.082 4.2150002 -1.0470001 101 58 5
-11.097 4.2090001 -1.022 200 123 45
-11.115 4.2129998 -1.0319999 201 106 38
-11.107 4.2020001 -1.049 110 46 2
-11.104 4.2020001 -1.0549999 105 40 0
-11.109 4.2020001 -1.05 133 61 11
-11.108 4.2179999 -1.0700001 210 143 75
-11.102 4.2210002 -1.052 130 83 53
-11.009 4.3109999 -1.119 126 64 25
-11.006 4.3319998 -1.1160001 59 23 1
-11.028 4.322 -1.098 151 69 11
-11.024 4.322 -1.104 186 152 107
-11.026 4.323 -1.092 188 108 45
-11.051 4.2870002 -1.095 193 108 41
-11.049 4.2820001 -1.095 117 82 54
-11.008 4.3530002 -0.90100002 183 132 77
-10.994 4.3429999 -0.89399999 202 137 79
-10.928 4.3629999 -0.86199999 88 37 8
-10.933 4.3590002 -0.87400001 145 110 88
-10.969 4.381 -0.847 79 30 0
-10.966 4.3670001 -0.84500003 153 114 85
-10.98 4.3610001 -0.829 136 86 49
-10.965 4.3850002 -0.84799999 101 63 27
-10.957 4.375 -0.847 162 103 45
-10.961 4.3759999 -0.84799999 67 31 0
-10.963 4.3730001 -0.847 121 83 47
-10.952 4.3850002 -0.85299999 172 130 88
-10.949 4.3709998 -0.847 185 119 32
-10.955 4.369 -0.84600002 160 119 91
-10.968 4.3369999 -0.84799999 136 82 35
-10.957 4.3460002 -0.84600002 214 148 96
-10.96 4.3369999 -0.82599998 90 50 14
-10.968 4.3249998 -0.85399997 198 129 72
-10.97 4.3260002 -0.83999997 114 71 28
-10.985 4.3270001 -0.83099997 131 71 21
-10.986 4.3299999 -0.84899998 182 123 55
-10.99 4.329 -0.85299999 123 77 43
-10.949 4.3439999 -0.86199999 191 126 68
-10.955 4.355 -0.88099998 151 111 62
-10.952 4.3530002 -0.87199998 127 68 24
-10.949 4.355 -0.87 138 75 24
-10.948 4.3600001 -0.87 126 57 15
-10.977 4.336 -0.884 105 41 0
-11.098 4.223 -0.995 211 132 57
-11.1 4.224 -1.006 208 151 96
-11.09 4.2290001 -1.039 165 96 39
-11.097 4.223 -1.026 142 60 4
-11.116 4.1999998 -1.0470001 174 77 9
-11.038 4.3499999 -1.039 170 79 34
-10.992 4.447 -0.96399999 59 28 8
-10.991 4.4460001 -0.96700001 59 28 10
-10.995 4.447 -0.96499997 79 41 20
-10.994 4.4419999 -1.0039999 187 176 172
-10.994 4.4439998 -0.99699998 117 50 8
-10.991 4.4460001 -0.99400002 166 113 61
-10.991 4.4439998 -1 190 137 87
-10.996 4.4349999 -1.016 152 143 144
-10.998 4.4390001 -1.02 168 134 96
-11.012 4.3629999 -1.038 227 143 71
-11.025 4.3579998 -1.0369999 213 158 93
-11.012 4.355 -1.029 136 79 34
-11.016 4.349 -1.023 254 214 163
-10.993 4.474 -1.087 212 151 97
-10.976 4.448 -1.105 156 129 122
-10.982 4.4549999 -1.101 61 29 6
-10.968 4.4699998 -1.076 110 75 53
-10.994 4.4710002 -1.0599999 150 107 75
-10.995 4.473 -1.064 190 149 117
-10.99 4.4200001 -1.119 227 166 99
-10.979 4.4130001 -1.122 210 176 138
-10.992 4.3569999 -1.107 66 37 7
-10.987 4.4180002 -1.076 121 67 31
-11.005 4.4330001 -1.101 148 88 54
-10.992 4.473 -1.063 127 88 57
-10.967 4.4359999 -1.0549999 131 76 35
-10.97 4.4439998 -1.0549999 108 79 71
-10.975 4.4380002 -1.067 134 80 36
-10.972 4.4369998 -1.059 173 119 81
-10.959 4.4359999 -1.051 178 143 111
-10.983 4.4229999 -1.068 119 62 17
-10.976 4.427 -1.09 95 46 3
-10.952 4.4380002 -1.033 126 70 35
-10.954 4.4549999 -1.0319999 111 39 0
-10.981 4.4380002 -0.98199999 128 55 4
-10.984 4.4349999 -1 146 93 49
-10.989 4.4400001 -0.98199999 96 52 13
-10.989 4.4400001 -1.002 218 164 117
-10.967 4.4359999 -0.96899998 77 18 0
-10.96 4.448 -0.97899997 137 65 15
-10.983 4.427 -1.103 126 73 31
-11 4.4109998 -0.88999999 95 45 12
-11.009 4.4159999 -0.87400001 246 186 90
-11.236 4.448 -1.12 133 91 67
-11.214 4.4330001 -1.104 183 122 65
-11.212 4.434 -1.101 167 97 37
-11.224 4.4390001 -1.114 70 35 15
-11.184 4.3740001 -1.098 154 121 102
-11.189 4.3720002 -1.098 251 225 202
-11.18 4.3969998 -1.087 80 45 25
-11.194 4.3940001 -1.094 255 180 102
-11.201 4.408 -1.1 130 48 0
-11.207 4.4650002 -1.084 175 127 87
-11.009 4.454 -0.96200001 143 102 74
-11.002 4.4489999 -0.94700003 60 20 0
-11.006 4.4499998 -0.95599997 61 23 4
-11.001 4.4489999 -0.949 208 156 117
-10.98 4.447 -0.98900002 117 76 48
-10.986 4.4330001 -0.91100001 190 162 138
-10.979 4.4190001 -0.91399997 118 54 19
-10.979 4.4159999 -0.89399999 131 83 43
-10.987 4.427 -0.91000003 159 127 102
-10.982 4.4400001 -0.93199998 87 46 16
-10.987 4.4349999 -0.94199997 86 46 20
-10.989 4.4229999 -0.935 85 36 3
-10.992 4.427 -0.91399997 100 55 26
-10.992 4.4439998 -0.958 125 100 93
-10.946 4.3509998 -0.76599997 212 153 97
-10.95 4.362 -0.77600002 68 37 19
-10.955 4.3559999 -0.76599997 161 117 90
-10.945 4.3400002 -0.77100003 123 59 13
-10.954 4.3369999 -0.80000001 117 75 33
-10.952 4.3309999 -0.78799999 230 160 101
-10.962 4.336 -0.81300002 106 77 37
-10.98 4.3670001 -0.84500003 239 161 95
-10.977 4.3860002 -0.88300002 150 88 29
-10.977 4.368 -0.88599998 97 54 22
-10.971 4.4039998 -0.87900001 121 52 11
-10.956 4.3860002 -0.866 101 47 9
-10.973 4.4200001 -0.88599998 139 84 54
-10.973 4.4299998 -0.88099998 129 61 14
-10.978 4.421 -0.89099997 139 106 53
-11.005 4.4380002 -0.85100001 236 212 186
-11.003 4.4530001 -0.96399999 126 85 55
-11.003 4.447 -0.96799999 110 86 40
-10.998 4.447 -0.96200001 173 105 56
-10.991 4.4460001 -0.94800001 115 71 36
-11.018 4.4520001 -0.95200002 222 146 84
-10.971 4.4710002 -0.85900003 114 66 18
-10.98 4.4650002 -0.852 104 52 4
-10.968 4.4710002 -0.86199999 110 64 28
-10.984 4.4790001 -0.852 205 132 64
-11.003 4.3330002 -0.81900001 145 81 17
-11.247 4.3660002 -1.097 121 75 42
-11.255 4.368 -1.0779999 121 67 23
-11.233 4.388 -1.081 213 137 75
-11.221 4.3639998 -1.073 213 157 110
-11.25 4.388 -1.081 166 123 80
-11.216 4.4130001 -1.113 247 179 104
-11.232 4.4060001 -1.117 101 45 8
-11.26 4.4109998 -1.102 155 114 82
-11.244 4.4070001 -1.105 122 70 20
-11.25 4.3559999 -1.068 128 75 35
-11.226 4.4829998 -1.115 174 118 57
-11.257 4.4619999 -1.117 206 138 75
-11.233 4.461 -1.1109999 236 157 91
-11.237 4.4419999 -1.107 198 150 110
-11.247 4.4349999 -1.101 188 117 53
-11.255 4.4310002 -1.094 175 110 52
-11.262 4.3800001 -1.0880001 156 109 55
-10.984 4.335 -0.75 116 44 6
-10.987 4.3330002 -0.75599998 241 174 95
-10.963 4.3499999 -0.74599999 172 108 36
-10.966 4.3569999 -0.76499999 210 138 64
-10.967 4.362 -0.75599998 75 46 30
-10.954 4.3460002 -0.75300002 170 126 91
-10.995 4.3499999 -0.79900002 131 100 80
-10.974 4.3520002 -0.78799999 90 39 8
-10.982 4.3579998 -0.79100001 234 181 129
-10.986 4.3439999 -0.778 207 156 103
-11.004 4.4310002 -0.85399997 189 142 112
-10.991 4.388 -0.85500002 171 119 82
-10.99 4.3860002 -0.85699999 186 134 95
-10.975 4.3969998 -0.85000002 124 50 1
-10.99 4.402 -0.86299998 155 93 32
-10.967 4.3860002 -0.84799999 237 180 137
-10.975 4.3889999 -0.86799997 147 76 14
-11.01 4.4299998 -0.85799998 253 187 103
-10.992 4.4229999 -0.85900003 154 96 46
-11.013 4.4510002 -0.84799999 210 138 53
-11.01 4.447 -0.84899998 187 148 119
-10.999 4.4559999 -0.84200001 114 50 4
-11.199 4.4000001 -1.103 97 38 4
-11.194 4.3720002 -1.098 129 80 50
-11.192 4.3559999 -1.0829999 121 65 14
-11.174 4.3670001 -1.094 192 160 139
-11.154 4.3309999 -1.073 198 141 96
-11.159 4.3540001 -1.081 148 91 38
-11.216 4.3730001 -1.092 102 32 0
-11.195 4.3649998 -1.099 87 56 35
-11.101 4.2389998 -0.91399997 255 232 162
-11.099 4.2420001 -0.912 147 100 32
-10.996 4.4549999 -0.88999999 125 85 50
-10.998 4.4559999 -0.89499998 133 67 19
-11.012 4.46 -0.85399997 216 175 147
-11.012 4.4580002 -0.85699999 195 118 74
-11.01 4.473 -0.86299998 183 144 113
-11.038 4.4419999 -0.93800002 222 162 90
-11.162 4.362 -1.073 228 135 57
-11.181 4.3610001 -1.0779999 91 20 0
-11.133 4.3439999 -1.071 251 154 73
-11.229 4.4819999 -1.08 221 129 64
-11.224 4.4790001 -1.085 183 132 85
-10.973 4.3639998 -0.93300003 131 68 24
-10.967 4.349 -0.93000001 151 97 69
-10.983 4.3530002 -0.903 139 81 35
-11.002 4.3460002 -0.921 191 119 69
-10.969 4.329 -0.86900002 85 50 20
-10.99 4.3319998 -0.86400002 228 174 102
-11.003 4.3470001 -0.921 185 118 39
-11 4.3410001 -0.92799997 247 175 93
-11 4.3400002 -0.93099999 202 123 46
-11.086 4.23 -0.949 67 34 17
-11.089 4.2309999 -0.94400001 163 114 71
-11.069 4.2270002 -0.96200001 137 92 63
-11.064 4.2309999 -0.972 195 151 106
-11.069 4.2210002 -0.96200001 209 162 118
-11.1 4.2259998 -0.96399999 148 73 15
-11.106 4.223 -0.972 245 167 105
-11.101 4.2199998 -0.95700002 170 123 71
-11.071 4.2210002 -0.96100003 151 96 40
-11.099 4.23 -0.87900001 226 169 98
-11.094 4.223 -0.87699997 217 157 87
-11.062 4.244 -0.88 233 204 126
-11.064 4.2529998 -0.88999999 179 97 47
-11.066 4.25 -0.884 154 106 42
-11.073 4.2360001 -0.87800002 162 69 10
-10.967 4.3239999 -1.066 222 161 94
-11.01 4.2820001 -1.0650001 216 169 87
-11.007 4.2969999 -1.061 240 182 118
-11.017 4.2969999 -1.059 232 193 126
-10.996 4.421 -1.0779999 124 71 27
-10.997 4.434 -1.024 250 186 125
-11.005 4.4580002 -1.0470001 183 161 148
-10.996 4.4429998 -1.052 133 81 23
-11.01 4.4619999 -1.0470001 180 154 139
-11.036 4.447 -0.96100003 130 94 58
-11.028 4.4499998 -0.96600002 125 50 0
-11.012 4.4450002 -0.96799999 91 81 79
-11.025 4.454 -0.95200002 62 31 13
-11.034 4.4549999 -0.94800001 122 94 73
-10.999 4.342 -1.018 222 169 115
-11.024 4.322 -1.082 136 73 29
-11.022 4.3260002 -1.081 154 92 41
-11.02 4.3410001 -1.108 238 152 93
-11.017 4.3390002 -1.108 172 111 67
-11.003 4.3520002 -1.096 89 51 28
-11.016 4.3449998 -1.0369999 66 25 0
-10.982 4.3179998 -0.995 141 75 17
-10.991 4.3449998 -1.0190001 209 144 88
-10.984 4.3390002 -1.024 111 68 25
-10.988 4.3429999 -1.021 192 107 43
-11.095 4.2470002 -0.91600001 179 131 69
-11.011 4.3330002 -0.79799998 145 81 10
-11.013 4.3249998 -0.80800003 178 100 51
-11 4.349 -0.77999997 197 119 47
-11.012 4.335 -0.78600001 164 86 4
-10.993 4.3390002 -0.76800001 168 123 66
-11.01 4.3439999 -0.796 188 123 43
-11.008 4.342 -0.79100001 86 39 9
-11.004 4.3299999 -0.78500003 214 111 34
-10.991 4.336 -0.77399999 163 98 42
-10.995 4.329 -0.78200001 161 115 91
-11.09 4.2290001 -0.94 141 84 39
-11.072 4.2270002 -0.90399998 166 118 82
-11.108 4.2290001 -0.89899999 244 202 130
-11.093 4.2420001 -0.87900001 223 170 66
-11.099 4.2350001 -0.89700001 242 169 90
-11.095 4.2340002 -0.88999999 245 160 69
-10.99 4.3179998 -1.012 180 96 34
-11.004 4.3049998 -1.02 179 134 43
-10.994 4.342 -0.90799999 162 86 34
-10.991 4.342 -0.889 196 124 50
-10.976 4.3460002 -0.93199998 141 102 63
-10.973 4.3109999 -0.935 136 92 67
-10.972 4.316 -0.93800002 211 166 85
-10.971 4.3210001 -0.94300002 228 181 111
-10.983 4.3600001 -0.833 150 98 48
-10.981 4.3239999 -0.91399997 153 107 74
-10.966 4.342 -0.88099998 147 107 48
-10.98 4.322 -0.91600001 255 183 111
-10.987 4.3140001 -0.93099999 245 174 86
-10.965 4.4219999 -1.0140001 153 87 29
-10.964 4.4219999 -1.01 160 102 52
-10.989 4.4320002 -1.0140001 175 100 35
-10.981 4.4349999 -1.016 147 100 58
-10.987 4.427 -1.024 199 145 101
-10.988 4.4390001 -1.005 146 95 50
-10.995 4.3509998 -1.025 91 68 62
-10.999 4.3520002 -1.027 221 138 58
-11.003 4.2979999 -1.003 228 176 119
-11.001 4.3189998 -0.99400002 139 107 56
-11.004 4.2969999 -0.99699998 198 134 47
-11.016 4.2880001 -1.064 164 74 22
-11.248 4.3579998 -1.086 115 69 35
-11.236 4.355 -1.094 148 78 26
-11.056 4.2940001 -1.073 187 95 22
-11.088 4.2410002 -0.97600001 135 86 53
-10.98 4.4000001 -1.12 222 180 120
-10.972 4.4120002 -1.123 134 85 42
-10.969 4.421 -1.123 133 77 26
-11.026 4.2919998 -1.109 71 41 17
-10.958 4.3080001 -1.0650001 114 60 26
-11.008 4.3390002 -1.091 82 38 11
-10.965 4.309 -1.0420001 124 62 11
-11.01 4.3280001 -1.089 191 123 52
-10.988 4.342 -1.1109999 248 195 151
-10.991 4.336 -1.104 91 50 20
-10.99 4.3080001 -1.0930001 136 79 34
-10.992 4.3130002 -1.098 132 61 15
