ply
format ascii 1.0
comment PCL generated
element vertex 641
property float x
property float y
property float z
property uchar red
property uchar green
property uchar blue
element camera 1
property float view_px
property float view_py
property float view_pz
property float x_axisx
property float x_axisy
property float x_axisz
property float y_axisx
property float y_axisy
property float y_axisz
property float z_axisx
property float z_axisy
property float z_axisz
property float focal
property float scalex
property float scaley
property float centerx
property float centery
property int viewportx
property int viewporty
property float k1
property float k2
end_header
-3.898 8.6210003 -0.921 173 100 45
-3.908 8.6260004 -0.921 160 87 36
-3.895 8.6169996 -0.91600001 121 103 91
-3.9189999 8.6280003 -1.0470001 206 163 131
-3.924 8.6350002 -1.05 254 172 90
-3.9189999 8.6269999 -1.051 184 108 50
-3.918 8.6389999 -1.052 136 57 0
-3.9089999 8.6379995 -1.046 205 159 109
-3.8659999 8.618 -1.03 140 93 51
-3.8629999 8.618 -1.025 138 89 48
-3.8759999 8.6160002 -1.026 180 96 26
-3.862 8.6210003 -1.027 137 85 37
-3.8929999 8.6190004 -0.91900003 50 25 20
-3.882 8.6300001 -0.95499998 204 114 36
-3.8870001 8.6309996 -0.95099998 177 164 145
-3.8829999 8.6300001 -0.95099998 153 68 3
-3.7909999 8.625 -0.97500002 176 79 11
-3.79 8.6280003 -0.98000002 181 84 16
-3.7850001 8.6300001 -0.97399998 245 160 93
-3.8069999 8.6330004 -0.98500001 219 116 47
-3.825 8.6409998 -0.99000001 135 64 22
-3.813 8.6330004 -1.002 248 184 122
-3.9119999 8.6280003 -0.91799998 114 37 0
-3.898 8.6199999 -0.903 185 150 108
-3.8699999 8.6339998 -1.072 148 93 52
-3.865 8.6350002 -1.071 113 61 21
-3.8759999 8.6269999 -1.068 207 125 49
-3.9119999 8.6420002 -1.05 163 71 8
-3.868 8.6210003 -1.021 175 129 93
-3.872 8.6269999 -1.017 161 115 79
-3.8010001 8.6529999 -1.0650001 175 81 45
-3.8139999 8.6569996 -1.074 119 89 65
-3.8010001 8.6470003 -1.064 186 84 35
-3.8069999 8.6479998 -1.068 215 135 66
-3.7980001 8.6459999 -1.058 95 69 34
-3.7969999 8.6529999 -1.057 171 79 40
-3.8139999 8.6400003 -0.99000001 152 130 116
-3.8310001 8.6379995 -0.98500001 114 46 11
-3.7909999 8.6289997 -0.98400003 186 83 16
-3.8269999 8.6400003 -0.99800003 194 179 160
-3.881 8.632 -1.067 146 95 52
-3.882 8.6330004 -1.073 132 79 37
-3.924 8.6359997 -1.048 234 150 86
-3.9130001 8.6429996 -1.0420001 244 203 157
-3.8770001 8.6359997 -1.0089999 166 128 89
-3.875 8.6379995 -1.005 147 69 0
-3.9219999 8.6680002 -0.96600002 188 98 20
-3.9159999 8.6660004 -0.97799999 255 242 231
-3.918 8.6660004 -0.96200001 136 100 74
-3.914 8.6700001 -0.97000003 118 52 17
-3.859 8.6450005 -1.073 111 69 29
-3.793 8.6339998 -0.97600001 126 59 16
-3.8 8.6389999 -0.98100001 110 34 0
-3.852 8.6269999 -1.039 152 95 52
-3.892 8.6230001 -0.921 229 166 115
-3.882 8.6239996 -0.92299998 209 172 130
-3.8829999 8.6169996 -0.91000003 205 117 53
-3.8740001 8.6309996 -0.92000002 253 188 108
-3.892 8.6289997 -0.92500001 152 123 105
-3.809 8.6339998 -0.96200001 191 110 45
-3.799 8.6339998 -0.95099998 163 82 26
-3.812 8.6309996 -0.95999998 170 143 124
-3.8299999 8.6470003 -0.99000001 115 41 12
-3.803 8.6599998 -1.058 159 79 30
-3.7969999 8.6619997 -1.045 177 100 30
-3.7980001 8.6420002 -1.053 226 144 60
-3.8069999 8.6350002 -0.98400003 83 57 40
-3.813 8.6359997 -0.96799999 229 154 86
-3.8169999 8.6459999 -0.99900001 138 72 14
-3.806 8.6370001 -0.99400002 199 90 21
-3.812 8.6350002 -1.005 158 142 116
-3.809 8.6389999 -1.008 85 34 3
-3.803 8.6400003 -1.018 189 107 47
-3.8329999 8.6459999 -1.0039999 208 96 24
-3.9000001 8.625 -0.91399997 206 115 45
-3.934 8.6789999 -0.98100001 214 119 39
-3.8940001 8.6759996 -1.057 135 64 18
-3.8900001 8.6669998 -1.0650001 168 127 95
-3.8789999 8.6780005 -1.0549999 139 75 29
-3.914 8.6709995 -0.96600002 146 86 49
-3.8940001 8.6800003 -1.049 161 109 69
-3.8840001 8.6780005 -1.038 46 34 36
-3.8540001 8.6459999 -1.072 117 75 37
-3.848 8.6520004 -1.071 140 69 25
-3.819 8.6429996 -1.069 173 68 21
-3.816 8.651 -1.073 110 82 60
-3.8150001 8.6409998 -1.068 181 76 10
-3.898 8.6800003 -1.052 233 154 98
-3.9089999 8.6890001 -0.97600001 233 167 151
-3.915 8.7010002 -0.98400003 176 162 151
-3.9070001 8.698 -0.97399998 110 34 2
-3.9300001 8.6949997 -0.98400003 101 51 18
-3.928 8.691 -0.98299998 167 133 106
-3.8740001 8.6239996 -1.023 130 60 8
-3.803 8.6379995 -0.95599997 65 38 21
-3.7950001 8.6309996 -0.97799999 164 71 2
-3.8759999 8.6169996 -1.048 197 116 50
-3.875 8.6260004 -1.064 220 141 64
-3.8759999 8.6330004 -1.072 139 84 43
-3.872 8.6379995 -0.91900003 141 76 8
-3.8640001 8.6409998 -0.91500002 111 41 0
-3.8870001 8.6219997 -0.917 225 187 140
-3.8789999 8.625 -0.91399997 240 157 61
-3.8069999 8.6339998 -0.949 136 62 25
-3.8180001 8.6339998 -0.94700003 113 38 6
-3.8039999 8.6350002 -0.95300001 166 93 58
-3.8959999 8.6289997 -0.92400002 192 115 61
-3.908 8.6520004 -0.91399997 179 106 65
-3.911 8.6540003 -0.91900003 127 41 0
-3.911 8.6619997 -0.91399997 111 23 0
-3.8570001 8.6520004 -1.069 90 48 10
-3.803 8.6400003 -0.97899997 164 134 100
-3.809 8.6470003 -1.0190001 120 61 29
-3.806 8.6520004 -1.0369999 169 83 56
-3.9130001 8.6619997 -0.99800003 172 148 110
-3.9159999 8.6639996 -1.001 206 130 72
-3.911 8.6599998 -1.003 118 75 33
-3.9159999 8.6499996 -1.0420001 163 137 120
-3.8369999 8.6700001 -1.031 152 77 10
-3.823 8.658 -1.025 149 109 74
-3.8269999 8.6680002 -1.043 170 126 91
-3.8369999 8.6730003 -1.0369999 156 113 78
-3.8900001 8.6529999 -0.926 142 93 52
-3.881 8.6420002 -0.921 98 62 30
-3.8870001 8.6409998 -0.92500001 185 120 56
-3.8989999 8.6759996 -0.97100002 163 90 49
-3.915 8.6759996 -1.069 163 118 85
-3.918 8.7119999 -0.96799999 129 127 128
-3.924 8.7080002 -0.97899997 160 91 49
-3.8540001 8.6820002 -1.0369999 172 97 55
-3.862 8.684 -1.026 104 53 24
-3.862 8.6820002 -1.031 255 192 147
-3.8540001 8.6820002 -1.029 112 50 1
-3.8900001 8.6780005 -1.043 93 45 22
-3.8870001 8.6759996 -1.0549999 175 149 136
-3.9170001 8.6700001 -0.986 157 90 38
-3.9170001 8.6709995 -0.97500002 134 66 17
-3.895 8.6630001 -0.99000001 177 161 135
-3.8929999 8.6599998 -0.995 255 242 210
-3.8870001 8.665 -0.986 182 102 29
-3.891 8.6569996 -0.99900001 170 148 111
-3.8770001 8.6639996 -0.991 156 79 9
-3.809 8.6549997 -1.068 172 81 34
-3.816 8.6599998 -1.068 114 27 0
-3.9089999 8.6400003 -1.044 153 75 13
-3.895 8.6409998 -1.041 152 78 29
-3.9200001 8.691 -0.98400003 131 125 129
-3.9170001 8.6680002 -0.99800003 120 48 0
-3.9230001 8.7019997 -0.98000002 112 66 40
-3.8729999 8.625 -1.028 172 96 38
-3.8940001 8.6400003 -1.0470001 170 122 76
-3.8510001 8.6429996 -1.067 133 52 33
-3.8469999 8.6300001 -1.061 134 40 2
-3.8110001 8.6230001 -1.051 175 94 31
-3.816 8.6239996 -1.051 235 155 94
-3.8180001 8.6339998 -1.057 159 112 84
-3.895 8.6450005 -1.062 142 99 67
-3.882 8.6370001 -0.92500001 171 120 77
-3.8870001 8.6199999 -0.91399997 208 124 52
-3.8829999 8.6219997 -0.91500002 194 109 29
-3.881 8.6219997 -0.91000003 253 159 72
-3.881 8.6219997 -0.90499997 216 121 39
-3.891 8.6190004 -0.90200001 171 134 82
-3.881 8.625 -0.90100002 217 124 18
-3.809 8.6339998 -0.958 176 97 31
-3.8629999 8.6409998 -1.072 106 61 20
-3.8 8.6529999 -1.051 134 42 1
-3.803 8.6660004 -1.044 198 121 53
-3.842 8.6739998 -1.05 232 149 83
-3.836 8.6739998 -1.051 240 173 84
-3.8429999 8.6759996 -1.057 111 45 13
-3.842 8.6800003 -1.0369999 196 127 86
-3.8469999 8.6780005 -1.022 195 142 92
-3.806 8.6350002 -0.97899997 96 69 52
-3.8069999 8.6370001 -0.98900002 135 90 59
-3.8210001 8.6400003 -1.003 187 171 148
-3.8110001 8.6409998 -1.007 159 76 24
-3.8139999 8.6409998 -0.99900001 135 86 54
-3.806 8.6429996 -1.013 111 83 72
-3.8150001 8.6540003 -1.011 81 65 39
-3.8310001 8.6450005 -1.007 232 116 43
-3.8599999 8.6199999 -1.024 105 58 30
-3.9159999 8.658 -1.058 100 81 64
-3.9219999 8.6639996 -1.0470001 142 106 84
-3.914 8.6739998 -1.0599999 190 138 91
-3.9130001 8.6709995 -1.075 190 146 117
-3.9000001 8.6680002 -1.063 147 97 60
-3.9119999 8.6689997 -1.069 181 131 80
-3.892 8.677 -1.024 105 72 53
-3.8940001 8.677 -1.041 174 123 80
-3.895 8.6520004 -1.0190001 122 50 2
-3.882 8.6420002 -1.006 115 81 43
-3.8740001 8.6499996 -1.001 255 199 118
-3.9170001 8.6490002 -1.051 153 60 1
-3.911 8.6639996 -1.029 195 110 43
-3.9330001 8.6960001 -0.98100001 202 192 190
-3.934 8.691 -0.977 202 101 19
-3.934 8.6949997 -0.97100002 203 101 19
-3.9330001 8.6940002 -0.97600001 184 110 47
-3.9319999 8.7030001 -0.97600001 177 172 176
-3.9319999 8.6990004 -0.98400003 131 105 82
-3.9300001 8.691 -1.0369999 142 114 93
-3.931 8.6969995 -1.044 81 48 31
-3.9319999 8.691 -1.0420001 152 67 13
-3.9319999 8.6960001 -1.049 90 55 35
-3.9030001 8.6820002 -1.045 233 145 81
-3.825 8.6599998 -1.006 228 165 112
-3.8699999 8.6499996 -0.86799997 166 87 10
-3.875 8.6450005 -0.86900002 144 123 104
-3.881 8.6619997 -0.85900003 158 112 76
-3.8599999 8.6599998 -0.86500001 255 184 84
-3.8940001 8.6520004 -0.92900002 219 160 120
-3.8859999 8.6730003 -0.926 97 48 15
-3.8940001 8.6689997 -0.98400003 102 96 98
-3.892 8.677 -0.972 131 53 5
-3.8989999 8.6709995 -0.98699999 207 133 60
-3.902 8.6780005 -0.995 117 110 117
-3.9119999 8.6700001 -0.97399998 149 76 35
-3.878 8.6730003 -1.035 183 137 113
-3.875 8.6709995 -1.0420001 181 140 120
-3.931 8.7110004 -0.97600001 215 134 68
-3.9319999 8.7040005 -0.97000003 242 218 192
-3.8870001 8.6759996 -1.05 175 153 139
-3.9030001 8.6739998 -0.98699999 184 143 113
-3.9159999 8.7010002 -0.96700001 161 152 147
-3.927 8.6999998 -0.96499997 203 198 195
-3.9330001 8.684 -0.96600002 242 159 89
-3.9330001 8.684 -0.97500002 228 148 79
-3.911 8.6689997 -0.98299998 76 61 42
-3.8759999 8.6429996 -1.005 80 51 11
-3.862 8.6599998 -1.008 255 192 131
-3.8699999 8.6689997 -1.001 192 126 92
-3.859 8.6639996 -1.008 246 181 125
-3.915 8.6809998 -0.91900003 184 104 35
-3.9219999 8.6719999 -0.903 214 126 55
-3.9070001 8.6759996 -0.92199999 127 54 13
-3.842 8.6429996 -1.064 96 14 0
-3.888 8.684 -1.008 153 99 55
-3.9070001 8.6820002 -1.006 89 65 55
-3.905 8.6750002 -1.012 117 76 44
-3.915 8.6780005 -0.99299997 169 125 96
-3.9219999 8.6929998 -0.98299998 134 95 64
-3.802 8.6429996 -0.95200002 214 164 115
-3.8180001 8.6389999 -0.94999999 162 96 44
-3.813 8.6370001 -0.95300001 128 95 60
-3.8010001 8.6350002 -0.977 140 65 26
-3.882 8.6350002 -1.061 111 36 0
-3.9119999 8.6610003 -1.073 146 106 57
-3.8740001 8.6309996 -0.91299999 244 165 72
-3.8659999 8.6459999 -0.91100001 157 86 32
-3.859 8.651 -0.87 156 85 7
-3.868 8.6490002 -0.86900002 44 20 10
-3.9089999 8.6400003 -0.91399997 164 77 10
-3.9000001 8.6260004 -0.89899999 154 132 121
-3.902 8.6309996 -0.903 110 29 0
-3.901 8.6389999 -0.90200001 241 144 65
-3.8110001 8.6350002 -0.958 128 94 59
-3.846 8.665 -1.015 174 89 35
-3.848 8.6700001 -1.008 110 41 0
-3.8469999 8.6739998 -1.0039999 189 130 88
-3.835 8.6470003 -1.013 223 111 37
-3.8239999 8.6330004 -1.023 209 135 88
-3.852 8.6809998 -1.0319999 117 49 2
-3.858 8.684 -1.0190001 127 105 91
-3.8610001 8.6809998 -1.0140001 98 38 1
-3.8329999 8.6719999 -1.045 193 112 46
-3.826 8.6680002 -1.048 166 143 127
-3.8050001 8.6339998 -0.98500001 142 73 32
-3.8099999 8.6330004 -1.026 239 211 172
-3.8269999 8.6359997 -1.035 141 64 0
-3.8180001 8.6379995 -1.0369999 138 110 99
-3.819 8.6379995 -1.012 248 226 185
-3.809 8.6459999 -1.016 134 91 57
-3.8 8.6370001 -1.043 151 82 23
-3.8010001 8.6549997 -1.048 99 31 8
-3.8010001 8.6330004 -1.052 241 151 73
-3.803 8.6300001 -1.049 225 142 72
-3.809 8.6409998 -1.033 175 84 27
-3.8039999 8.6499996 -1.0420001 171 95 43
-3.8080001 8.6389999 -1.062 139 94 63
-3.8329999 8.6739998 -1.053 172 88 24
-3.8280001 8.6689997 -1.054 149 87 40
-3.8340001 8.6680002 -1.059 130 52 4
-3.842 8.632 -1.046 157 103 69
-3.8540001 8.6300001 -1.049 157 70 25
-3.8529999 8.6300001 -1.056 135 47 9
-3.8659999 8.6260004 -1.023 221 163 90
-3.859 8.6269999 -1.025 95 53 28
-3.8729999 8.6350002 -1.016 193 132 78
-3.858 8.6339998 -1.026 138 104 79
-3.892 8.6750002 -1.057 103 27 0
-3.9089999 8.6899996 -0.89399999 204 109 27
-3.9119999 8.7019997 -0.90499997 158 106 69
-3.908 8.698 -0.89899999 185 135 102
-3.9159999 8.6809998 -0.89899999 214 123 44
-3.8789999 8.6569996 -0.86400002 133 66 0
-3.882 8.651 -0.86699998 119 76 31
-3.9170001 8.6750002 -0.89899999 39 15 5
-3.9189999 8.677 -0.903 102 72 48
-3.881 8.691 -0.87 85 32 0
-3.8770001 8.6870003 -0.87800002 165 88 18
-3.8829999 8.6999998 -0.87099999 132 98 71
-3.8759999 8.6330004 -1.0140001 139 97 57
-3.9159999 8.6759996 -1.035 186 137 96
-3.9100001 8.6660004 -1.0089999 139 107 66
-3.9059999 8.6610003 -1.0089999 149 121 100
-3.905 8.6750002 -1.058 175 105 54
-3.901 8.6269999 -0.90700001 147 62 31
-3.8970001 8.6520004 -0.86900002 74 24 0
-3.898 8.6610003 -0.87 245 196 93
-3.9059999 8.6549997 -0.87400001 154 123 103
-3.8970001 8.6280003 -0.89899999 186 149 97
-3.9059999 8.684 -0.92799997 169 133 107
-3.928 8.6899996 -0.96399999 209 113 29
-3.921 8.6920004 -0.96600002 78 41 12
-3.835 8.6719999 -0.96799999 186 126 72
-3.8380001 8.6739998 -0.96700001 126 57 18
-3.832 8.6709995 -0.963 202 142 92
-3.8410001 8.6780005 -0.977 182 178 179
-3.8759999 8.6949997 -0.87300003 63 24 0
-3.8889999 8.6569996 -0.92199999 59 34 29
-3.8770001 8.6680002 -0.91399997 90 34 1
-3.8729999 8.6759996 -0.96700001 134 61 16
-3.8629999 8.677 -0.96700001 135 126 111
-3.8629999 8.6820002 -0.96100003 136 81 42
-3.8729999 8.6750002 -0.963 86 24 9
-3.898 8.6789999 -0.96700001 77 11 0
-3.8959999 8.6789999 -1.002 122 81 51
-3.872 8.6759996 -1.02 128 57 5
-3.858 8.6800003 -1.038 120 35 0
-3.849 8.677 -1.048 140 88 40
-3.8529999 8.6809998 -1.029 180 154 137
-3.925 8.7130003 -0.96899998 88 44 19
-3.9030001 8.6820002 -0.97399998 237 212 241
-3.9089999 8.6890001 -0.97100002 60 2 0
-3.9330001 8.6949997 -0.96899998 239 165 100
-3.931 8.6949997 -0.96799999 205 157 95
-3.8710001 8.6440001 -1.005 172 148 112
-3.8740001 8.6630001 -1.003 137 47 0
-3.881 8.6520004 -1.02 168 116 76
-3.9159999 8.6829996 -0.912 146 55 2
-3.902 8.677 -0.93300003 81 69 53
-3.9000001 8.6780005 -0.92799997 241 226 245
-3.9100001 8.6750002 -1.012 130 93 64
-3.9119999 8.6689997 -0.98799998 85 69 44
-3.9100001 8.6780005 -0.99299997 155 110 71
-3.9130001 8.6709995 -1 123 99 61
-3.8759999 8.6429996 -1.026 129 86 52
-3.8599999 8.6599998 -0.88300002 76 53 39
-3.8629999 8.6549997 -0.88999999 183 126 57
-3.862 8.6599998 -0.88999999 213 149 85
-3.8570001 8.6739998 -0.95200002 160 93 48
-3.858 8.6800003 -0.95499998 109 56 22
-3.8640001 8.6739998 -0.949 91 22 0
-3.8559999 8.6750002 -0.958 132 75 45
-3.8280001 8.6440001 -0.98199999 170 92 28
-3.8429999 8.6599998 -0.97799999 195 143 95
-3.8740001 8.625 -1.0420001 202 123 67
-3.898 8.6450005 -1.057 196 148 102
-3.885 8.6309996 -0.92299998 251 188 95
-3.8770001 8.6440001 -0.91399997 154 87 16
-3.9070001 8.6599998 -0.90700001 209 121 47
-3.905 8.6440001 -0.90499997 142 55 1
-3.9030001 8.6499996 -0.89399999 119 111 100
-3.8380001 8.665 -1.026 155 71 7
-3.8380001 8.6619997 -0.995 107 67 41
-3.8510001 8.6560001 -1.0089999 217 132 65
-3.8510001 8.6680002 -0.98799998 241 161 90
-3.8670001 8.6730003 -1 218 156 117
-3.8710001 8.6700001 -1.007 208 134 73
-3.868 8.6730003 -0.97000003 129 57 19
-3.914 8.6590004 -1.062 184 136 100
-3.8670001 8.6300001 -1.062 230 134 73
-3.8770001 8.6459999 -1.068 116 45 0
-3.888 8.6619997 -1.063 107 34 0
-3.8929999 8.658 -1.064 168 118 85
-3.892 8.6520004 -1.064 96 60 48
-3.8670001 8.6669998 -1.052 175 125 88
-3.8759999 8.6680002 -1.058 170 97 46
-3.8859999 8.6719999 -1.058 120 46 1
-3.8629999 8.6420002 -1.003 202 185 155
-3.8110001 8.6569996 -1.033 208 124 77
-3.835 8.6719999 -1.0420001 213 129 82
-3.8050001 8.6370001 -1.025 94 64 53
-3.813 8.6370001 -1.038 201 168 137
-3.8080001 8.6389999 -1.018 155 78 24
-3.8080001 8.6429996 -1.023 224 147 95
-3.8429999 8.6680002 -1.062 159 78 23
-3.846 8.6689997 -1.062 62 57 37
-3.8440001 8.6569996 -1.064 185 105 52
-3.836 8.6739998 -1.045 122 58 14
-3.8310001 8.6359997 -1.058 123 26 0
-3.823 8.6429996 -1.0089999 182 163 131
-3.8429999 8.6309996 -1.034 134 83 52
-3.9059999 8.677 -1.031 232 153 87
-3.8929999 8.6420002 -0.89499998 167 75 2
-3.9000001 8.7060003 -0.89700001 213 117 33
-3.9130001 8.7150002 -0.91299999 135 86 53
-3.8940001 8.6429996 -1.04 155 107 59
-3.8900001 8.6549997 -1.031 102 100 111
-3.8970001 8.6560001 -1.027 158 113 74
-3.9059999 8.6549997 -1.036 154 118 94
-3.9059999 8.6350002 -0.91000003 141 51 0
-3.8889999 8.6499996 -0.87800002 210 116 52
-3.8889999 8.6499996 -0.87400001 185 93 26
-3.8840001 8.6479998 -0.87 231 190 158
-3.8789999 8.6479998 -0.87300003 193 122 58
-3.911 8.6920004 -0.903 84 34 1
-3.9089999 8.7060003 -0.912 65 20 1
-3.8970001 8.7069998 -0.92000002 119 97 86
-3.9130001 8.7080002 -0.917 87 45 23
-3.8499999 8.6800003 -1.01 80 29 0
-3.865 8.6879997 -0.958 131 108 94
-3.8710001 8.6920004 -0.90700001 208 125 75
-3.8640001 8.6890001 -0.90499997 182 105 59
-3.8699999 8.6949997 -0.90600002 202 122 53
-3.911 8.698 -0.96499997 70 33 14
-3.9159999 8.6859999 -0.96499997 158 143 122
-3.8710001 8.6789999 -0.87 255 250 255
-3.872 8.6859999 -0.875 100 90 91
-3.8710001 8.6879997 -0.88099998 144 99 44
-3.8640001 8.6750002 -0.87099999 134 59 19
-3.8659999 8.6759996 -0.875 101 26 0
-3.855 8.6739998 -0.86799997 187 124 83
-3.908 8.6549997 -0.921 153 90 49
-3.902 8.6450005 -0.92400002 88 73 66
-3.9089999 8.6400003 -0.92299998 200 124 72
-3.898 8.6309996 -0.92299998 186 134 87
-3.892 8.6379995 -0.92500001 133 118 111
-3.865 8.6709995 -0.96399999 135 71 44
-3.8740001 8.6700001 -0.95899999 119 108 106
-3.8789999 8.6730003 -0.96799999 129 55 16
-3.8670001 8.6759996 -1.026 162 79 13
-3.8829999 8.6759996 -1.028 178 131 103
-3.885 8.677 -1.015 111 45 10
-3.8789999 8.6730003 -1.011 144 97 67
-3.881 8.6730003 -1.0089999 104 45 3
-3.8559999 8.6759996 -1.048 147 124 118
-3.8570001 8.6689997 -1.051 223 173 122
-3.8770001 8.6540003 -1.001 196 154 129
-3.9059999 8.6789999 -0.95700002 84 27 10
-3.9189999 8.6739998 -0.95599997 138 101 82
-3.8829999 8.6719999 -0.92000002 83 29 1
-3.928 8.6940002 -0.96499997 190 170 159
-3.839 8.6499996 -1.066 200 155 116
-3.8310001 8.658 -1.063 138 47 18
-3.823 8.6540003 -1.064 151 51 19
-3.9100001 8.6709995 -1.018 158 73 19
-3.8989999 8.6780005 -0.99900001 118 73 42
-3.872 8.6370001 -1.03 118 74 39
-3.882 8.6350002 -1.053 228 148 95
-3.8710001 8.6739998 -0.958 99 47 33
-3.869 8.6730003 -0.949 56 16 4
-3.8440001 8.6750002 -0.96799999 137 63 16
-3.8740001 8.6590004 -0.91100001 116 56 19
-3.8629999 8.6700001 -0.96100003 125 89 57
-3.8670001 8.6709995 -0.96100003 147 75 25
-3.8670001 8.6719999 -0.95200002 59 15 4
-3.823 8.6370001 -1.041 205 127 61
-3.8139999 8.6350002 -1.043 214 131 51
-3.8269999 8.6339998 -1.052 236 156 97
-3.8859999 8.6260004 -0.90100002 253 161 86
-3.901 8.6269999 -0.92299998 141 66 0
-3.9059999 8.6630001 -0.90100002 167 136 115
-3.8469999 8.6689997 -1.021 121 71 22
-3.8410001 8.6669998 -0.98900002 163 91 33
-3.8429999 8.677 -0.98299998 156 152 153
-3.8399999 8.6700001 -0.977 228 161 91
-3.852 8.6680002 -0.98000002 172 98 33
-3.855 8.6719999 -0.98699999 208 137 75
-3.8540001 8.6739998 -0.97299999 70 58 60
-3.9070001 8.6619997 -1.072 103 55 7
-3.911 8.6479998 -1.062 84 41 6
-3.8640001 8.6429996 -1.0700001 123 51 11
-3.8629999 8.6239996 -1.0549999 171 87 23
-3.855 8.6289997 -1.058 178 136 94
-3.8789999 8.658 -1.0599999 97 49 13
-3.888 8.6420002 -1.0650001 150 102 54
-3.8570001 8.665 -1.062 93 89 78
-3.8659999 8.6549997 -1.062 83 75 72
-3.8329999 8.6459999 -1.016 209 102 34
-3.8510001 8.651 -1.0190001 163 135 96
-3.846 8.6359997 -1.033 211 167 130
-3.809 8.6370001 -1.031 191 120 68
-3.806 8.6350002 -1.045 117 98 68
-3.8150001 8.6309996 -1.053 131 88 54
-3.8789999 8.6470003 -1.03 118 73 34
-3.855 8.6479998 -1.0140001 122 103 70
-3.859 8.625 -1.048 210 142 93
-3.8440001 8.6330004 -1.033 156 78 29
-3.836 8.6639996 -1.061 118 41 25
-3.9119999 8.6689997 -1.053 169 118 73
-3.9059999 8.6739998 -1.021 162 84 20
-3.9130001 8.677 -1.033 175 142 123
-3.914 8.6859999 -0.90100002 240 164 89
-3.9170001 8.6969995 -0.91000003 214 140 77
-3.901 8.6940002 -0.89600003 129 61 22
-3.9030001 8.6890001 -0.89600003 155 115 89
-3.8959999 8.6949997 -0.898 135 81 47
-3.8859999 8.6820002 -0.88999999 139 58 13
-3.891 8.6809998 -0.89200002 196 138 90
-3.895 8.6529999 -0.88200003 205 162 107
-3.891 8.651 -0.88300002 153 63 0
-3.9030001 8.6569996 -0.884 169 132 79
-3.882 8.651 -0.88599998 166 119 77
-3.8789999 8.6479998 -0.89099997 92 53 22
-3.8889999 8.6400003 -0.89700001 163 83 22
-3.8870001 8.6829996 -0.86900002 164 93 29
-3.8789999 8.6739998 -0.86299998 118 50 13
-3.8829999 8.6669998 -0.86299998 166 99 47
-3.885 8.6780005 -0.87400001 168 108 56
-3.8970001 8.6999998 -0.89899999 137 85 46
-3.865 8.6700001 -0.87900001 176 79 0
-3.8800001 8.6879997 -0.898 107 71 39
-3.8800001 8.6920004 -0.90399998 217 133 89
-3.8759999 8.6680002 -0.91000003 122 60 23
-3.8889999 8.6750002 -0.87 188 120 37
-3.892 8.665 -0.87099999 221 147 42
-3.868 8.6490002 -0.87400001 67 39 15
-3.8740001 8.6540003 -0.88300002 245 194 141
-3.9070001 8.6619997 -1.029 157 112 73
-3.9089999 8.665 -1.025 172 128 93
-3.8989999 8.6599998 -1.012 169 134 96
-3.908 8.6339998 -0.91299999 155 118 92
-3.8870001 8.6499996 -0.875 254 215 156
-3.852 8.6809998 -1.023 118 44 5
-3.8540001 8.6809998 -1.01 88 28 0
-3.901 8.6800003 -0.96200001 229 206 234
-3.8729999 8.6750002 -0.86500001 170 93 49
-3.8710001 8.6689997 -0.86500001 112 71 25
-3.878 8.6689997 -0.86199999 114 43 1
-3.8770001 8.6660004 -0.86299998 117 90 69
-3.8599999 8.6719999 -0.96799999 114 105 106
-3.8829999 8.6680002 -0.986 222 142 71
-3.8829999 8.6680002 -0.99000001 179 97 24
-3.891 8.6719999 -1.001 140 65 0
-3.8900001 8.677 -1.006 148 88 51
-3.8870001 8.677 -1.017 243 176 123
-3.8559999 8.6789999 -1.041 165 74 30
-3.852 8.6809998 -1.04 119 36 0
-3.928 8.6850004 -0.98199999 190 96 24
-3.9200001 8.6730003 -0.958 60 47 30
-3.908 8.6829996 -0.96100003 120 80 55
-3.898 8.6750002 -0.921 144 82 43
-3.829 8.6599998 -1.063 96 12 1
-3.9089999 8.6660004 -1.02 160 117 83
-3.9100001 8.6719999 -1.011 199 116 64
-3.911 8.6750002 -1.024 127 86 64
-3.8770001 8.6359997 -1.0369999 123 51 3
-3.8570001 8.6829996 -0.96399999 113 55 5
-3.9119999 8.6709995 -0.89499998 170 113 68
-3.9070001 8.6630001 -0.889 242 175 84
-3.8329999 8.6560001 -1.002 124 113 119
-3.832 8.6560001 -1.001 110 70 44
-3.845 8.665 -0.99000001 161 80 14
-3.8540001 8.6689997 -0.977 208 139 80
-3.898 8.658 -1.0650001 162 114 65
-3.911 8.6490002 -1.064 209 115 51
-3.862 8.6330004 -1.063 95 60 38
-3.882 8.6359997 -1.0549999 172 90 43
-3.8629999 8.6520004 -1.005 254 242 216
-3.819 8.6479998 -1.002 178 92 33
-3.812 8.6490002 -1.0089999 163 141 130
-3.812 8.6350002 -1.0420001 140 107 76
-3.8069999 8.6309996 -1.052 211 123 51
-3.9070001 8.677 -1.035 139 68 2
-3.892 8.6300001 -0.89899999 189 149 90
-3.9170001 8.6929998 -0.91399997 136 84 47
-3.8789999 8.6490002 -0.88 211 133 67
-3.885 8.6789999 -0.86799997 163 106 53
-3.878 8.6820002 -0.87099999 131 60 16
-3.898 8.6540003 -0.87300003 145 60 5
-3.898 8.6730003 -0.87199998 219 145 48
-3.8959999 8.7049999 -0.903 120 58 17
-3.895 8.7060003 -0.91900003 248 243 250
-3.895 8.6949997 -0.90600002 59 17 3
-3.862 8.6689997 -0.87300003 125 36 0
-3.878 8.6700001 -0.90100002 91 49 11
-3.8710001 8.6630001 -0.89300001 181 100 37
-3.872 8.6750002 -0.88099998 174 86 36
-3.908 8.6540003 -1.0369999 153 136 126
-3.9100001 8.6389999 -0.91600001 124 105 98
-3.8859999 8.658 -0.866 227 195 148
-3.911 8.691 -0.90200001 242 150 77
-3.8540001 8.6809998 -1.016 84 18 0
-3.8429999 8.6669998 -0.96799999 158 116 76
-3.8399999 8.6739998 -0.97399998 138 83 27
-3.8929999 8.6730003 -0.99900001 83 42 10
-3.8540001 8.6800003 -1.04 116 63 19
-3.9170001 8.6859999 -0.91799998 178 99 42
-3.9119999 8.6949997 -0.91799998 194 155 126
-3.9189999 8.684 -0.963 168 152 137
-3.816 8.6599998 -1.061 132 46 11
-3.908 8.665 -1.0140001 178 143 105
-3.859 8.6820002 -0.96399999 159 88 46
-3.878 8.632 -0.90700001 243 156 53
-3.9059999 8.6709995 -0.889 160 128 107
-3.9059999 8.677 -0.89399999 162 82 21
-3.9059999 8.6639996 -0.88099998 121 48 0
-3.8380001 8.6619997 -0.986 138 98 72
-3.8410001 8.6669998 -0.977 199 129 59
-3.8499999 8.6680002 -0.98400003 226 147 80
-3.904 8.651 -1.064 146 108 95
-3.865 8.6330004 -1.066 157 59 10
-3.8269999 8.6429996 -1.018 174 70 7
-3.902 8.6309996 -0.90499997 223 160 91
-3.9170001 8.6899996 -0.90700001 161 81 22
-3.914 8.698 -0.91600001 106 62 35
-3.9000001 8.6739998 -0.87699997 206 131 30
-3.902 8.6689997 -0.88099998 226 151 58
-3.8610001 8.6689997 -0.87099999 226 127 34
-3.8759999 8.6750002 -0.889 154 144 145
-3.8740001 8.658 -0.86500001 161 120 76
-3.8710001 8.6569996 -0.866 216 124 15
-3.8800001 8.632 -1.043 190 111 45
-3.8759999 8.6239996 -1.046 190 101 35
-3.858 8.6709995 -0.96200001 100 38 13
-3.8640001 8.6719999 -0.95599997 130 95 63
-3.8410001 8.6630001 -0.98699999 123 112 116
-3.8199999 8.6619997 -1.043 172 97 29
-3.885 8.6499996 -0.91399997 140 89 44
-3.885 8.6309996 -0.90100002 211 119 46
-3.8829999 8.632 -0.90200001 248 161 58
-3.8970001 8.6999998 -0.92000002 84 52 29
-3.8759999 8.651 -0.88 200 114 15
-3.8840001 8.6829996 -0.91600001 92 26 0
-3.8759999 8.6639996 -0.90899998 185 121 73
-3.8670001 8.6630001 -0.866 201 102 1
-3.8670001 8.6549997 -0.86699998 231 158 66
-3.8380001 8.6669998 -0.96799999 153 115 78
-3.882 8.6379995 -0.90100002 253 170 76
-3.878 8.6359997 -0.90499997 161 115 66
-3.8800001 8.6450005 -0.90399998 173 88 21
-3.865 8.6459999 -1.068 94 21 6
-3.8150001 8.6619997 -1.05 82 17 0
-3.8970001 8.6960001 -0.91100001 51 13 2
-3.8929999 8.6870003 -0.917 248 240 251
-3.8759999 8.6680002 -0.89300001 176 132 87
-3.8699999 8.6700001 -0.88599998 185 98 27
-3.892 8.6890001 -0.91299999 42 5 0
-3.8889999 8.6870003 -0.91600001 49 15 6
0 0 0 1 0 0 0 1 0 0 0 1 0 0 0 0 0 641 1 0 0
