ply
format ascii 1.0
comment PCL generated
element vertex 78
property float x
property float y
property float z
property uchar red
property uchar green
property uchar blue
element camera 1
property float view_px
property float view_py
property float view_pz
property float x_axisx
property float x_axisy
property float x_axisz
property float y_axisx
property float y_axisy
property float y_axisz
property float z_axisx
property float z_axisy
property float z_axisz
property float focal
property float scalex
property float scaley
property float centerx
property float centery
property int viewportx
property int viewporty
property float k1
property float k2
end_header
5.3920002 -9.9440002 -0.94400001 86 50 28
5.4130001 -9.9530001 -0.94800001 245 162 92
5.408 -9.9429998 -0.94300002 107 54 0
5.3920002 -9.9499998 -0.954 81 63 63
5.408 -9.9530001 -0.95300001 223 161 110
5.4060001 -9.9580002 -0.96200001 186 117 76
5.3940001 -9.9510002 -0.95700002 135 107 85
5.401 -9.9510002 -0.958 78 43 21
5.3920002 -9.948 -0.96200001 108 49 7
5.401 -9.9390001 -0.94400001 100 62 41
5.4070001 -9.9320002 -0.94 117 84 53
5.395 -9.9320002 -0.93900001 169 102 60
5.408 -9.9320002 -0.94 107 75 52
5.4289999 -9.9209995 -0.92799997 114 80 42
5.4260001 -9.9169998 -0.92299998 192 110 28
5.4190001 -9.9280005 -0.92199999 108 62 26
5.4190001 -9.9259996 -0.92299998 177 131 107
5.4299998 -9.9110003 -0.94499999 168 124 97
5.4200001 -9.9130001 -0.93699998 80 47 14
5.4289999 -9.9230003 -0.93800002 72 36 2
5.4310002 -9.9099998 -0.94700003 98 67 36
5.4260001 -9.9370003 -0.95700002 82 54 43
5.4169998 -9.9469995 -0.96799999 92 41 22
5.415 -9.9429998 -0.972 61 14 4
5.4180002 -9.9399996 -0.95200002 167 104 50
5.3870001 -9.9440002 -0.95899999 114 40 1
5.4089999 -9.927 -0.935 93 58 28
5.4039998 -9.9090004 -0.94400001 119 74 35
5.4060001 -9.9069996 -0.94599998 98 71 42
5.427 -9.901 -0.95300001 222 143 86
5.4050002 -9.9099998 -0.95300001 118 87 59
5.3889999 -9.9250002 -0.949 193 114 47
5.4289999 -9.9049997 -0.94800001 135 104 50
5.428 -9.8990002 -0.958 194 125 60
5.4320002 -9.9060001 -0.95599997 83 52 23
5.4289999 -9.9239998 -0.95300001 137 73 27
5.4239998 -9.915 -0.96600002 160 113 85
5.4219999 -9.9090004 -0.95999998 76 21 0
5.4310002 -9.9280005 -0.94800001 136 69 16
5.4299998 -9.9329996 -0.949 180 99 33
5.4239998 -9.9350004 -0.935 119 39 2
5.4109998 -9.9510002 -0.96399999 176 97 41
5.428 -9.9069996 -0.96200001 110 39 0
5.4089999 -9.9429998 -0.97299999 45 26 28
5.4109998 -9.9230003 -0.97000003 58 38 40
5.3899999 -9.927 -0.96600002 79 34 13
5.3909998 -9.9309998 -0.97000003 73 25 3
5.4200001 -9.9379997 -0.96399999 150 68 18
5.4089999 -9.9250002 -0.93900001 104 73 42
5.415 -9.9300003 -0.93800002 199 131 70
5.4159999 -9.927 -0.93300003 193 115 51
5.402 -9.9390001 -0.97000003 42 3 0
5.4190001 -9.9180002 -0.93000001 187 135 52
5.4180002 -9.927 -0.92900002 88 55 20
5.4169998 -9.9119997 -0.96499997 60 13 0
5.4130001 -9.9139996 -0.97100002 45 4 0
5.4229999 -9.934 -0.93199998 205 125 52
5.4070001 -9.9530001 -0.95599997 106 78 54
5.4260001 -9.9049997 -0.95899999 155 95 43
5.428 -9.9110003 -0.95499998 187 122 58
5.4060001 -9.941 -0.972 31 4 0
5.3909998 -9.9250002 -0.95599997 137 67 31
5.3909998 -9.9289999 -0.96100003 91 40 9
5.3870001 -9.9309998 -0.95200002 117 61 12
5.4159999 -9.9399996 -0.97100002 46 17 1
5.402 -9.9230003 -0.95499998 81 49 24
5.395 -9.9440002 -0.94599998 119 83 51
5.4099998 -9.9219999 -0.93900001 141 96 57
5.414 -9.9169998 -0.963 100 36 1
5.421 -9.9390001 -0.94199997 147 116 88
5.4239998 -9.934 -0.93000001 226 165 110
5.4050002 -9.9449997 -0.96600002 57 10 0
5.3909998 -9.9420004 -0.95099998 166 89 37
5.4169998 -9.9350004 -0.96600002 138 81 36
5.4180002 -9.9280005 -0.95899999 45 18 0
5.415 -9.9189997 -0.96700001 73 27 14
5.4219999 -9.927 -0.95499998 112 80 57
5.3930001 -9.9280005 -0.94800001 131 82 52
0 0 0 1 0 0 0 1 0 0 0 1 0 0 0 0 0 78 1 0 0
