ply
format ascii 1.0
comment PCL generated
element vertex 55
property float x
property float y
property float z
property uchar red
property uchar green
property uchar blue
element camera 1
property float view_px
property float view_py
property float view_pz
property float x_axisx
property float x_axisy
property float x_axisz
property float y_axisx
property float y_axisy
property float y_axisz
property float z_axisx
property float z_axisy
property float z_axisz
property float focal
property float scalex
property float scaley
property float centerx
property float centery
property int viewportx
property int viewporty
property float k1
property float k2
end_header
-8.783 5.033 -1.054 239 178 113
-8.7849998 5.0250001 -1.069 131 94 67
-8.7869997 5.02 -1.058 165 121 94
-8.7779999 5.0489998 -1.026 148 112 34
-8.7729998 5.053 -1.046 224 174 105
-8.79 5.0409999 -1.034 136 114 101
-8.7720003 5.0539999 -1.049 232 187 130
-8.7729998 5.052 -1.056 247 209 128
-8.783 5.046 -1.02 141 109 88
-8.7819996 5.0500002 -1.0089999 255 218 161
-8.783 5.0469999 -1.006 255 215 150
-8.7790003 5.0279999 -1.043 162 127 99
-8.7810001 5.026 -1.0470001 164 127 100
-8.7790003 5.0279999 -1.04 139 105 78
-8.7860003 5.0370002 -1.039 173 143 115
-8.7779999 5.0409999 -1.04 65 34 6
-8.7749996 5.0489998 -1.036 246 215 132
-8.7729998 5.0489998 -1.044 241 184 105
-8.776 5.0500002 -1.027 247 211 137
-8.776 5.0500002 -1.029 153 123 50
-8.7709999 5.052 -1.053 255 219 148
-8.7709999 5.052 -1.05 225 184 118
-8.7770004 5.0489998 -1.021 255 224 150
-8.7790003 5.0479999 -1.015 155 124 60
-8.7849998 5.0380001 -1.0319999 189 155 128
-8.7770004 5.0440001 -1.015 246 212 140
-8.7729998 5.0489998 -1.036 243 214 138
-8.7810001 5.026 -1.059 149 102 76
-8.7790003 5.0339999 -1.052 235 176 108
-8.7840004 5.0229998 -1.052 160 119 91
-8.7819996 5.0339999 -1.053 157 125 100
-8.7709999 5.0479999 -1.045 248 197 118
-8.7740002 5.0450001 -1.034 149 118 89
-8.7709999 5.0479999 -1.048 249 201 119
-8.7779999 5.0489998 -1.024 164 131 50
-8.776 5.0489998 -1.023 230 193 122
-8.7749996 5.0479999 -1.03 156 133 55
-8.7810001 5.0479999 -1.011 155 116 59
-8.7810001 5.0250001 -1.062 161 114 88
-8.7810001 5.026 -1.071 140 100 75
-8.7799997 5.027 -1.067 161 116 93
-8.7749996 5.0409999 -1.054 82 52 28
-8.7729998 5.0469999 -1.0369999 251 212 135
-8.7810001 5.0450001 -1.025 149 114 92
-8.7709999 5.0489998 -1.051 244 202 118
-8.7790003 5.0359998 -1.056 234 175 115
-8.7779999 5.033 -1.046 204 145 77
-8.7770004 5.0479999 -1.031 255 230 155
-8.7720003 5.0440001 -1.048 78 48 20
-8.7770004 5.0359998 -1.053 124 88 56
-8.7799997 5.027 -1.064 157 111 85
-8.7790003 5.0349998 -1.058 207 148 92
-8.7860003 5.04 -1.0319999 117 85 60
-8.7790003 5.0440001 -1.031 154 123 95
-8.7790003 5.0349998 -1.061 213 151 100
0 0 0 1 0 0 0 1 0 0 0 1 0 0 0 0 0 55 1 0 0
