ply
format ascii 1.0
comment PCL generated
element vertex 1226
property float x
property float y
property float z
property uchar red
property uchar green
property uchar blue
element camera 0
property float view_px
property float view_py
property float view_pz
property float x_axisx
property float x_axisy
property float x_axisz
property float y_axisx
property float y_axisy
property float y_axisz
property float z_axisx
property float z_axisy
property float z_axisz
property float focal
property float scalex
property float scaley
property float centerx
property float centery
property int viewportx
property int viewporty
property float k1
property float k2
end_header
-1.344 -5.5890002 -1.031 38 25 17
-1.3660001 -5.586 -1.034 152 154 107
-1.335 -5.5739999 -1.03 50 39 35
-1.194 -5.526 -1.007 135 89 14
-1.183 -5.5279999 -1.023 92 91 73
-1.181 -5.533 -1.017 109 104 84
-1.2 -5.5170002 -1.026 87 91 77
-1.204 -5.54 -0.99699998 174 151 83
-1.099 -5.7319999 -0.92299998 197 170 83
-1.1900001 -5.7849998 -0.97500002 220 170 55
-1.199 -5.7810001 -0.98199999 188 149 30
-1.192 -5.8000002 -0.972 186 146 33
-1.187 -5.7919998 -0.972 203 157 63
-1.2 -5.7870002 -0.96799999 160 141 82
-1.188 -5.7930002 -0.96200001 104 78 43
-1.192 -5.7930002 -0.97000003 229 181 71
-1.202 -5.7839999 -0.96700001 152 144 63
-1.2029999 -5.7859998 -0.97000003 253 226 159
-1.2029999 -5.7870002 -0.972 189 167 110
-1.225 -5.704 -0.98000002 168 158 87
-1.331 -5.737 -1.005 55 55 5
-1.331 -5.7379999 -0.99699998 232 194 129
-1.094 -5.77 -0.92299998 145 111 66
-1.1 -5.7690001 -0.926 188 147 95
-1.085 -5.7540002 -0.91600001 168 147 54
-1.074 -5.7589998 -0.926 50 34 8
-1.073 -5.7389998 -0.91500002 22 0 0
-1.309 -5.6820002 -0.94 94 71 1
-0.958 -5.802 -0.98500001 252 243 184
-0.95099998 -5.7989998 -1.002 89 84 62
-0.96200001 -5.8039999 -0.98699999 255 250 195
-0.95300001 -5.802 -0.98000002 190 168 85
-0.94700003 -5.7849998 -0.972 255 238 120
-0.93900001 -5.7800002 -0.97399998 121 82 51
-0.98500001 -5.7940001 -0.98199999 98 84 47
-0.98500001 -5.7779999 -0.99199998 139 119 24
-0.97500002 -5.7750001 -0.99599999 231 225 151
-0.93000001 -5.7620001 -0.99400002 255 225 130
-0.93199998 -5.756 -0.995 227 192 108
-0.94300002 -5.7789998 -1 135 129 107
-0.94 -5.7919998 -0.99900001 95 69 18
-0.94199997 -5.7659998 -1 190 189 145
-0.95899999 -5.763 -0.99900001 78 73 51
-0.94700003 -5.777 -0.99699998 156 150 116
-0.97000003 -5.77 -0.99699998 125 97 57
-0.93800002 -5.7930002 -0.99400002 162 154 79
-1.0319999 -5.7839999 -0.94400001 180 124 65
-1.027 -5.7690001 -0.95200002 211 128 32
-1.03 -5.7810001 -0.94 191 153 91
-1.0190001 -5.7649999 -0.94199997 214 180 119
-0.94599998 -5.6680002 -0.97000003 238 200 119
-0.96100003 -5.6659999 -0.96700001 138 112 79
-0.96100003 -5.6550002 -0.97299999 213 137 49
-0.93300003 -5.6479998 -0.97899997 215 170 79
-0.93699998 -5.6669998 -0.96799999 186 158 85
-0.93199998 -5.7509999 -0.995 140 105 39
-1.226 -5.5180001 -0.99800003 179 113 39
-1.23 -5.5229998 -1.025 91 95 78
-1.2180001 -5.5180001 -1.023 44 39 0
-1.404 -5.5890002 -1.0190001 83 85 71
-1.4069999 -5.5770001 -1.0089999 39 30 23
-1.41 -5.5949998 -1.013 100 70 42
-1.406 -5.585 -1.012 129 114 75
-0.96799999 -5.6550002 -1.011 48 45 36
-0.98000002 -5.6599998 -1.018 73 75 64
-0.97000003 -5.6719999 -1.015 130 113 57
-1.068 -5.612 -1.022 84 76 63
-1.075 -5.6129999 -1.021 95 85 73
-1.073 -5.6079998 -1.018 120 102 62
-1.209 -5.5409999 -0.995 236 213 169
-1.205 -5.546 -0.99699998 77 72 52
-1.2309999 -5.5380001 -0.99000001 78 68 15
-1.2130001 -5.5320001 -0.99400002 228 194 130
-1.21 -5.6440001 -0.954 91 83 70
-1.214 -5.6350002 -0.95599997 88 68 59
-1.228 -5.6459999 -0.95300001 71 50 29
-1.182 -5.6269999 -0.96499997 171 147 37
-1.202 -5.704 -0.98400003 71 53 0
-1.204 -5.6950002 -0.99599999 57 43 0
-1.197 -5.6999998 -0.99900001 56 43 11
-1.193 -5.6989999 -0.99400002 41 45 12
-1.194 -5.7059999 -0.986 84 71 19
-1.207 -5.7849998 -0.97100002 85 55 0
-1.206 -5.7800002 -0.96600002 245 213 138
-1.214 -5.7789998 -0.977 202 168 79
-1.212 -5.776 -0.97100002 157 133 73
-1.212 -5.7709999 -0.96799999 84 51 0
-1.215 -5.7519999 -0.963 189 130 40
-1.205 -5.7719998 -0.963 176 150 91
-1.212 -5.7600002 -0.96499997 237 214 138
-0.95499998 -5.7480001 -0.99599999 102 62 10
-0.95999998 -5.7410002 -0.99900001 125 110 45
-0.95200002 -5.7329998 -0.99800003 83 66 23
-1.0089999 -5.7119999 -1.013 92 53 12
-1.016 -5.7090001 -1.012 91 61 23
-1.025 -5.7199998 -1.0190001 36 31 25
-1.0140001 -5.7150002 -1.011 142 136 88
-1.024 -5.724 -1.012 135 128 84
-0.995 -5.7290001 -1.013 72 65 21
-1.015 -5.6849999 -1.017 118 109 70
-1 -5.6729999 -1.007 177 179 106
-1.0039999 -5.6669998 -1.008 137 116 89
-1.031 -5.723 -1.012 21 18 13
-1.036 -5.71 -1.016 28 23 17
-0.98299998 -5.7069998 -1.005 112 124 48
-0.977 -5.7179999 -1.0089999 89 49 0
-0.97899997 -5.704 -1.0140001 80 53 10
-0.99199998 -5.7270002 -1.0089999 97 65 6
-0.991 -5.6999998 -1.008 82 58 24
-0.99800003 -5.7020001 -1.007 106 66 14
-0.98900002 -5.7129998 -0.99900001 224 186 124
-0.92799997 -5.7639999 -0.98400003 165 152 84
-0.92699999 -5.7690001 -0.98900002 255 242 137
-0.92299998 -5.7519999 -0.98500001 221 203 141
-1.0829999 -5.777 -0.93099999 103 73 21
-1.091 -5.7820001 -0.93000001 218 183 119
-1.087 -5.7919998 -0.93400002 203 170 125
-1.102 -5.7849998 -0.93000001 140 100 49
-1.105 -5.7950001 -0.93199998 143 101 51
-1.122 -5.7880001 -0.935 134 97 52
-1.0880001 -5.7540002 -0.91600001 191 169 83
-1.0880001 -5.7379999 -0.921 154 122 49
-1.0930001 -5.7389998 -0.92199999 181 143 60
-1.0700001 -5.7449999 -0.92199999 22 4 0
-1.079 -5.7550001 -0.92400002 181 149 38
-1.301 -5.6680002 -0.935 137 91 39
-1.302 -5.6719999 -0.93599999 199 134 68
-1.3 -5.677 -0.93400002 244 218 144
-1.314 -5.6750002 -0.94099998 240 182 74
-1.359 -5.7249999 -0.986 254 195 103
-1.397 -5.605 -1.003 139 107 68
-1.402 -5.5879998 -1.002 200 180 111
-1.375 -5.579 -1.027 185 166 110
-1.3789999 -5.5819998 -1.034 146 144 103
-1.392 -5.5749998 -1.028 116 99 55
-1.387 -5.5799999 -1.025 83 86 79
-1.386 -5.585 -1.008 123 90 73
-0.94700003 -5.7919998 -0.98000002 231 210 143
-0.92400002 -5.6859999 -0.972 149 90 30
-0.93300003 -5.677 -0.95499998 157 120 52
-0.93300003 -5.677 -0.96100003 163 147 51
-0.95599997 -5.6760001 -0.96200001 99 73 36
-0.95999998 -5.6810002 -0.958 137 102 48
-0.94 -5.6830001 -0.958 155 144 65
-0.93800002 -5.6789999 -0.96100003 201 167 93
-0.935 -5.6760001 -0.95999998 246 230 132
-0.93300003 -5.6950002 -0.97000003 159 100 56
-0.93099999 -5.6459999 -0.98299998 255 222 128
-0.92199999 -5.6560001 -0.995 79 56 25
-0.92500001 -5.6529999 -1.002 153 120 43
-1.089 -5.7280002 -0.92400002 204 168 94
-1.082 -5.7259998 -0.93099999 119 96 20
-0.94700003 -5.7529998 -0.995 165 122 53
-0.93000001 -5.7490001 -0.99299997 161 147 72
-0.93699998 -5.7280002 -0.98900002 165 157 76
-0.94199997 -5.7490001 -0.98299998 156 148 137
-0.93599999 -5.7519999 -0.986 163 154 77
-1.321 -5.638 -0.94800001 114 103 81
-1.313 -5.651 -0.94300002 128 83 16
-1.2130001 -5.5170002 -1.025 30 34 20
-1.2079999 -5.5139999 -1.03 167 173 125
-1.219 -5.5180001 -1.024 22 29 13
-1.405 -5.5840001 -1.013 11 5 0
-1.404 -5.5840001 -1.008 119 84 64
-1.38 -5.6659999 -1.007 149 135 72
-1.386 -5.658 -1 220 195 131
-1.3789999 -5.652 -1.006 240 216 144
-1.373 -5.6630001 -1.01 90 93 82
-1.375 -5.6750002 -1.012 67 70 59
-1.3559999 -5.7189999 -1.005 145 139 91
-1.354 -5.7249999 -1 158 117 51
-1.346 -5.7220001 -1.007 136 120 104
-1.346 -5.7249999 -1.001 89 87 39
-1.273 -5.5710001 -1.024 89 91 78
-1.283 -5.5700002 -1.02 61 55 21
-1.28 -5.5669999 -1.017 66 67 61
-1.262 -5.5640001 -1.024 99 101 88
-0.95899999 -5.6599998 -1.01 140 107 28
-0.96799999 -5.6880002 -1.017 64 59 21
-0.96399999 -5.6830001 -1.01 126 97 19
-1.0779999 -5.6220002 -1.023 72 60 48
-0.99599999 -5.6620002 -0.98699999 94 64 10
-0.995 -5.6739998 -0.97399998 169 127 27
-0.986 -5.664 -0.96899998 236 145 52
-0.98100001 -5.6620002 -0.98100001 161 123 48
-1.0039999 -5.678 -0.97000003 90 89 32
-1.001 -5.677 -0.97299999 92 85 43
-1.217 -5.54 -0.995 93 74 18
-1.217 -5.5510001 -0.99800003 43 38 0
-1.229 -5.552 -0.99199998 54 36 24
-1.223 -5.553 -0.99699998 88 74 11
-1.192 -5.6170001 -0.96700001 94 72 0
-1.223 -5.5289998 -0.99299997 133 123 54
-1.2180001 -5.526 -0.99599999 63 25 0
-1.209 -5.5380001 -0.995 215 188 99
-1.2180001 -5.5219998 -1.015 118 113 55
-1.102 -5.7420001 -0.92500001 255 221 95
-1.107 -5.7649999 -0.92900002 90 52 13
-1.09 -5.7280002 -0.991 178 149 55
-1.075 -5.737 -0.98500001 63 36 0
-1.09 -5.7389998 -0.98699999 138 110 27
-1.095 -5.7259998 -0.99299997 194 164 66
-1.094 -5.724 -0.99400002 116 87 27
-1.101 -5.7350001 -0.986 84 57 38
-1.149 -5.6830001 -0.96100003 154 142 90
-1.152 -5.6719999 -0.96600002 186 150 64
-1.143 -5.6760001 -0.96600002 125 114 52
-1.143 -5.6719999 -0.96700001 117 102 73
-1.283 -5.6440001 -0.95099998 76 67 10
-1.279 -5.6259999 -0.95300001 254 246 174
-1.274 -5.632 -0.958 155 153 70
-1.268 -5.652 -0.95700002 135 96 37
-1.211 -5.6560001 -0.95499998 255 251 180
-1.206 -5.658 -0.95599997 255 254 183
-1.206 -5.677 -0.95499998 208 200 138
-1.197 -5.6539998 -0.95599997 228 218 146
-1.232 -5.6620002 -0.95499998 62 41 24
-1.2869999 -5.6719999 -0.93900001 165 141 71
-1.216 -5.6999998 -0.98299998 101 73 26
-1.084 -5.7399998 -0.921 99 74 10
-1.029 -5.7729998 -0.94300002 243 208 154
-1.05 -5.7859998 -0.95099998 254 231 177
-1.04 -5.7909999 -0.954 140 128 70
-1.038 -5.7880001 -0.94800001 179 158 101
-1.087 -5.7670002 -0.92699999 163 122 70
-1.071 -5.7529998 -0.93000001 20 7 0
-1.067 -5.744 -0.92799997 44 23 0
-1.197 -5.783 -0.96499997 179 149 79
-1.204 -5.783 -0.96799999 181 152 76
-1.2309999 -5.7210002 -1.002 125 117 80
-1.181 -5.7589998 -0.95700002 117 95 46
-1.186 -5.7379999 -0.96100003 178 118 55
-1.193 -5.7600002 -0.96200001 144 102 54
-1.187 -5.7449999 -0.963 204 186 122
-1.196 -5.7379999 -0.96399999 156 96 24
-1.194 -5.7909999 -0.97299999 241 201 80
-1.191 -5.79 -0.96600002 227 172 79
-1.1799999 -5.7859998 -0.95700002 132 100 49
-1.186 -5.7779999 -0.95899999 138 103 37
-1.178 -5.776 -0.95499998 162 127 71
-1.175 -5.783 -0.96200001 169 131 66
-1.182 -5.789 -0.96799999 168 124 37
-1.281 -5.7610002 -0.98699999 77 69 33
-1.2869999 -5.7620001 -0.99199998 62 57 17
-1.273 -5.763 -0.98799998 81 73 36
-1.27 -5.7259998 -0.97100002 121 99 41
-1.274 -5.7199998 -0.96499997 161 150 84
-1.2589999 -5.7249999 -0.96600002 175 136 81
-1.224 -5.7680001 -0.97899997 249 214 120
-1.354 -5.7290001 -0.98299998 141 88 8
-1.347 -5.7129998 -0.97600001 70 50 0
-1.323 -5.7090001 -1 185 143 67
-1.3 -5.7140002 -0.99800003 46 32 0
-1.317 -5.7140002 -0.99299997 254 219 103
-1.3099999 -5.704 -0.99299997 123 91 32
-0.94700003 -5.7259998 -1.001 81 62 32
-0.935 -5.6570001 -1.0039999 103 70 0
-0.95300001 -5.6589999 -0.99699998 152 116 32
-0.94 -5.6490002 -0.99299997 162 97 13
-0.96600002 -5.75 -0.99800003 94 89 67
-0.972 -5.7550001 -0.99599999 192 177 86
-0.96399999 -5.7360001 -1 83 70 54
-1.005 -5.7030001 -1.0089999 102 96 48
-1.0140001 -5.698 -1.006 98 58 6
-0.93400002 -5.7670002 -0.97399998 153 139 64
-0.93400002 -5.7690001 -0.97399998 85 68 48
-1.1109999 -5.7870002 -0.93800002 35 34 13
-1.108 -5.79 -0.93400002 135 97 50
-1.108 -5.7719998 -0.93400002 129 67 28
-1.108 -5.7820001 -0.93400002 119 86 41
-1.09 -5.796 -0.93199998 117 88 44
-1.097 -5.7919998 -0.93400002 123 93 83
-1.0930001 -5.79 -0.93199998 138 107 61
-1.087 -5.7919998 -0.93699998 152 128 80
-1.092 -5.7839999 -0.93099999 188 151 99
-1.094 -5.7459998 -0.92299998 245 212 119
-1.079 -5.756 -0.92400002 115 73 15
-1.2130001 -5.7049999 -0.96200001 225 219 161
-1.206 -5.7129998 -0.963 103 74 32
-1.197 -5.7080002 -0.958 178 163 104
-1.221 -5.7080002 -0.96100003 128 97 43
-1.209 -5.7119999 -0.96399999 254 248 196
-1.275 -5.7119999 -0.96200001 195 138 25
-1.355 -5.7080002 -0.98199999 116 74 24
-1.35 -5.704 -0.97500002 162 122 35
-1.3940001 -5.6059999 -1.005 220 200 129
-1.3890001 -5.6220002 -1.0039999 127 105 82
-1.382 -5.6329999 -1.0039999 123 110 93
-1.386 -5.631 -1.002 175 146 78
-1.344 -5.6859999 -0.97500002 126 98 61
-1.353 -5.6929998 -0.97600001 130 96 59
-1.38 -5.618 -0.99699998 87 73 60
-1.376 -5.5890002 -1.017 158 145 103
-1.365 -5.585 -1.02 190 189 145
-1.395 -5.5770001 -1.015 56 36 1
-1.351 -5.5910001 -1.023 21 21 19
-1.373 -5.5900002 -1.003 126 94 55
-0.949 -5.7719998 -0.97000003 211 205 119
-0.94099998 -5.7639999 -0.96899998 217 210 130
-0.94300002 -5.7709999 -0.97000003 254 239 154
-0.94999999 -5.7620001 -0.972 176 120 27
-0.94999999 -5.77 -0.99599999 101 96 74
-0.93300003 -5.7779999 -0.98000002 118 80 31
-0.92900002 -5.7740002 -0.98400003 203 186 82
-0.986 -5.7709999 -0.99599999 179 164 63
-0.991 -5.776 -0.99199998 120 119 98
-0.98000002 -5.7649999 -0.98900002 109 100 71
-0.94300002 -5.7909999 -0.98199999 244 226 142
-0.94999999 -5.7989998 -0.98199999 112 83 43
-0.99800003 -5.7540002 -0.98199999 148 120 70
-0.99299997 -5.7659998 -0.98199999 91 88 21
-0.98799998 -5.789 -0.97299999 91 54 10
-0.94199997 -5.6880002 -0.96600002 173 158 65
-0.95300001 -5.7020001 -0.96399999 65 60 41
-0.93800002 -5.6960001 -0.972 155 94 47
-0.958 -5.6929998 -0.95499998 115 82 28
-0.93400002 -5.6750002 -0.95999998 251 215 141
-0.93099999 -5.6690001 -0.96899998 161 130 65
-0.98199999 -5.6789999 -1.011 70 49 6
-0.986 -5.6810002 -1.0089999 142 115 26
-0.963 -5.6810002 -1.008 73 53 42
-0.96600002 -5.6760001 -1.008 56 57 43
-0.95899999 -5.665 -1.006 131 132 72
-0.96200001 -5.6760001 -1.0039999 101 103 40
-0.94700003 -5.6539998 -0.98500001 89 57 0
-0.94099998 -5.6589999 -0.98199999 212 201 83
-0.96399999 -5.6550002 -0.977 165 131 86
-0.93599999 -5.6570001 -0.98100001 218 216 131
-0.93099999 -5.6620002 -0.97799999 229 189 127
-0.93099999 -5.6479998 -0.99000001 246 167 75
-0.93699998 -5.651 -0.98699999 155 111 48
-0.92199999 -5.6529999 -0.99299997 135 112 62
-0.92500001 -5.6589999 -0.98900002 200 124 49
-1.096 -5.7290001 -0.92400002 199 160 93
-1.092 -5.7329998 -0.92299998 178 152 57
-1.089 -5.7249999 -0.93099999 203 176 97
-1.075 -5.6810002 -0.97000003 184 160 88
-1.091 -5.671 -0.977 194 150 85
-1.074 -5.6789999 -0.977 98 58 0
-1.089 -5.6680002 -0.98199999 83 39 0
-1.059 -5.6739998 -0.98100001 203 162 82
-0.94099998 -5.711 -0.972 155 98 53
-1.298 -5.6630001 -0.93800002 62 46 30
-1.329 -5.6490002 -0.95099998 115 85 33
-1.3710001 -5.671 -0.98400003 255 225 167
-1.38 -5.678 -0.99900001 147 133 70
-1.3789999 -5.6659999 -0.99800003 60 59 13
-1.378 -5.6719999 -0.99900001 182 160 102
-1.206 -5.5170002 -1.025 88 90 77
-1.267 -5.5669999 -1.017 123 89 26
-1.279 -5.5700002 -1.011 33 32 30
-1.277 -5.5679998 -1.016 106 70 8
-1.263 -5.5619998 -1.017 142 111 46
-1.291 -5.572 -1.017 15 15 15
-1.299 -5.5689998 -1.016 15 15 15
-1.37 -5.5910001 -1.028 41 42 36
-1.3710001 -5.7080002 -0.99699998 127 99 62
-1.3609999 -5.723 -1.001 166 146 85
-1.331 -5.7119999 -1.007 159 130 64
-1.346 -5.7049999 -1.006 122 131 112
-1.327 -5.6989999 -1.0089999 182 145 67
-1.2970001 -5.7090001 -1.002 93 75 35
-0.963 -5.6659999 -1.007 55 53 40
-0.96399999 -5.6620002 -1.0089999 61 61 7
-0.96600002 -5.6570001 -1.0039999 187 190 123
-0.97299999 -5.6929998 -1.018 36 38 25
-0.995 -5.691 -1.0089999 157 164 146
-0.97500002 -5.697 -1.018 116 100 49
-1.23 -5.691 -0.99299997 221 185 107
-1.237 -5.698 -0.99400002 194 156 85
-1.222 -5.6849999 -0.98799998 60 51 0
-1.226 -5.684 -0.99299997 105 92 40
-1.274 -5.6849999 -1.006 94 81 47
-1.2640001 -5.698 -1.003 113 103 94
-1.267 -5.684 -1.002 95 89 65
-1.062 -5.71 -1.005 109 68 14
-1.081 -5.7069998 -0.991 236 203 126
-1.074 -5.7160001 -0.98699999 51 27 0
-1.061 -5.7030001 -1.005 42 32 5
-1.059 -5.7059999 -0.99400002 193 161 104
-1.184 -5.5359998 -1.021 103 90 48
-1.194 -5.5469999 -1.008 79 72 53
-1.1849999 -5.54 -1.012 61 56 34
-1.187 -5.5300002 -1.015 126 84 12
-1.197 -5.539 -1.0039999 65 47 35
-1.073 -5.6110001 -1.005 117 96 49
-1.071 -5.612 -1.005 60 21 0
-1.0700001 -5.6240001 -1.001 125 107 67
-1.075 -5.6170001 -1.006 93 72 27
-1.023 -5.6550002 -1.013 109 106 97
-1.03 -5.6719999 -1.016 48 41 33
-1.025 -5.6760001 -1.015 86 80 44
-1.086 -5.6360002 -1.012 62 49 41
-1.0779999 -5.6370001 -1.012 90 64 27
-1.076 -5.6370001 -1.007 109 57 0
-1.079 -5.6339998 -1.007 183 145 72
-0.98799998 -5.6550002 -0.99400002 156 146 75
-0.99699998 -5.6570001 -0.99400002 142 120 47
-0.97399998 -5.6500001 -1.005 133 109 61
-0.97299999 -5.6539998 -1.01 82 58 12
-1.071 -5.6079998 -1.011 117 103 68
-0.98000002 -5.6490002 -1.012 90 46 0
-1.005 -5.711 -1.0039999 108 64 0
-0.97899997 -5.7249999 -1.007 217 209 137
-0.99299997 -5.7290001 -1.0089999 171 177 163
-0.991 -5.6810002 -0.96899998 64 62 21
-1.003 -5.691 -0.95200002 255 218 117
-0.98299998 -5.6799998 -0.96700001 97 94 39
-1.207 -5.5560002 -0.99800003 152 128 38
-1.216 -5.5380001 -0.99400002 119 106 36
-1.2180001 -5.5209999 -1.0190001 53 56 35
-1.227 -5.5209999 -1.023 62 57 19
-1.214 -5.5229998 -1.008 74 75 17
-1.209 -5.5209999 -1 243 183 95
-1.205 -5.5289998 -1.001 131 109 33
-1.123 -5.6830001 -1.008 171 172 115
-1.117 -5.7059999 -1.0039999 161 164 109
-1.1339999 -5.7020001 -1.0039999 56 55 24
-1.0599999 -5.6929998 -0.99599999 190 165 111
-1.057 -5.7010002 -1.008 162 146 131
-1.131 -5.6919999 -0.96100003 121 102 46
-1.131 -5.678 -0.972 123 117 69
-1.142 -5.684 -0.96700001 139 124 65
-1.1619999 -5.6459999 -0.97600001 120 89 24
-1.16 -5.6599998 -0.97000003 63 56 12
-1.171 -5.6500001 -0.96899998 116 108 59
-1.1720001 -5.6389999 -0.96700001 78 70 21
-1.151 -5.6609998 -0.96899998 168 138 84
-1.094 -5.677 -0.97500002 174 129 48
-1.196 -5.6760001 -0.95599997 174 163 101
-1.281 -5.6620002 -0.94700003 149 108 44
-1.197 -5.6409998 -0.95899999 204 197 116
-1.217 -5.664 -0.95700002 254 229 172
-1.216 -5.697 -0.95999998 138 118 81
-1.212 -5.6919999 -0.95899999 255 254 191
-1.214 -5.677 -0.958 105 87 67
-1.21 -5.6810002 -0.95599997 242 236 174
-1.168 -5.6799998 -0.958 149 123 108
-1.187 -5.671 -0.95999998 116 103 33
-1.191 -5.6760001 -0.95599997 146 129 60
-1.191 -5.6630001 -0.958 138 84 22
-1.2029999 -5.652 -1.0190001 31 28 21
-1.2079999 -5.6550002 -1.0190001 66 51 8
-1.201 -5.6389999 -1.01 58 56 44
-1.2180001 -5.6479998 -1.007 106 96 47
-1.2359999 -5.6170001 -1.01 32 33 27
-1.25 -5.6139998 -1.015 33 29 26
-1.244 -5.6059999 -1.015 52 43 12
-1.232 -5.5949998 -1.0140001 51 16 0
-1.243 -5.697 -0.995 135 107 59
-1.085 -5.7360001 -0.92299998 157 134 58
-1.2 -5.723 -0.98199999 100 99 45
-1.193 -5.7290001 -0.98799998 222 181 101
-1.2130001 -5.73 -0.986 157 128 52
-1.143 -5.711 -0.99199998 76 63 28
-1.149 -5.704 -0.99299997 67 70 61
-1.2029999 -5.7119999 -0.963 255 254 203
-1.0369999 -5.777 -0.94400001 207 175 116
-1.034 -5.7750001 -0.95599997 72 59 43
-1.041 -5.7880001 -0.954 132 114 76
-1.049 -5.7930002 -0.95700002 183 161 103
-1.053 -5.7940001 -0.958 255 245 188
-1.048 -5.79 -0.95999998 190 172 108
-1.051 -5.789 -0.95999998 255 251 189
-1.102 -5.7740002 -0.93199998 152 111 81
-1.115 -5.763 -0.93900001 152 112 76
-1.1160001 -5.7540002 -0.95700002 122 90 49
-1.122 -5.7449999 -0.95300001 122 93 51
-1.054 -5.7750001 -0.94300002 255 241 125
-1.012 -5.737 -1.001 120 90 30
-1.034 -5.7470002 -1.003 53 47 15
-1.03 -5.7600002 -0.99000001 87 75 35
-1.029 -5.7639999 -0.99599999 107 74 20
-1.181 -5.763 -0.98100001 199 162 91
-1.198 -5.7579999 -0.98500001 200 163 75
-1.179 -5.7589998 -0.98199999 133 100 0
-1.063 -5.7509999 -0.935 131 92 35
-1.05 -5.7490001 -0.93900001 210 208 125
-1.039 -5.7459998 -0.93900001 131 102 24
-1.043 -5.7519999 -0.93900001 176 173 92
-1.043 -5.7340002 -0.94599998 254 235 115
-1.034 -5.7389998 -0.94099998 138 110 10
-1.118 -5.783 -0.94099998 157 131 82
-1.1109999 -5.763 -0.94700003 253 248 208
-1.103 -5.7750001 -0.949 179 121 71
-1.107 -5.7810001 -0.94199997 109 75 4
-1.108 -5.783 -0.94 109 66 0
-1.197 -5.6989999 -1.003 81 91 41
-1.207 -5.7410002 -0.991 173 135 54
-1.189 -5.737 -0.98799998 206 180 103
-1.224 -5.6799998 -1.005 99 86 44
-1.238 -5.6799998 -1 77 77 39
-1.224 -5.677 -1.007 113 77 27
-1.196 -5.75 -0.986 210 171 78
-1.205 -5.7470002 -0.991 239 198 106
-1.219 -5.7280002 -0.986 131 104 37
-1.2359999 -5.7319999 -0.97100002 207 164 96
-1.243 -5.7119999 -0.98000002 105 78 11
-1.252 -5.7189999 -0.97899997 132 90 18
-1.237 -5.7160001 -0.98100001 63 35 0
-1.216 -5.7459998 -0.98299998 226 185 95
-1.186 -5.7919998 -0.96600002 127 109 107
-1.187 -5.7870002 -0.96100003 179 144 80
-1.235 -5.7220001 -0.99400002 128 99 55
-1.235 -5.737 -0.98799998 84 98 21
-1.251 -5.717 -1.003 123 109 64
-1.257 -5.711 -1.006 35 32 1
-1.279 -5.7480001 -0.98900002 97 67 7
-1.271 -5.756 -0.99299997 93 81 33
-1.274 -5.7589998 -0.995 140 104 28
-1.258 -5.7220001 -0.972 158 113 30
-1.342 -5.71 -0.97500002 128 115 63
-1.332 -5.7049999 -0.98199999 100 88 36
-1.331 -5.717 -0.97799999 120 105 50
-1.351 -5.723 -0.98100001 210 171 114
-1.352 -5.7270002 -0.98299998 136 96 26
-1.294 -5.75 -0.98699999 146 123 105
-1.334 -5.7319999 -0.986 240 200 87
-1.2920001 -5.7480001 -0.99299997 157 117 45
-1.327 -5.7270002 -0.98500001 201 157 94
-1.295 -5.7420001 -0.99199998 148 107 43
-0.94499999 -5.7280002 -0.99599999 191 155 93
-0.95899999 -5.6900001 -1.0089999 106 80 23
-0.963 -5.7179999 -1.0089999 72 50 3
-0.963 -5.7210002 -1.005 102 84 44
-0.98400003 -5.7350001 -0.99599999 180 140 52
-1.0089999 -5.6739998 -1.008 148 141 89
-0.93800002 -5.7649999 -0.96899998 213 197 119
-0.935 -5.7729998 -0.97399998 178 162 49
-1.076 -5.7859998 -0.94700003 210 193 139
-1.071 -5.7820001 -0.949 244 230 185
-1.081 -5.7509999 -0.92199999 254 234 113
-1.205 -5.7010002 -0.963 255 254 206
-1.186 -5.7540002 -0.98199999 48 57 4
-1.11 -5.7350001 -0.98000002 248 230 120
-1.113 -5.7179999 -0.99400002 85 71 42
-1.112 -5.7509999 -0.95200002 135 107 60
-1.3609999 -5.7020001 -1.007 58 54 9
-1.347 -5.6989999 -1.003 184 142 70
-1.3559999 -5.6950002 -1.0039999 112 119 103
-1.367 -5.6900001 -1.002 128 98 44
-1.365 -5.677 -1.007 82 82 30
-0.95700002 -5.7919998 -0.99400002 167 139 91
-0.96700001 -5.7779999 -0.98799998 255 252 200
-0.95599997 -5.7969999 -0.99699998 181 161 124
-1.3839999 -5.6810002 -1.0039999 186 142 77
-1.3890001 -5.6090002 -1.001 98 83 18
-1.3380001 -5.5710001 -1.026 104 110 100
-1.334 -5.5650001 -1.025 130 136 126
-1.325 -5.5640001 -1.02 167 160 105
-1.342 -5.5929999 -1.017 44 30 21
-1.354 -5.599 -1.018 69 53 40
-1.299 -5.6059999 -0.96899998 51 42 11
-1.2819999 -5.6090002 -0.96100003 168 132 56
-1.293 -5.5939999 -0.97600001 255 223 120
-1.2869999 -5.5960002 -0.97299999 245 216 114
-1.344 -5.5749998 -1.01 155 132 78
-1.327 -5.5630002 -1.0190001 96 101 94
-1.327 -5.5760002 -0.99599999 240 217 111
-1.345 -5.586 -0.99199998 111 81 43
-1.24 -5.5289998 -0.99599999 222 132 44
-1.238 -5.5370002 -0.99699998 127 120 65
-1.381 -5.605 -1 129 101 54
-1.391 -5.5999999 -0.99900001 43 20 6
-1.38 -5.592 -1.007 156 149 81
-1.386 -5.5960002 -1.006 127 119 56
-1.373 -5.5900002 -1.016 118 103 84
-1.3789999 -5.5910001 -1.007 47 30 4
-0.95499998 -5.763 -0.99599999 183 163 100
-0.926 -5.6859999 -0.98100001 94 79 22
-1.026 -5.7690001 -0.98900002 92 57 0
-1.028 -5.7690001 -0.99299997 122 87 31
-1.031 -5.763 -0.96100003 215 159 110
-1.066 -5.7360001 -0.935 215 187 113
-1.069 -5.7379999 -0.92799997 147 119 71
-1.0549999 -5.7389998 -0.94300002 222 204 94
-1.068 -5.7329998 -0.93199998 161 144 72
-1.029 -5.7280002 -0.93900001 117 98 91
-1.023 -5.7220001 -0.93800002 209 145 48
-1.024 -5.7270002 -0.935 202 193 114
-1.028 -5.7449999 -0.935 248 174 77
-1.023 -5.7519999 -0.93699998 186 162 88
-1.018 -5.75 -0.94 160 141 75
-1.029 -5.7659998 -0.94 174 136 74
-1.03 -5.7620001 -0.93900001 135 104 49
-0.98400003 -5.7859998 -0.972 119 100 96
-0.98699999 -5.783 -0.97100002 71 51 16
-0.98699999 -5.7909999 -0.977 81 67 28
-0.977 -5.789 -0.97899997 170 110 38
-0.92799997 -5.665 -0.97299999 175 131 68
-0.949 -5.6880002 -0.96499997 204 191 136
-0.958 -5.697 -0.958 222 188 116
-0.96700001 -5.6900001 -0.95499998 134 101 47
-0.93900001 -5.6760001 -0.96499997 222 191 111
-0.97500002 -5.6719999 -1.0140001 48 50 37
-0.97799999 -5.664 -1.0140001 64 58 24
-0.98799998 -5.658 -1.013 66 60 26
-0.94199997 -5.6620002 -0.99599999 169 134 53
-0.96399999 -5.6529999 -0.99699998 177 135 49
-0.97799999 -5.6500001 -0.99900001 135 89 14
-0.93099999 -5.6479998 -0.995 233 157 73
-1.101 -5.7280002 -0.92900002 218 187 105
-1.0880001 -5.7119999 -0.93800002 247 226 117
-1.087 -5.697 -0.94599998 164 142 101
-1.069 -5.704 -0.93599999 250 224 163
-1.097 -5.724 -0.93199998 75 28 0
-1.0319999 -5.6729999 -0.97799999 255 235 168
-1.038 -5.6739998 -0.96700001 123 81 9
-1.033 -5.6760001 -0.97600001 74 64 28
-1.012 -5.678 -0.972 229 185 90
-1.035 -5.6739998 -0.97500002 97 91 65
-1.044 -5.704 -0.95099998 151 127 79
-1.027 -5.711 -0.95300001 218 176 74
-1.038 -5.7010002 -0.95599997 255 243 150
-1.041 -5.711 -0.954 251 230 147
-1.038 -5.6859999 -0.96799999 162 135 82
-1.025 -5.6919999 -0.96899998 103 73 23
-1.038 -5.6900001 -0.95999998 252 222 150
-1.071 -5.6339998 -1.01 137 100 48
-1.05 -5.678 -0.98900002 114 103 71
-1.051 -5.6919999 -0.99299997 79 73 25
-1.041 -5.677 -0.99599999 100 94 62
-1.076 -5.6810002 -0.97899997 103 58 0
-1.077 -5.6869998 -0.98199999 108 63 0
-1.09 -5.6760001 -0.986 214 182 105
-0.93099999 -5.7030001 -0.98500001 245 234 172
-0.92900002 -5.6950002 -0.99299997 224 159 79
-0.935 -5.724 -0.98799998 150 118 103
-0.93300003 -5.7059999 -0.98199999 154 130 120
-0.93300003 -5.7069998 -0.98400003 229 206 136
-0.93800002 -5.7140002 -0.98299998 190 171 102
-0.958 -5.704 -0.96100003 122 90 77
-1.307 -5.6539998 -0.94 170 142 68
-1.393 -5.5840001 -1.025 77 80 73
-1.397 -5.585 -1.022 125 110 67
-1.399 -5.5830002 -1.018 88 90 77
-1.385 -5.632 -1.002 177 123 76
-1.354 -5.6570001 -0.97899997 148 130 68
-1.35 -5.6739998 -0.977 103 80 72
-1.358 -5.6739998 -0.98199999 205 174 81
-1.249 -5.5640001 -1.018 126 127 119
-1.248 -5.5679998 -1.026 100 102 89
-1.248 -5.5450001 -1.0140001 76 64 6
-1.261 -5.5669999 -1.008 51 33 29
-1.257 -5.5630002 -0.99900001 104 109 69
-1.274 -5.599 -1.0140001 55 39 24
-1.262 -5.599 -1.011 54 50 49
-1.265 -5.5910001 -1.016 97 96 91
-1.397 -5.5869999 -1.0089999 41 32 25
-1.367 -5.5890002 -1.027 191 172 114
-1.369 -5.5939999 -1.022 88 89 81
-1.3789999 -5.585 -1.026 59 60 54
-1.36 -5.711 -0.98799998 143 97 35
-1.358 -5.7140002 -0.986 137 89 23
-1.33 -5.7189999 -1.006 152 114 33
-1.28 -5.7049999 -0.96200001 255 229 170
-1.276 -5.7049999 -0.96100003 201 191 120
-1.28 -5.7129998 -0.96499997 188 157 102
-1.2869999 -5.6919999 -0.94999999 213 164 59
-1.324 -5.71 -1.002 179 143 65
-1.2539999 -5.7049999 -0.99900001 25 19 0
-1.252 -5.7030001 -0.99599999 159 123 63
-1.311 -5.6939998 -0.98400003 63 45 31
-1.2970001 -5.7030001 -0.96899998 119 60 0
-1.312 -5.6890001 -0.98100001 245 209 86
-1.326 -5.6939998 -0.986 43 40 0
-0.98400003 -5.6859999 -1.008 81 65 52
-0.99299997 -5.6810002 -1.006 69 50 10
-1.126 -5.665 -1.001 161 138 86
-1.12 -5.6659999 -0.991 76 46 0
-1.125 -5.658 -1.006 131 123 87
-1.119 -5.665 -0.99800003 117 88 28
-1.153 -5.6589999 -0.97600001 80 84 33
-1.16 -5.6539998 -0.98199999 224 165 65
-1.227 -5.665 -1.0039999 76 67 28
-1.24 -5.6700001 -0.99900001 202 191 109
-0.97899997 -5.6960001 -1.011 56 63 45
-1.2180001 -5.7010002 -0.98199999 110 103 75
-1.225 -5.664 -1.007 51 52 46
-1.272 -5.6900001 -1.0039999 41 33 14
-1.293 -5.6950002 -1.007 43 37 3
-1.199 -5.6630001 -1.013 145 127 115
-1.1849999 -5.6539998 -1.011 70 75 43
-1.201 -5.658 -1.0140001 37 37 29
-1.166 -5.6859999 -1.005 103 85 35
-1.155 -5.6869998 -1.003 96 95 49
-1.166 -5.6849999 -1.003 121 113 76
-1.085 -5.7309999 -0.986 122 92 2
-1.082 -5.7189999 -0.98699999 208 209 143
-1.059 -5.7249999 -0.99800003 93 50 15
-1.094 -5.7210002 -0.99299997 111 111 103
-1.091 -5.7150002 -0.991 116 85 2
-1.057 -5.7290001 -0.99699998 91 73 63
-1.059 -5.723 -1.01 51 50 45
-1.201 -5.5339999 -1.023 98 85 33
-1.199 -5.5209999 -1.023 125 119 67
-1.194 -5.533 -1.008 120 110 61
-1.012 -5.6669998 -1.008 103 107 72
-1.062 -5.625 -1.003 103 84 41
-1.059 -5.6830001 -0.95700002 147 126 81
-1.058 -5.6799998 -0.97600001 164 162 113
-1.05 -5.6799998 -0.95599997 228 213 122
-1.072 -5.6820002 -0.96899998 121 92 12
-1.098 -5.6659999 -0.98000002 210 138 38
-1.0779999 -5.625 -1.002 82 69 37
-1.087 -5.6300001 -1.006 41 20 0
-1.077 -5.6129999 -1.006 125 108 64
-1.104 -5.6599998 -0.991 218 178 80
-1.108 -5.6760001 -0.99699998 125 93 36
-1.095 -5.6329999 -1.01 134 75 0
-1.0700001 -5.6110001 -1.012 108 57 0
-1.002 -5.7259998 -1.005 106 74 15
-1.2079999 -5.553 -0.99900001 55 51 6
-1.219 -5.5580001 -0.99800003 141 126 67
-1.23 -5.553 -0.99199998 80 69 15
-1.209 -5.625 -0.97799999 63 38 0
-1.226 -5.6290002 -0.97899997 152 119 40
-1.22 -5.6339998 -0.97799999 167 148 79
-1.214 -5.625 -0.98699999 91 60 0
-1.188 -5.6209998 -0.96499997 209 185 75
-1.196 -5.6329999 -0.96100003 254 224 136
-1.2079999 -5.52 -1.023 68 64 16
-1.206 -5.526 -1.005 123 84 7
-1.239 -5.5359998 -1.02 78 81 62
-1.2410001 -5.539 -1.0089999 136 130 80
-1.2359999 -5.5339999 -1.015 37 32 0
-1.0930001 -5.6929998 -1 137 113 101
-1.044 -5.7069998 -1.015 22 17 11
-1.044 -5.7049999 -1.013 90 51 10
-1.054 -5.7189999 -1.0089999 43 42 37
-1.0549999 -5.7119999 -1.01 71 45 10
-1.023 -5.6799998 -1.0089999 130 101 61
-1.052 -5.6960001 -0.99699998 106 74 35
-1.115 -5.6820002 -1.007 107 108 48
-1.127 -5.691 -1.0039999 244 233 171
-1.126 -5.7030001 -1.002 255 248 201
-1.122 -5.6680002 -1.007 107 100 56
-1.113 -5.6729999 -0.99800003 241 207 120
-1.119 -5.691 -0.96799999 144 140 95
-1.125 -5.6890001 -0.96799999 87 83 38
-1.112 -5.6849999 -0.96799999 137 104 27
-1.118 -5.6719999 -0.97600001 139 103 17
-1.153 -5.711 -0.95200002 118 95 41
-1.156 -5.7059999 -0.95099998 131 105 56
-1.155 -5.717 -0.95200002 135 106 64
-1.105 -5.7480001 -0.92799997 253 194 92
-1.103 -5.7509999 -0.926 249 175 66
-1.149 -5.6999998 -0.95300001 150 126 88
-1.1569999 -5.6890001 -0.958 156 119 77
-1.166 -5.6880002 -0.95700002 141 116 76
-1.1849999 -5.7639999 -0.963 155 125 61
-1.0880001 -5.6230001 -1.017 225 162 93
-1.084 -5.625 -1.018 82 68 29
-1.033 -5.7509999 -0.93800002 165 130 30
-1.034 -5.7600002 -0.93800002 255 221 121
-1.0650001 -5.7930002 -0.95499998 164 152 110
-1.062 -5.7919998 -0.958 255 254 211
-1.113 -5.7270002 -0.98400003 101 93 46
-1.1210001 -5.6919999 -1 127 135 75
-1.2 -5.6789999 -0.95599997 251 242 183
-1.244 -5.6609998 -0.95700002 99 87 61
-1.252 -5.6469998 -0.95999998 121 89 42
-1.289 -5.6570001 -0.94400001 197 182 143
-1.271 -5.6589999 -0.95499998 180 118 33
-1.263 -5.6620002 -0.958 124 87 35
-1.279 -5.6659999 -0.94800001 178 163 104
-1.168 -5.6430001 -0.98000002 56 54 3
-1.174 -5.6389999 -0.97299999 69 71 58
-1.274 -5.6069999 -0.96399999 251 245 169
-1.267 -5.6230001 -0.963 204 199 115
-1.276 -5.6160002 -0.96100003 255 222 156
-1.261 -5.618 -0.96899998 114 77 0
-1.2180001 -5.645 -0.95599997 177 131 46
-1.295 -5.6799998 -0.935 241 215 141
-1.198 -5.6669998 -0.95899999 255 253 182
-1.239 -5.605 -1.003 112 65 23
-1.25 -5.599 -1.001 50 55 15
-1.253 -5.6079998 -0.99299997 76 74 49
-1.24 -5.5869999 -1.001 131 122 105
-1.2130001 -5.6220002 -1.006 51 44 25
-1.2130001 -5.6139998 -1.001 88 69 26
-1.205 -5.6059999 -1.002 168 113 31
-1.182 -5.6659999 -1.005 88 70 24
-1.178 -5.6560001 -1.011 77 47 0
-1.256 -5.6719999 -0.99400002 122 92 38
-1.261 -5.6820002 -0.995 37 30 4
-1.183 -5.7179999 -0.98500001 106 93 49
-1.171 -5.704 -0.97500002 150 141 66
-1.1670001 -5.6950002 -0.98000002 138 122 88
-1.1799999 -5.698 -0.98000002 111 96 27
-1.205 -5.7220001 -0.98000002 104 77 24
-1.202 -5.737 -0.986 119 104 35
-1.2 -5.7459998 -0.96600002 118 95 81
-1.205 -5.7329998 -0.96399999 248 241 187
-1.186 -5.7249999 -0.95499998 110 78 40
-1.178 -5.7210002 -0.963 147 123 61
-1.1670001 -5.7280002 -0.96399999 90 66 56
-1.192 -5.7199998 -0.963 133 114 74
-1.025 -5.763 -0.94099998 196 168 105
-1.031 -5.7750001 -0.94400001 136 102 64
-1.062 -5.7909999 -0.954 212 197 154
-1.0549999 -5.7919998 -0.95700002 249 240 185
-1.098 -5.7740002 -0.92799997 227 184 115
-1.099 -5.7620001 -0.926 134 110 106
-1.175 -5.7659998 -0.958 188 155 88
-1.034 -5.7680001 -0.99900001 53 54 46
-1.113 -5.7540002 -0.958 190 170 159
-1.114 -5.7449999 -0.958 128 103 62
-1.103 -5.7480001 -0.958 107 87 76
-1.048 -5.7600002 -0.94 227 211 126
-1.0599999 -5.7189999 -1.002 140 141 135
-1.0319999 -5.684 -0.99699998 168 136 85
-1.038 -5.6929998 -0.995 52 25 0
-1.039 -5.6810002 -0.995 100 96 48
-1.114 -5.7740002 -0.94099998 248 228 177
-1.113 -5.7870002 -0.93400002 136 100 50
-1.182 -5.777 -0.97399998 162 137 71
-1.176 -5.7740002 -0.96499997 120 61 0
-1.192 -5.7550001 -0.96499997 129 88 36
-1.234 -5.6880002 -0.99699998 58 34 0
-1.224 -5.6810002 -1 88 79 36
-1.2130001 -5.6799998 -1.011 59 60 54
-1.209 -5.6729999 -1.0089999 49 52 43
-1.202 -5.6750002 -1.005 96 91 51
-1.196 -5.6919999 -1.007 36 37 0
-1.205 -5.7779999 -0.98400003 199 160 41
-1.197 -5.7680001 -0.98000002 222 183 56
-1.235 -5.7280002 -0.98799998 80 58 17
-1.225 -5.743 -0.98400003 73 39 0
-1.221 -5.7540002 -0.98299998 177 153 63
-1.227 -5.757 -0.97899997 250 216 119
-1.238 -5.7280002 -0.986 83 51 0
-1.212 -5.7659998 -0.98199999 154 113 51
-1.217 -5.7620001 -0.98400003 180 143 37
-1.22 -5.756 -0.98299998 145 107 22
-1.281 -5.7319999 -1.002 122 91 73
-1.286 -5.7340002 -0.99299997 124 113 59
-1.28 -5.7529998 -0.99699998 48 41 0
-1.286 -5.7540002 -0.99699998 42 38 0
-1.281 -5.7610002 -0.99299997 60 56 18
-1.1950001 -5.7589998 -0.98199999 209 175 51
-1.229 -5.7600002 -0.97899997 229 192 103
-1.226 -5.7600002 -0.97600001 221 184 80
-1.217 -5.7659998 -0.97100002 45 40 0
-1.278 -5.7150002 -0.97100002 126 110 23
-1.346 -5.6999998 -0.97600001 246 223 119
-1.346 -5.697 -0.977 80 64 5
-1.351 -5.698 -0.977 91 72 14
-1.351 -5.7160001 -0.98100001 187 150 97
-1.281 -5.7129998 -0.96899998 226 196 136
-1.29 -5.7090001 -0.991 166 124 24
-1.289 -5.7129998 -0.99299997 51 45 13
-0.94099998 -5.7090001 -1.0039999 59 33 0
-0.94199997 -5.7150002 -1.0039999 78 54 8
-0.92799997 -5.6890001 -1.001 85 91 47
-0.94199997 -5.7030001 -1.0039999 40 15 0
-0.93599999 -5.6690001 -0.99800003 146 111 19
-0.93800002 -5.6630001 -0.99800003 148 113 32
-0.95200002 -5.7319999 -0.98500001 106 103 34
-0.96700001 -5.7350001 -1.003 130 95 39
-0.98900002 -5.7329998 -0.99599999 82 53 0
-1.01 -5.7379999 -0.995 246 214 131
-1 -5.7290001 -1.001 174 169 105
-1.001 -5.6929998 -1.0089999 147 154 138
-0.954 -5.7129998 -0.96499997 86 73 57
-1.086 -5.7870002 -0.93800002 196 173 121
-1.077 -5.737 -0.92299998 100 80 21
-1.2130001 -5.7129998 -0.96499997 205 192 140
-1.214 -5.7309999 -0.96799999 255 250 203
-1.21 -5.7010002 -0.963 177 112 56
-1.201 -5.6989999 -0.96200001 252 250 199
-1.1849999 -5.743 -0.98199999 136 137 79
-1.184 -5.7490001 -0.98100001 191 155 69
-1.367 -5.6989999 -1.0039999 166 169 162
-1.3710001 -5.6989999 -1.001 142 125 107
-0.96799999 -5.7930002 -0.986 255 250 195
-0.96600002 -5.7870002 -0.98699999 246 239 185
-0.97399998 -5.7909999 -0.98299998 255 254 207
-0.95499998 -5.7820001 -0.98799998 217 211 135
-0.949 -5.7919998 -0.99800003 71 62 31
-1.3890001 -5.6069999 -1.006 137 121 108
-1.325 -5.5689998 -1.0140001 88 93 87
-1.3380001 -5.6199999 -1.005 150 128 115
-1.322 -5.6259999 -1.0089999 89 82 38
-1.346 -5.631 -1.007 66 57 24
-1.302 -5.6370001 -0.958 145 118 63
-1.306 -5.6370001 -0.96200001 152 94 20
-1.303 -5.625 -0.97000003 138 125 90
-1.334 -5.5770001 -1.0039999 89 64 0
-1.351 -5.5830002 -1.003 43 26 6
-1.321 -5.5739999 -1.005 66 62 25
-1.3049999 -5.5770001 -1.0039999 108 109 51
-1.325 -5.5710001 -1.0089999 128 129 69
-1.388 -5.598 -1.0039999 92 78 31
-1.388 -5.6040001 -1.001 136 110 61
-1.331 -5.6300001 -0.95999998 122 92 56
-1.337 -5.618 -0.96799999 120 90 52
-1.349 -5.6389999 -0.972 61 51 42
-0.94999999 -5.7789998 -0.97100002 251 239 119
-0.98699999 -5.7610002 -0.98199999 99 74 44
-0.93599999 -5.7800002 -0.99400002 119 125 65
-0.94300002 -5.7800002 -0.97399998 234 217 163
-0.93300003 -5.7690001 -0.97799999 135 122 10
-0.92699999 -5.678 -0.977 253 240 187
-0.995 -5.7680001 -0.972 76 47 17
-0.99000001 -5.7680001 -0.96700001 110 99 53
-1.067 -5.7399998 -0.93300003 212 193 134
-1.071 -5.7379999 -0.921 39 13 0
-1.021 -5.717 -0.949 254 224 152
-1.0089999 -5.6950002 -0.95499998 213 175 110
-1.048 -5.7249999 -0.94700003 228 214 139
-1.049 -5.7220001 -0.94700003 117 87 77
-1.043 -5.7249999 -0.94700003 254 245 170
-1.059 -5.7210002 -0.94300002 182 152 102
-1.022 -5.7480001 -0.93900001 248 215 112
-0.96799999 -5.7140002 -0.95599997 184 150 87
-0.99000001 -5.7810001 -0.977 255 247 206
-0.98900002 -5.7779999 -0.98000002 131 121 50
-0.96600002 -5.6760001 -0.96600002 131 95 79
-0.98699999 -5.6729999 -1.006 187 181 119
-0.95999998 -5.6550002 -0.99299997 134 86 4
-0.95099998 -5.6890001 -1.006 77 76 19
-0.954 -5.6630001 -0.97600001 200 130 42
-0.92699999 -5.664 -1 116 87 19
-1.104 -5.7399998 -0.92799997 231 204 135
-1.102 -5.744 -0.935 137 116 71
-1.105 -5.7379999 -0.93000001 92 71 16
-1.033 -5.6789999 -0.97500002 183 167 92
-1.046 -5.7059999 -0.94999999 137 113 103
-1.0599999 -5.7140002 -0.94800001 156 95 48
-1.008 -5.6900001 -0.95899999 182 136 61
-1.0369999 -5.6939998 -0.95499998 251 240 158
-1.0470001 -5.6890001 -0.95499998 255 243 141
-1.041 -5.6729999 -1.001 120 111 80
-1.041 -5.6609998 -0.99900001 75 44 0
-1.0470001 -5.6700001 -0.986 163 123 53
-1.068 -5.6300001 -1.005 58 51 43
-1.045 -5.6680002 -0.97899997 230 186 89
-1.0700001 -5.6290002 -1.012 83 55 16
-1.031 -5.6669998 -0.98299998 136 135 81
-0.954 -5.777 -0.97100002 255 244 122
-0.95700002 -5.7740002 -0.97100002 229 223 135
-0.95200002 -5.7480001 -0.98199999 228 218 147
-0.95300001 -5.7519999 -0.98000002 255 223 117
-1.324 -5.6599998 -0.94499999 175 132 38
-1.3200001 -5.664 -0.94300002 170 139 72
-1.316 -5.6669998 -0.93900001 159 125 54
-1.383 -5.618 -1.006 189 150 85
-1.38 -5.6500001 -0.99900001 183 159 121
-1.3789999 -5.6529999 -0.99900001 252 229 161
-1.234 -5.5320001 -1.02 94 97 76
-1.227 -5.533 -1.02 73 77 54
-1.227 -5.5229998 -1.024 117 105 33
-1.266 -5.5700002 -1.025 127 129 116
-1.26 -5.599 -0.99900001 89 76 42
-1.256 -5.6030002 -0.99800003 71 60 28
-1.2539999 -5.5830002 -0.99800003 55 36 22
-1.298 -5.5799999 -1.0039999 96 96 46
-1.274 -5.5770001 -1.005 77 73 35
-1.279 -5.5890002 -1.008 96 68 21
-1.27 -5.5770001 -1.0190001 108 109 101
-1.265 -5.5739999 -1.0190001 162 164 153
-1.363 -5.6370001 -0.99599999 226 206 155
-1.358 -5.6279998 -0.99299997 115 88 77
-1.37 -5.6300001 -0.99800003 86 72 59
-1.355 -5.6360002 -0.991 175 175 105
-1.399 -5.592 -1.011 136 119 76
-1.408 -5.5939999 -1.011 144 123 80
-1.358 -5.7080002 -1.006 181 184 173
-1.3660001 -5.7090001 -0.99400002 141 87 41
-1.296 -5.6529999 -1.01 28 17 0
-1.296 -5.651 -1.003 60 43 17
-1.294 -5.6350002 -1.007 97 62 0
-1.2920001 -5.572 -1.023 48 49 44
-1.295 -5.572 -1.02 151 137 74
-1.279 -5.5879998 -1.017 155 123 74
-1.2970001 -5.5749998 -1.023 30 32 29
-1.293 -5.6090002 -1.015 32 26 2
-1.3150001 -5.573 -1.015 46 17 0
-1.2970001 -5.6389999 -0.99900001 96 59 30
-1.2970001 -5.6420002 -0.99800003 56 53 36
-1.3710001 -5.6479998 -0.99699998 95 70 39
-1.3559999 -5.651 -0.977 139 118 51
-1.347 -5.645 -0.97100002 99 77 36
-1.351 -5.6490002 -0.97600001 154 140 67
-1.341 -5.652 -0.96700001 127 69 31
-1.303 -5.7069998 -0.98799998 48 18 0
-1.274 -5.7270002 -0.98900002 249 205 116
-1.2819999 -5.7360001 -0.98900002 61 26 0
-1.304 -5.6849999 -0.94800001 218 168 71
-1.2869999 -5.6880002 -0.949 235 166 89
-1.304 -5.6830001 -0.95099998 247 189 92
-1.298 -5.7049999 -0.96600002 107 79 29
-1.3430001 -5.7340002 -0.986 151 138 130
-1.3380001 -5.7270002 -0.98500001 75 66 23
-1.2589999 -5.7030001 -1.001 92 78 33
-1.304 -5.7020001 -0.986 134 99 31
-1.327 -5.7080002 -0.98699999 136 96 11
-1.3710001 -5.6560001 -1.007 231 208 138
-1.355 -5.6539998 -1.017 135 105 41
-1.141 -5.6630001 -0.98699999 232 194 69
-1.151 -5.6630001 -0.98400003 171 135 41
-1.193 -5.6929998 -1.002 75 74 28
-1.23 -5.6659999 -1 126 91 25
-1.136 -5.664 -1.001 141 110 45
-1.135 -5.6729999 -1.007 116 115 67
-1.17 -5.6469998 -1.011 77 46 0
-1.169 -5.6669998 -1.0039999 161 149 107
-1.147 -5.6729999 -1 88 83 43
-1.155 -5.6760001 -0.995 154 140 67
-1.131 -5.6669998 -0.995 64 63 15
-1.138 -5.6659999 -0.991 58 59 15
-1.128 -5.6690001 -0.98799998 143 110 17
-1.13 -5.6700001 -1.006 141 140 86
-1.168 -5.6550002 -1.007 101 83 33
-1.169 -5.652 -1.008 60 56 47
-1.136 -5.691 -1.003 95 87 40
-1.147 -5.6960001 -0.99400002 149 102 56
-1.251 -5.5910001 -1.016 123 86 31
-1.249 -5.5970001 -1.0140001 73 64 31
-1.288 -5.7069998 -1.002 102 85 57
-1.3049999 -5.691 -1.001 123 111 63
-1.271 -5.6290002 -0.977 149 153 139
-1.28 -5.638 -0.98799998 186 145 37
-1.286 -5.6240001 -0.98799998 164 169 146
-1.27 -5.6220002 -1.0039999 25 24 0
-1.268 -5.6149998 -1.002 35 23 0
-1.266 -5.618 -1.0039999 106 100 66
-1.262 -5.658 -1.003 47 40 11
-1.267 -5.6500001 -0.98900002 131 123 84
-1.27 -5.6589999 -0.99199998 42 10 0
-1.243 -5.6149998 -1.0089999 110 109 104
-1.181 -5.6259999 -0.96600002 182 141 49
-1.182 -5.6469998 -1.0089999 85 54 8
-1.1799999 -5.612 -0.99900001 91 49 1
-1.183 -5.6090002 -1.005 67 62 42
-1.188 -5.6090002 -1 229 183 97
-1.077 -5.7220001 -0.98199999 179 177 118
-1.101 -5.7199998 -0.99800003 136 122 47
-1.107 -5.711 -1.002 75 59 26
-1.054 -5.7350001 -0.99599999 131 87 48
-0.995 -5.6810002 -0.97000003 128 100 37
-1.197 -5.5419998 -1.012 120 118 93
-1.197 -5.539 -1.015 102 94 47
-1.2130001 -5.552 -1.0190001 117 120 93
-1.192 -5.5349998 -1.018 204 210 166
-1.1950001 -5.5279999 -1.022 142 143 125
-0.98100001 -5.6659999 -0.97000003 167 105 22
-0.97000003 -5.664 -0.977 46 18 0
-0.977 -5.6560001 -0.99199998 108 63 6
-1.035 -5.6539998 -1.013 125 88 35
-1.033 -5.651 -0.99400002 98 65 0
-1.178 -5.6259999 -0.96700001 194 151 49
-1.178 -5.631 -0.96799999 80 74 22
-1.098 -5.6620002 -0.98500001 207 162 69
-1.1059999 -5.6630001 -0.97899997 173 131 59
-1.1 -5.6630001 -0.98299998 103 59 0
-1.003 -5.7290001 -1.003 132 99 58
-0.986 -5.684 -0.96700001 138 127 61
-1.252 -5.5749998 -0.99299997 52 43 4
-1.252 -5.566 -0.99400002 45 31 5
-1.243 -5.5419998 -1.001 71 65 31
-1.245 -5.5489998 -1.002 45 37 1
-1.233 -5.5469999 -0.99199998 91 82 27
-1.239 -5.5619998 -0.99199998 81 68 23
-1.243 -5.553 -1.0140001 118 83 15
-1.235 -5.5469999 -1.016 64 67 48
-1.22 -5.559 -0.99800003 69 53 1
-1.237 -5.5749998 -0.99400002 177 165 117
-1.212 -5.566 -0.99900001 93 70 18
-1.23 -5.5749998 -0.99900001 160 116 51
-1.216 -5.5840001 -0.99599999 71 67 22
-1.193 -5.6209998 -0.96899998 63 33 0
-1.189 -5.612 -0.986 40 35 13
-1.2 -5.6110001 -0.991 31 29 6
-1.2359999 -5.533 -1.001 84 73 28
-1.212 -5.5190001 -1.0190001 50 53 34
-1.216 -5.5310001 -1.023 139 128 64
-1.082 -5.698 -0.99000001 153 152 98
-1.075 -5.6939998 -0.98400003 104 60 0
-1.089 -5.7030001 -0.991 215 213 154
-1.0190001 -5.6830001 -1.012 117 117 107
-1.0190001 -5.6739998 -1.0089999 96 89 43
-1.1 -5.71 -1.003 139 110 50
-1.1109999 -5.7020001 -1.002 162 133 55
-1.054 -5.7010002 -1.013 26 21 15
-1.089 -5.6300001 -1.017 230 167 88
-1.122 -5.6599998 -1.006 98 97 67
-1.1210001 -5.7069998 -0.99800003 154 153 123
-1.114 -5.7090001 -1 81 54 0
-1.153 -5.7119999 -0.97399998 120 113 105
-1.128 -5.6999998 -0.95700002 143 120 89
-1.117 -5.697 -0.96200001 90 85 43
-1.152 -5.7259998 -0.954 183 166 114
-1.145 -5.7270002 -0.95300001 115 99 50
-1.164 -5.7259998 -0.96499997 91 53 16
-1.14 -5.7309999 -0.95599997 81 52 22
-1.135 -5.7340002 -0.95300001 110 91 51
-1.1390001 -5.73 -0.95300001 85 68 24
-1.1440001 -5.7160001 -0.95499998 210 187 146
-1.1390001 -5.7160001 -0.954 130 107 55
-1.136 -5.7220001 -0.94599998 191 169 130
-1.13 -5.7420001 -0.94999999 116 92 58
-1.137 -5.6960001 -0.95899999 82 52 0
-1.117 -5.7389998 -0.963 159 118 74
-1.105 -5.737 -0.93000001 248 225 97
-1.1109999 -5.7389998 -0.95099998 142 118 70
-1.118 -5.7319999 -0.94999999 145 108 66
-1.103 -5.7350001 -0.97600001 122 108 63
-1.113 -5.743 -0.95099998 133 101 60
-1.102 -5.7470002 -0.93300003 248 214 90
-1.03 -5.7480001 -0.93599999 223 147 49
-1.0319999 -5.7729998 -0.94 142 107 53
-1.082 -5.796 -0.94300002 144 124 73
-1.082 -5.7649999 -0.958 83 73 11
-1.092 -5.75 -0.95700002 168 117 60
-1.081 -5.7509999 -0.958 131 112 98
-1.155 -5.6789999 -0.96499997 152 141 85
-1.1440001 -5.6999998 -0.99400002 127 91 15
-1.267 -5.6719999 -0.95999998 127 112 45
-1.2539999 -5.6680002 -0.96100003 233 211 102
-1.234 -5.6680002 -0.95700002 54 38 22
-1.248 -5.6880002 -0.958 70 49 32
-1.219 -5.6739998 -0.96100003 255 241 158
-1.283 -5.6669998 -0.94300002 232 213 145
-1.2359999 -5.6570001 -0.95599997 181 162 94
-1.252 -5.6539998 -0.95999998 127 99 51
-1.27 -5.6849999 -0.95599997 99 72 29
-1.258 -5.6950002 -0.96700001 255 246 136
-1.245 -5.697 -0.96600002 59 44 21
-1.289 -5.6529999 -0.949 76 65 3
-1.293 -5.6409998 -0.95599997 33 25 2
-1.273 -5.6420002 -0.95999998 50 45 39
-1.277 -5.652 -0.95499998 132 123 58
-1.1670001 -5.6300001 -1.001 121 107 94
-1.159 -5.6389999 -0.99900001 98 62 14
-1.165 -5.6360002 -0.99800003 98 70 22
-1.199 -5.6500001 -0.958 151 89 40
-1.245 -5.6339998 -0.96499997 101 78 11
-1.256 -5.6160002 -0.97399998 119 84 0
-1.2539999 -5.6290002 -0.977 165 139 88
-1.245 -5.632 -0.98100001 77 45 0
-1.239 -5.6339998 -0.97899997 87 67 14
-1.265 -5.632 -0.97600001 156 137 95
-1.262 -5.638 -0.977 138 99 30
-1.262 -5.631 -0.97600001 82 53 0
-1.277 -5.6149998 -0.96100003 231 223 150
-1.271 -5.6170001 -0.96600002 202 162 67
-1.268 -5.6370001 -0.96100003 255 226 109
-1.258 -5.645 -0.96200001 165 159 75
-1.281 -5.638 -0.95599997 124 116 51
-1.307 -5.6500001 -0.949 231 167 80
-1.286 -5.6300001 -0.95599997 155 109 31
-1.222 -5.6500001 -0.95499998 248 202 127
-1.291 -5.6760001 -0.93900001 170 146 72
-1.173 -5.6900001 -0.958 189 163 114
-1.166 -5.691 -0.95700002 134 110 66
-1.1799999 -5.6799998 -0.963 208 187 122
-1.1799999 -5.6880002 -0.96200001 54 38 23
-1.164 -5.664 -0.96600002 135 126 67
-1.204 -5.671 -0.958 104 86 66
-1.2460001 -5.684 -0.99199998 198 146 89
-1.329 -5.6589999 -1.007 173 140 61
-1.337 -5.6719999 -1.0140001 93 96 75
-1.33 -5.671 -1.0140001 50 53 36
-1.2309999 -5.5949998 -1.006 20 19 15
-1.226 -5.5890002 -1.012 20 19 14
-1.239 -5.6170001 -1 103 69 21
-1.242 -5.6110001 -1 90 76 37
-1.199 -5.6360002 -1.011 42 47 17
-1.188 -5.6409998 -1.01 61 66 34
-1.199 -5.6220002 -1.008 71 63 24
-1.196 -5.6079998 -1.001 148 117 53
-1.193 -5.6069999 -0.99900001 111 109 71
-1.2309999 -5.6960001 -0.96100003 225 174 85
-1.239 -5.684 -0.96200001 252 233 128
-1.222 -5.6929998 -0.96399999 197 181 103
-1.182 -5.6669998 -1.005 104 114 51
-1.204 -5.6290002 -0.96899998 143 130 77
-1.233 -5.6799998 -0.96499997 134 91 23
-1.23 -5.6849999 -0.96700001 210 200 115
-1.0599999 -5.7649999 -0.94099998 255 244 124
-1.0599999 -5.776 -0.94400001 251 239 119
-1.178 -5.7420001 -0.98400003 153 118 36
-1.171 -5.7449999 -0.977 126 125 60
-1.173 -5.7399998 -0.97899997 95 62 9
-1.175 -5.7540002 -0.977 64 29 0
-1.166 -5.6939998 -0.99400002 108 114 54
-1.158 -5.691 -0.99299997 71 77 33
-1.171 -5.7119999 -0.97600001 153 126 73
-1.1799999 -5.7129998 -0.97899997 60 58 7
-1.201 -5.7160001 -0.96399999 255 250 192
-1.184 -5.7220001 -0.96100003 58 49 40
-1.064 -5.7880001 -0.95700002 253 251 213
-1.0599999 -5.7859998 -0.95899999 255 255 216
-1.097 -5.7839999 -0.93000001 175 135 84
-1.105 -5.7779999 -0.94499999 158 110 72
-1.096 -5.7789998 -0.94800001 166 107 47
-1.104 -5.7810001 -0.94199997 98 68 4
-1.098 -5.7849998 -0.94 172 111 57
-1.108 -5.7729998 -0.94300002 250 233 164
-1.17 -5.7620001 -0.95999998 65 47 43
-1.054 -5.7670002 -0.94400001 251 200 91
-1.075 -5.743 -0.97799999 237 207 153
-1.0700001 -5.75 -0.97600001 149 132 78
-1.034 -5.73 -1.013 121 115 79
-1.05 -5.7249999 -1.007 88 75 33
-1.0319999 -5.7389998 -0.98900002 150 113 60
-1.028 -5.7360001 -0.99199998 129 90 31
-1.028 -5.7350001 -0.99599999 198 150 86
-0.99400002 -5.711 -0.99900001 132 136 122
-1.044 -5.7649999 -0.94099998 178 161 81
-1.0369999 -5.7709999 -0.94300002 108 80 59
-1.04 -5.7729998 -0.94499999 132 104 93
-1.048 -5.7459998 -0.94199997 224 209 124
-1.05 -5.7350001 -0.94599998 110 84 69
-1.036 -5.7709999 -0.958 226 174 65
-1.112 -5.777 -0.93800002 150 117 63
-1.179 -5.7709999 -0.95899999 239 209 147
-1.201 -5.777 -0.96499997 191 166 66
-1.187 -5.777 -0.97500002 215 162 48
-1.173 -5.7579999 -0.96200001 167 138 70
-1.168 -5.7620001 -0.97299999 178 135 41
-1.209 -5.6859999 -1.005 66 53 37
-1.214 -5.7410002 -0.98400003 172 148 60
-1.227 -5.7509999 -0.977 241 209 106
