ply
format ascii 1.0
comment PCL generated
element vertex 513
property float x
property float y
property float z
property uchar red
property uchar green
property uchar blue
element camera 1
property float view_px
property float view_py
property float view_pz
property float x_axisx
property float x_axisy
property float x_axisz
property float y_axisx
property float y_axisy
property float y_axisz
property float z_axisx
property float z_axisy
property float z_axisz
property float focal
property float scalex
property float scaley
property float centerx
property float centery
property int viewportx
property int viewporty
property float k1
property float k2
end_header
12.757 12.522 -0.70700002 47 26 9
12.759 12.517 -0.699 66 26 0
12.767 12.52 -0.72000003 86 38 0
12.766 12.521 -0.71200001 49 23 6
12.768 12.523 -0.71200001 111 85 70
12.712 12.639 -0.63 32 9 0
12.715 12.642 -0.625 47 28 14
12.711 12.646 -0.63700002 42 21 2
12.706 12.642 -0.63300002 116 68 22
12.71 12.618 -0.62300003 60 39 22
12.707 12.626 -0.64499998 87 42 1
12.703 12.632 -0.63099998 62 35 24
12.653 12.575 -0.71700001 36 19 12
12.645 12.565 -0.72100002 58 20 7
12.654 12.564 -0.722 100 81 75
12.663 12.582 -0.70599997 114 48 14
12.672 12.579 -0.70700002 47 30 23
12.645 12.556 -0.73799998 34 16 12
12.625 12.567 -0.73100001 22 2 0
12.64 12.555 -0.74400002 68 29 0
12.681 12.581 -0.75999999 79 51 39
12.673 12.584 -0.75199997 72 50 37
12.675 12.585 -0.76800001 60 42 40
12.682 12.584 -0.77700001 44 18 0
12.701 12.583 -0.76899999 81 71 72
12.686 12.576 -0.81199998 60 43 36
12.679 12.585 -0.824 17 3 0
12.679 12.583 -0.824 13 2 0
12.704 12.564 -0.77499998 55 19 7
12.691 12.565 -0.79699999 53 20 5
12.7 12.572 -0.77499998 53 18 0
12.686 12.568 -0.79299998 93 71 58
12.699 12.562 -0.76599997 145 116 100
12.794 12.482 -0.528 46 23 9
12.811 12.489 -0.542 66 40 25
12.814 12.48 -0.542 42 24 4
12.708 12.633 -0.60399997 86 60 45
12.705 12.618 -0.62 99 59 33
12.662 12.44 -0.71499997 105 76 62
12.654 12.433 -0.70200002 118 72 39
12.653 12.426 -0.70499998 86 73 67
12.665 12.445 -0.71700001 57 24 7
12.673 12.446 -0.722 138 101 82
12.651 12.426 -0.70300001 59 39 30
12.66 12.364 -0.78500003 42 19 11
12.668 12.366 -0.78100002 101 78 72
12.667 12.362 -0.78600001 202 148 104
12.679 12.401 -0.75800002 73 46 37
12.683 12.397 -0.75599998 85 31 0
12.682 12.4 -0.76300001 113 69 42
12.64 12.394 -0.741 145 125 116
12.636 12.372 -0.73000002 139 106 87
12.638 12.388 -0.74599999 115 72 40
12.669 12.445 -0.72799999 80 47 12
12.667 12.385 -0.79299998 73 33 7
12.659 12.386 -0.80900002 136 117 111
12.662 12.38 -0.80599999 175 127 87
12.653 12.399 -0.79100001 154 112 74
12.702 12.641 -0.60500002 124 86 50
12.699 12.633 -0.60900003 138 88 37
12.704 12.65 -0.60600001 101 63 27
12.701 12.655 -0.60600001 67 32 0
12.632 12.587 -0.70099998 97 77 78
12.634 12.594 -0.70499998 68 46 33
12.625 12.583 -0.70499998 77 62 55
12.709 12.638 -0.63800001 50 31 17
12.647 12.397 -0.79799998 97 92 96
12.655 12.387 -0.80699998 77 41 25
12.676 12.53 -0.80699998 52 27 23
12.675 12.537 -0.80900002 42 10 0
12.682 12.535 -0.81199998 43 19 17
12.632 12.466 -0.78799999 50 22 11
12.639 12.468 -0.78799999 91 72 58
12.641 12.456 -0.80299997 52 27 23
12.646 12.559 -0.74699998 106 78 64
12.667 12.583 -0.70300001 41 18 4
12.685 12.62 -0.68599999 60 34 17
12.682 12.619 -0.67699999 63 39 27
12.682 12.619 -0.69 45 21 9
12.704 12.632 -0.64999998 42 15 4
12.689 12.62 -0.68300003 84 46 23
12.703 12.63 -0.64399999 109 95 95
12.702 12.627 -0.62699997 27 8 1
12.669 12.576 -0.75199997 112 84 63
12.68 12.575 -0.75700003 50 12 3
12.664 12.572 -0.773 36 18 16
12.631 12.57 -0.73100001 89 65 55
12.64 12.57 -0.72399998 89 46 4
12.673 12.584 -0.773 68 45 31
12.697 12.578 -0.773 85 67 55
12.702 12.563 -0.74599999 63 23 0
12.7 12.549 -0.75800002 70 29 9
12.703 12.551 -0.741 67 38 24
12.695 12.561 -0.73299998 108 78 52
12.698 12.565 -0.75800002 86 52 27
12.681 12.583 -0.815 39 18 13
12.669 12.569 -0.78100002 47 27 20
12.668 12.584 -0.79500002 46 8 5
12.674 12.58 -0.77399999 114 85 67
12.661 12.587 -0.79400003 98 66 45
12.701 12.557 -0.76599997 41 21 14
12.703 12.554 -0.76599997 120 96 84
12.687 12.574 -0.796 38 4 2
12.687 12.57 -0.80599999 60 46 43
12.794 12.486 -0.51999998 89 56 37
12.791 12.486 -0.52100003 100 64 42
12.655 12.365 -0.741 102 82 73
12.661 12.385 -0.741 97 87 86
12.651 12.374 -0.722 72 56 56
12.655 12.386 -0.73000002 89 47 23
12.647 12.363 -0.74400002 110 75 56
12.805 12.476 -0.546 53 31 18
12.806 12.471 -0.54100001 51 16 0
12.699 12.628 -0.61299998 85 65 58
12.757 12.467 -0.546 65 40 20
12.749 12.471 -0.54400003 56 34 20
12.754 12.465 -0.54500002 42 17 0
12.665 12.442 -0.72399998 101 92 95
12.651 12.374 -0.778 102 96 98
12.648 12.371 -0.77399999 81 61 62
12.656 12.373 -0.77200001 85 43 18
12.649 12.375 -0.75400001 45 21 11
12.683 12.48 -0.75700003 43 14 0
12.682 12.485 -0.75199997 53 23 12
12.677 12.483 -0.75300002 102 56 32
12.643 12.457 -0.79699999 65 23 9
12.667 12.435 -0.727 75 48 29
12.693 12.499 -0.74599999 48 25 17
12.698 12.498 -0.74400002 138 61 15
12.693 12.496 -0.74599999 42 33 36
12.658 12.385 -0.80199999 57 33 23
12.659 12.383 -0.79500002 92 50 12
12.663 12.379 -0.79100001 144 95 54
12.664 12.388 -0.77499998 134 80 44
12.681 12.536 -0.80500001 91 81 80
12.701 12.547 -0.75999999 50 18 5
12.715 12.538 -0.75199997 77 64 58
12.703 12.537 -0.77499998 42 20 9
12.711 12.539 -0.74900001 93 68 61
12.766 12.532 -0.68400002 81 39 1
12.753 12.519 -0.68599999 34 12 0
12.746 12.522 -0.69199997 86 59 38
12.761 12.526 -0.69499999 85 48 19
12.725 12.552 -0.73699999 84 53 24
12.708 12.565 -0.741 56 20 8
12.721 12.557 -0.74900001 93 34 0
12.704 12.587 -0.713 112 71 51
12.697 12.582 -0.72399998 55 29 16
12.701 12.582 -0.72500002 80 59 54
12.682 12.609 -0.69700003 85 47 26
12.683 12.593 -0.71200001 73 53 42
12.681 12.603 -0.69099998 55 36 21
12.705 12.575 -0.72500002 59 39 28
12.715 12.638 -0.62599999 91 68 54
12.705 12.63 -0.61000001 97 75 64
12.71 12.639 -0.611 116 97 83
12.666 12.585 -0.70300001 95 59 25
12.632 12.586 -0.70599997 84 60 48
12.707 12.638 -0.63599998 101 56 23
12.705 12.629 -0.64300001 99 84 79
12.64 12.386 -0.792 100 63 18
12.687 12.616 -0.68800002 47 30 23
12.698 12.632 -0.62400001 48 26 12
12.703 12.651 -0.611 111 89 78
12.674 12.581 -0.75700003 30 12 10
12.684 12.573 -0.759 45 31 22
12.703 12.574 -0.75300002 84 47 21
12.702 12.568 -0.75400001 123 74 42
12.664 12.566 -0.77899998 47 14 5
12.666 12.59 -0.79699999 17 2 0
12.625 12.571 -0.72799999 86 59 38
12.641 12.573 -0.72500002 78 37 17
12.66 12.526 -0.78100002 90 57 38
12.661 12.524 -0.77999997 77 43 16
12.659 12.531 -0.77499998 67 42 12
12.633 12.469 -0.78299999 86 35 4
12.665 12.525 -0.77700001 37 8 0
12.7 12.581 -0.76700002 94 61 42
12.701 12.582 -0.73199999 80 65 60
12.697 12.575 -0.72799999 90 53 34
12.69 12.581 -0.72500002 67 30 1
12.701 12.572 -0.73299998 68 50 30
12.704 12.567 -0.74400002 25 4 1
12.704 12.569 -0.73400003 54 35 28
12.684 12.573 -0.81099999 34 0 0
12.701 12.558 -0.75800002 107 77 53
12.657 12.37 -0.74599999 154 102 44
12.81 12.481 -0.54299998 62 26 0
12.795 12.466 -0.52499998 69 55 52
12.794 12.466 -0.52700001 60 38 24
12.793 12.47 -0.52499998 51 29 16
12.787 12.466 -0.51200002 49 20 2
12.787 12.468 -0.51099998 81 55 20
12.797 12.511 -0.64099997 78 29 0
12.796 12.52 -0.64300001 50 20 12
12.8 12.514 -0.64300001 32 16 3
12.782 12.51 -0.63200003 51 23 1
12.779 12.524 -0.64899999 68 41 12
12.649 12.368 -0.74400002 96 71 51
12.641 12.388 -0.74000001 118 96 82
12.64 12.373 -0.72399998 92 65 46
12.636 12.372 -0.72299999 119 102 95
12.682 12.558 -0.65499997 132 78 34
12.683 12.559 -0.66399997 77 45 20
12.686 12.554 -0.66100001 45 19 4
12.696 12.55 -0.64700001 67 34 15
12.697 12.559 -0.64700001 88 62 37
12.688 12.496 -0.75199997 109 81 44
12.689 12.481 -0.77100003 113 69 34
12.666 12.441 -0.73500001 108 72 56
12.659 12.389 -0.75700003 134 97 70
12.646 12.405 -0.78899997 167 127 92
12.655 12.398 -0.77399999 157 129 118
12.635 12.46 -0.78600001 38 15 1
12.643 12.452 -0.79400003 98 67 36
12.655 12.388 -0.80000001 66 40 25
12.662 12.388 -0.792 101 81 72
12.668 12.389 -0.76800001 108 76 51
12.664 12.399 -0.76300001 114 67 41
12.702 12.531 -0.77700001 108 58 21
12.7 12.532 -0.78100002 32 11 6
12.687 12.52 -0.77200001 103 57 24
12.717 12.55 -0.75800002 76 59 51
12.72 12.551 -0.759 67 30 12
12.717 12.556 -0.755 57 31 0
12.764 12.526 -0.708 87 69 59
12.765 12.529 -0.699 132 79 45
12.757 12.53 -0.708 33 15 5
12.756 12.523 -0.70200002 37 14 6
12.738 12.539 -0.71100003 79 69 70
12.767 12.525 -0.67900002 84 45 14
12.765 12.526 -0.685 66 46 35
12.724 12.552 -0.73000002 40 29 33
12.711 12.55 -0.73199999 51 29 5
12.729 12.551 -0.73199999 77 66 64
12.705 12.575 -0.708 70 47 31
12.726 12.536 -0.73100001 118 68 33
12.71 12.549 -0.74199998 63 41 28
12.717 12.53 -0.71799999 136 95 65
12.711 12.52 -0.73199999 44 21 15
12.712 12.516 -0.72799999 60 33 14
12.718 12.53 -0.72000003 83 53 42
12.698 12.543 -0.72000003 91 58 41
12.725 12.532 -0.70999998 78 62 47
12.722 12.533 -0.71700001 52 29 23
12.74 12.547 -0.70899999 149 100 60
12.697 12.559 -0.66500002 63 37 10
12.696 12.556 -0.68199998 72 33 2
12.708 12.638 -0.616 56 35 14
12.707 12.626 -0.61900002 129 86 44
12.708 12.636 -0.60699999 71 17 0
12.645 12.399 -0.79299998 112 66 42
12.637 12.385 -0.78600001 72 47 40
12.645 12.385 -0.79100001 147 119 107
12.643 12.391 -0.73100001 115 78 36
12.641 12.387 -0.72500002 116 82 34
12.651 12.567 -0.72299999 76 40 8
12.637 12.571 -0.73100001 48 31 3
12.669 12.584 -0.77999997 51 17 7
12.665 12.587 -0.72600001 49 25 13
12.682 12.585 -0.70999998 88 76 62
12.648 12.576 -0.73000002 76 28 0
12.657 12.584 -0.727 76 57 61
12.679 12.593 -0.70599997 70 22 2
12.673 12.602 -0.69099998 100 87 81
12.672 12.588 -0.708 37 18 4
12.676 12.614 -0.69199997 115 48 5
12.679 12.604 -0.68800002 101 86 81
12.673 12.607 -0.68800002 74 58 43
12.684 12.616 -0.68699998 81 53 31
12.7 12.639 -0.62099999 108 71 42
12.702 12.63 -0.62900001 96 78 76
12.702 12.584 -0.73100001 59 23 0
12.702 12.574 -0.73100001 90 53 26
12.677 12.538 -0.80699998 54 18 6
12.676 12.537 -0.79400003 77 46 28
12.68 12.539 -0.79000002 55 19 3
12.674 12.534 -0.79299998 87 64 50
12.679 12.519 -0.77499998 80 54 17
12.652 12.384 -0.73100001 72 50 39
12.648 12.382 -0.72500002 79 54 34
12.768 12.489 -0.57300001 42 16 0
12.77 12.498 -0.58099997 129 101 77
12.754 12.491 -0.58999997 59 22 14
12.764 12.484 -0.55699998 69 40 24
12.766 12.484 -0.55400002 102 58 9
12.769 12.479 -0.551 106 80 47
12.788 12.473 -0.51300001 83 39 10
12.764 12.511 -0.65899998 35 5 0
12.773 12.517 -0.64999998 52 15 0
12.773 12.518 -0.64600003 140 114 97
12.767 12.511 -0.65399998 41 18 0
12.766 12.515 -0.667 107 79 55
12.774 12.518 -0.64300001 70 49 18
12.643 12.391 -0.75400001 92 50 10
12.646 12.4 -0.78500003 104 64 29
12.668 12.44 -0.727 84 73 69
12.675 12.484 -0.75800002 129 94 62
12.673 12.481 -0.77600002 71 36 14
12.678 12.492 -0.77499998 122 57 17
12.681 12.484 -0.77700001 28 4 0
12.686 12.483 -0.76999998 107 85 72
12.682 12.477 -0.773 111 66 43
12.667 12.459 -0.77899998 124 78 42
12.645 12.451 -0.79400003 68 33 13
12.668 12.451 -0.77399999 109 62 18
12.663 12.452 -0.77499998 112 76 42
12.669 12.432 -0.77100003 158 90 43
12.659 12.429 -0.77200001 90 54 30
12.66 12.396 -0.76999998 74 42 27
12.659 12.397 -0.76700002 170 89 36
12.657 12.424 -0.76700002 74 51 37
12.638 12.46 -0.79500002 82 36 2
12.689 12.524 -0.773 64 22 6
12.759 12.528 -0.70999998 44 1 0
12.763 12.526 -0.69300002 70 36 0
12.702 12.566 -0.73000002 55 30 26
12.699 12.563 -0.71600002 32 7 0
12.704 12.564 -0.722 40 18 5
12.7 12.581 -0.71200001 84 66 62
12.723 12.53 -0.73000002 99 68 50
12.716 12.545 -0.74900001 84 75 78
12.689 12.542 -0.72299999 69 32 13
12.692 12.547 -0.72500002 89 41 1
12.692 12.558 -0.708 80 50 22
12.698 12.554 -0.70099998 34 15 9
12.711 12.513 -0.72799999 33 24 27
12.705 12.547 -0.71899998 99 60 31
12.697 12.556 -0.70300001 79 40 9
12.691 12.571 -0.704 65 39 26
12.697 12.562 -0.68900001 55 28 17
12.697 12.57 -0.70599997 124 53 9
12.689 12.556 -0.65799999 91 57 20
12.747 12.515 -0.69 77 42 20
12.701 12.553 -0.64899999 87 70 60
12.693 12.563 -0.66500002 44 46 45
12.699 12.555 -0.699 115 66 23
12.72 12.533 -0.708 66 27 10
12.693 12.561 -0.69 155 106 73
12.705 12.568 -0.77100003 31 6 2
12.706 12.569 -0.75999999 57 38 31
12.781 12.51 -0.65799999 65 29 3
12.782 12.505 -0.67000002 46 26 15
12.781 12.508 -0.67199999 114 37 0
12.782 12.502 -0.66299999 97 58 29
12.782 12.49 -0.67299998 105 61 16
12.78 12.492 -0.66100001 119 71 25
12.786 12.486 -0.67500001 93 59 34
12.783 12.491 -0.67000002 71 45 20
12.754 12.465 -0.56800002 49 27 4
12.769 12.494 -0.58399999 50 19 0
12.785 12.504 -0.63700002 46 28 8
12.788 12.5 -0.61900002 93 46 4
12.783 12.502 -0.65399998 38 19 2
12.649 12.379 -0.78200001 59 33 18
12.65 12.401 -0.722 93 84 85
12.653 12.408 -0.72799999 104 59 18
12.647 12.405 -0.72299999 61 45 46
12.648 12.399 -0.72299999 60 36 26
12.646 12.41 -0.73199999 98 66 51
12.643 12.396 -0.73900002 78 42 10
12.646 12.401 -0.74599999 104 58 32
12.653 12.394 -0.72899997 83 30 0
12.661 12.59 -0.73000002 111 77 52
12.647 12.583 -0.73199999 80 53 36
12.672 12.592 -0.71200001 91 53 34
12.652 12.573 -0.72100002 33 13 4
12.641 12.58 -0.736 81 48 29
12.652 12.579 -0.71799999 58 29 13
12.646 12.573 -0.73799998 85 58 47
12.71 12.569 -0.75400001 104 78 65
12.657 12.385 -0.73900002 71 47 35
12.645 12.378 -0.72399998 115 67 31
12.643 12.384 -0.73000002 132 95 68
12.802 12.474 -0.54100001 70 34 8
12.771 12.515 -0.66399997 50 12 0
12.774 12.511 -0.671 47 28 11
12.748 12.514 -0.69099998 73 58 51
12.76 12.506 -0.671 65 38 17
12.642 12.396 -0.75099999 105 58 16
12.666 12.437 -0.76800001 94 50 25
12.661 12.433 -0.76700002 89 67 54
12.643 12.397 -0.773 116 77 38
12.639 12.404 -0.77100003 82 51 33
12.678 12.481 -0.764 97 88 93
12.678 12.484 -0.76899999 96 48 26
12.68 12.484 -0.76099998 49 26 20
12.643 12.393 -0.75999999 121 116 120
12.663 12.388 -0.773 112 67 25
12.684 12.523 -0.77100003 59 18 0
12.693 12.533 -0.778 48 16 3
12.703 12.564 -0.72399998 58 22 6
12.714 12.521 -0.73100001 65 39 12
12.726 12.535 -0.72500002 43 6 0
12.718 12.552 -0.75 30 10 1
12.699 12.563 -0.66500002 124 49 7
12.698 12.56 -0.68400002 66 42 18
12.71 12.548 -0.72100002 77 33 0
12.693 12.56 -0.68300003 83 52 21
12.69 12.564 -0.708 75 41 14
12.777 12.524 -0.65399998 90 73 66
12.782 12.499 -0.67199999 31 13 0
12.751 12.473 -0.56400001 44 25 10
12.768 12.472 -0.55000001 91 32 0
12.788 12.49 -0.54799998 82 53 21
12.757 12.493 -0.59299999 134 88 52
12.775 12.493 -0.57099998 88 59 27
12.774 12.486 -0.55699998 122 50 0
12.783 12.502 -0.65399998 38 19 2
12.782 12.501 -0.64700001 81 44 18
12.778 12.499 -0.65100002 49 22 3
12.776 12.497 -0.65100002 63 36 25
12.65 12.405 -0.73000002 99 60 19
12.645 12.4 -0.73100001 96 52 27
12.648 12.397 -0.72500002 82 62 51
12.652 12.585 -0.73900002 75 37 18
12.666 12.592 -0.71399999 47 25 12
12.631 12.587 -0.70999998 86 42 15
12.707 12.569 -0.75800002 27 3 1
12.776 12.51 -0.671 72 38 3
12.772 12.495 -0.676 132 89 57
12.76 12.504 -0.66900003 51 29 15
12.76 12.498 -0.66600001 63 36 7
12.773 12.507 -0.62800002 56 39 32
12.782 12.509 -0.61199999 49 19 0
12.773 12.505 -0.616 63 39 15
12.781 12.505 -0.62300003 71 43 22
12.771 12.503 -0.61199999 82 28 0
12.781 12.503 -0.611 50 30 21
12.767 12.507 -0.64700001 86 45 15
12.77 12.507 -0.64300001 80 56 32
12.765 12.502 -0.64999998 76 57 42
12.653 12.429 -0.76499999 58 35 19
12.654 12.401 -0.74800003 104 82 71
12.655 12.398 -0.755 89 36 2
12.648 12.399 -0.75800002 62 40 29
12.655 12.397 -0.74699998 91 41 4
12.645 12.4 -0.77600002 108 60 20
12.677 12.486 -0.77399999 63 36 0
12.681 12.487 -0.755 89 38 19
12.655 12.377 -0.74800003 81 63 63
12.643 12.388 -0.77200001 84 47 20
12.644 12.397 -0.76200002 105 66 33
12.698 12.554 -0.73299998 44 24 17
12.697 12.562 -0.70200002 42 15 4
12.738 12.541 -0.704 64 36 15
12.699 12.561 -0.70300001 62 39 21
12.709 12.547 -0.72399998 56 32 20
12.693 12.559 -0.67500001 64 38 25
12.78 12.495 -0.66399997 45 22 8
12.755 12.474 -0.565 56 26 2
12.768 12.481 -0.56699997 52 25 6
12.771 12.482 -0.55199999 42 19 0
12.78 12.494 -0.60699999 51 28 14
12.778 12.497 -0.616 127 74 30
12.775 12.484 -0.60600001 41 24 8
12.779 12.491 -0.59799999 50 32 0
12.775 12.48 -0.59100002 43 9 0
12.771 12.498 -0.60900003 65 38 17
12.773 12.497 -0.60799998 52 19 10
12.79 12.49 -0.55599999 94 53 23
12.77 12.489 -0.60799998 74 58 43
12.774 12.493 -0.59600002 62 36 21
12.78 12.496 -0.602 57 39 19
12.779 12.492 -0.588 69 46 30
12.776 12.499 -0.61000001 94 69 47
12.778 12.495 -0.60000002 75 44 23
12.769 12.496 -0.625 48 15 6
12.644 12.39 -0.787 103 76 57
12.761 12.499 -0.671 99 78 57
12.775 12.494 -0.67299998 78 59 52
12.774 12.495 -0.67500001 80 24 0
12.784 12.503 -0.62 39 21 1
12.775 12.498 -0.62800002 106 48 8
12.768 12.505 -0.62900001 95 72 54
12.657 12.383 -0.76099998 84 61 55
12.647 12.405 -0.77100003 251 211 175
12.701 12.558 -0.736 108 78 50
12.704 12.55 -0.72899997 76 53 39
12.7 12.557 -0.71799999 50 29 26
12.766 12.475 -0.551 90 55 33
12.77 12.478 -0.55599999 51 13 0
12.77 12.487 -0.57700002 98 55 10
12.771 12.483 -0.611 117 46 0
12.775 12.484 -0.588 80 37 2
12.774 12.488 -0.56800002 81 49 28
12.779 12.488 -0.58200002 52 27 5
12.779 12.495 -0.58499998 80 59 40
12.776 12.505 -0.61699998 77 35 10
12.778 12.5 -0.63099998 60 36 26
12.762 12.503 -0.63999999 117 69 20
12.767 12.495 -0.64099997 50 17 8
12.643 12.397 -0.75099999 88 49 6
12.65 12.377 -0.76999998 55 30 25
12.7 12.549 -0.72600001 82 40 18
12.771 12.481 -0.56400001 71 30 0
12.795 12.488 -0.55000001 106 89 73
12.763 12.491 -0.59100002 84 59 37
12.768 12.487 -0.59100002 77 58 44
12.77 12.492 -0.58999997 109 57 17
12.771 12.493 -0.64200002 91 37 0
12.768 12.494 -0.63700002 112 34 0
12.772 12.484 -0.60799998 58 34 10
12.772 12.48 -0.59399998 116 80 48
12.765 12.492 -0.634 70 34 0
12.782 12.494 -0.57200003 61 42 35
12.779 12.491 -0.57499999 50 31 0
12.771 12.48 -0.58700001 78 44 16
12.772 12.484 -0.58399999 145 73 25
12.776 12.485 -0.56699997 139 106 75
12.77 12.487 -0.60500002 131 73 36
12.778 12.498 -0.59200001 71 42 10
12.776 12.49 -0.56699997 77 54 36
0 0 0 1 0 0 0 1 0 0 0 1 0 0 0 0 0 513 1 0 0
