ply
format ascii 1.0
comment PCL generated
element vertex 789
property float x
property float y
property float z
property uchar red
property uchar green
property uchar blue
element camera 1
property float view_px
property float view_py
property float view_pz
property float x_axisx
property float x_axisy
property float x_axisz
property float y_axisx
property float y_axisy
property float y_axisz
property float z_axisx
property float z_axisy
property float z_axisz
property float focal
property float scalex
property float scaley
property float centerx
property float centery
property int viewportx
property int viewporty
property float k1
property float k2
end_header
7.164 -3.2049999 -0.193 212 144 83
7.1700001 -3.198 -0.193 202 136 75
7.1700001 -3.198 -0.199 229 161 96
7.1550002 -3.2249999 -0.192 224 181 102
7.1550002 -3.2260001 -0.182 255 238 164
6.9349999 -3.2690001 -0.093999997 223 120 103
6.941 -3.267 -0.086999997 106 76 52
6.9330001 -3.279 -0.097999997 170 96 49
6.8940001 -3.2579999 -0.124 113 78 46
6.8969998 -3.2609999 -0.12800001 119 75 36
6.8800001 -3.2550001 -0.13 149 117 78
6.9310002 -3.2679999 -0.1 155 77 28
7.1529999 -3.1760001 -0.176 226 175 94
7.1560001 -3.1830001 -0.17299999 255 215 133
7.1529999 -3.177 -0.17299999 204 159 76
7.1539998 -3.178 -0.19 194 157 87
6.8850002 -3.247 -0.13699999 124 92 79
6.8829999 -3.253 -0.134 91 65 68
6.8899999 -3.247 -0.141 154 124 72
6.8839998 -3.2160001 -0.138 224 184 125
6.888 -3.2179999 -0.14300001 77 57 20
6.8860002 -3.221 -0.15099999 200 189 167
6.888 -3.214 -0.142 78 57 26
6.8990002 -3.217 -0.13600001 157 119 74
6.901 -3.2590001 -0.147 197 124 73
6.901 -3.2590001 -0.138 144 111 76
6.9050002 -3.2620001 -0.139 99 67 52
6.9000001 -3.256 -0.141 132 90 65
7.158 -3.2079999 -0.18700001 214 148 90
6.9790001 -3.2279999 -0.214 131 100 71
6.9850001 -3.2219999 -0.214 76 46 18
6.987 -3.223 -0.21600001 253 223 199
6.9829998 -3.2309999 -0.21699999 253 235 213
6.9070001 -3.26 -0.123 104 72 59
6.9039998 -3.253 -0.124 114 79 41
6.8959999 -3.223 -0.133 241 209 150
6.895 -3.23 -0.14300001 144 85 45
7.1550002 -3.184 -0.183 198 151 81
6.9460001 -3.2609999 -0.081 154 124 96
6.9489999 -3.27 -0.081 224 121 104
6.9159999 -3.2550001 -0.118 116 80 44
6.9289999 -3.2060001 -0.148 62 24 5
6.934 -3.2019999 -0.154 54 17 0
6.9229999 -3.201 -0.139 115 83 32
6.9099998 -3.2049999 -0.141 203 167 131
7.0029998 -3.2160001 -0.21799999 101 61 35
7.0110002 -3.2090001 -0.219 202 164 127
7.0149999 -3.2130001 -0.219 188 146 106
6.9390001 -3.273 -0.093000002 69 41 17
6.947 -3.2809999 -0.1 52 25 8
6.9790001 -3.2880001 -0.17299999 61 35 36
6.98 -3.2809999 -0.15899999 255 232 181
6.973 -3.2839999 -0.16500001 174 103 71
6.9809999 -3.2839999 -0.169 97 63 28
7.1389999 -3.234 -0.19499999 160 112 76
7.1430001 -3.2320001 -0.20100001 213 145 84
6.9039998 -3.2030001 -0.13699999 62 30 0
6.901 -3.211 -0.14 87 58 28
6.9359999 -3.2 -0.14 171 134 90
6.9250002 -3.2179999 -0.153 152 110 96
6.9349999 -3.217 -0.162 138 111 68
6.9099998 -3.214 -0.152 158 143 120
6.9720001 -3.2409999 -0.199 206 179 134
6.9689999 -3.2509999 -0.20999999 113 83 49
6.9320002 -3.2720001 -0.119 104 72 47
6.901 -3.2590001 -0.13699999 193 162 116
6.8870001 -3.2460001 -0.127 63 43 18
6.9109998 -3.2409999 -0.146 209 132 62
6.9029999 -3.227 -0.15899999 255 252 231
7.1550002 -3.184 -0.18099999 219 169 96
6.9429998 -3.2550001 -0.082999997 179 93 34
6.9390001 -3.257 -0.090999998 200 96 43
6.9190001 -3.2079999 -0.138 135 103 62
7.1370001 -3.1760001 -0.19499999 219 185 122
7.0310001 -3.2 -0.208 155 126 94
7.145 -3.177 -0.178 185 120 62
6.9840002 -3.233 -0.21600001 236 210 187
7.0040002 -3.2260001 -0.211 137 87 54
7.0149999 -3.2130001 -0.213 255 222 180
7.158 -3.207 -0.193 194 124 64
7.0339999 -3.214 -0.207 110 81 49
6.9559999 -3.2690001 -0.081 166 139 112
6.974 -3.267 -0.093999997 230 145 124
6.9629998 -3.263 -0.078000002 107 61 27
6.9460001 -3.2539999 -0.081 128 99 69
6.961 -3.2539999 -0.081 224 114 25
6.9990001 -3.28 -0.161 109 83 50
6.9990001 -3.277 -0.153 255 232 185
7.0159998 -3.2709999 -0.152 79 53 16
7.1399999 -3.2320001 -0.185 248 230 164
7.119 -3.2420001 -0.182 255 222 148
7.1199999 -3.244 -0.199 97 48 16
7.112 -3.25 -0.193 93 74 57
7.125 -3.2390001 -0.206 69 22 0
6.9260001 -3.2030001 -0.13500001 120 96 70
6.9250002 -3.2079999 -0.132 140 115 84
7.0209999 -3.2119999 -0.104 242 205 137
7.0229998 -3.2079999 -0.108 223 189 118
7.0019999 -3.2090001 -0.111 70 27 11
7.0190001 -3.22 -0.096000001 142 104 59
7.0430002 -3.211 -0.106 58 22 6
6.9629998 -3.1960001 -0.142 176 135 79
6.974 -3.1900001 -0.148 162 100 53
6.9689999 -3.2019999 -0.133 250 223 193
7.0250001 -3.227 -0.093999997 155 121 75
7.0219998 -3.2279999 -0.094999999 234 165 90
7.0019999 -3.227 -0.093999997 242 180 107
7.007 -3.2360001 -0.097999997 123 90 47
7.0079999 -3.2420001 -0.097000003 123 74 42
6.993 -3.237 -0.097999997 195 170 129
6.902 -3.2260001 -0.15800001 246 186 124
6.9109998 -3.224 -0.15899999 250 239 217
6.9819999 -3.27 -0.205 240 186 126
6.9829998 -3.286 -0.19599999 166 121 80
6.9710002 -3.283 -0.198 144 74 38
7.1170001 -3.2160001 -0.21799999 130 86 57
7.1069999 -3.201 -0.22400001 135 82 40
7.118 -3.207 -0.21799999 172 126 93
7.119 -3.237 -0.211 87 43 16
7.0890002 -3.2079999 -0.156 112 94 94
7.105 -3.198 -0.156 119 99 101
7.0929999 -3.1930001 -0.161 255 241 163
7.098 -3.1900001 -0.164 80 53 32
7.1100001 -3.1949999 -0.153 114 92 42
7.1170001 -3.2 -0.153 203 137 76
7.1110001 -3.2049999 -0.147 196 135 72
7.105 -3.2509999 -0.182 202 155 99
7.0300002 -3.234 -0.094999999 239 167 95
7.0370002 -3.2409999 -0.102 211 141 72
7.0440001 -3.2409999 -0.102 227 160 89
7.1059999 -3.211 -0.147 206 148 85
7.1139998 -3.2279999 -0.152 254 244 182
7.0619998 -3.207 -0.132 235 174 120
7.0549998 -3.224 -0.123 92 78 52
7.0510001 -3.2179999 -0.118 58 20 7
7.0489998 -3.217 -0.123 142 81 24
7.059 -3.1960001 -0.145 154 97 52
7.0419998 -3.207 -0.132 69 62 33
7.0359998 -3.204 -0.12 142 108 70
7.0450001 -3.2160001 -0.106 68 31 13
7.0300002 -3.201 -0.116 245 216 182
6.9070001 -3.26 -0.126 187 156 127
6.9689999 -3.279 -0.154 134 87 43
6.967 -3.2780001 -0.15800001 93 64 50
6.9699998 -3.267 -0.2 144 98 64
6.9699998 -3.279 -0.191 189 155 127
6.8920002 -3.2520001 -0.13600001 166 109 56
6.8959999 -3.2260001 -0.13500001 254 220 146
7.1220002 -3.1719999 -0.17900001 179 118 73
7.1409998 -3.1830001 -0.191 192 158 110
7.1230001 -3.197 -0.17200001 147 87 33
7.1199999 -3.194 -0.175 255 253 193
7.1059999 -3.1789999 -0.17 255 242 183
7.1550002 -3.184 -0.17900001 249 197 121
7.1589999 -3.1930001 -0.17399999 233 185 109
7.1550002 -3.1949999 -0.17900001 186 122 61
7.1550002 -3.1930001 -0.17299999 197 135 74
7.1550002 -3.184 -0.184 217 172 104
7.1550002 -3.184 -0.18799999 157 120 49
6.941 -3.2539999 -0.086999997 183 154 124
6.9120002 -3.2479999 -0.124 148 115 74
6.9299998 -3.2409999 -0.114 209 107 33
7.1389999 -3.1789999 -0.198 200 170 106
7.1240001 -3.1719999 -0.199 248 218 156
7.1220002 -3.1670001 -0.18799999 159 118 54
6.973 -3.2809999 -0.177 118 86 71
6.9780002 -3.2880001 -0.184 131 76 35
7.0240002 -3.2260001 -0.094999999 97 63 17
6.9790001 -3.25 -0.20900001 132 67 13
6.9809999 -3.263 -0.20999999 119 78 48
6.994 -3.2739999 -0.20100001 84 64 63
6.9910002 -3.2349999 -0.20999999 95 59 37
6.9749999 -3.2420001 -0.207 212 181 137
6.9809999 -3.2839999 -0.18700001 119 79 44
6.9949999 -3.2809999 -0.18799999 121 90 59
7.1160002 -3.201 -0.21799999 176 126 91
7.086 -3.1900001 -0.222 231 193 154
7.0710001 -3.2090001 -0.222 101 53 13
7.0830002 -3.21 -0.22499999 132 98 60
7.1040001 -3.1949999 -0.22400001 158 101 56
7.0349998 -3.204 -0.207 166 137 105
6.9899998 -3.2060001 -0.125 69 43 20
6.9840002 -3.2179999 -0.104 70 19 0
6.96 -3.2639999 -0.093999997 237 134 119
6.9619999 -3.263 -0.086999997 209 134 225
6.9559999 -3.267 -0.079999998 148 121 100
6.9569998 -3.279 -0.104 151 123 101
6.9569998 -3.2809999 -0.106 106 69 40
6.9390001 -3.26 -0.093000002 143 112 83
7.0110002 -3.24 -0.102 170 140 78
7.006 -3.2420001 -0.113 118 72 36
7 -3.237 -0.106 188 160 121
7.0159998 -3.2479999 -0.133 154 79 22
7.0159998 -3.26 -0.146 64 34 0
7.0209999 -3.247 -0.13600001 128 85 51
7.0250001 -3.2460001 -0.123 156 114 100
7.006 -3.2490001 -0.138 157 99 59
6.973 -3.2620001 -0.107 237 154 136
6.9790001 -3.256 -0.098999999 104 77 60
6.9879999 -3.2490001 -0.117 219 201 179
6.973 -3.2639999 -0.102 143 95 59
6.961 -3.273 -0.117 114 51 16
6.9910002 -3.263 -0.152 161 134 87
6.9759998 -3.263 -0.142 147 120 75
6.9959998 -3.2509999 -0.14 121 93 82
7.0019999 -3.276 -0.16 112 82 84
7.1479998 -3.227 -0.19 185 137 99
7.1279998 -3.2290001 -0.189 145 97 57
7.1339998 -3.2130001 -0.162 253 226 149
7.118 -3.2049999 -0.16599999 217 152 94
7.1339998 -3.2130001 -0.164 240 213 134
7.0539999 -3.1800001 -0.156 239 205 168
7.046 -3.178 -0.164 185 114 50
7.0560002 -3.178 -0.15899999 108 89 75
7.0320001 -3.1919999 -0.142 75 63 39
7.0209999 -3.211 -0.108 255 223 146
6.9689999 -3.194 -0.15099999 151 88 37
6.9749999 -3.1900001 -0.15099999 140 78 27
6.934 -3.2149999 -0.13500001 252 236 200
6.9510002 -3.2149999 -0.12800001 159 136 94
6.9320002 -3.2060001 -0.139 84 56 6
7.0079999 -3.221 -0.101 225 169 94
7.1539998 -3.224 -0.183 249 233 158
7.1360002 -3.2219999 -0.17200001 161 122 93
7.118 -3.2360001 -0.171 255 251 178
7.118 -3.2409999 -0.18000001 255 226 153
6.8990002 -3.224 -0.152 243 231 209
7.0910001 -3.2079999 -0.223 255 234 193
7.105 -3.2260001 -0.211 112 63 31
7.118 -3.2420001 -0.20299999 72 55 27
7.0479999 -3.217 -0.12 211 151 91
7.0310001 -3.2030001 -0.115 220 190 154
7.0450001 -3.2420001 -0.115 184 119 53
7.0570002 -3.23 -0.134 101 64 12
7.0450001 -3.243 -0.109 204 137 69
7.0380001 -3.243 -0.115 193 124 55
7.0380001 -3.2420001 -0.109 204 134 65
7.0999999 -3.2520001 -0.185 255 217 163
7.1030002 -3.2509999 -0.189 255 224 171
7.099 -3.2479999 -0.178 239 188 133
7.0240002 -3.2309999 -0.096000001 172 135 90
7.0250001 -3.233 -0.097999997 164 121 76
7.1100001 -3.2219999 -0.15099999 247 236 172
7.0570002 -3.1800001 -0.15800001 73 55 35
7.0580001 -3.178 -0.16 244 221 187
7.086 -3.184 -0.162 137 103 42
7.0939999 -3.2190001 -0.154 250 235 192
7.0939999 -3.2190001 -0.152 255 243 204
6.928 -3.2639999 -0.118 130 97 64
6.9310002 -3.2639999 -0.132 104 75 35
6.947 -3.276 -0.11 158 111 69
6.9489999 -3.2809999 -0.106 47 20 3
6.9330001 -3.2650001 -0.106 160 127 94
6.9289999 -3.2609999 -0.113 217 135 245
6.9229999 -3.256 -0.115 121 102 95
6.901 -3.2460001 -0.13 136 103 62
6.9809999 -3.2 -0.14300001 143 114 74
6.9349999 -3.2249999 -0.118 202 118 54
6.9200001 -3.2309999 -0.12800001 255 219 141
6.9369998 -3.2290001 -0.112 201 165 133
6.9120002 -3.227 -0.161 230 156 81
6.927 -3.2190001 -0.153 205 198 180
7.118 -3.1830001 -0.184 122 68 24
7.1259999 -3.177 -0.19400001 201 160 98
7.1329999 -3.188 -0.19400001 226 182 119
7.151 -3.217 -0.17299999 154 114 79
7.1479998 -3.22 -0.178 137 92 53
7.138 -3.204 -0.186 220 156 95
7.1459999 -3.181 -0.17200001 189 128 65
7.158 -3.1900001 -0.175 239 196 117
7.1469998 -3.187 -0.185 218 149 92
6.915 -3.244 -0.125 128 108 99
7.1469998 -3.188 -0.205 176 110 50
7.1220002 -3.1670001 -0.183 255 219 149
7.1209998 -3.164 -0.18099999 192 155 84
6.895 -3.211 -0.145 150 132 108
7.105 -3.174 -0.19 246 187 127
7.1030002 -3.1689999 -0.171 238 219 161
7.0219998 -3.207 -0.115 112 86 51
6.9330001 -3.2219999 -0.155 197 189 168
7.0409999 -3.2190001 -0.108 139 105 70
7.1209998 -3.233 -0.212 145 125 92
7.1220002 -3.2320001 -0.20900001 87 56 25
6.9850001 -3.2420001 -0.20999999 160 142 120
7.0079999 -3.253 -0.198 107 73 38
7.0310001 -3.2509999 -0.198 179 147 108
7.0120001 -3.2420001 -0.197 113 80 37
7.007 -3.263 -0.199 91 46 23
7.026 -3.2639999 -0.18799999 180 142 105
7.0110002 -3.2590001 -0.19 141 102 61
7.0339999 -3.256 -0.198 151 120 76
6.9850001 -3.2869999 -0.175 144 97 55
7.033 -3.2349999 -0.199 73 47 22
7.04 -3.2490001 -0.20200001 172 128 81
6.973 -3.2650001 -0.198 122 54 9
6.9759998 -3.2639999 -0.191 108 81 54
6.9710002 -3.2490001 -0.192 132 100 62
6.973 -3.2690001 -0.184 157 108 68
6.974 -3.2490001 -0.184 127 93 58
6.973 -3.2690001 -0.178 78 62 62
6.9679999 -3.2320001 -0.185 210 178 105
6.9689999 -3.233 -0.17900001 242 204 139
7.0219998 -3.2620001 -0.15000001 148 103 62
6.9720001 -3.277 -0.163 107 67 42
6.9679999 -3.2639999 -0.163 107 93 92
6.96 -3.2639999 -0.081 230 131 112
6.994 -3.2490001 -0.123 87 38 0
6.9889998 -3.2460001 -0.116 107 72 32
6.9679999 -3.2639999 -0.114 141 101 66
7 -3.237 -0.101 191 160 116
7.0430002 -3.2309999 -0.121 246 181 115
7.02 -3.2379999 -0.122 114 55 15
6.9850001 -3.2590001 -0.148 123 99 95
7.0110002 -3.2679999 -0.153 105 61 26
6.98 -3.2690001 -0.152 241 198 251
7.138 -3.227 -0.199 211 167 94
7.132 -3.2290001 -0.182 128 112 60
7.1329999 -3.214 -0.162 255 237 159
7.1339998 -3.217 -0.162 232 203 125
7.0739999 -3.2260001 -0.205 183 128 89
7.066 -3.233 -0.20200001 139 97 49
7.0560002 -3.22 -0.219 169 137 96
7.0619998 -3.2260001 -0.208 69 39 11
7.1100001 -3.237 -0.199 84 35 3
7.1160002 -3.1849999 -0.20200001 120 73 45
7.0419998 -3.2030001 -0.148 222 211 181
7.0359998 -3.1900001 -0.147 143 101 61
7.0279999 -3.1900001 -0.152 201 170 124
7.0180001 -3.1900001 -0.14300001 198 147 102
6.9549999 -3.21 -0.153 192 144 98
6.9580002 -3.2060001 -0.152 215 189 156
6.9439998 -3.22 -0.121 180 137 69
6.9439998 -3.217 -0.112 129 103 68
6.9619999 -3.2030001 -0.13600001 161 140 95
6.9559999 -3.2179999 -0.114 115 86 54
6.96 -3.22 -0.105 223 208 167
6.9790001 -3.2290001 -0.096000001 217 184 149
6.9710002 -3.22 -0.097000003 185 144 100
6.9710002 -3.2360001 -0.092 255 212 132
6.9679999 -3.2260001 -0.096000001 208 164 127
6.9710002 -3.2260001 -0.097000003 225 203 162
6.9759998 -3.2309999 -0.096000001 236 197 158
6.9840002 -3.2509999 -0.204 157 134 116
6.9990001 -3.2550001 -0.199 63 18 0
6.987 -3.2590001 -0.20299999 110 73 44
6.9749999 -3.2720001 -0.199 101 75 52
6.9770002 -3.2839999 -0.191 214 140 93
7.092 -3.187 -0.221 54 32 9
7.0929999 -3.1889999 -0.219 177 143 98
7.0879998 -3.2019999 -0.223 104 51 7
7.1100001 -3.2460001 -0.193 180 137 92
7.0770001 -3.2190001 -0.167 255 241 208
7.0960002 -3.2290001 -0.17200001 209 194 153
7.0440001 -3.2609999 -0.19 99 65 28
7.059 -3.2320001 -0.163 228 208 158
7.059 -3.2449999 -0.15899999 103 71 56
7.0599999 -3.2460001 -0.15700001 248 248 236
7.0609999 -3.2479999 -0.163 212 193 150
7.0689998 -3.2249999 -0.16599999 153 140 106
7.1020002 -3.2349999 -0.17299999 215 194 147
7.1079998 -3.2160001 -0.15099999 248 239 174
7.1030002 -3.1700001 -0.168 246 235 181
7.0560002 -3.1760001 -0.168 216 200 185
7.026 -3.181 -0.171 252 216 164
7.026 -3.181 -0.17299999 244 212 163
7.066 -3.1860001 -0.163 198 176 152
7.0669999 -3.194 -0.156 197 168 126
7.0640001 -3.194 -0.153 251 216 178
7.0929999 -3.217 -0.156 250 234 185
6.9219999 -3.2550001 -0.141 164 137 84
6.9260001 -3.2509999 -0.147 124 81 39
6.9380002 -3.2590001 -0.139 110 84 71
6.927 -3.2520001 -0.14399999 128 98 64
6.9060001 -3.2520001 -0.146 131 102 72
6.921 -3.257 -0.132 154 90 29
6.9289999 -3.2509999 -0.112 96 62 25
6.9770002 -3.266 -0.204 191 153 116
6.9000001 -3.2409999 -0.132 158 90 41
6.9050002 -3.2260001 -0.133 255 239 186
7.0029998 -3.2520001 -0.146 165 135 97
6.9920001 -3.2019999 -0.147 164 142 105
7.0019999 -3.1930001 -0.142 187 168 128
6.9759998 -3.1930001 -0.148 145 86 46
6.941 -3.23 -0.152 124 85 44
6.9460001 -3.2279999 -0.154 165 144 141
6.9089999 -3.2219999 -0.131 239 171 100
6.9130001 -3.227 -0.132 172 92 23
7.1209998 -3.1949999 -0.177 255 255 198
7.1269999 -3.178 -0.198 212 172 111
7.1420002 -3.217 -0.167 154 120 93
7.1560001 -3.1860001 -0.177 221 169 93
7.1570001 -3.2049999 -0.2 217 146 82
6.921 -3.2090001 -0.13600001 239 215 189
7.1599998 -3.1919999 -0.197 204 170 109
7.1220002 -3.168 -0.185 249 210 141
7.1040001 -3.1719999 -0.175 186 155 88
7.0999999 -3.184 -0.178 230 169 124
7.085 -3.184 -0.182 129 107 66
7 -3.211 -0.19599999 153 100 60
7.006 -3.2060001 -0.207 76 33 0
7.0040002 -3.2079999 -0.19 182 125 82
7.0190001 -3.1900001 -0.152 228 179 136
6.9879999 -3.2049999 -0.16500001 206 109 40
7.0019999 -3.194 -0.152 206 178 138
6.993 -3.204 -0.149 192 170 133
7.0219998 -3.197 -0.134 87 57 21
7.0250001 -3.1989999 -0.131 195 92 13
6.9710002 -3.277 -0.185 138 96 71
6.9819999 -3.23 -0.206 133 99 71
6.9879999 -3.224 -0.207 194 163 135
7.0089998 -3.2579999 -0.20200001 84 48 12
7.0029998 -3.2609999 -0.20200001 168 124 77
7.0009999 -3.2639999 -0.19599999 137 104 87
7.0219998 -3.253 -0.145 249 230 200
7.0019999 -3.2090001 -0.178 152 142 117
7.0380001 -3.184 -0.17 183 117 59
7.0339999 -3.1919999 -0.161 229 184 143
7.0040002 -3.279 -0.171 122 92 64
7.04 -3.2679999 -0.17 227 219 200
7.0190001 -3.2679999 -0.17299999 129 102 73
7.0500002 -3.256 -0.17 242 236 222
7.0510001 -3.2620001 -0.178 91 44 14
6.9980001 -3.277 -0.183 105 77 55
6.9920001 -3.2809999 -0.17900001 164 134 98
7.0999999 -3.2479999 -0.189 255 213 165
7.046 -3.211 -0.20200001 111 91 58
7.0430002 -3.1960001 -0.204 248 239 224
7.0539999 -3.2030001 -0.204 254 231 200
7.0180001 -3.27 -0.169 79 50 16
6.928 -3.23 -0.153 66 19 1
6.9219999 -3.2349999 -0.152 207 181 146
6.9260001 -3.2409999 -0.146 217 149 76
6.9239998 -3.24 -0.147 171 143 106
6.9899998 -3.2179999 -0.115 129 100 70
7 -3.211 -0.116 84 37 21
7 -3.221 -0.107 222 191 137
7.0180001 -3.201 -0.132 97 47 10
7.0050001 -3.194 -0.14399999 213 198 159
6.9749999 -3.263 -0.168 123 93 55
6.954 -3.2780001 -0.117 113 40 0
6.9439998 -3.2579999 -0.149 145 79 29
6.9439998 -3.2590001 -0.141 99 58 36
6.973 -3.2809999 -0.162 155 88 35
6.974 -3.2690001 -0.168 154 102 55
6.9510002 -3.237 -0.090000004 138 128 69
6.9629998 -3.2720001 -0.106 176 138 99
6.961 -3.2720001 -0.115 171 136 98
6.993 -3.2390001 -0.106 187 143 114
6.987 -3.237 -0.101 137 101 77
6.9759998 -3.253 -0.106 186 123 69
7.027 -3.244 -0.126 240 204 250
7.0229998 -3.2360001 -0.103 149 104 62
7.0300002 -3.2360001 -0.108 219 152 81
6.9640002 -3.2609999 -0.126 136 51 0
6.9749999 -3.266 -0.15000001 163 98 42
7.1199999 -3.2179999 -0.20900001 138 105 70
7.1469998 -3.227 -0.184 148 100 62
7.1170001 -3.2390001 -0.178 253 227 152
7.0570002 -3.184 -0.156 122 108 73
7.0539999 -3.2049999 -0.146 202 133 66
7.0710001 -3.2090001 -0.13600001 120 59 12
7.125 -3.224 -0.206 141 96 67
7.1269999 -3.221 -0.2 195 159 99
7.0999999 -3.191 -0.21799999 130 77 33
7.099 -3.1900001 -0.211 59 35 9
7.0999999 -3.1919999 -0.189 110 56 18
6.9790001 -3.2360001 -0.093000002 192 153 112
6.9910002 -3.227 -0.1 188 156 115
7.1149998 -3.2019999 -0.214 112 90 53
7.086 -3.191 -0.16500001 192 162 98
7.053 -3.2520001 -0.19499999 189 146 111
7.0760002 -3.2349999 -0.183 255 240 215
7.0749998 -3.23 -0.183 103 72 43
7.0539999 -3.2539999 -0.18099999 63 36 7
7.0640001 -3.24 -0.183 198 167 136
7.059 -3.243 -0.176 236 174 113
7.0599999 -3.247 -0.19 102 69 38
7.0489998 -3.2509999 -0.167 56 10 0
7.0370002 -3.2620001 -0.171 196 165 121
7.0440001 -3.2460001 -0.163 115 80 61
7.033 -3.2509999 -0.167 113 85 61
7.0640001 -3.2349999 -0.178 109 76 45
7.099 -3.2320001 -0.17299999 251 237 192
7.007 -3.2219999 -0.101 94 56 19
7.1030002 -3.1700001 -0.169 184 171 116
7.0630002 -3.177 -0.17200001 226 208 184
7.0840001 -3.187 -0.16500001 209 172 104
6.9190001 -3.256 -0.12800001 118 97 66
6.96 -3.263 -0.122 177 116 61
6.9380002 -3.2539999 -0.109 198 101 46
6.941 -3.247 -0.106 103 72 43
6.915 -3.2309999 -0.132 106 42 0
6.973 -3.2060001 -0.12899999 114 88 51
6.9640002 -3.221 -0.104 210 190 153
6.9640002 -3.22 -0.098999999 194 148 112
6.9359999 -3.211 -0.139 146 113 72
6.9099998 -3.2320001 -0.148 139 64 7
7.1350002 -3.1930001 -0.191 249 209 140
7.1440001 -3.2030001 -0.186 204 138 78
7.1529999 -3.221 -0.189 219 184 102
7.1469998 -3.197 -0.206 122 98 34
7.158 -3.191 -0.215 236 197 128
7.1589999 -3.1919999 -0.211 198 160 95
7.1209998 -3.1949999 -0.20100001 223 196 129
7.1240001 -3.1719999 -0.191 189 151 89
7.0120001 -3.201 -0.185 169 110 68
6.994 -3.2079999 -0.171 238 244 230
7.0409999 -3.1800001 -0.183 157 112 79
7.0009999 -3.2130001 -0.211 215 180 150
6.9899998 -3.224 -0.206 85 55 27
7.0019999 -3.1919999 -0.15000001 178 152 115
6.9569998 -3.2149999 -0.155 236 227 196
6.9530001 -3.2160001 -0.154 145 111 63
6.9640002 -3.2260001 -0.155 172 114 68
6.9619999 -3.217 -0.154 237 220 190
6.973 -3.223 -0.175 205 190 169
6.9499998 -3.2360001 -0.15099999 163 131 82
6.9580002 -3.2490001 -0.147 117 84 51
6.9899998 -3.256 -0.149 137 77 41
6.9879999 -3.2520001 -0.145 78 49 17
6.9520001 -3.2079999 -0.145 229 185 136
7.0300002 -3.2179999 -0.105 95 67 30
7.0320001 -3.211 -0.112 238 206 159
7.007 -3.2460001 -0.20100001 146 117 101
7.0019999 -3.237 -0.204 171 117 73
6.9910002 -3.263 -0.204 177 110 58
7.026 -3.2650001 -0.15800001 245 228 200
7.0250001 -3.2490001 -0.16 212 185 156
7.0250001 -3.2620001 -0.18000001 162 138 112
7.0339999 -3.2639999 -0.175 168 120 74
7.0050001 -3.2720001 -0.17900001 99 67 42
6.9959998 -3.28 -0.17 173 143 105
7.1160002 -3.198 -0.17200001 154 93 38
7.0159998 -3.2219999 -0.20900001 164 122 82
7.0190001 -3.2260001 -0.205 198 152 118
7.0149999 -3.2320001 -0.205 193 128 70
7.0469999 -3.2379999 -0.207 82 62 74
7.0949998 -3.2490001 -0.185 255 212 162
7.0689998 -3.2019999 -0.22 104 69 31
7.0679998 -3.1930001 -0.211 186 173 156
7.0570002 -3.1900001 -0.21600001 89 43 10
7.0640001 -3.2019999 -0.208 81 55 22
7.0689998 -3.2019999 -0.21699999 173 139 94
7.0539999 -3.198 -0.205 255 248 227
7.0510001 -3.181 -0.20299999 160 134 101
7.0570002 -3.1789999 -0.197 231 196 142
7.0570002 -3.1760001 -0.20299999 127 97 63
7.0419998 -3.1849999 -0.19499999 178 158 121
7.0139999 -3.27 -0.15800001 250 223 196
6.9819999 -3.22 -0.11 62 15 0
6.9369998 -3.2520001 -0.147 107 76 45
6.9699998 -3.263 -0.16500001 176 110 75
6.9819999 -3.24 -0.161 150 85 19
6.9759998 -3.2279999 -0.162 183 154 120
6.973 -3.2349999 -0.152 143 104 63
6.96 -3.2360001 -0.155 177 145 98
6.9629998 -3.2539999 -0.15099999 255 235 181
6.9619999 -3.26 -0.152 86 60 47
6.9380002 -3.2609999 -0.126 112 94 84
6.9640002 -3.2679999 -0.15099999 139 105 68
6.9580002 -3.257 -0.139 214 157 234
6.9720001 -3.2609999 -0.145 114 85 55
6.9619999 -3.227 -0.097000003 205 184 141
6.9330001 -3.2720001 -0.098999999 88 61 34
6.98 -3.256 -0.14399999 196 108 62
6.974 -3.2590001 -0.139 232 184 246
6.973 -3.2590001 -0.094999999 96 75 70
6.9829998 -3.247 -0.127 82 52 24
7.0359998 -3.243 -0.133 164 129 91
7.0349998 -3.2420001 -0.13699999 97 66 37
7.0300002 -3.234 -0.102 227 157 87
6.947 -3.256 -0.126 79 60 53
6.9559999 -3.2539999 -0.132 144 79 41
6.9689999 -3.257 -0.139 75 46 38
7.1100001 -3.2149999 -0.15899999 126 92 57
7.1129999 -3.227 -0.15800001 255 248 185
7.1339998 -3.217 -0.17299999 252 227 147
7.1329999 -3.214 -0.16599999 253 231 148
7.0489998 -3.1900001 -0.153 149 83 33
7.0599999 -3.187 -0.15800001 53 36 6
7.0650001 -3.2 -0.152 245 220 190
7.0999999 -3.207 -0.21699999 84 31 0
7.0999999 -3.223 -0.207 135 81 34
7.0700002 -3.2349999 -0.19400001 109 71 35
7.073 -3.2260001 -0.20299999 126 96 70
7.0840001 -3.194 -0.20100001 117 94 50
7.0799999 -3.1960001 -0.204 194 162 103
7.099 -3.1900001 -0.20200001 82 58 34
6.961 -3.2149999 -0.12899999 97 75 34
6.9369998 -3.24 -0.14399999 114 88 63
6.9050002 -3.2119999 -0.138 153 120 77
6.927 -3.2190001 -0.133 241 216 185
7.092 -3.2149999 -0.164 149 125 87
7.0700002 -3.2019999 -0.153 178 122 73
7.0469999 -3.2579999 -0.191 214 149 93
7.066 -3.2360001 -0.19 107 76 48
7.1040001 -3.171 -0.17299999 237 212 148
7.0570002 -3.178 -0.17 214 200 189
7.0349998 -3.2420001 -0.148 163 130 99
6.928 -3.2449999 -0.118 231 124 118
6.8860002 -3.2449999 -0.131 193 122 60
6.9720001 -3.1989999 -0.152 145 116 82
6.9790001 -3.2030001 -0.149 219 194 164
6.9790001 -3.2379999 -0.17299999 248 200 134
6.9359999 -3.2060001 -0.141 186 147 104
7.1090002 -3.1819999 -0.19400001 242 201 137
7.1529999 -3.22 -0.184 255 248 173
7.1589999 -3.1919999 -0.213 201 161 92
7.1209998 -3.2119999 -0.20100001 176 131 102
7.1339998 -3.1919999 -0.199 164 123 61
7.1430001 -3.197 -0.199 208 140 79
7.1220002 -3.168 -0.18700001 220 180 111
6.9710002 -3.2720001 -0.191 94 67 40
7.0310001 -3.198 -0.205 151 116 74
7.027 -3.188 -0.19400001 169 128 72
7.0159998 -3.204 -0.191 177 118 78
7.026 -3.1819999 -0.186 103 71 32
7.0279999 -3.191 -0.19 96 64 17
7.0409999 -3.181 -0.176 220 174 141
7.0019999 -3.1919999 -0.149 251 225 188
7.0040002 -3.2060001 -0.162 173 129 82
6.9860001 -3.22 -0.17299999 196 163 130
6.9850001 -3.2309999 -0.197 168 134 107
6.9679999 -3.2279999 -0.182 195 177 163
7.0310001 -3.207 -0.114 236 202 156
6.947 -3.2320001 -0.154 255 238 197
6.941 -3.2179999 -0.155 253 243 218
6.954 -3.2030001 -0.142 214 177 135
6.9489999 -3.2079999 -0.14300001 153 95 49
7.007 -3.243 -0.204 50 31 17
6.9829998 -3.2590001 -0.208 136 96 61
7.0570002 -3.2449999 -0.153 102 66 32
7.0440001 -3.243 -0.16 220 164 105
7.0580001 -3.2260001 -0.13699999 116 86 60
7.066 -3.22 -0.146 241 228 183
7.0599999 -3.223 -0.148 255 244 212
7.0380001 -3.243 -0.16 116 85 57
7.0190001 -3.191 -0.161 223 176 134
7.0190001 -3.1900001 -0.17 213 169 130
7.0450001 -3.2609999 -0.18000001 164 131 90
7.0229998 -3.23 -0.204 121 102 87
7.0549998 -3.2249999 -0.213 217 178 147
7.0489998 -3.237 -0.206 108 56 16
7.073 -3.2360001 -0.182 120 67 23
7.0949998 -3.2420001 -0.182 165 138 119
7.0570002 -3.2079999 -0.206 225 213 199
7.0349998 -3.221 -0.20200001 150 113 61
7.0560002 -3.1849999 -0.211 81 51 25
6.974 -3.223 -0.104 234 215 182
7.0190001 -3.2060001 -0.124 102 74 35
6.9710002 -3.2550001 -0.15800001 118 93 88
6.9359999 -3.266 -0.121 151 134 106
6.941 -3.2609999 -0.121 86 60 47
6.9569998 -3.2260001 -0.097000003 219 166 86
6.9429998 -3.243 -0.097999997 255 226 166
6.9499998 -3.237 -0.097999997 252 232 173
6.947 -3.234 -0.104 178 114 43
6.9720001 -3.2550001 -0.094999999 78 40 1
6.98 -3.2479999 -0.119 167 125 100
7.0139999 -3.243 -0.126 208 184 146
6.9629998 -3.256 -0.14 169 123 87
7.1129999 -3.223 -0.153 255 248 183
7.1069999 -3.223 -0.16500001 255 247 177
7.0650001 -3.184 -0.168 180 163 137
7.0640001 -3.22 -0.141 98 62 26
7.0570002 -3.1800001 -0.19599999 230 193 138
7.0700002 -3.1960001 -0.206 247 239 226
7.105 -3.194 -0.21799999 181 124 81
7.0929999 -3.1930001 -0.215 255 239 189
7.0770001 -3.223 -0.186 243 225 205
7.0830002 -3.2190001 -0.19499999 251 235 246
7.0960002 -3.2249999 -0.189 250 226 156
7.085 -3.197 -0.18799999 201 147 109
6.9629998 -3.214 -0.13 245 227 179
6.9429998 -3.2249999 -0.112 227 194 159
6.9970002 -3.211 -0.13 149 121 82
7.092 -3.2149999 -0.162 232 206 171
7.0770001 -3.2190001 -0.169 184 131 81
7.0689998 -3.223 -0.164 129 114 81
7.0500002 -3.257 -0.183 247 244 235
7.0209999 -3.2579999 -0.154 159 111 63
6.9180002 -3.243 -0.148 146 80 30
6.9120002 -3.256 -0.132 176 148 101
6.9489999 -3.277 -0.115 139 112 85
6.9549999 -3.2650001 -0.119 239 155 95
6.928 -3.2509999 -0.115 87 60 33
6.9770002 -3.2249999 -0.1 229 202 172
6.9710002 -3.2060001 -0.155 250 241 208
7.0019999 -3.2149999 -0.183 244 237 219
7.1209998 -3.188 -0.205 158 96 39
7.1440001 -3.21 -0.19400001 225 186 117
7.1560001 -3.1989999 -0.212 215 150 94
7.1209998 -3.1960001 -0.2 255 231 167
7.0289998 -3.1930001 -0.197 168 125 72
7.013 -3.207 -0.19599999 97 39 0
7.0089998 -3.21 -0.207 127 82 41
7.026 -3.1819999 -0.178 230 210 151
7.0100002 -3.21 -0.213 254 215 176
7.0019999 -3.2149999 -0.207 204 167 140
6.9970002 -3.2090001 -0.17200001 246 216 154
6.9770002 -3.217 -0.162 233 201 162
6.9770002 -3.227 -0.182 198 183 164
6.9910002 -3.227 -0.198 169 135 108
6.987 -3.2320001 -0.189 143 109 82
6.9959998 -3.224 -0.184 137 106 77
6.973 -3.2390001 -0.192 216 188 115
7.0120001 -3.2 -0.17900001 146 85 41
7.0450001 -3.24 -0.134 181 155 122
7.0139999 -3.1930001 -0.175 171 132 77
7.027 -3.188 -0.168 137 92 27
7.0479999 -3.243 -0.199 104 64 29
7.0560002 -3.244 -0.198 153 108 77
7.098 -3.2290001 -0.185 243 208 140
7.0970001 -3.2249999 -0.191 247 224 156
6.9559999 -3.223 -0.104 233 210 169
6.9759998 -3.253 -0.161 171 107 33
7.0450001 -3.2409999 -0.133 146 77 12
7.0320001 -3.221 -0.104 51 25 26
7.1129999 -3.2279999 -0.16 252 246 184
7.1129999 -3.2249999 -0.16599999 255 252 178
7.0419998 -3.187 -0.152 154 107 61
7.0489998 -3.181 -0.17 236 192 143
7.0640001 -3.2149999 -0.13500001 139 103 79
7.072 -3.22 -0.152 192 155 111
7.0760002 -3.2160001 -0.15000001 149 121 82
7.0650001 -3.1949999 -0.197 194 165 107
7.0760002 -3.2149999 -0.148 186 161 121
7.0869999 -3.184 -0.17200001 81 48 0
7.0700002 -3.21 -0.21600001 89 39 2
7.0869999 -3.22 -0.2 199 156 121
7.0799999 -3.201 -0.19400001 185 136 103
6.9619999 -3.2049999 -0.13500001 252 234 186
6.9710002 -3.217 -0.121 236 213 182
6.9640002 -3.221 -0.112 242 223 190
6.9260001 -3.2590001 -0.133 137 88 45
6.954 -3.2190001 -0.121 171 148 116
7.0430002 -3.2219999 -0.112 168 108 58
6.9959998 -3.2249999 -0.101 249 199 136
6.9829998 -3.2130001 -0.125 69 43 18
6.98 -3.211 -0.12800001 133 94 63
6.9749999 -3.2279999 -0.169 239 182 162
6.9959998 -3.2190001 -0.178 148 98 63
6.9180002 -3.21 -0.138 61 31 3
7.138 -3.2090001 -0.193 215 149 88
7.1599998 -3.194 -0.20900001 242 221 156
7.1570001 -3.2030001 -0.206 206 136 74
7.0339999 -3.191 -0.19499999 229 209 185
7.0279999 -3.1860001 -0.19 121 83 36
7.0310001 -3.1989999 -0.20299999 171 134 90
7.027 -3.1830001 -0.18799999 95 60 18
6.9660001 -3.214 -0.155 246 237 204
6.987 -3.2260001 -0.17900001 226 186 114
6.9699998 -3.25 -0.156 159 116 71
6.9439998 -3.2160001 -0.153 254 242 216
7.0180001 -3.2650001 -0.177 147 115 104
6.9489999 -3.2279999 -0.104 226 208 158
7.1139998 -3.2219999 -0.16599999 255 243 174
7.0580001 -3.2279999 -0.16 219 198 151
7.0580001 -3.1819999 -0.2 246 217 161
7.0599999 -3.1819999 -0.176 184 158 121
7.0609999 -3.1889999 -0.184 254 240 201
7.0599999 -3.1860001 -0.19 197 170 115
7.0580001 -3.1849999 -0.191 241 209 150
7.072 -3.211 -0.148 146 117 75
7.0840001 -3.187 -0.17299999 203 157 82
7.0949998 -3.223 -0.19499999 187 156 91
7.1030002 -3.224 -0.208 139 121 133
7.0819998 -3.214 -0.21799999 108 78 40
6.9770002 -3.221 -0.115 94 65 33
7.0040002 -3.207 -0.139 199 130 65
7.0139999 -3.198 -0.168 217 152 96
6.9520001 -3.2149999 -0.154 244 228 202
7.1020002 -3.224 -0.20200001 91 70 39
7.0650001 -3.1960001 -0.185 255 247 211
7.0250001 -3.2349999 -0.19599999 74 47 18
7.0560002 -3.2249999 -0.149 82 52 26
7.0419998 -3.188 -0.161 189 145 100
7.059 -3.184 -0.193 208 182 123
7.0949998 -3.194 -0.205 79 56 6
7.1009998 -3.221 -0.211 121 72 39
6.9809999 -3.2049999 -0.15000001 212 187 157
6.9759998 -3.233 -0.191 218 186 111
6.9860001 -3.2130001 -0.163 201 167 121
7.0580001 -3.181 -0.19499999 191 156 98
7.059 -3.1849999 -0.191 239 210 154
7.0089998 -3.211 -0.12800001 167 114 74
6.9699998 -3.257 -0.133 142 93 50
7.1609998 -3.197 -0.205 187 165 105
7.059 -3.188 -0.20100001 248 219 161
0 0 0 1 0 0 0 1 0 0 0 1 0 0 0 0 0 789 1 0 0
