ply
format ascii 1.0
comment PCL generated
element vertex 1252
property float x
property float y
property float z
property uchar red
property uchar green
property uchar blue
element camera 0
property float view_px
property float view_py
property float view_pz
property float x_axisx
property float x_axisy
property float x_axisz
property float y_axisx
property float y_axisy
property float y_axisz
property float z_axisx
property float z_axisy
property float z_axisz
property float focal
property float scalex
property float scaley
property float centerx
property float centery
property int viewportx
property int viewporty
property float k1
property float k2
end_header
-3.701 -2.8329999 -0.90399998 27 6 1
-3.7260001 -2.8399999 -0.898 59 21 0
-3.7160001 -2.8559999 -0.88 127 92 70
-3.645 -2.7420001 -0.875 28 8 0
-3.654 -2.734 -0.86199999 67 37 13
-3.6500001 -2.733 -0.86699998 140 109 89
-3.6500001 -2.733 -0.85699999 152 115 88
-3.7639999 -2.8540001 -0.86699998 45 27 27
-3.7160001 -2.842 -0.898 34 5 0
-3.7190001 -2.842 -0.889 33 17 17
-3.697 -2.849 -0.898 112 88 86
-3.697 -2.862 -0.88999999 109 96 87
-3.704 -2.852 -0.889 121 92 50
-3.7709999 -2.869 -0.87400001 61 20 0
-3.7509999 -2.8670001 -0.84799999 89 57 36
-3.7539999 -2.8659999 -0.84399998 82 45 18
-3.7460001 -2.8559999 -0.84899998 25 2 0
-3.757 -2.858 -0.84600002 152 142 143
-3.441 -2.5650001 -1.013 31 9 0
-3.4549999 -2.5910001 -0.949 42 11 0
-3.474 -2.563 -0.94700003 29 0 0
-3.4660001 -2.556 -0.95099998 24 3 0
-3.461 -2.5650001 -0.96600002 40 17 3
-3.457 -2.5650001 -0.99699998 70 38 15
-3.4519999 -2.585 -0.96200001 33 13 2
-3.4349999 -2.539 -0.96100003 80 52 38
-3.441 -2.5450001 -0.96700001 82 54 32
-3.438 -2.5480001 -0.972 175 134 78
-3.4590001 -2.549 -0.963 58 29 13
-3.461 -2.552 -0.95700002 56 30 13
-3.4360001 -2.5580001 -0.954 23 10 2
-3.4590001 -2.549 -0.94499999 154 132 118
-3.4619999 -2.553 -0.954 67 37 26
-3.4460001 -2.546 -0.94099998 165 112 72
-3.4419999 -2.5569999 -0.94300002 28 9 11
-3.5139999 -2.5610001 -0.85900003 64 18 0
-3.487 -2.549 -0.90700001 44 32 10
-3.4849999 -2.6289999 -0.986 122 91 71
-3.493 -2.641 -0.95499998 135 118 111
-3.4820001 -2.641 -0.96600002 47 16 0
-3.457 -2.5999999 -0.95599997 26 2 0
-3.4560001 -2.5669999 -0.98900002 68 49 35
-3.4990001 -2.6359999 -1.006 14 0 0
-3.4960001 -2.6370001 -0.995 4 0 0
-3.763 -2.881 -0.81999999 166 104 55
-3.7620001 -2.8789999 -0.82099998 151 92 48
-3.776 -2.9070001 -0.84799999 215 139 87
-3.7750001 -2.914 -0.85399997 135 60 2
-3.7839999 -2.8870001 -0.82499999 77 43 18
-3.727 -2.711 -0.88700002 133 87 53
-3.714 -2.7460001 -0.89600003 86 54 43
-3.7060001 -2.7460001 -0.89499998 71 65 65
-3.7490001 -2.675 -0.84899998 119 58 14
-3.7590001 -2.664 -0.84200001 82 14 0
-3.7030001 -2.6530001 -0.86400002 63 41 27
-3.694 -2.6689999 -0.86000001 57 34 18
-3.77 -2.7460001 -0.84399998 50 14 0
-3.7809999 -2.7379999 -0.838 244 194 97
-3.77 -2.727 -0.84399998 61 43 7
-3.7750001 -2.733 -0.815 233 192 140
-3.7780001 -2.7360001 -0.82200003 154 99 9
-3.7750001 -2.7449999 -0.82099998 138 82 21
-3.767 -2.7449999 -0.81199998 112 65 39
-3.7690001 -2.7460001 -0.81599998 192 128 67
-3.7479999 -2.76 -0.81300002 114 68 32
-3.753 -2.76 -0.82099998 78 46 23
-3.7609999 -2.7590001 -0.82099998 195 116 47
-3.7449999 -2.7460001 -0.79799998 255 240 202
-3.7539999 -2.7420001 -0.80400002 183 148 120
-3.7590001 -2.734 -0.80299997 156 108 60
-3.425 -2.6259999 -0.912 14 0 0
-3.431 -2.6059999 -0.89600003 70 42 18
-3.4260001 -2.612 -0.93900001 132 109 101
-3.434 -2.615 -0.89399999 130 98 75
-3.428 -2.6270001 -0.90899998 21 3 0
-3.418 -2.6140001 -0.91399997 130 115 112
-3.4130001 -2.619 -0.92500001 96 52 25
-3.4260001 -2.6340001 -0.92400002 76 48 27
-3.516 -2.5999999 -0.90600002 114 86 46
-3.4760001 -2.6229999 -0.90600002 100 66 41
-3.4760001 -2.5669999 -0.93099999 85 71 68
-3.4979999 -2.546 -0.93199998 74 62 62
-3.4960001 -2.55 -0.93800002 42 23 16
-3.4909999 -2.553 -0.94 23 4 0
-3.5090001 -2.5680001 -0.935 64 44 35
-3.5050001 -2.549 -0.92199999 37 25 11
-3.559 -2.572 -0.85799998 58 31 14
-3.506 -2.579 -0.86500001 128 63 21
-3.517 -2.582 -0.86000001 105 63 23
-3.4860001 -2.5699999 -0.87400001 113 95 83
-3.5639999 -2.6659999 -0.82700002 119 89 65
-3.5699999 -2.658 -0.82999998 66 60 38
-3.5699999 -2.619 -0.82499999 235 179 120
-3.546 -2.6459999 -0.92500001 101 69 46
-3.546 -2.652 -0.921 30 5 1
-3.5539999 -2.6530001 -0.92000002 91 63 49
-3.546 -2.6459999 -0.93099999 26 6 0
-3.5699999 -2.6429999 -0.90200001 47 21 4
-3.5680001 -2.6500001 -0.94499999 90 77 61
-3.5840001 -2.648 -0.94199997 102 61 43
-3.5869999 -2.6289999 -0.94499999 43 31 33
-3.5599999 -2.8399999 -1.056 113 71 47
-3.5739999 -2.638 -1.031 19 1 0
-3.5710001 -2.6359999 -1.0319999 14 0 0
-3.572 -2.6370001 -1.029 24 5 1
-3.5899999 -2.8399999 -1.033 127 81 45
-3.585 -2.845 -1.04 147 102 60
-3.5780001 -2.8329999 -1.048 60 31 17
-3.5799999 -2.832 -1.049 46 18 6
-3.517 -2.6500001 -0.935 58 22 0
-3.5079999 -2.635 -0.92299998 218 164 100
-3.6389999 -2.7030001 -0.97100002 41 16 11
-3.576 -2.6400001 -1.023 49 24 19
-3.576 -2.641 -1.0190001 35 5 3
-3.5739999 -2.8329999 -1.0549999 28 8 1
-3.576 -2.8329999 -1.0549999 30 6 0
-3.5810001 -2.832 -1.051 62 31 13
-3.556 -2.602 -0.83399999 86 68 64
-3.5480001 -2.595 -0.82800001 42 19 5
-3.566 -2.6140001 -0.83700001 45 2 0
-3.559 -2.589 -0.847 38 18 17
-3.546 -2.589 -0.83099997 62 31 11
-3.536 -2.5840001 -0.83399999 90 59 38
-3.55 -2.638 -0.82599998 127 107 106
-3.5339999 -2.596 -0.833 30 20 19
-3.527 -2.5840001 -0.82599998 93 60 41
-3.559 -2.671 -0.824 63 50 33
-3.5369999 -2.5599999 -0.92500001 19 9 0
-3.5150001 -2.563 -0.93400002 62 35 26
-3.5239999 -2.556 -0.93699998 30 22 9
-3.539 -2.5569999 -0.91299999 63 31 16
-3.615 -2.563 -0.88800001 170 91 24
-3.5780001 -2.5550001 -0.89499998 79 39 13
-3.5880001 -2.5539999 -0.89600003 118 70 30
-3.5469999 -2.5550001 -0.91600001 18 0 0
-3.5639999 -2.563 -0.91000003 155 121 93
-3.5880001 -2.605 -0.87 141 88 56
-3.595 -2.595 -0.87300003 48 18 8
-3.6240001 -2.5710001 -0.92199999 23 2 0
-3.556 -2.652 -0.91500002 72 45 28
-3.549 -2.6210001 -0.87300003 63 27 11
-3.503 -2.6159999 -0.90499997 183 129 83
-3.533 -2.5669999 -1.015 14 9 6
-3.553 -2.5810001 -1.015 5 1 0
-3.5599999 -2.579 -1.015 37 22 19
-3.55 -2.566 -0.98799998 124 113 111
-3.546 -2.5639999 -0.95899999 14 0 0
-3.543 -2.563 -0.986 17 4 0
-3.552 -2.562 -1.002 45 30 27
-3.559 -2.5639999 -1.003 32 17 10
-3.5769999 -2.566 -1.0039999 4 0 1
-3.6010001 -2.5469999 -0.94099998 27 8 4
-3.559 -2.572 -0.93800002 15 1 0
-3.6099999 -2.5899999 -0.96700001 87 51 17
-3.6170001 -2.589 -0.96200001 127 123 124
-3.6210001 -2.5910001 -0.977 112 107 114
-3.579 -2.632 -0.96499997 61 27 17
-3.6329999 -2.5799999 -0.90200001 160 99 54
-3.6670001 -2.608 -0.85299999 78 47 27
-3.6860001 -2.599 -0.86299998 30 9 4
-3.723 -2.6329999 -0.81699997 123 87 55
-3.6159999 -2.5940001 -0.88599998 80 51 37
-3.625 -2.6040001 -0.89099997 104 67 40
-3.609 -2.5680001 -0.85900003 210 140 81
-3.599 -2.575 -0.85500002 51 26 19
-3.596 -2.5650001 -0.85699999 60 44 45
-3.596 -2.5680001 -0.85399997 169 104 48
-3.619 -2.566 -0.88700002 114 59 39
-3.6140001 -2.563 -0.88599998 224 147 67
-3.605 -2.576 -0.85799998 48 18 7
-3.605 -2.5669999 -0.86199999 144 88 41
-3.6040001 -2.5639999 -0.86799997 87 47 21
-3.724 -2.6210001 -0.82099998 53 15 0
-3.7249999 -2.622 -0.82599998 43 10 0
-3.7260001 -2.6240001 -0.82999998 53 24 8
-3.72 -2.631 -0.82499999 48 30 28
-3.698 -2.6070001 -0.85900003 165 97 62
-3.6830001 -2.622 -0.87400001 197 120 68
-3.586 -2.5739999 -0.861 157 108 68
-3.5179999 -2.5650001 -0.82200003 58 36 22
-3.527 -2.556 -0.833 53 22 17
-3.5280001 -2.553 -0.838 209 148 68
-3.5450001 -2.556 -0.85500002 69 39 31
-3.598 -2.546 -0.89399999 78 51 22
-3.6059999 -2.55 -0.88999999 95 57 38
-3.5439999 -2.5409999 -0.87699997 45 21 17
-3.546 -2.5439999 -0.88800001 38 11 0
-3.5739999 -2.5569999 -0.87300003 119 107 107
-3.6140001 -2.552 -0.917 29 12 2
-3.592 -2.5610001 -0.917 21 6 0
-3.5869999 -2.559 -0.91100001 188 125 92
-3.5799999 -2.563 -0.91399997 175 116 60
-3.529 -2.589 -0.85799998 108 82 69
-3.4560001 -2.5880001 -0.88800001 67 40 11
-3.4879999 -2.5639999 -0.88499999 22 7 4
-3.49 -2.5639999 -0.89399999 49 25 13
-3.494 -2.562 -0.89200002 22 7 4
-3.4159999 -2.631 -0.99599999 18 4 4
-3.4189999 -2.6389999 -1.002 19 1 0
-3.4200001 -2.6389999 -1.0089999 15 0 0
-3.4189999 -2.632 -1.002 11 2 3
-3.4579999 -2.6329999 -1.006 13 1 3
-3.447 -2.6400001 -0.991 15 0 0
-3.441 -2.6470001 -1.013 89 77 77
-3.4360001 -2.641 -1 34 0 0
-3.418 -2.628 -1.005 5 0 0
-3.4319999 -2.6240001 -1.006 18 1 0
-3.431 -2.6110001 -1.008 10 0 0
-3.4419999 -2.6140001 -1.015 108 93 88
-3.549 -2.6559999 -0.98400003 54 17 0
-3.5510001 -2.655 -0.986 37 7 0
-3.562 -2.6589999 -0.98400003 65 31 21
-3.5639999 -2.842 -1.052 137 97 61
-3.625 -2.7379999 -0.97000003 135 113 90
-3.622 -2.75 -1.011 142 107 88
-3.6229999 -2.7479999 -1.008 57 8 0
-3.608 -2.8139999 -1.0140001 51 7 0
-3.6029999 -2.819 -1.017 36 22 11
-3.6059999 -2.8150001 -1.018 62 25 9
-3.6229999 -2.7579999 -1.008 82 67 64
-3.6229999 -2.7479999 -0.99800003 35 5 0
-3.6229999 -2.7650001 -0.99299997 23 10 1
-3.635 -2.7709999 -1.01 105 82 76
-3.6240001 -2.7650001 -1.016 38 10 0
-3.6359999 -2.7750001 -1.021 42 22 13
-3.6760001 -2.7539999 -1.005 18 0 0
-3.6670001 -2.8110001 -1.015 60 38 27
-3.665 -2.825 -0.986 58 48 47
-3.6659999 -2.8169999 -1.008 111 84 73
-3.6670001 -2.8069999 -0.98100001 34 9 4
-3.664 -2.724 -0.99599999 104 85 79
-3.6789999 -2.7179999 -0.995 81 72 65
-3.5020001 -2.648 -0.958 116 99 91
-3.5150001 -2.6440001 -0.96899998 11 0 0
-3.5039999 -2.6489999 -0.97000003 10 0 0
-3.595 -2.635 -0.93699998 18 2 2
-3.51 -2.5739999 -0.83700001 74 43 25
-3.513 -2.566 -0.84500003 128 103 96
-3.5109999 -2.562 -0.83999997 76 26 3
-3.441 -2.5999999 -0.88999999 60 34 11
-3.552 -2.5610001 -0.90499997 24 9 2
-3.5639999 -2.5710001 -0.89700001 145 130 123
-3.5380001 -2.5539999 -0.90499997 95 58 39
-3.5309999 -2.5569999 -0.90799999 169 101 54
-3.457 -2.5869999 -0.93300003 50 29 26
-3.4649999 -2.5769999 -0.93000001 48 20 0
-3.4630001 -2.5769999 -0.93199998 59 32 15
-3.467 -2.5780001 -0.92699999 62 31 0
-3.4489999 -2.6110001 -0.89600003 98 69 51
-3.4679999 -2.585 -0.91100001 66 32 22
-3.447 -2.598 -0.90600002 46 19 0
-3.4519999 -2.592 -0.89499998 83 55 31
-3.4619999 -2.595 -0.90399998 156 126 66
-3.484 -2.572 -0.86900002 102 81 64
-3.4890001 -2.552 -0.91799998 25 9 9
-3.6760001 -2.648 -0.926 171 95 45
-3.6789999 -2.6489999 -0.91600001 61 16 0
-3.6760001 -2.6429999 -0.91900003 58 29 11
-3.556 -2.635 -0.87099999 102 73 55
-3.5969999 -2.655 -0.90399998 45 23 25
-3.612 -2.6489999 -0.91500002 57 29 8
-3.5899999 -2.6440001 -0.89399999 126 91 61
-3.5910001 -2.6440001 -0.89600003 122 81 49
-3.6570001 -2.615 -0.86900002 208 152 101
-3.6819999 -2.599 -0.86799997 150 92 68
-3.6800001 -2.6070001 -0.87599999 110 38 0
-3.6470001 -2.625 -0.86699998 135 107 85
-3.655 -2.6259999 -0.86900002 72 42 18
-3.6489999 -2.628 -0.87400001 132 109 91
-3.697 -2.694 -0.83700001 82 37 6
-3.704 -2.6889999 -0.833 41 15 0
-3.632 -2.6389999 -0.949 118 103 100
-3.628 -2.6429999 -0.94999999 80 52 41
-3.6389999 -2.6500001 -0.94 81 31 0
-3.7409999 -2.852 -1.044 88 58 34
-3.7509999 -2.839 -0.98299998 101 59 21
-3.7320001 -2.73 -0.92199999 54 25 19
-3.7420001 -2.8510001 -1.045 124 93 72
-3.5910001 -2.849 -1.0369999 101 53 7
-3.6849999 -2.8239999 -0.94999999 87 51 29
-3.697 -2.835 -0.95499998 26 14 16
-3.687 -2.8789999 -0.96600002 41 14 3
-3.6900001 -2.872 -0.98100001 16 0 0
-3.674 -2.8740001 -0.977 80 58 37
-3.6530001 -2.8699999 -0.99299997 124 107 99
-3.723 -2.7420001 -0.93099999 82 45 18
-3.723 -2.8410001 -0.93099999 129 102 93
-3.727 -2.8510001 -0.912 120 70 37
-3.7019999 -2.7390001 -0.94 122 89 70
-3.704 -2.7409999 -0.935 119 71 49
-3.7 -2.73 -0.94199997 43 15 3
-3.7130001 -2.7590001 -0.92000002 21 1 0
-3.71 -2.7449999 -0.92900002 135 84 57
-3.73 -2.723 -0.89600003 30 7 1
-3.76 -2.8659999 -0.91500002 76 57 51
-3.7579999 -2.869 -0.912 80 53 44
-3.7409999 -2.862 -0.92000002 12 1 0
-3.7260001 -2.8829999 -0.91399997 54 26 15
-3.7279999 -2.8829999 -0.91299999 78 46 31
-3.733 -2.8859999 -0.90799999 50 17 8
-3.7090001 -2.8900001 -0.912 173 145 106
-3.7149999 -2.878 -0.90100002 18 4 4
-3.681 -2.869 -0.995 120 115 111
-3.6760001 -2.868 -0.98900002 130 117 108
-3.7019999 -2.8629999 -0.99199998 9 0 0
-3.688 -2.846 -0.99599999 16 0 1
-3.714 -2.865 -0.98699999 16 0 1
-3.727 -2.865 -0.96100003 31 0 0
-3.753 -2.836 -0.97100002 138 94 67
-3.799 -2.8429999 -0.83099997 59 21 0
-3.8210001 -2.872 -0.84600002 107 30 0
-3.7090001 -2.839 -0.96700001 57 12 0
-3.7060001 -2.8770001 -0.97000003 140 112 72
-3.7449999 -2.8540001 -1.034 94 64 36
-3.744 -2.846 -1.029 33 16 9
-3.648 -2.846 -1.017 106 93 87
-3.6459999 -2.855 -1.016 108 87 70
-3.6489999 -2.868 -1.017 65 31 6
-3.6689999 -2.8729999 -0.98299998 114 100 91
-3.6670001 -2.869 -0.99699998 123 112 108
-3.4619999 -2.5880001 -1.016 21 1 0
-3.457 -2.5810001 -1.015 5 0 0
-3.4489999 -2.5880001 -1.016 16 1 0
-3.454 -2.5780001 -1.016 35 15 8
-3.4579999 -2.576 -1.016 27 2 0
-3.415 -2.608 -1.005 6 0 2
-3.451 -2.5680001 -1.013 47 18 4
-3.4990001 -2.6099999 -1.005 15 3 7
-3.503 -2.6159999 -1.017 26 1 0
-3.4990001 -2.6199999 -1.016 72 40 15
-3.4990001 -2.618 -1.015 139 108 90
-3.493 -2.6129999 -1.006 57 37 26
-3.454 -2.6029999 -1.012 109 96 79
-3.4549999 -2.6099999 -1.011 14 2 2
-3.437 -2.602 -1.0140001 21 3 1
-3.438 -2.5910001 -1.0190001 18 4 3
-3.5039999 -2.5929999 -1.005 23 9 6
-3.543 -2.5450001 -0.884 62 27 8
-3.5369999 -2.55 -0.88599998 71 39 18
-3.5250001 -2.553 -0.866 26 9 1
-3.516 -2.563 -0.86699998 25 10 5
-3.527 -2.5550001 -0.87599999 52 29 15
-3.5309999 -2.5510001 -0.87599999 76 41 22
-3.54 -2.563 -0.95300001 39 24 17
-3.7520001 -2.6500001 -0.85000002 55 17 0
-3.7550001 -2.632 -0.85299999 48 19 1
-3.766 -2.6289999 -0.85500002 58 45 39
-3.7279999 -2.668 -0.88499999 123 100 84
-3.7190001 -2.684 -0.89999998 19 0 2
-3.665 -2.6170001 -0.90899998 28 1 0
-3.671 -2.6329999 -0.91399997 82 44 23
-3.6819999 -2.632 -0.89099997 125 92 77
-3.6489999 -2.6300001 -0.87699997 155 127 115
-3.6659999 -2.6340001 -0.93400002 90 60 52
-3.665 -2.6359999 -0.93599999 199 146 92
-3.664 -2.6270001 -0.92500001 192 121 43
-3.6719999 -2.6440001 -0.93099999 136 68 19
-3.665 -2.5999999 -0.92699999 17 2 0
-3.6170001 -2.7309999 -1.024 44 24 25
-3.6270001 -2.737 -1.018 17 0 0
-3.6689999 -2.737 -1.018 33 13 6
-3.6619999 -2.7260001 -1.007 86 47 18
-3.576 -2.605 -1.029 12 0 0
-3.5810001 -2.6040001 -1.026 126 105 104
-3.572 -2.642 -1.017 35 2 0
-3.5350001 -2.638 -1.015 115 85 77
-3.5480001 -2.6259999 -1.015 19 1 0
-3.6459999 -2.7160001 -0.99699998 10 0 0
-3.661 -2.6229999 -0.94400001 36 12 2
-3.6589999 -2.605 -0.94700003 103 64 33
-3.655 -2.7490001 -1.023 27 6 3
-3.652 -2.753 -1.0190001 151 129 116
-3.6259999 -2.753 -1.024 149 131 119
-3.618 -2.756 -1.018 64 37 26
-3.6470001 -2.7379999 -1.02 45 23 10
-3.6010001 -2.641 -0.99000001 105 92 86
-3.6140001 -2.6489999 -1.002 11 0 0
-3.622 -2.6530001 -1.001 185 114 70
-3.6210001 -2.651 -0.99800003 48 9 2
-3.632 -2.6530001 -1.011 26 5 0
-3.622 -2.6500001 -1.0140001 155 119 93
-3.6259999 -2.6370001 -1.029 49 29 18
-3.5840001 -2.5710001 -1.017 14 0 0
-3.5940001 -2.5550001 -0.95099998 19 8 6
-3.5999999 -2.5780001 -0.98799998 19 0 0
-3.5969999 -2.576 -0.98799998 22 3 0
-3.598 -2.5769999 -0.98100001 23 3 0
-3.595 -2.5569999 -0.93400002 22 1 0
-3.7030001 -2.7119999 -0.93199998 9 1 0
-3.701 -2.7160001 -0.93699998 25 0 0
-3.72 -2.7090001 -0.91900003 100 87 81
-3.707 -2.714 -0.92799997 28 0 0
-3.7249999 -2.733 -0.93099999 118 103 96
-3.698 -2.7149999 -0.94199997 26 1 4
-3.7 -2.72 -0.94 20 1 0
-3.6949999 -2.7509999 -0.95099998 117 89 77
-3.7 -2.743 -0.93800002 20 0 0
-3.654 -2.7160001 -0.884 97 50 20
-3.6619999 -2.7090001 -0.89899999 52 29 23
-3.6830001 -2.707 -0.95300001 104 90 81
-3.572 -2.605 -1.028 14 8 8
-3.5610001 -2.5669999 -1.023 1 1 0
-3.559 -2.5650001 -1.024 1 0 0
-3.523 -2.605 -1.016 23 4 0
-3.533 -2.602 -1.007 14 4 2
-3.576 -2.6259999 -1.025 21 1 2
-3.619 -2.5599999 -0.917 40 19 14
-3.6170001 -2.5610001 -0.92400002 12 3 6
-3.619 -2.642 -0.97899997 106 84 70
-3.6170001 -2.638 -0.977 117 42 0
-3.6059999 -2.635 -0.98000002 142 69 28
-3.605 -2.6370001 -0.98299998 119 49 0
-3.6210001 -2.6440001 -0.98199999 110 71 40
-3.6270001 -2.6500001 -0.98299998 26 3 0
-3.582 -2.638 -1.031 18 0 0
-3.5699999 -2.6440001 -1.0089999 48 24 20
-3.5999999 -2.641 -0.99699998 91 74 67
-3.6110001 -2.645 -1 69 12 5
-3.5999999 -2.6359999 -0.96799999 130 97 88
-3.609 -2.6329999 -0.96700001 39 1 0
-3.6170001 -2.6370001 -0.97100002 62 33 15
-3.6240001 -2.6370001 -0.96600002 111 87 75
-3.5929999 -2.638 -0.99400002 60 25 6
-3.6730001 -2.6589999 -0.93699998 89 59 48
-3.6630001 -2.648 -0.94999999 129 84 45
-3.6530001 -2.6559999 -0.94199997 66 47 32
-3.648 -2.622 -0.96399999 33 9 0
-3.6630001 -2.8369999 -1.01 32 7 0
-3.744 -2.8440001 -1.012 21 1 3
-3.6949999 -2.7420001 -0.972 43 28 25
-3.694 -2.747 -0.96899998 29 11 9
-3.6860001 -2.7579999 -0.977 16 2 2
-3.6900001 -2.753 -0.97600001 73 53 46
-3.6919999 -2.756 -0.96700001 9 0 0
-3.6889999 -2.7579999 -0.95899999 60 25 19
-3.5450001 -2.6670001 -0.81900001 74 48 35
-3.546 -2.6500001 -0.81900001 37 13 1
-3.5409999 -2.6589999 -0.82200003 65 32 0
-3.5420001 -2.654 -0.82700002 57 32 35
-3.691 -2.7 -0.83600003 91 52 23
-3.6949999 -2.7090001 -0.82999998 255 231 174
-3.6719999 -2.707 -0.83399999 68 33 13
-3.6719999 -2.6989999 -0.83700001 73 30 14
-3.651 -2.7360001 -0.87099999 61 35 12
-3.7460001 -2.8900001 -0.87699997 118 79 38
-3.7260001 -2.885 -0.87800002 67 30 3
-3.7449999 -2.8710001 -0.85299999 60 25 0
-3.8050001 -2.878 -0.84500003 103 80 72
-3.7839999 -2.8870001 -0.86299998 40 11 3
-3.671 -2.8889999 -0.93599999 114 81 48
-3.674 -2.888 -0.92799997 134 105 89
-3.6719999 -2.891 -0.94300002 44 23 18
-3.675 -2.8889999 -0.926 35 7 0
-3.6930001 -2.8940001 -0.93699998 97 47 0
-3.553 -2.628 -0.86900002 33 10 4
-3.4519999 -2.6270001 -0.972 12 2 1
-3.415 -2.6199999 -0.92400002 103 58 29
-3.503 -2.6340001 -0.93099999 108 67 37
-3.628 -2.835 -1.006 45 17 0
-3.6619999 -2.8080001 -0.977 24 12 12
-3.5739999 -2.832 -1.05 43 18 11
-3.6099999 -2.835 -1.026 21 2 0
-3.608 -2.825 -1.025 24 4 3
-3.6029999 -2.8310001 -1.031 180 149 120
-3.619 -2.819 -1.017 30 10 1
-3.6289999 -2.8380001 -0.98100001 189 160 120
-3.6300001 -2.8340001 -0.98000002 195 148 96
-3.6600001 -2.8410001 -0.954 142 126 126
-3.655 -2.848 -0.95999998 243 189 119
-3.51 -2.655 -0.97500002 107 92 89
-3.506 -2.654 -0.97799999 10 0 0
-3.5050001 -2.6500001 -0.97299999 14 0 0
-3.51 -2.665 -0.99299997 38 16 5
-3.4660001 -2.556 -0.96100003 105 82 76
-3.4760001 -2.566 -0.977 76 50 27
-3.4809999 -2.566 -0.96700001 60 33 24
-3.5409999 -2.566 -1.022 32 14 0
-3.7650001 -2.7449999 -0.84500003 48 17 0
-3.727 -2.7179999 -0.88200003 106 105 103
-3.7320001 -2.7290001 -0.926 43 13 3
-3.7379999 -2.747 -0.86199999 45 30 25
-3.7409999 -2.7490001 -0.85799998 68 43 38
-3.727 -2.7490001 -0.861 31 10 5
-3.7290001 -2.7309999 -0.87199998 119 118 114
-3.7639999 -2.848 -0.86500001 124 78 52
-3.7650001 -2.8510001 -0.86699998 72 32 6
-3.7579999 -2.8670001 -0.88099998 33 4 0
-3.7639999 -2.8710001 -0.87599999 37 10 1
-3.76 -2.875 -0.87900001 57 30 21
-3.7609999 -2.862 -0.87900001 69 46 40
-3.7720001 -2.9030001 -0.86299998 35 3 0
-3.7420001 -2.8900001 -0.86199999 124 86 67
-3.7579999 -2.8970001 -0.86000001 54 27 18
-3.6270001 -2.631 -0.889 157 140 132
-3.631 -2.622 -0.889 31 10 5
-3.6300001 -2.6359999 -0.88700002 156 136 125
-3.6199999 -2.6140001 -0.88999999 160 145 140
-3.6370001 -2.622 -0.87900001 128 102 79
-3.631 -2.609 -0.89099997 142 107 85
-3.6389999 -2.625 -0.88099998 142 112 88
-3.6389999 -2.609 -0.889 48 36 38
-3.6210001 -2.6199999 -0.95099998 199 139 77
-3.619 -2.6240001 -0.95700002 83 24 0
-3.635 -2.631 -0.93900001 40 9 6
-3.6830001 -2.743 -0.995 30 0 0
-3.684 -2.743 -0.99199998 31 2 0
-3.691 -2.7409999 -0.98500001 18 2 2
-3.6919999 -2.7449999 -0.97500002 52 16 2
-3.688 -2.7360001 -0.97399998 9 1 0
-3.6170001 -2.8340001 -0.98400003 137 123 114
-3.6570001 -2.6730001 -0.88499999 75 57 53
-3.6630001 -2.687 -0.89200002 11 3 1
-3.6589999 -2.6949999 -0.884 54 16 3
-3.596 -2.6270001 -0.86900002 19 5 4
-3.5869999 -2.6340001 -0.852 37 20 12
-3.654 -2.698 -0.84899998 118 68 31
-3.6489999 -2.658 -0.903 145 117 96
-3.6489999 -2.6559999 -0.89899999 69 35 0
-3.6500001 -2.6659999 -0.91900003 70 50 41
-3.6570001 -2.6789999 -0.92699999 134 96 85
-3.6500001 -2.665 -0.92900002 29 0 0
-3.6589999 -2.688 -0.94099998 15 1 0
-3.6429999 -2.6600001 -0.926 134 102 77
-3.6340001 -2.6589999 -0.92500001 29 9 8
-3.638 -2.648 -0.88200003 116 96 87
-3.6919999 -2.6819999 -0.91600001 37 26 24
-3.691 -2.687 -0.91900003 8 0 0
-3.7 -2.688 -0.90399998 12 1 0
-3.641 -2.7360001 -0.94199997 34 13 8
-3.6329999 -2.6989999 -0.94499999 137 107 79
-3.631 -2.717 -0.95499998 52 28 16
-3.631 -2.717 -0.96399999 89 58 40
-3.632 -2.73 -0.97799999 57 35 14
-3.6329999 -2.7249999 -0.977 17 6 10
-3.6329999 -2.724 -0.954 37 9 0
-3.6559999 -2.734 -0.89399999 153 116 90
-3.645 -2.7279999 -0.91500002 24 8 0
-3.6559999 -2.7320001 -0.89399999 153 111 86
-3.652 -2.7379999 -0.91299999 31 14 6
-3.6559999 -2.743 -0.91299999 129 111 107
-3.6589999 -2.7449999 -0.91000003 120 102 98
-3.6400001 -2.744 -0.92900002 21 3 1
-3.6589999 -2.7379999 -0.89700001 57 22 3
-3.6459999 -2.7079999 -0.90899998 82 60 47
-3.6470001 -2.7349999 -0.92000002 32 17 20
-3.645 -2.7290001 -0.921 18 7 5
-3.6600001 -2.862 -0.94999999 76 47 29
-3.654 -2.855 -0.95899999 162 123 90
-3.6619999 -2.8629999 -0.96499997 93 41 0
-3.638 -2.76 -0.94 22 4 2
-3.6630001 -2.8210001 -0.97500002 94 67 38
-3.6619999 -2.8099999 -0.97500002 75 63 63
-3.6530001 -2.826 -0.972 69 36 29
-3.6459999 -2.832 -0.97100002 74 31 0
-3.6440001 -2.852 -0.96499997 44 25 18
-3.6240001 -2.7590001 -0.97500002 66 39 28
-3.618 -2.776 -0.98799998 36 11 7
-3.628 -2.7579999 -0.96899998 29 6 0
-3.6760001 -2.7550001 -0.94 117 91 78
-3.6659999 -2.77 -0.95999998 86 67 63
-3.675 -2.8099999 -0.95999998 47 15 4
-3.6860001 -2.757 -0.95200002 105 46 4
-3.664 -2.7720001 -0.97799999 71 58 50
-3.6570001 -2.7750001 -0.97299999 45 23 12
-3.6570001 -2.7750001 -0.97000003 86 68 64
-3.6889999 -2.7190001 -0.963 9 0 0
-3.6849999 -2.723 -0.97600001 8 0 0
-3.6819999 -2.7119999 -0.98100001 82 73 64
-3.681 -2.707 -0.963 22 0 0
-3.7750001 -2.8740001 -0.82099998 39 12 1
-3.7850001 -2.885 -0.81400001 79 47 32
-3.7780001 -2.8670001 -0.815 117 73 44
-3.773 -2.859 -0.79799998 109 86 78
-3.7750001 -2.8610001 -0.80500001 43 7 0
-3.7060001 -2.7190001 -0.82200003 172 127 72
-3.6930001 -2.7409999 -0.84500003 123 100 84
-3.6960001 -2.75 -0.861 90 30 2
-3.72 -2.7479999 -0.89600003 89 61 58
-3.6789999 -2.7490001 -0.866 64 30 18
-3.681 -2.733 -0.85500002 81 42 13
-3.677 -2.734 -0.85799998 52 9 0
-3.674 -2.73 -0.84899998 94 58 26
-3.6889999 -2.7219999 -0.81999999 60 15 0
-3.6830001 -2.7190001 -0.81900001 79 35 8
-3.6930001 -2.7149999 -0.82800001 202 167 113
-3.688 -2.7190001 -0.82099998 91 36 0
-3.76 -2.6489999 -0.81999999 131 98 63
-3.7709999 -2.641 -0.82800001 244 170 71
-3.723 -2.664 -0.88599998 40 22 12
-3.7320001 -2.648 -0.875 21 6 0
-3.7379999 -2.6229999 -0.84299999 255 204 128
-3.721 -2.6619999 -0.82700002 72 45 28
-3.7049999 -2.6570001 -0.82499999 34 10 0
-3.7509999 -2.6440001 -0.81199998 141 97 58
-3.744 -2.727 -0.80900002 104 69 41
-3.747 -2.7090001 -0.84100002 132 101 80
-3.6270001 -2.5910001 -0.97500002 96 58 37
-3.6289999 -2.596 -0.986 32 2 0
-3.6300001 -2.596 -0.98199999 34 6 5
-3.6470001 -2.5780001 -0.94199997 45 15 4
-3.6500001 -2.589 -0.96700001 16 1 0
-3.6659999 -2.573 -0.926 136 83 41
-3.6659999 -2.5880001 -0.94300002 42 14 0
-3.665 -2.579 -0.94300002 143 106 90
-3.599 -2.5469999 -0.94499999 11 0 0
-3.632 -2.576 -0.963 137 135 140
-3.628 -2.576 -0.958 34 25 18
-3.6389999 -2.585 -0.96700001 71 46 39
-3.6500001 -2.5810001 -0.96600002 18 9 4
-3.6470001 -2.5780001 -0.95499998 44 20 10
-3.648 -2.579 -0.96200001 22 10 10
-3.6400001 -2.5769999 -0.954 34 22 10
-3.73 -2.665 -0.87699997 38 25 8
-3.7320001 -2.6730001 -0.87099999 74 44 33
-3.756 -2.7179999 -0.83899999 84 9 0
-3.734 -2.688 -0.82099998 166 124 86
-3.734 -2.71 -0.83999997 82 45 19
-3.6930001 -2.688 -0.84899998 205 150 109
-3.6949999 -2.688 -0.84799999 107 39 0
-3.727 -2.6989999 -0.83099997 163 103 41
-3.7420001 -2.6559999 -0.79799998 168 121 75
-3.7520001 -2.7249999 -0.801 89 58 30
-3.6559999 -2.721 -0.833 212 156 105
-3.7119999 -2.747 -0.866 69 41 27
-3.7149999 -2.743 -0.87300003 73 36 18
-3.697 -2.7479999 -0.88 48 11 2
-3.707 -2.744 -0.86699998 91 32 0
-3.7179999 -2.744 -0.87300003 73 41 26
-3.7049999 -2.72 -0.89899999 57 45 45
-3.6860001 -2.734 -0.89600003 181 147 120
-3.675 -2.724 -0.90799999 116 71 38
-3.7750001 -2.7320001 -0.81199998 143 106 51
-3.776 -2.727 -0.81699997 154 99 42
-3.813 -2.845 -0.82300001 142 74 9
-3.8269999 -2.8659999 -0.83899999 64 33 5
-3.7850001 -2.8929999 -0.80299997 74 40 15
-3.7880001 -2.898 -0.80599999 114 66 26
-3.753 -2.8989999 -0.82999998 173 108 44
-3.7809999 -2.8559999 -0.82200003 69 37 16
-3.7780001 -2.859 -0.82499999 85 49 23
-3.7219999 -2.868 -0.866 48 14 5
-3.7249999 -2.875 -0.87599999 46 16 5
-3.7219999 -2.8559999 -0.86799997 82 63 56
-3.7360001 -2.8840001 -0.86299998 69 32 13
-3.737 -2.8740001 -0.861 207 162 129
-3.677 -2.8529999 -0.93199998 59 13 0
-3.6760001 -2.8540001 -0.94 136 122 121
-3.688 -2.842 -0.92500001 37 22 25
-3.681 -2.757 -0.926 118 99 92
-3.698 -2.832 -0.89999998 15 0 0
-3.6960001 -2.839 -0.89999998 14 0 0
-3.6689999 -2.8699999 -0.90899998 147 116 87
-3.688 -2.8740001 -0.898 150 105 86
-3.6730001 -2.868 -0.90499997 133 102 81
-3.684 -2.865 -0.90100002 129 115 106
-3.6849999 -2.865 -0.89899999 129 115 106
-3.7060001 -2.8729999 -0.88800001 117 100 90
-3.717 -2.852 -0.88200003 96 69 39
-3.721 -2.852 -0.87900001 64 34 8
-3.723 -2.8510001 -0.88200003 111 82 66
-3.642 -2.7219999 -0.83999997 99 48 21
-3.687 -2.75 -0.90700001 32 12 5
-3.684 -2.75 -0.91100001 40 22 12
-3.773 -2.859 -0.86799997 110 74 48
-3.7650001 -2.8570001 -0.87300003 30 5 0
-3.763 -2.878 -0.87800002 123 79 40
-3.75 -2.8640001 -0.87699997 117 90 83
-3.777 -2.8640001 -0.81 101 67 42
-3.8080001 -2.852 -0.81300002 118 64 28
-3.803 -2.859 -0.801 80 35 12
-3.4519999 -2.5710001 -0.98699999 47 31 16
-3.4619999 -2.5510001 -0.96600002 68 48 15
-3.4590001 -2.566 -0.99599999 85 56 38
-3.4319999 -2.5369999 -0.958 93 53 17
-3.4400001 -2.5639999 -0.95899999 105 53 29
-3.4430001 -2.5550001 -0.94199997 18 0 0
-3.467 -2.5610001 -0.958 24 0 0
-3.467 -2.5610001 -0.95999998 28 0 0
-3.5250001 -2.553 -0.861 74 45 31
-3.4549999 -2.602 -0.95899999 26 6 0
-3.503 -2.5780001 -0.958 50 28 15
-3.4990001 -2.6489999 -0.99699998 102 82 73
-3.493 -2.642 -0.98900002 1 0 0
-3.5020001 -2.654 -0.99599999 17 4 0
-3.5 -2.6270001 -1.0140001 110 70 35
-3.7679999 -2.9030001 -0.83700001 136 85 32
-3.786 -2.8940001 -0.81099999 81 46 26
-3.776 -2.9000001 -0.86199999 184 94 18
-3.7309999 -2.744 -0.90399998 125 102 96
-3.7219999 -2.7349999 -0.89499998 64 35 21
-3.721 -2.6719999 -0.83899999 104 92 92
-3.747 -2.6719999 -0.83399999 219 174 59
-3.7320001 -2.6359999 -0.84100002 107 74 59
-3.7 -2.658 -0.87800002 29 13 13
-3.7390001 -2.6860001 -0.85000002 198 123 58
-3.733 -2.694 -0.838 215 162 112
-3.7320001 -2.6860001 -0.84200001 255 206 114
-3.7720001 -2.7479999 -0.84200001 73 18 0
-3.777 -2.744 -0.83999997 85 54 10
-3.78 -2.734 -0.838 255 224 116
-3.7820001 -2.7449999 -0.82800001 50 22 8
-3.767 -2.7460001 -0.81400001 67 10 0
-3.7739999 -2.74 -0.81900001 253 234 166
-3.4289999 -2.6099999 -0.89700001 52 33 18
-3.431 -2.605 -0.89700001 65 34 13
-3.421 -2.6170001 -0.91299999 16 4 4
-3.4260001 -2.6110001 -0.91000003 63 36 19
-3.4289999 -2.608 -0.912 11 0 1
-3.431 -2.6059999 -0.91100001 9 0 0
-3.5120001 -2.598 -0.90100002 41 23 23
-3.4760001 -2.615 -0.90600002 38 10 0
-3.4400001 -2.618 -0.89600003 53 25 11
-3.447 -2.6259999 -0.90499997 47 19 7
-3.484 -2.6359999 -0.94400001 22 11 9
-3.471 -2.6059999 -0.93099999 15 0 0
-3.4990001 -2.5469999 -0.935 42 20 7
-3.5190001 -2.566 -0.94099998 111 104 111
-3.5350001 -2.575 -0.83600003 50 15 0
-3.559 -2.6600001 -0.83399999 115 85 59
-3.5639999 -2.625 -0.82499999 84 47 18
-3.575 -2.618 -0.82999998 125 71 25
-3.579 -2.6129999 -0.83700001 31 14 6
-3.5739999 -2.6210001 -0.82800001 171 110 56
-3.5209999 -2.6400001 -0.917 134 94 58
-3.5599999 -2.654 -0.91900003 147 109 70
-3.5639999 -2.6530001 -0.92699999 171 148 134
-3.5769999 -2.645 -0.90399998 28 1 0
-3.5899999 -2.8410001 -1.0369999 79 38 10
-3.576 -2.8340001 -1.0470001 65 25 0
-3.516 -2.6470001 -0.93400002 82 37 8
-3.563 -2.6600001 -0.98400003 35 5 0
-3.6429999 -2.704 -0.97399998 21 7 6
-3.645 -2.7 -0.97100002 15 1 0
-3.575 -2.6389999 -1.027 32 9 3
-3.562 -2.6619999 -0.824 35 11 9
-3.527 -2.5569999 -0.92699999 16 6 0
-3.5680001 -2.5639999 -0.917 108 62 28
-3.5680001 -2.5639999 -0.91399997 141 87 49
-3.585 -2.553 -0.90799999 128 93 71
-3.572 -2.5639999 -0.90899998 129 74 33
-3.5739999 -2.5639999 -0.91100001 119 69 34
-3.572 -2.563 -0.88300002 27 13 0
-3.559 -2.569 -0.88499999 26 11 6
-3.539 -2.5569999 -0.91600001 55 24 6
-3.5929999 -2.5880001 -0.85500002 149 89 35
-3.572 -2.612 -0.83700001 109 25 0
-3.5739999 -2.618 -0.82999998 107 58 18
-3.6170001 -2.5569999 -0.92799997 17 0 0
-3.563 -2.5699999 -0.93400002 28 10 0
-3.566 -2.605 -0.84100002 104 25 0
-3.5320001 -2.622 -0.90600002 49 19 9
-3.5510001 -2.6229999 -0.89300001 100 98 86
-3.566 -2.651 -0.84600002 50 16 0
-3.526 -2.566 -1.008 18 0 0
-3.5280001 -2.576 -1.015 18 4 3
-3.5309999 -2.579 -1.015 11 1 0
-3.562 -2.5769999 -1.016 6 2 1
-3.556 -2.572 -0.98400003 28 20 9
-3.566 -2.5739999 -0.98400003 15 5 3
-3.556 -2.5739999 -0.98199999 4 0 0
-3.5899999 -2.5599999 -0.97799999 14 0 0
-3.5869999 -2.5739999 -1.006 29 9 0
-3.5480001 -2.563 -0.991 24 7 0
-3.5610001 -2.572 -0.99400002 42 17 13
-3.5580001 -2.5639999 -1.015 1 1 1
-3.5669999 -2.5669999 -1.0089999 26 8 0
-3.576 -2.566 -1.006 5 1 2
-3.585 -2.5669999 -0.93900001 24 8 8
-3.589 -2.5680001 -0.95200002 50 22 11
-3.5710001 -2.5739999 -0.94 90 70 59
-3.5680001 -2.5780001 -0.94599998 14 0 0
-3.5699999 -2.576 -0.94199997 22 4 2
-3.605 -2.5880001 -0.97000003 37 17 10
-3.598 -2.582 -0.97799999 95 76 72
-3.6440001 -2.6140001 -0.875 97 61 35
-3.687 -2.6010001 -0.861 157 72 7
-3.7179999 -2.651 -0.81800002 122 57 3
-3.6800001 -2.6229999 -0.86299998 133 110 94
-3.671 -2.6140001 -0.861 82 45 18
-3.687 -2.615 -0.86500001 99 30 0
-3.7079999 -2.6559999 -0.824 57 30 19
-3.717 -2.655 -0.81999999 108 77 57
-3.7190001 -2.661 -0.82800001 42 16 0
-3.6229999 -2.586 -0.86000001 80 54 27
-3.6159999 -2.5840001 -0.86299998 110 19 0
-3.5969999 -2.5680001 -0.85100001 168 114 70
-3.6229999 -2.575 -0.88099998 115 67 55
-3.612 -2.5610001 -0.88700002 176 108 45
-3.7249999 -2.6429999 -0.83700001 46 20 3
-3.73 -2.6289999 -0.833 191 101 51
-3.688 -2.6110001 -0.85900003 234 155 88
-3.684 -2.6159999 -0.86400002 43 21 8
-3.6830001 -2.6429999 -0.875 29 14 7
-3.6819999 -2.641 -0.87400001 39 19 10
-3.684 -2.6340001 -0.87699997 126 100 85
-3.586 -2.5810001 -0.86000001 56 34 36
-3.5380001 -2.552 -0.85299999 30 2 0
-3.53 -2.5480001 -0.84799999 177 93 20
-3.5669999 -2.5569999 -0.87300003 58 31 24
-3.5929999 -2.5510001 -0.89999998 76 40 14
-3.4920001 -2.553 -0.89999998 13 0 0
-3.421 -2.6359999 -1.012 47 23 11
-3.4219999 -2.632 -1.008 108 90 78
-3.4349999 -2.6070001 -1.011 22 3 5
-3.4230001 -2.619 -1.0039999 2 0 3
-3.418 -2.628 -1.002 8 0 0
-3.4400001 -2.628 -1.01 24 5 0
-3.428 -2.6359999 -1.013 26 8 4
-3.447 -2.632 -1.0089999 112 92 85
-3.4489999 -2.6259999 -1.0089999 15 4 0
-3.507 -2.6340001 -1.007 249 189 135
-3.4909999 -2.632 -0.98799998 36 9 0
-3.4909999 -2.642 -0.98699999 52 30 9
-3.51 -2.658 -0.98100001 17 3 0
-3.5009999 -2.658 -0.98199999 133 116 106
-3.4430001 -2.6429999 -0.99299997 108 76 63
-3.4330001 -2.642 -0.99299997 12 0 0
-3.5610001 -2.6570001 -0.98500001 76 40 28
-3.566 -2.839 -1.051 148 102 69
-3.5669999 -2.842 -1.051 215 172 129
-3.5699999 -2.842 -1.05 222 174 125
-3.6289999 -2.7309999 -0.98199999 70 45 23
-3.6270001 -2.734 -0.98500001 14 0 0
-3.6370001 -2.7739999 -1.01 16 1 0
-3.6389999 -2.7739999 -1.013 17 0 0
-3.622 -2.7780001 -0.99599999 31 4 0
-3.622 -2.7839999 -0.991 51 31 32
-3.6300001 -2.8299999 -1.001 46 15 0
-3.6340001 -2.829 -0.99699998 70 54 41
-3.6199999 -2.8139999 -1.01 36 14 1
-3.664 -2.767 -1.0039999 111 79 66
-3.6489999 -2.779 -1.001 53 17 5
-3.6700001 -2.826 -0.99900001 49 23 10
-3.5320001 -2.648 -0.958 19 4 1
-3.523 -2.648 -0.95099998 55 15 3
-3.6059999 -2.632 -0.963 113 85 74
-3.5090001 -2.5610001 -0.83499998 35 17 7
-3.5209999 -2.5599999 -0.87800002 26 6 0
-3.434 -2.5940001 -0.89399999 65 51 50
-3.4389999 -2.5999999 -0.89899999 43 26 16
-3.4679999 -2.5780001 -0.90600002 48 25 19
-3.4579999 -2.5810001 -0.89399999 28 11 1
-3.4690001 -2.596 -0.889 95 72 64
-3.6619999 -2.645 -0.95200002 144 100 61
-3.681 -2.7 -0.93800002 9 1 0
-3.675 -2.645 -0.92400002 72 46 29
-3.697 -2.6819999 -0.86699998 20 3 0
-3.701 -2.678 -0.87 18 0 0
-3.6719999 -2.6240001 -0.88800001 124 71 37
-3.549 -2.6229999 -0.86799997 35 17 5
-3.5780001 -2.6440001 -0.86900002 92 64 43
-3.589 -2.651 -0.91600001 64 35 21
-3.678 -2.596 -0.86400002 47 4 0
-3.664 -2.608 -0.86799997 77 52 30
-3.6819999 -2.6129999 -0.875 164 88 38
-3.6819999 -2.6099999 -0.88 51 28 20
-3.658 -2.6210001 -0.86699998 93 58 28
-3.698 -2.697 -0.82700002 73 37 11
-3.6949999 -2.6919999 -0.82599998 76 43 12
-3.678 -2.6949999 -0.85799998 121 39 1
-3.6700001 -2.697 -0.83700001 43 3 0
-3.661 -2.704 -0.83899999 26 6 0
-3.6849999 -2.698 -0.84399998 115 56 22
-3.7279999 -2.645 -0.86900002 15 0 0
-3.7520001 -2.8399999 -0.991 152 129 113
-3.7490001 -2.8369999 -0.99800003 60 23 7
-3.733 -2.7309999 -0.90899998 36 7 0
-3.684 -2.832 -0.94800001 50 4 0
-3.641 -2.8269999 -0.97000003 104 64 38
-3.638 -2.832 -0.98199999 124 92 71
-3.6400001 -2.8310001 -0.97799999 106 86 79
-3.648 -2.8299999 -0.98199999 115 106 107
-3.6589999 -2.8299999 -0.97000003 108 54 26
-3.6789999 -2.8729999 -0.97299999 32 7 0
-3.6730001 -2.882 -0.96100003 50 31 24
-3.6500001 -2.8640001 -0.97100002 71 32 3
-3.7279999 -2.744 -0.93099999 101 64 35
-3.7219999 -2.7390001 -0.93199998 113 103 101
-3.757 -2.832 -0.95099998 107 39 4
-3.757 -2.8329999 -0.954 103 33 0
-3.7030001 -2.845 -0.926 104 68 52
-3.7 -2.724 -0.94400001 13 4 5
-3.6960001 -2.7379999 -0.95300001 8 0 0
-3.6949999 -2.733 -0.95099998 7 1 1
-3.7179999 -2.7509999 -0.92900002 29 0 0
-3.727 -2.724 -0.91500002 67 38 24
-3.71 -2.7509999 -0.926 89 48 28
-3.7320001 -2.872 -0.92199999 120 94 81
-3.7309999 -2.8800001 -0.91399997 61 31 21
-3.7320001 -2.8770001 -0.91799998 80 59 56
-3.7390001 -2.8859999 -0.90100002 42 15 8
-3.6930001 -2.885 -0.954 82 54 30
-3.6900001 -2.882 -0.95700002 18 5 0
-3.684 -2.895 -0.949 109 82 63
-3.704 -2.8800001 -0.90200001 80 48 35
-3.701 -2.8889999 -0.921 115 87 73
-3.714 -2.865 -0.991 22 1 0
-3.717 -2.859 -0.96700001 54 32 21
-3.7909999 -2.845 -0.82800001 75 45 21
-3.7190001 -2.881 -0.94499999 12 0 0
-3.7090001 -2.8399999 -0.96200001 104 62 24
-3.6930001 -2.881 -0.96100003 20 6 5
-3.671 -2.8699999 -0.95899999 65 13 0
-3.671 -2.869 -0.96399999 138 94 47
-3.677 -2.881 -0.958 37 12 5
-3.721 -2.885 -0.93699998 41 3 0
-3.638 -2.842 -1.015 22 5 0
-3.6619999 -2.872 -0.99000001 108 75 60
-3.665 -2.8710001 -0.98400003 32 3 0
-3.457 -2.622 -1.011 18 0 0
-3.4330001 -2.579 -1.01 33 3 0
-3.4289999 -2.5899999 -1.008 99 61 40
-3.418 -2.612 -1.005 4 0 1
-3.454 -2.575 -1.017 32 7 2
-3.461 -2.605 -1.011 49 20 4
-3.5090001 -2.5929999 -1.008 105 67 56
-3.5280001 -2.573 -0.977 31 18 9
-3.5309999 -2.5710001 -0.97600001 17 3 0
-3.539 -2.5810001 -1.015 10 0 0
-3.5339999 -2.553 -0.889 68 36 15
-3.55 -2.562 -0.889 16 1 4
-3.5239999 -2.556 -0.87300003 26 9 2
-3.53 -2.552 -0.87300003 87 56 36
-3.54 -2.5680001 -0.977 15 6 1
-3.5350001 -2.5669999 -0.96200001 12 2 1
-3.5450001 -2.5680001 -0.96399999 22 9 3
-3.539 -2.569 -0.96399999 8 0 0
-3.536 -2.5650001 -0.98500001 85 59 36
-3.5320001 -2.5669999 -0.98299998 14 3 1
-3.5339999 -2.5680001 -0.96399999 13 3 1
-3.7609999 -2.6300001 -0.85500002 45 24 3
-3.6989999 -2.6730001 -0.90200001 28 0 0
-3.7179999 -2.7 -0.903 94 76 74
-3.711 -2.6760001 -0.89300001 50 16 6
-3.6670001 -2.6199999 -0.91500002 78 42 26
-3.6659999 -2.609 -0.91900003 134 106 92
-3.6400001 -2.585 -0.90399998 145 95 70
-3.6530001 -2.5880001 -0.91000003 150 94 37
-3.652 -2.595 -0.90700001 86 47 18
-3.631 -2.5869999 -0.96600002 12 4 2
-3.622 -2.5699999 -0.93900001 86 62 38
-3.6289999 -2.576 -0.92699999 143 115 101
-3.6259999 -2.5680001 -0.94499999 20 8 0
-3.6559999 -2.589 -0.912 206 128 54
-3.665 -2.6259999 -0.91799998 62 33 25
-3.6589999 -2.6110001 -0.90200001 109 76 61
-3.665 -2.6240001 -0.89499998 95 63 52
-3.642 -2.6010001 -0.898 212 174 137
-3.655 -2.615 -0.89600003 128 90 69
-3.654 -2.6140001 -0.89899999 85 44 22
-3.6559999 -2.5910001 -0.91100001 156 90 29
-3.592 -2.6440001 -1.026 13 0 0
-3.576 -2.642 -1.016 42 5 0
-3.602 -2.585 -1.008 130 115 112
-3.598 -2.5969999 -1.012 26 1 0
-3.6300001 -2.6389999 -1.0190001 21 1 0
-3.628 -2.6240001 -1.011 28 8 7
-3.638 -2.6199999 -1.002 10 6 7
-3.6429999 -2.6199999 -0.995 19 0 0
-3.6400001 -2.619 -0.99900001 58 52 52
-3.6300001 -2.612 -0.99599999 3 0 0
-3.6370001 -2.6170001 -0.99699998 8 2 4
-3.625 -2.6340001 -1.021 27 9 7
-3.6159999 -2.6240001 -1.015 75 56 52
-3.5739999 -2.642 -1.017 38 1 0
-3.6589999 -2.727 -1.007 122 78 41
-3.635 -2.595 -0.977 25 0 0
-3.6389999 -2.596 -0.97799999 23 0 0
-3.664 -2.77 -1.016 29 9 2
-3.654 -2.757 -1.018 22 4 2
-3.6140001 -2.737 -1.029 136 119 111
-3.638 -2.7409999 -1.021 22 1 0
-3.6159999 -2.6400001 -0.986 110 85 80
-3.619 -2.6459999 -0.99199998 46 12 0
-3.622 -2.645 -0.986 81 37 0
-3.6270001 -2.6500001 -0.986 91 72 66
-3.6229999 -2.654 -1.0039999 167 97 46
-3.635 -2.6530001 -1.005 73 35 12
-3.6300001 -2.648 -1.013 43 21 23
-3.6229999 -2.642 -1.0190001 111 54 25
-3.635 -2.648 -0.99199998 59 32 15
-3.638 -2.652 -1.005 25 4 0
-3.585 -2.575 -1.015 36 7 3
-3.582 -2.569 -1.015 9 1 0
-3.586 -2.5769999 -1.016 130 110 99
-3.585 -2.5810001 -1.018 5 1 0
-3.5799999 -2.5680001 -1.02 55 36 19
-3.589 -2.5639999 -0.98799998 14 3 1
-3.5869999 -2.5650001 -0.99299997 10 0 0
-3.599 -2.573 -0.96799999 82 67 62
-3.6010001 -2.592 -0.995 102 84 80
-3.5999999 -2.592 -0.98699999 8 0 0
-3.6470001 -2.585 -0.97399998 20 5 0
-3.6949999 -2.7449999 -0.96600002 11 0 0
-3.6930001 -2.7449999 -0.972 78 45 30
-3.6559999 -2.717 -0.90700001 45 25 16
-3.665 -2.6530001 -0.88099998 130 65 27
-3.6600001 -2.674 -0.91000003 30 16 16
-3.6589999 -2.6700001 -0.898 162 101 57
-3.539 -2.6170001 -1.005 50 29 24
-3.572 -2.6110001 -1.031 13 1 1
-3.5380001 -2.589 -1.017 4 0 0
-3.549 -2.585 -1.01 4 0 0
-3.5550001 -2.5940001 -1.005 25 1 1
-3.563 -2.5650001 -1.024 7 3 4
-3.6159999 -2.553 -0.91600001 52 15 6
-3.6259999 -2.6440001 -0.97799999 45 26 20
-3.5780001 -2.6389999 -1 124 50 5
-3.6099999 -2.6459999 -1.007 132 119 111
-3.595 -2.625 -0.95499998 32 2 0
-3.6040001 -2.6110001 -0.93599999 109 72 46
-3.6110001 -2.609 -0.93199998 88 67 66
-3.602 -2.6129999 -0.94499999 132 87 48
-3.674 -2.654 -0.93400002 63 35 23
-3.675 -2.6530001 -0.93099999 141 77 29
-3.6730001 -2.6600001 -0.93599999 98 66 51
-3.6570001 -2.6900001 -0.94999999 5 0 0
-3.6300001 -2.6429999 -0.972 24 6 4
-3.6359999 -2.638 -0.95599997 121 87 62
-3.6329999 -2.642 -0.94700003 38 10 0
-3.661 -2.8329999 -0.99699998 47 30 20
-3.559 -2.6570001 -0.82300001 56 47 30
-3.5639999 -2.645 -0.82700002 44 20 10
-3.6889999 -2.7079999 -0.838 76 31 12
-3.7249999 -2.7349999 -0.88099998 144 140 141
-3.723 -2.74 -0.87199998 35 10 3
-3.7179999 -2.7390001 -0.87800002 40 7 0
-3.72 -2.881 -0.88 136 109 92
-3.799 -2.881 -0.84799999 66 22 9
-3.8080001 -2.869 -0.852 90 45 24
-3.7739999 -2.895 -0.86299998 169 133 117
-3.793 -2.885 -0.85900003 90 69 64
-3.6760001 -2.8900001 -0.93000001 66 44 33
-3.7279999 -2.8859999 -0.88200003 48 22 7
-3.7309999 -2.885 -0.87800002 69 38 17
-3.7279999 -2.8859999 -0.89200002 41 18 4
-3.438 -2.642 -0.99299997 16 2 1
-3.4549999 -2.6229999 -0.97399998 86 61 41
-3.451 -2.638 -0.972 28 9 3
-3.5090001 -2.6370001 -0.93300003 130 99 79
-3.6110001 -2.826 -1.017 116 48 13
-3.602 -2.835 -1.026 125 78 36
-3.6059999 -2.839 -1.027 59 24 2
-3.503 -2.6589999 -0.98900002 17 1 1
-3.5580001 -2.658 -0.972 75 47 36
-3.556 -2.6619999 -0.97399998 90 57 42
-3.546 -2.654 -0.963 119 97 84
-3.5109999 -2.6570001 -0.99800003 12 1 0
-3.48 -2.563 -0.99199998 43 21 0
-3.4760001 -2.5650001 -0.986 24 5 0
-3.4779999 -2.5639999 -0.99400002 42 20 0
-3.4649999 -2.5680001 -1.003 74 64 62
-3.5039999 -2.582 -0.96600002 52 30 16
-3.493 -2.5669999 -0.98799998 23 5 1
-3.5799999 -2.642 -1.007 116 93 87
-3.5810001 -2.641 -1.012 61 25 13
-3.563 -2.641 -1.001 94 31 0
-3.572 -2.5810001 -0.95599997 35 16 9
-3.55 -2.573 -0.98000002 8 7 5
-3.556 -2.576 -0.96600002 25 12 6
-3.7650001 -2.75 -0.84399998 109 104 101
-3.7260001 -2.717 -0.88 93 91 94
-3.727 -2.717 -0.87099999 60 24 12
-3.7320001 -2.7449999 -0.866 88 84 83
-3.7409999 -2.7449999 -0.85900003 105 101 100
-3.74 -2.747 -0.85399997 39 6 0
-3.681 -2.658 -0.88499999 27 17 18
-3.7620001 -2.8570001 -0.884 47 4 0
-3.7539999 -2.8659999 -0.88599998 30 3 0
-3.7690001 -2.862 -0.875 100 57 25
-3.744 -2.8889999 -0.87300003 103 62 30
-3.6429999 -2.6270001 -0.87599999 144 114 103
-3.628 -2.605 -0.89099997 109 75 48
-3.691 -2.7490001 -0.97899997 17 3 2
-3.6849999 -2.734 -0.977 6 1 0
-3.651 -2.6619999 -0.88999999 96 44 7
-3.6619999 -2.6900001 -0.88700002 57 19 6
-3.655 -2.691 -0.87699997 25 1 1
-3.675 -2.7060001 -0.89700001 52 38 38
-3.6830001 -2.7049999 -0.89999998 89 85 82
-3.688 -2.704 -0.884 48 22 7
-3.671 -2.7090001 -0.889 86 62 52
-3.6570001 -2.723 -0.89200002 8 0 0
-3.5869999 -2.6229999 -0.84500003 48 18 7
-3.661 -2.71 -0.82999998 152 110 88
-3.654 -2.687 -0.86699998 91 58 41
-3.655 -2.6919999 -0.86400002 47 29 19
-3.6559999 -2.704 -0.87199998 17 0 0
-3.6370001 -2.7149999 -0.866 143 108 89
-3.648 -2.714 -0.86900002 151 110 82
-3.645 -2.7320001 -0.852 91 39 26
-3.6500001 -2.733 -0.85500002 82 42 16
-3.6470001 -2.723 -0.84500003 88 29 0
-3.652 -2.734 -0.85299999 79 40 11
-3.6530001 -2.7349999 -0.85100001 77 40 14
-3.6530001 -2.6619999 -0.912 24 6 4
-3.661 -2.6789999 -0.91399997 123 69 43
-3.661 -2.6849999 -0.92199999 36 7 1
-3.6570001 -2.6930001 -0.912 3 2 0
-3.664 -2.6700001 -0.92900002 108 88 79
-3.6670001 -2.6849999 -0.93000001 15 1 0
-3.691 -2.688 -0.91799998 12 6 6
-3.6949999 -2.691 -0.91100001 5 1 0
-3.6470001 -2.694 -0.92900002 102 97 91
-3.638 -2.6400001 -0.97799999 76 49 38
-3.6440001 -2.631 -0.98000002 172 134 95
-3.6659999 -2.6900001 -0.935 11 0 0
-3.684 -2.704 -0.94300002 3 0 0
-3.691 -2.6730001 -0.91100001 29 6 0
-3.6889999 -2.6789999 -0.917 134 106 94
-3.6860001 -2.6700001 -0.92699999 92 35 24
-3.6830001 -2.6600001 -0.91600001 71 25 0
-3.6300001 -2.7179999 -0.96799999 71 42 28
-3.631 -2.7179999 -0.97299999 28 3 0
-3.6370001 -2.733 -0.95099998 135 121 112
-3.6389999 -2.7379999 -0.954 94 62 41
-3.658 -2.7309999 -0.95099998 49 22 11
-3.6429999 -2.7390001 -0.94300002 19 0 0
-3.661 -2.7290001 -0.94599998 105 90 83
-3.6329999 -2.723 -0.97000003 106 94 94
-3.638 -2.747 -0.95499998 20 5 2
-3.6340001 -2.75 -0.96700001 110 83 64
-3.6689999 -2.7539999 -0.94700003 109 82 73
-3.671 -2.7539999 -0.94 118 94 82
-3.6700001 -2.7579999 -0.912 33 9 0
-3.6730001 -2.7550001 -0.91600001 93 81 81
-3.6689999 -2.7539999 -0.921 89 78 76
-3.678 -2.7520001 -0.91399997 37 17 6
-3.6470001 -2.72 -0.87800002 34 22 22
-3.642 -2.74 -0.93000001 122 105 98
-3.6700001 -2.8529999 -0.94999999 110 96 85
-3.638 -2.7509999 -0.93599999 38 18 7
-3.645 -2.8440001 -0.96799999 64 42 31
-3.6240001 -2.7579999 -0.98500001 116 105 103
-3.664 -2.77 -0.96700001 83 38 19
-3.6670001 -2.802 -0.977 17 3 2
-3.6849999 -2.7590001 -0.97000003 40 18 7
-3.687 -2.757 -0.95099998 93 40 0
-3.684 -2.7550001 -0.94800001 88 46 24
-3.6730001 -2.766 -0.98299998 45 20 16
-3.6919999 -2.7249999 -0.95899999 38 5 0
-3.6860001 -2.717 -0.96799999 15 0 2
-3.6800001 -2.71 -0.97399998 38 16 2
-3.6830001 -2.7079999 -0.96399999 77 66 62
-3.6619999 -2.6930001 -0.89899999 135 113 100
-3.7539999 -2.8710001 -0.83700001 67 28 0
-3.7850001 -2.862 -0.80599999 70 33 15
-3.7309999 -2.756 -0.83700001 75 47 25
-3.73 -2.7390001 -0.81599998 29 10 4
-3.734 -2.734 -0.82300001 69 42 23
-3.7179999 -2.723 -0.824 156 86 1
-3.743 -2.724 -0.81599998 63 31 6
-3.74 -2.723 -0.83200002 118 38 3
-3.7390001 -2.7309999 -0.82499999 83 56 39
-3.7090001 -2.721 -0.824 27 9 7
-3.6900001 -2.7390001 -0.84600002 90 59 41
-3.6930001 -2.75 -0.86000001 61 5 0
-3.724 -2.7460001 -0.85399997 127 83 56
-3.7279999 -2.7460001 -0.852 116 99 92
-3.688 -2.7349999 -0.847 59 19 7
-3.7679999 -2.6389999 -0.82700002 214 146 47
-3.767 -2.642 -0.82499999 237 180 75
-3.7290001 -2.664 -0.88200003 20 7 0
-3.7479999 -2.7119999 -0.84600002 117 62 21
-3.6500001 -2.5799999 -0.94800001 106 34 9
-3.6340001 -2.572 -0.94700003 145 137 134
-3.6429999 -2.5780001 -0.963 60 44 31
-3.6500001 -2.5869999 -0.97000003 12 1 0
-3.6500001 -2.5910001 -0.97399998 18 4 1
-3.6659999 -2.5899999 -0.94 115 84 63
-3.651 -2.5810001 -0.96399999 15 6 1
-3.645 -2.5769999 -0.954 57 39 39
-3.7360001 -2.6949999 -0.86799997 139 96 77
-3.737 -2.6960001 -0.86000001 238 217 154
-3.7520001 -2.717 -0.815 83 44 11
-3.7079999 -2.6819999 -0.84200001 244 238 164
-3.707 -2.6889999 -0.83399999 128 98 87
-3.727 -2.7090001 -0.83399999 117 72 33
-3.701 -2.7060001 -0.82499999 115 77 38
-3.733 -2.658 -0.79699999 143 82 38
-3.7420001 -2.6559999 -0.801 211 173 108
-3.7279999 -2.661 -0.80299997 133 66 21
-3.7539999 -2.7290001 -0.80000001 115 72 38
-3.744 -2.727 -0.801 60 28 7
-3.7320001 -2.6670001 -0.81800002 75 26 0
-3.688 -2.6860001 -0.861 101 53 31
-3.6900001 -2.7049999 -0.88099998 59 45 42
-3.7030001 -2.7130001 -0.884 52 20 9
-3.694 -2.7279999 -0.88300002 45 30 23
-3.7060001 -2.7449999 -0.88800001 71 42 38
-3.671 -2.721 -0.90499997 64 10 0
-3.678 -2.7060001 -0.90100002 56 28 16
-3.802 -2.8399999 -0.82800001 67 23 0
-3.813 -2.8429999 -0.82800001 100 42 5
-3.7850001 -2.8959999 -0.79500002 137 71 19
-3.7839999 -2.8900001 -0.80599999 82 36 12
-3.7780001 -2.865 -0.81800002 199 151 115
-3.7809999 -2.8499999 -0.83600003 134 90 45
-3.7690001 -2.868 -0.83399999 49 21 0
-3.73 -2.8770001 -0.86900002 60 22 0
-3.743 -2.868 -0.87 105 72 53
-3.7360001 -2.8699999 -0.87300003 105 64 34
-3.7520001 -2.855 -0.85399997 55 33 19
-3.675 -2.8659999 -0.926 35 19 19
-3.694 -2.8429999 -0.898 46 26 25
-3.687 -2.859 -0.90100002 130 112 100
-3.694 -2.8759999 -0.903 122 105 97
-3.7349999 -2.8469999 -0.88700002 114 70 43
-3.651 -2.7060001 -0.84200001 255 181 106
-3.6570001 -2.714 -0.83700001 207 144 67
-3.668 -2.7550001 -0.86900002 43 21 7
-3.6689999 -2.747 -0.87 62 43 39
-3.6700001 -2.737 -0.86199999 129 86 69
-3.6849999 -2.7539999 -0.92299998 55 35 26
-3.7709999 -2.8499999 -0.85399997 62 28 1
-3.75 -2.869 -0.84899998 110 76 51
-3.8010001 -2.846 -0.833 63 22 2
-3.8010001 -2.848 -0.81199998 106 48 11
-3.464 -2.6010001 -0.94499999 56 33 25
-3.4860001 -2.5650001 -0.96499997 17 0 0
-3.4330001 -2.569 -1.018 108 92 77
-3.4319999 -2.5869999 -1.0140001 62 25 7
-3.437 -2.539 -0.95999998 140 106 61
-3.4349999 -2.5780001 -0.96899998 40 22 10
-3.4449999 -2.5510001 -0.94099998 62 27 5
-3.5239999 -2.5450001 -0.84200001 248 148 60
-3.5150001 -2.5599999 -0.85900003 75 30 0
-3.457 -2.6240001 -0.99199998 19 1 0
-3.4519999 -2.632 -0.991 54 20 10
-3.451 -2.6329999 -0.99699998 26 1 0
-3.7850001 -2.8929999 -0.80000001 113 49 11
-3.7639999 -2.9100001 -0.84500003 113 83 73
-3.779 -2.8870001 -0.82300001 111 76 48
-3.737 -2.6789999 -0.86000001 92 42 9
-3.7390001 -2.675 -0.84200001 132 64 1
-3.7320001 -2.6860001 -0.82999998 149 104 62
-3.724 -2.6459999 -0.83899999 115 86 72
-3.7060001 -2.6600001 -0.88700002 33 17 1
-3.74 -2.6900001 -0.85100001 132 69 15
-3.7449999 -2.668 -0.85100001 105 49 0
-3.7390001 -2.6689999 -0.86199999 38 10 0
-3.7260001 -2.707 -0.866 127 84 42
-3.7420001 -2.707 -0.85600001 130 89 61
-3.756 -2.8540001 -0.847 51 31 22
-3.4349999 -2.619 -0.898 96 63 46
-3.427 -2.6199999 -0.90499997 90 61 31
-3.428 -2.615 -0.903 37 13 1
-3.4300001 -2.6199999 -0.90399998 108 56 8
-3.4300001 -2.6029999 -0.90399998 36 22 21
-3.4319999 -2.6229999 -0.90499997 67 48 41
-3.4360001 -2.612 -0.89099997 108 82 69
-3.437 -2.6140001 -0.89300001 62 36 21
