ply
format ascii 1.0
comment PCL generated
element vertex 810
property float x
property float y
property float z
property uchar red
property uchar green
property uchar blue
element camera 1
property float view_px
property float view_py
property float view_pz
property float x_axisx
property float x_axisy
property float x_axisz
property float y_axisx
property float y_axisy
property float y_axisz
property float z_axisx
property float z_axisy
property float z_axisz
property float focal
property float scalex
property float scaley
property float centerx
property float centery
property int viewportx
property int viewporty
property float k1
property float k2
end_header
2.1889999 11.229 -0.60299999 160 112 66
2.1960001 11.225 -0.60100001 83 43 18
2.194 11.222 -0.61699998 134 89 50
2.204 11.218 -0.60299999 143 117 100
2.233 11.241 -0.62199998 182 89 32
2.233 11.23 -0.62 241 182 114
2.234 11.243 -0.61799997 158 72 21
2.1989999 11.304 -0.56 222 212 237
2.1960001 11.3 -0.551 117 74 39
2.217 11.291 -0.55900002 194 118 34
2.1949999 11.307 -0.55299997 100 50 13
2.1500001 11.298 -0.884 107 81 64
2.1500001 11.29 -0.884 120 63 20
2.1489999 11.291 -0.87599999 214 143 101
2.151 11.306 -0.884 150 78 30
2.151 11.305 -0.90399998 121 94 75
2.152 11.3 -0.87800002 103 59 34
2.1559999 11.311 -0.90899998 129 72 27
2.158 11.308 -0.91299999 101 44 0
2.158 11.321 -0.91299999 106 45 1
2.1570001 11.305 -0.91299999 200 140 106
2.1860001 11.318 -0.95300001 93 32 1
2.1760001 11.298 -0.95499998 141 106 84
2.1849999 11.302 -0.95499998 100 64 40
2.178 11.358 -0.815 255 180 113
2.1830001 11.359 -0.815 95 66 48
2.1789999 11.361 -0.82700002 145 104 82
2.197 11.227 -0.59899998 128 80 34
2.191 11.303 -0.551 96 49 5
2.1949999 11.306 -0.55299997 217 169 123
2.158 11.316 -0.90799999 84 27 0
2.1570001 11.299 -0.89200002 44 32 16
2.1570001 11.317 -0.88999999 86 4 0
2.152 11.31 -0.89300001 96 49 19
2.1670001 11.348 -0.82499999 132 69 26
2.174 11.357 -0.82700002 143 81 42
2.151 11.293 -0.86699998 107 34 2
2.2119999 11.276 -0.93000001 236 123 29
2.2160001 11.264 -0.92699999 255 197 120
2.2049999 11.274 -0.92900002 133 70 27
2.2060001 11.215 -0.61500001 159 137 126
2.178 11.358 -0.824 136 65 21
2.194 11.32 -0.92699999 120 69 38
2.1919999 11.324 -0.94099998 80 26 2
2.191 11.324 -0.92400002 43 26 10
2.1919999 11.252 -0.65399998 166 148 134
2.1900001 11.263 -0.66399997 90 47 38
2.1919999 11.258 -0.64999998 149 105 92
2.1900001 11.23 -0.60100001 83 33 0
2.191 11.263 -0.57499999 182 119 76
2.1730001 11.273 -0.56199998 91 45 0
2.1819999 11.272 -0.55299997 91 65 42
2.187 11.243 -0.60500002 111 83 59
2.1819999 11.284 -0.55400002 149 97 50
2.171 11.29 -0.56199998 229 193 159
2.1849999 11.285 -0.55000001 196 130 69
2.191 11.316 -0.949 212 156 99
2.1889999 11.323 -0.95300001 154 89 61
2.2119999 11.219 -0.61799997 112 77 58
2.211 11.218 -0.602 150 138 124
2.227 11.226 -0.61400002 216 163 57
2.1589999 11.305 -0.90200001 61 34 13
2.1630001 11.297 -0.88099998 155 74 31
2.1570001 11.289 -0.87400001 55 28 9
2.175 11.287 -0.866 161 79 3
2.152 11.305 -0.89399999 68 41 22
2.155 11.317 -0.89499998 135 68 23
2.1589999 11.317 -0.90100002 74 23 0
2.1619999 11.309 -0.80900002 63 31 16
2.164 11.294 -0.801 71 21 0
2.1659999 11.294 -0.80500001 120 45 3
2.1559999 11.305 -0.86500001 59 12 0
2.1600001 11.297 -0.85600001 255 190 120
2.1619999 11.305 -0.85799998 152 82 12
2.224 11.275 -0.91900003 220 144 86
2.2260001 11.279 -0.92400002 202 128 53
2.217 11.258 -0.91000003 62 27 5
2.2249999 11.276 -0.91500002 242 170 111
2.1800001 11.285 -0.94800001 104 51 20
2.1849999 11.287 -0.94800001 175 94 49
2.1830001 11.295 -0.95499998 201 119 71
2.223 11.226 -0.62199998 211 140 60
2.1949999 11.238 -0.62099999 112 65 19
2.1960001 11.227 -0.62300003 122 94 82
2.1989999 11.232 -0.62300003 95 57 38
2.2019999 11.242 -0.62599999 190 175 230
2.2019999 11.24 -0.625 129 73 38
2.2060001 11.221 -0.62400001 213 154 114
2.211 11.237 -0.62800002 125 44 1
2.1789999 11.271 -0.574 138 102 88
2.1730001 11.284 -0.57599998 110 81 75
2.181 11.272 -0.64999998 124 63 34
2.181 11.301 -0.56300002 124 52 12
2.1700001 11.287 -0.56599998 76 41 22
2.2260001 11.311 -0.88700002 65 29 15
2.223 11.311 -0.88099998 80 38 14
2.2119999 11.314 -0.88200003 173 114 74
2.2149999 11.308 -0.889 146 86 14
2.1989999 11.325 -0.64099997 91 62 44
2.2030001 11.331 -0.625 115 76 47
2.211 11.331 -0.62400001 102 74 60
2.204 11.323 -0.65799999 49 21 9
2.2179999 11.319 -0.65499997 172 114 76
2.2030001 11.323 -0.66399997 172 110 69
2.188 11.312 -0.65499997 131 52 13
2.224 11.245 -0.62599999 120 45 6
2.2190001 11.237 -0.63099998 141 85 36
2.2279999 11.306 -0.88300002 70 37 22
2.22 11.314 -0.648 227 166 122
2.223 11.304 -0.662 84 47 31
2.2130001 11.319 -0.63200003 113 65 43
2.2260001 11.309 -0.63499999 109 40 0
2.2149999 11.307 -0.63099998 238 143 49
2.2030001 11.304 -0.63099998 77 13 0
2.2030001 11.309 -0.63599998 42 5 0
2.1949999 11.31 -0.83099997 104 62 40
2.188 11.324 -0.81099999 199 115 53
2.1849999 11.311 -0.81400001 148 77 31
2.1919999 11.311 -0.81 97 69 55
2.174 11.332 -0.824 79 27 5
2.204 11.297 -0.81400001 163 130 113
2.2090001 11.302 -0.80900002 86 62 50
2.204 11.295 -0.82300001 164 131 112
2.1860001 11.298 -0.55900002 185 165 138
2.1830001 11.296 -0.56 125 58 3
2.1789999 11.288 -0.57300001 139 85 49
2.188 11.296 -0.56999999 111 76 54
2.188 11.272 -0.56 119 84 54
2.197 11.28 -0.551 88 49 16
2.1760001 11.297 -0.94800001 179 108 76
2.1719999 11.293 -0.954 191 114 72
2.1900001 11.323 -0.94 61 3 0
2.207 11.285 -0.92400002 165 80 39
2.2 11.275 -0.92799997 153 74 44
2.197 11.278 -0.92500001 158 102 55
2.2119999 11.288 -0.93000001 191 83 8
2.223 11.246 -0.61799997 220 173 129
2.2309999 11.242 -0.60699999 103 43 9
2.217 11.277 -0.56400001 202 158 71
2.2149999 11.279 -0.55800003 137 98 67
2.2149999 11.285 -0.56199998 248 186 85
2.1570001 11.312 -0.90399998 111 53 3
2.152 11.307 -0.89300001 110 50 0
2.1659999 11.32 -0.90100002 182 96 45
2.1530001 11.301 -0.87099999 55 12 0
2.152 11.294 -0.87199998 222 149 108
2.1570001 11.306 -0.875 108 33 0
2.155 11.297 -0.86400002 93 22 0
2.1659999 11.344 -0.82700002 116 64 25
2.164 11.334 -0.80900002 115 79 57
2.1670001 11.342 -0.81900001 110 60 23
2.2049999 11.286 -0.55199999 141 106 68
2.2060001 11.275 -0.55599999 138 88 39
2.2090001 11.272 -0.56 87 34 0
2.2190001 11.277 -0.92799997 204 129 74
2.1819999 11.283 -0.74299997 91 42 28
2.184 11.285 -0.72500002 99 71 59
2.1860001 11.278 -0.72500002 98 68 42
2.188 11.269 -0.70300001 89 40 25
2.1900001 11.269 -0.70599997 129 35 0
2.1919999 11.264 -0.70099998 211 121 59
2.1930001 11.266 -0.70499998 249 157 82
2.2 11.257 -0.70999998 94 66 54
2.204 11.251 -0.71499997 182 126 79
2.2019999 11.257 -0.71200001 171 97 26
2.194 11.266 -0.71100003 199 152 122
2.214 11.221 -0.62 244 162 86
2.1949999 11.234 -0.62 64 34 26
2.1930001 11.242 -0.616 73 33 21
2.21 11.247 -0.63800001 125 52 7
2.168 11.287 -0.80299997 239 157 107
2.168 11.287 -0.79900002 223 132 77
2.165 11.293 -0.80000001 133 49 2
2.1849999 11.271 -0.579 255 199 148
2.2019999 11.247 -0.602 119 70 30
2.198 11.25 -0.61299998 185 153 140
2.1860001 11.274 -0.56400001 159 106 54
2.1930001 11.266 -0.56900001 126 79 37
2.1760001 11.277 -0.66799998 79 38 16
2.191 11.262 -0.676 94 51 42
2.197 11.248 -0.625 103 39 4
2.201 11.26 -0.64099997 176 156 217
2.2030001 11.329 -0.62699997 78 44 32
2.198 11.299 -0.61799997 150 136 136
2.1860001 11.306 -0.63300002 96 48 12
2.1930001 11.241 -0.602 87 45 31
2.207 11.321 -0.63700002 105 54 25
2.1719999 11.341 -0.80599999 82 38 11
2.1849999 11.326 -0.80199999 150 124 111
2.1719999 11.334 -0.80500001 86 45 17
2.1760001 11.332 -0.80500001 70 29 9
2.181 11.294 -0.74000001 53 13 3
2.1849999 11.291 -0.72299999 139 62 20
2.1849999 11.291 -0.73000002 95 55 30
2.1789999 11.29 -0.745 66 12 0
2.198 11.313 -0.73400003 63 31 18
2.191 11.311 -0.73500001 28 0 0
2.204 11.32 -0.75400001 155 140 135
2.181 11.303 -0.65200001 61 17 0
2.1819999 11.305 -0.65700001 161 91 32
2.2049999 11.256 -0.65200001 43 5 0
2.2119999 11.251 -0.634 79 36 2
2.2219999 11.294 -0.64099997 243 154 70
2.223 11.296 -0.64499998 143 102 80
2.2190001 11.285 -0.64300001 244 159 78
2.2219999 11.25 -0.625 135 62 21
2.214 11.278 -0.64200002 99 54 35
2.214 11.281 -0.64499998 171 146 139
2.211 11.261 -0.63300002 82 36 20
2.1930001 11.314 -0.801 41 17 7
2.2049999 11.299 -0.80199999 140 71 30
2.1930001 11.304 -0.79799998 66 34 19
2.201 11.309 -0.78100002 153 130 124
2.1889999 11.301 -0.79000002 117 94 88
2.2090001 11.29 -0.72500002 221 142 63
2.2079999 11.296 -0.72299999 114 95 91
2.2079999 11.298 -0.73900002 114 47 4
2.2219999 11.305 -0.65600002 217 115 51
2.2060001 11.26 -0.69700003 138 103 81
2.2119999 11.265 -0.71399999 71 42 28
2.191 11.26 -0.68900001 95 49 36
2.2060001 11.257 -0.71499997 30 3 0
2.2060001 11.269 -0.71899998 125 54 0
2.221 11.297 -0.648 139 77 40
2.1800001 11.356 -0.81900001 86 36 1
2.2030001 11.3 -0.84500003 151 87 41
2.1949999 11.311 -0.847 69 27 2
2.2119999 11.302 -0.84600002 96 60 34
2.217 11.29 -0.81699997 197 109 46
2.188 11.307 -0.83499998 123 74 44
2.1670001 11.285 -0.77200001 92 51 33
2.165 11.283 -0.77600002 108 61 33
2.1689999 11.278 -0.76300001 134 67 38
2.1919999 11.271 -0.71799999 173 127 94
2.175 11.292 -0.56400001 173 117 68
2.188 11.279 -0.58200002 255 216 185
2.201 11.29 -0.58200002 186 105 40
2.1919999 11.293 -0.57599998 239 200 169
2.198 11.292 -0.59799999 104 27 0
2.2079999 11.281 -0.57800001 184 139 110
2.221 11.291 -0.57300001 233 172 92
2.188 11.292 -0.58700001 234 185 144
2.188 11.3 -0.56699997 197 121 46
2.1830001 11.294 -0.55900002 124 61 7
2.211 11.262 -0.921 247 159 59
2.2079999 11.275 -0.92900002 247 130 50
2.1619999 11.308 -0.91399997 225 172 106
2.1860001 11.317 -0.94400001 99 40 0
2.1819999 11.306 -0.93199998 155 91 30
2.1889999 11.321 -0.93599999 59 7 0
2.1960001 11.303 -0.93699998 58 24 12
2.2219999 11.284 -0.92299998 86 51 29
2.154 11.29 -0.87599999 219 153 103
2.1689999 11.288 -0.86000001 253 177 91
2.21 11.225 -0.60100001 140 60 9
2.2030001 11.232 -0.59299999 64 34 10
2.2019999 11.235 -0.59799999 96 60 34
2.2290001 11.23 -0.60699999 235 186 67
2.2279999 11.236 -0.60399997 129 53 3
2.2249999 11.231 -0.60299999 255 210 84
2.2219999 11.233 -0.59899998 241 188 82
2.2309999 11.234 -0.61299998 103 85 75
2.22 11.284 -0.57200003 194 141 71
2.2030001 11.31 -0.917 105 70 40
2.214 11.305 -0.89200002 173 100 31
2.197 11.312 -0.91500002 124 55 13
2.1989999 11.311 -0.903 173 129 92
2.1960001 11.309 -0.92500001 109 52 25
2.1800001 11.313 -0.866 244 157 78
2.1719999 11.314 -0.866 121 44 0
2.168 11.318 -0.87099999 114 55 15
2.1800001 11.312 -0.87400001 140 75 21
2.1919999 11.318 -0.90899998 75 41 31
2.1760001 11.345 -0.82599998 59 18 0
2.1589999 11.302 -0.861 122 51 0
2.158 11.307 -0.87099999 97 26 0
2.1619999 11.31 -0.86799997 111 40 10
2.164 11.313 -0.86400002 124 51 8
2.164 11.311 -0.81099999 92 51 21
2.168 11.331 -0.81099999 165 141 131
2.168 11.315 -0.80699998 104 26 0
2.168 11.314 -0.81099999 130 56 21
2.2190001 11.284 -0.79400003 237 146 67
2.221 11.277 -0.79699999 228 140 66
2.2149999 11.269 -0.78200001 156 127 111
2.2290001 11.292 -0.79699999 67 22 1
2.2290001 11.296 -0.79400003 77 42 23
2.1689999 11.283 -0.79699999 103 57 23
2.1670001 11.291 -0.792 117 49 10
2.165 11.28 -0.78200001 65 21 0
2.2019999 11.265 -0.91299999 230 153 73
2.198 11.274 -0.917 201 151 114
2.198 11.255 -0.65899998 76 39 21
2.214 11.222 -0.62400001 190 117 62
2.2249999 11.233 -0.62599999 174 118 81
2.2160001 11.239 -0.63200003 71 37 25
2.165 11.29 -0.773 45 12 0
2.171 11.288 -0.76499999 172 100 52
2.1670001 11.273 -0.75700003 126 63 30
2.168 11.314 -0.80199999 224 147 93
2.165 11.307 -0.79900002 173 145 131
2.165 11.294 -0.79100001 83 26 0
2.1670001 11.284 -0.78100002 158 75 21
2.1619999 11.303 -0.80199999 65 40 36
2.1670001 11.297 -0.79299998 91 32 2
2.1659999 11.306 -0.81199998 114 51 20
2.1819999 11.301 -0.82800001 137 88 56
2.1830001 11.295 -0.82300001 112 60 23
2.184 11.284 -0.78399998 71 14 0
2.1900001 11.272 -0.80299997 109 63 37
2.2 11.269 -0.78399998 107 54 22
2.187 11.284 -0.73699999 71 42 24
2.191 11.269 -0.56900001 147 100 54
2.1960001 11.269 -0.56199998 165 98 55
2.1860001 11.275 -0.64499998 67 28 13
2.2049999 11.293 -0.625 143 84 40
2.2160001 11.286 -0.62699997 240 150 54
2.191 11.234 -0.60500002 136 106 82
2.207 11.239 -0.59600002 90 21 0
2.2090001 11.246 -0.59899998 169 156 147
2.2130001 11.267 -0.56999999 252 214 139
2.201 11.27 -0.57200003 125 63 2
2.2030001 11.322 -0.63599998 154 97 44
2.1960001 11.309 -0.64300001 121 84 57
2.171 11.273 -0.78100002 175 161 160
2.171 11.277 -0.815 71 45 30
2.1659999 11.261 -0.81 113 63 26
2.1700001 11.26 -0.82800001 114 36 0
2.1730001 11.267 -0.81900001 189 87 13
2.1800001 11.286 -0.81599998 164 101 60
2.174 11.27 -0.83600003 206 120 37
2.1819999 11.317 -0.80199999 128 65 22
2.2049999 11.297 -0.78799999 111 67 38
2.2030001 11.306 -0.77700001 164 115 83
2.1860001 11.305 -0.79699999 98 19 0
2.217 11.291 -0.81300002 172 78 14
2.1919999 11.309 -0.75 72 39 24
2.1800001 11.299 -0.75099999 97 49 11
2.1760001 11.297 -0.76599997 93 22 4
2.178 11.29 -0.76099998 59 8 0
2.1989999 11.308 -0.778 134 47 0
2.178 11.3 -0.76800001 55 23 2
2.168 11.293 -0.77899998 95 51 26
2.175 11.298 -0.778 168 92 60
2.1989999 11.313 -0.75800002 187 123 75
2.204 11.314 -0.755 135 94 66
2.2019999 11.308 -0.75700003 32 9 3
2.184 11.303 -0.764 46 9 1
2.204 11.302 -0.74900001 132 96 70
2.2019999 11.305 -0.75300002 253 180 137
2.187 11.284 -0.71700001 102 62 36
2.2049999 11.308 -0.741 79 40 11
2.1900001 11.305 -0.639 72 50 36
2.204 11.261 -0.66600001 76 39 23
2.2049999 11.253 -0.65899998 165 94 48
2.2030001 11.254 -0.65600002 43 6 0
2.201 11.254 -0.65899998 217 132 75
2.1930001 11.26 -0.67400002 70 43 34
2.217 11.306 -0.63300002 232 164 119
2.2179999 11.281 -0.634 201 110 31
2.2130001 11.278 -0.63300002 250 156 56
2.207 11.272 -0.64499998 135 95 69
2.21 11.282 -0.65799999 162 69 12
2.2019999 11.299 -0.75999999 148 103 74
2.201 11.293 -0.76700002 130 83 53
2.1960001 11.282 -0.73299998 116 60 25
2.1960001 11.287 -0.74699998 117 79 56
2.198 11.293 -0.73699999 89 12 0
2.1960001 11.276 -0.72000003 155 70 5
2.1889999 11.275 -0.71200001 123 54 12
2.177 11.278 -0.69999999 54 21 4
2.2060001 11.263 -0.671 53 14 0
2.2030001 11.261 -0.67299998 127 50 0
2.21 11.269 -0.67500001 169 101 56
2.204 11.263 -0.70499998 225 159 85
2.204 11.274 -0.69999999 135 58 4
2.177 11.348 -0.81199998 60 21 4
2.187 11.273 -0.65799999 131 70 39
2.1830001 11.295 -0.82700002 84 23 0
2.2119999 11.316 -0.86900002 90 53 27
2.2 11.314 -0.88 64 22 0
2.214 11.309 -0.86299998 187 99 51
2.21 11.305 -0.85699999 157 69 19
2.204 11.309 -0.86799997 45 11 1
2.1689999 11.329 -0.82300001 81 30 3
2.171 11.292 -0.77100003 79 13 0
2.175 11.298 -0.787 55 23 2
2.1800001 11.302 -0.79299998 148 92 57
2.188 11.301 -0.78399998 49 21 9
2.1789999 11.297 -0.778 124 49 20
2.2 11.275 -0.77600002 105 49 16
2.1949999 11.278 -0.77899998 109 50 18
2.2090001 11.282 -0.57599998 145 100 58
2.1919999 11.294 -0.62599999 116 81 53
2.194 11.287 -0.63700002 74 34 9
2.1949999 11.284 -0.62099999 216 109 37
2.197 11.289 -0.60600001 209 119 69
2.1960001 11.287 -0.60100001 132 50 2
2.1930001 11.287 -0.59600002 153 92 47
2.184 11.289 -0.579 134 99 79
2.2160001 11.291 -0.56999999 109 90 75
2.194 11.288 -0.59399998 231 177 131
2.1800001 11.289 -0.56 108 52 15
2.1860001 11.293 -0.55599999 176 103 35
2.2049999 11.278 -0.57599998 165 109 14
2.1949999 11.283 -0.57700002 251 218 187
2.2130001 11.267 -0.92699999 228 139 45
2.2 11.286 -0.921 110 75 47
2.187 11.279 -0.89300001 175 99 47
2.188 11.289 -0.89200002 246 164 91
2.188 11.276 -0.88499999 236 157 90
2.1919999 11.268 -0.88800001 251 192 116
2.187 11.319 -0.949 122 59 16
2.1659999 11.306 -0.91299999 235 180 113
2.177 11.3 -0.92199999 79 47 22
2.1760001 11.291 -0.94400001 170 135 113
2.184 11.297 -0.94199997 87 16 0
2.1849999 11.304 -0.94999999 116 50 0
2.191 11.314 -0.94499999 74 9 0
2.1889999 11.316 -0.93199998 154 80 33
2.2219999 11.28 -0.92000002 227 149 75
2.224 11.275 -0.91799998 217 139 57
2.1830001 11.266 -0.84799999 116 41 1
2.184 11.277 -0.84399998 87 51 25
2.175 11.285 -0.85799998 85 25 0
2.214 11.228 -0.60000002 137 47 0
2.22 11.278 -0.91399997 255 192 114
2.223 11.275 -0.90899998 127 60 7
2.197 11.302 -0.93199998 80 17 0
2.194 11.319 -0.92199999 79 29 4
2.187 11.319 -0.921 79 30 0
2.171 11.346 -0.82499999 85 36 4
2.1789999 11.335 -0.81099999 73 37 15
2.1919999 11.314 -0.86799997 139 102 75
2.1919999 11.305 -0.85799998 116 51 9
2.1819999 11.313 -0.88 61 28 21
2.174 11.306 -0.86400002 176 93 27
2.175 11.3 -0.85900003 231 161 73
2.223 11.272 -0.91299999 207 134 55
2.201 11.27 -0.91399997 176 96 33
2.198 11.273 -0.91000003 216 176 150
2.1930001 11.293 -0.917 101 45 18
2.207 11.227 -0.62300003 176 139 120
2.22 11.228 -0.60100001 220 136 76
2.2130001 11.252 -0.60299999 127 56 14
2.2190001 11.265 -0.61199999 95 34 5
2.223 11.271 -0.60600001 107 54 23
2.2090001 11.243 -0.63300002 183 107 49
2.177 11.292 -0.80800003 148 121 102
2.1860001 11.289 -0.73199999 51 0 0
2.2030001 11.26 -0.63800001 64 37 18
2.2030001 11.264 -0.63099998 115 73 48
2.207 11.249 -0.60399997 176 136 111
2.211 11.25 -0.60699999 121 49 9
2.217 11.276 -0.56800002 253 215 130
2.2090001 11.317 -0.65200001 72 59 66
2.2030001 11.32 -0.64499998 88 46 24
2.2130001 11.316 -0.64999998 141 81 47
2.197 11.312 -0.64600003 116 65 34
2.2019999 11.309 -0.89499998 58 25 10
2.165 11.27 -0.76099998 81 23 1
2.1760001 11.277 -0.76800001 157 137 130
2.177 11.257 -0.83499998 122 46 14
2.178 11.265 -0.80699998 161 71 9
2.177 11.255 -0.80500001 133 48 0
2.1830001 11.277 -0.84100002 119 66 35
2.178 11.313 -0.80000001 99 73 58
2.211 11.297 -0.80299997 221 151 102
2.171 11.281 -0.78799999 144 103 75
2.1849999 11.281 -0.801 122 85 59
2.1860001 11.299 -0.72799999 30 6 4
2.2019999 11.303 -0.72899997 106 47 13
2.181 11.3 -0.759 88 48 36
2.1700001 11.301 -0.78899997 85 29 4
2.178 11.298 -0.76499999 43 10 0
2.2060001 11.311 -0.68900001 59 16 0
2.1989999 11.312 -0.69599998 144 86 48
2.211 11.311 -0.69599998 67 38 22
2.2060001 11.306 -0.68699998 127 50 22
2.2060001 11.306 -0.69199997 178 96 58
2.1849999 11.304 -0.63700002 81 29 5
2.1860001 11.305 -0.65700001 149 77 39
2.2019999 11.257 -0.667 139 58 3
2.22 11.303 -0.63800001 174 103 51
2.2219999 11.267 -0.61000001 128 58 22
2.2060001 11.274 -0.65200001 67 29 8
2.207 11.279 -0.65799999 112 65 37
2.204 11.3 -0.74800003 158 86 46
2.21 11.281 -0.77999997 253 175 101
2.1989999 11.286 -0.764 175 90 25
2.1930001 11.28 -0.75800002 205 118 49
2.197 11.275 -0.764 116 77 48
2.21 11.282 -0.69 175 98 46
2.2019999 11.271 -0.68699998 133 46 1
2.1989999 11.263 -0.70099998 31 0 0
2.174 11.343 -0.81099999 59 14 0
2.175 11.346 -0.81800002 60 23 5
2.174 11.319 -0.80000001 136 50 0
2.2060001 11.305 -0.68300003 102 25 0
2.2160001 11.286 -0.69199997 223 157 109
2.207 11.297 -0.69400001 216 128 90
2.2090001 11.289 -0.69599998 114 32 0
2.1989999 11.299 -0.70200002 130 82 60
2.2060001 11.295 -0.71600002 49 20 14
2.1819999 11.288 -0.82099998 112 48 10
2.1819999 11.286 -0.829 189 107 60
2.181 11.282 -0.82499999 172 98 53
2.1919999 11.305 -0.84899998 121 52 19
2.1830001 11.308 -0.86500001 185 97 23
2.1670001 11.286 -0.778 142 61 14
2.175 11.285 -0.75099999 129 85 58
2.181 11.284 -0.74800003 68 35 18
2.1819999 11.281 -0.75400001 107 76 58
2.188 11.283 -0.74800003 49 16 0
2.1960001 11.277 -0.778 240 170 74
2.204 11.293 -0.55699998 53 15 0
2.201 11.29 -0.55400002 218 150 69
2.201 11.291 -0.56300002 104 69 37
2.1960001 11.291 -0.61900002 142 85 42
2.201 11.278 -0.62400001 213 113 25
2.214 11.282 -0.63 222 132 35
2.1849999 11.288 -0.588 68 39 35
2.2119999 11.26 -0.62800002 134 85 52
2.2160001 11.26 -0.61699998 68 30 17
2.211 11.273 -0.57099998 255 220 120
2.1960001 11.269 -0.57800001 134 80 36
2.2149999 11.263 -0.903 125 94 76
2.2160001 11.265 -0.90600002 182 130 47
2.2190001 11.272 -0.92500001 176 101 18
2.1849999 11.291 -0.90399998 191 126 84
2.1860001 11.292 -0.89499998 137 124 115
2.1860001 11.304 -0.89499998 72 31 9
2.1619999 11.309 -0.90100002 141 84 41
2.1860001 11.273 -0.87400001 126 96 68
2.1619999 11.307 -0.90499997 180 113 58
2.1670001 11.316 -0.903 84 50 25
2.184 11.292 -0.949 59 26 11
2.1900001 11.296 -0.926 108 54 20
2.1900001 11.297 -0.92199999 103 45 21
2.1860001 11.311 -0.95200002 125 64 17
2.1960001 11.3 -0.92699999 112 47 17
2.1659999 11.297 -0.85699999 249 177 101
2.1989999 11.262 -0.89099997 255 194 109
2.2019999 11.259 -0.88800001 151 125 110
2.2130001 11.231 -0.59799999 212 146 59
2.2190001 11.226 -0.60600001 255 222 79
2.2149999 11.224 -0.61299998 229 160 43
2.217 11.302 -0.88800001 255 215 116
2.1670001 11.312 -0.88999999 212 130 74
2.168 11.312 -0.88200003 101 26 0
2.1860001 11.309 -0.889 121 101 90
2.1570001 11.305 -0.89999998 131 57 10
2.1889999 11.312 -0.89399999 133 130 123
2.1670001 11.316 -0.88300002 97 63 38
2.1819999 11.305 -0.91900003 128 47 0
2.161 11.316 -0.912 224 165 109
2.1760001 11.295 -0.85799998 229 158 68
2.1819999 11.299 -0.847 146 82 44
2.1860001 11.299 -0.84100002 70 12 0
2.188 11.301 -0.84299999 108 46 25
2.1849999 11.295 -0.833 136 71 29
2.2049999 11.275 -0.77899998 199 127 77
2.197 11.255 -0.847 161 74 0
2.1919999 11.252 -0.84100002 245 157 68
2.194 11.259 -0.85600001 191 110 55
2.2049999 11.295 -0.81699997 184 108 56
2.1960001 11.271 -0.90499997 28 18 8
2.204 11.265 -0.90200001 168 132 96
2.2179999 11.232 -0.59899998 232 174 74
2.197 11.304 -0.68800002 47 19 8
2.187 11.29 -0.69199997 88 60 49
2.194 11.308 -0.70300001 167 105 66
2.201 11.267 -0.63599998 163 118 79
2.2030001 11.321 -0.66100001 66 28 7
2.207 11.309 -0.89300001 204 116 52
2.1819999 11.264 -0.84299999 102 68 41
2.1800001 11.265 -0.83899999 140 47 3
2.1819999 11.258 -0.84200001 173 77 37
2.1789999 11.272 -0.829 190 93 22
2.1830001 11.262 -0.847 176 83 39
2.2149999 11.291 -0.79699999 99 42 15
2.2 11.274 -0.80699998 200 98 32
2.2019999 11.277 -0.79000002 108 40 1
2.2190001 11.284 -0.80299997 170 77 8
2.2149999 11.279 -0.88999999 191 136 82
2.214 11.273 -0.89099997 108 75 92
2.1949999 11.31 -0.741 73 3 0
2.187 11.304 -0.745 62 21 0
2.1860001 11.298 -0.72600001 125 70 50
2.188 11.3 -0.73400003 78 13 0
2.1989999 11.313 -0.70300001 165 105 68
2.2079999 11.286 -0.72000003 111 61 36
2.201 11.253 -0.662 142 62 3
2.198 11.261 -0.67400002 72 36 14
2.178 11.276 -0.69 76 41 19
2.1819999 11.284 -0.69300002 126 86 60
2.1900001 11.267 -0.68800002 99 73 56
2.1860001 11.271 -0.69999999 155 124 103
2.184 11.274 -0.699 184 153 135
2.221 11.301 -0.64300001 253 161 62
2.187 11.302 -0.75999999 165 121 96
2.2090001 11.285 -0.78100002 113 60 44
2.2030001 11.284 -0.77200001 179 105 34
2.2030001 11.283 -0.76800001 144 69 11
2.1849999 11.277 -0.704 102 38 2
2.188 11.281 -0.70999998 51 13 0
2.188 11.283 -0.713 88 56 33
2.1789999 11.341 -0.81099999 42 6 0
2.181 11.276 -0.67500001 64 36 25
2.184 11.281 -0.671 67 30 4
2.184 11.276 -0.65100002 175 157 147
2.184 11.288 -0.65600002 127 92 62
2.2060001 11.293 -0.68800002 231 145 98
2.2079999 11.299 -0.67400002 193 111 55
2.2130001 11.302 -0.85100001 105 69 43
2.2179999 11.294 -0.852 185 114 48
2.2149999 11.286 -0.84600002 54 32 19
2.2160001 11.279 -0.84600002 105 66 35
2.2190001 11.285 -0.824 86 27 0
2.214 11.284 -0.83999997 129 84 63
2.214 11.292 -0.84600002 174 98 22
2.2060001 11.291 -0.82300001 174 101 50
2.178 11.288 -0.75800002 108 42 8
2.1849999 11.283 -0.74900001 48 12 0
2.1889999 11.277 -0.75599998 127 73 49
2.1989999 11.291 -0.574 217 210 228
2.1989999 11.286 -0.62300003 65 39 14
2.1949999 11.289 -0.62300003 175 114 70
2.211 11.256 -0.61699998 127 63 36
2.22 11.266 -0.61400002 106 41 9
2.197 11.29 -0.55400002 176 105 43
2.2079999 11.27 -0.57599998 245 193 136
2.2090001 11.262 -0.90499997 39 23 8
2.188 11.283 -0.89899999 162 152 151
2.194 11.286 -0.90600002 180 151 133
2.187 11.281 -0.87099999 82 31 4
2.188 11.277 -0.85600001 242 154 104
2.1919999 11.274 -0.86000001 136 54 14
2.1849999 11.267 -0.85000002 130 58 33
2.1860001 11.295 -0.94499999 53 17 0
2.201 11.302 -0.92000002 85 29 6
2.2 11.3 -0.91500002 73 21 0
2.191 11.266 -0.875 102 71 50
2.211 11.276 -0.91600001 167 107 57
2.1849999 11.281 -0.85799998 112 69 35
2.181 11.301 -0.91600001 162 136 119
2.1830001 11.315 -0.917 171 107 69
2.1889999 11.302 -0.84799999 74 15 0
2.1789999 11.285 -0.83700001 252 160 83
2.1849999 11.298 -0.88099998 84 19 0
2.207 11.271 -0.78500003 207 133 84
2.2090001 11.277 -0.796 197 91 15
2.2149999 11.273 -0.80299997 134 48 0
2.198 11.268 -0.81300002 181 88 11
2.2019999 11.273 -0.81300002 105 52 18
2.1849999 11.247 -0.82599998 189 104 50
2.1849999 11.254 -0.833 237 142 60
2.177 11.27 -0.80800003 144 59 5
2.214 11.235 -0.62599999 121 79 54
2.2149999 11.242 -0.59600002 148 88 54
2.1989999 11.312 -0.69 140 84 47
2.1949999 11.298 -0.69400001 102 53 23
2.2190001 11.308 -0.86799997 139 63 11
2.2190001 11.297 -0.87400001 227 176 87
2.2190001 11.296 -0.87800002 255 208 116
2.2060001 11.305 -0.89600003 162 75 4
2.1860001 11.259 -0.847 124 30 4
2.224 11.292 -0.79900002 74 32 10
2.2160001 11.285 -0.81300002 141 71 19
2.2160001 11.292 -0.88499999 153 117 91
2.2160001 11.279 -0.89499998 254 204 131
2.2190001 11.295 -0.88200003 252 209 115
2.188 11.301 -0.74000001 62 9 1
2.2060001 11.272 -0.71700001 106 73 54
2.21 11.282 -0.70099998 57 21 5
2.1900001 11.283 -0.78299999 138 59 3
2.1889999 11.302 -0.73299998 33 5 2
2.2060001 11.294 -0.73000002 201 126 61
2.204 11.263 -0.67699999 131 51 0
2.188 11.267 -0.69800001 55 26 10
2.221 11.302 -0.64700001 242 145 51
2.204 11.275 -0.66000003 150 57 0
2.1930001 11.296 -0.63300002 97 32 10
2.194 11.276 -0.77100003 120 56 21
2.2060001 11.293 -0.78899997 148 76 28
2.2049999 11.279 -0.77499998 206 134 60
2.188 11.282 -0.70300001 103 45 21
2.198 11.302 -0.68099999 51 13 0
2.1949999 11.299 -0.67400002 44 6 0
2.1830001 11.295 -0.64999998 60 18 4
2.1849999 11.286 -0.65799999 67 35 24
2.2049999 11.319 -0.64200002 85 28 1
2.2060001 11.274 -0.67699999 159 103 66
2.204 11.293 -0.83200002 176 143 124
2.1830001 11.277 -0.75999999 158 127 107
2.1949999 11.283 -0.616 200 99 31
2.211 11.26 -0.90399998 173 133 38
2.2090001 11.264 -0.89399999 176 140 114
2.2049999 11.295 -0.89300001 172 128 91
2.204 11.274 -0.861 255 177 95
2.1919999 11.271 -0.87199998 90 51 22
2.214 11.281 -0.88599998 160 125 105
2.1849999 11.318 -0.92500001 99 34 4
2.1800001 11.293 -0.87099999 132 64 17
2.1900001 11.266 -0.80900002 161 79 21
2.1889999 11.258 -0.81699997 161 93 28
2.181 11.269 -0.80400002 253 166 112
2.174 11.268 -0.81099999 252 157 77
2.1989999 11.284 -0.90100002 140 69 17
2.2149999 11.224 -0.61299998 229 160 43
2.2130001 11.233 -0.59600002 124 48 12
2.1730001 11.276 -0.81199998 43 18 13
2.1719999 11.309 -0.80000001 88 59 43
2.201 11.307 -0.68199998 150 96 60
2.1889999 11.292 -0.713 85 28 0
2.188 11.285 -0.69999999 116 94 81
2.198 11.283 -0.63200003 94 56 45
2.198 11.283 -0.63300002 193 97 36
2.2019999 11.315 -0.66100001 82 29 0
2.2119999 11.31 -0.67299998 156 71 17
2.1700001 11.254 -0.81199998 159 130 116
2.1789999 11.249 -0.81800002 193 147 121
2.1760001 11.256 -0.82800001 180 102 64
2.187 11.261 -0.85100001 137 50 20
2.1949999 11.264 -0.847 75 9 0
2.197 11.26 -0.838 100 59 39
2.1960001 11.263 -0.84899998 195 106 40
2.188 11.3 -0.73699999 40 5 1
2.194 11.306 -0.71100003 148 70 24
2.2060001 11.281 -0.71799999 246 161 70
2.2049999 11.275 -0.708 135 103 82
2.204 11.3 -0.73500001 108 34 0
2.2 11.263 -0.68099999 141 54 1
2.201 11.29 -0.77899998 235 171 123
2.188 11.285 -0.676 64 27 8
2.1960001 11.302 -0.67500001 78 48 40
2.1900001 11.298 -0.64200002 83 51 40
2.1860001 11.283 -0.66299999 67 29 8
2.2049999 11.267 -0.68199998 194 113 58
2.1830001 11.288 -0.83999997 137 58 17
2.2149999 11.284 -0.82700002 123 59 21
2.1889999 11.286 -0.55299997 123 106 112
2.2 11.298 -0.89700001 186 105 26
2.1949999 11.295 -0.90799999 115 54 9
2.188 11.307 -0.90899998 201 149 102
2.184 11.315 -0.91500002 107 58 18
2.2119999 11.265 -0.889 217 160 73
2.204 11.273 -0.85500002 75 14 0
2.1989999 11.271 -0.83099997 255 190 83
2.204 11.295 -0.84100002 176 144 123
2.1849999 11.317 -0.93099999 105 44 23
2.1889999 11.31 -0.87900001 135 134 130
2.214 11.278 -0.81999999 125 66 24
2.1830001 11.264 -0.80800003 207 119 48
2.175 11.256 -0.82099998 219 141 92
2.1900001 11.258 -0.847 107 14 0
2.181 11.256 -0.833 145 55 0
2.2130001 11.276 -0.89899999 255 213 137
2.2130001 11.275 -0.912 239 200 161
2.1730001 11.273 -0.81199998 184 110 61
2.1830001 11.28 -0.699 93 52 24
2.2019999 11.292 -0.70200002 133 98 78
2.1889999 11.297 -0.70899999 85 57 46
2.1949999 11.296 -0.69700003 78 37 19
2.1949999 11.302 -0.662 56 24 13
2.214 11.304 -0.671 216 128 65
2.1889999 11.295 -0.884 141 55 0
2.177 11.255 -0.824 158 65 4
2.197 11.254 -0.82099998 148 88 16
2.188 11.252 -0.824 255 181 66
2.181 11.256 -0.81099999 198 120 54
2.1700001 11.254 -0.81099999 179 145 120
2.191 11.262 -0.85600001 110 27 0
2.2090001 11.29 -0.875 176 109 38
2.2019999 11.273 -0.88200003 78 39 10
2.198 11.305 -0.708 51 14 0
2.1919999 11.298 -0.72399998 33 5 2
2.221 11.303 -0.65100002 194 93 13
2.2049999 11.277 -0.79100001 185 83 17
2.187 11.279 -0.68300003 108 88 77
2.188 11.291 -0.65899998 48 0 0
2.187 11.3 -0.90899998 237 168 129
2.1860001 11.312 -0.91000003 153 104 61
2.1960001 11.296 -0.91299999 110 54 19
2.2119999 11.275 -0.88700002 176 106 18
2.1989999 11.262 -0.85299999 242 159 83
2.21 11.282 -0.852 255 179 93
2.1860001 11.318 -0.93000001 77 29 7
2.207 11.289 -0.86299998 91 26 0
2.2060001 11.288 -0.86699998 99 38 7
2.188 11.297 -0.71200001 104 64 38
2.2090001 11.314 -0.67299998 113 33 0
2.2130001 11.289 -0.88700002 255 196 107
2.188 11.251 -0.82800001 255 170 64
2.1919999 11.255 -0.83099997 132 66 16
2.191 11.254 -0.83499998 158 95 54
2.1930001 11.255 -0.838 235 154 49
2.194 11.258 -0.82999998 198 121 15
2.2079999 11.274 -0.82599998 68 31 2
2.178 11.252 -0.81099999 174 136 115
2.2090001 11.29 -0.87099999 184 113 33
2.1919999 11.295 -0.66600001 46 3 0
2.177 11.267 -0.83600003 153 65 1
2.1730001 11.273 -0.81599998 160 87 36
2.2049999 11.269 -0.82200003 146 86 32
2.2179999 11.287 -0.80699998 82 46 24
2.2060001 11.275 -0.88300002 131 69 28
2.2060001 11.289 -0.66500002 123 91 76
2.2079999 11.288 -0.66000003 136 86 53
2.211 11.295 -0.65700001 221 118 60
0 0 0 1 0 0 0 1 0 0 0 1 0 0 0 0 0 810 1 0 0
