ply
format ascii 1.0
comment PCL generated
element vertex 612
property float x
property float y
property float z
property uchar red
property uchar green
property uchar blue
element camera 1
property float view_px
property float view_py
property float view_pz
property float x_axisx
property float x_axisy
property float x_axisz
property float y_axisx
property float y_axisy
property float y_axisz
property float z_axisx
property float z_axisy
property float z_axisz
property float focal
property float scalex
property float scaley
property float centerx
property float centery
property int viewportx
property int viewporty
property float k1
property float k2
end_header
-3.967 -4.54 -1.027 23 0 0
-3.971 -4.526 -1.025 68 46 35
-3.973 -4.54 -1.035 56 29 20
-3.9679999 -4.5440001 -1.031 59 27 14
-3.961 -4.5450001 -1.007 32 14 2
-3.9679999 -4.5539999 -1.02 37 4 0
-4.0209999 -4.54 -1.034 87 46 24
-4.0009999 -4.5489998 -1.045 108 62 26
-4.0170002 -4.5349998 -1.041 45 5 0
-4.0040002 -4.5479999 -1.038 111 67 28
-3.997 -4.5970001 -0.82700002 242 148 50
-3.994 -4.5830002 -0.80800003 144 95 55
-4.0009999 -4.598 -0.82300001 123 82 30
-3.9879999 -4.5710001 -1.01 33 13 6
-4 -4.5739999 -1.018 91 39 15
-3.9990001 -4.579 -1.011 61 38 22
-3.964 -4.5650001 -0.89200002 48 19 11
-3.97 -4.5689998 -0.90700001 86 42 17
-3.974 -4.573 -0.90100002 122 99 85
-4.0170002 -4.5279999 -1.028 44 1 0
-3.9949999 -4.5300002 -1.0319999 203 160 128
-3.9790001 -4.5339999 -1.034 61 33 19
-3.9949999 -4.5430002 -1.046 80 39 17
-3.97 -4.546 -1.029 161 98 54
-3.9990001 -4.5419998 -1.041 103 64 35
-4.013 -4.52 -0.89899999 58 30 18
-4.0149999 -4.5209999 -0.903 77 54 36
-4.0089998 -4.52 -0.89999998 46 19 2
-3.97 -4.5440001 -0.89399999 32 8 4
-3.9619999 -4.5479999 -0.90100002 45 24 5
-3.9579999 -4.5580001 -0.88499999 56 27 11
-3.961 -4.5549998 -0.89099997 67 36 18
-3.97 -4.5489998 -0.88700002 75 48 31
-3.974 -4.5619998 -0.88300002 129 80 50
-3.973 -4.5619998 -0.884 91 37 11
-3.971 -4.566 -0.89700001 83 63 52
-3.9779999 -4.5760002 -0.921 112 86 73
-3.961 -4.5630002 -0.92400002 53 34 20
-4.027 -4.539 -1.027 22 1 0
-4.0240002 -4.5190001 -1.026 129 115 115
-4.026 -4.5359998 -1.027 22 4 2
-3.9890001 -4.5419998 -1.041 138 102 70
-3.993 -4.5700002 -0.80500001 182 102 43
-3.9860001 -4.5749998 -0.80800003 79 29 4
-3.987 -4.5630002 -0.79799998 103 35 0
-3.9909999 -4.572 -0.80699998 207 133 70
-4.0079999 -4.5770001 -0.81 184 125 65
-4.0009999 -4.566 -0.80400002 237 176 70
-4.0229998 -4.5599999 -0.81 203 110 30
-4.027 -4.5469999 -1.022 34 10 6
-4.0279999 -4.5479999 -1.018 49 13 0
-4.0279999 -4.5560002 -1.011 28 12 12
-4.0320001 -4.54 -1.016 85 56 40
-4.0320001 -4.5409999 -1.0140001 72 34 11
-4.0300002 -4.5469999 -1.013 92 43 11
-4.0320001 -4.5370002 -1.012 88 45 28
-4.033 -4.5359998 -1.015 96 62 50
-3.9719999 -4.5380001 -0.90200001 59 42 34
-4.0040002 -4.5190001 -0.90499997 37 16 0
-3.96 -4.5450001 -0.93599999 65 39 26
-3.9619999 -4.566 -0.94400001 24 0 0
-3.9690001 -4.5310001 -1.006 149 107 82
-3.9660001 -4.5300002 -1.015 136 106 96
-3.9660001 -4.54 -1.002 87 79 76
-3.967 -4.5409999 -1.02 56 34 20
-4.0209999 -4.5560002 -1.01 118 59 15
-4.0149999 -4.559 -1.011 118 62 29
-3.967 -4.559 -0.89899999 103 61 39
-3.967 -4.559 -0.90899998 65 12 4
-4.0110002 -4.5780001 -0.98500001 24 0 0
-4.0149999 -4.5830002 -1 42 15 4
-4.0089998 -4.5840001 -1.003 36 1 0
-3.971 -4.573 -0.94199997 70 30 4
-3.9619999 -4.5630002 -0.92500001 70 10 0
-3.97 -4.5700002 -0.94099998 94 57 31
-3.983 -4.572 -0.963 31 10 7
-3.9779999 -4.5710001 -0.94999999 45 22 8
-3.9879999 -4.592 -0.954 49 51 48
-3.993 -4.5879998 -0.94499999 48 50 47
-3.993 -4.5949998 -0.95700002 51 34 26
-3.984 -4.5809999 -0.93099999 105 74 54
-4.006 -4.5679998 -0.90799999 68 26 2
-4.013 -4.5650001 -0.90799999 57 9 0
-4.0050001 -4.5689998 -0.90499997 46 41 37
-3.9949999 -4.5739999 -0.89899999 36 16 7
-4.0040002 -4.579 -0.92000002 51 33 31
-4.0029998 -4.5710001 -0.90799999 45 45 43
-4.006 -4.586 -0.94099998 53 16 0
-4.0219998 -4.526 -1.027 74 51 45
-4.0170002 -4.5349998 -1.035 39 0 0
-4.026 -4.5580001 -0.91399997 112 62 37
-4.013 -4.5640001 -0.90499997 61 12 0
-4.0289998 -4.5219998 -1.02 78 38 28
-3.994 -4.546 -1.0420001 133 93 58
-3.9920001 -4.5640001 -0.80000001 203 140 61
-3.9890001 -4.5359998 -0.796 207 122 65
-3.9890001 -4.5380001 -0.79500002 152 78 33
-3.9849999 -4.539 -0.80199999 207 125 75
-4.013 -4.5170002 -0.89499998 106 78 66
-4.0190001 -4.527 -0.90200001 38 9 0
-3.9779999 -4.5209999 -0.99400002 131 112 105
-3.973 -4.533 -0.99000001 90 80 81
-3.973 -4.5240002 -1.003 40 26 26
-3.9860001 -4.5630002 -0.801 114 45 3
-3.9749999 -4.573 -0.815 151 102 62
-3.967 -4.5619998 -0.81800002 91 49 25
-4.0050001 -4.527 -0.898 13 8 4
-3.98 -4.5209999 -0.98699999 19 4 7
-3.9809999 -4.52 -0.98699999 131 113 103
-3.9690001 -4.5339999 -1 45 36 31
-3.9679999 -4.5479999 -1.017 135 107 86
-3.9679999 -4.539 -1.024 86 55 37
-3.9990001 -4.5159998 -1.003 26 13 20
-3.997 -4.5170002 -1 54 34 35
-3.9909999 -4.5139999 -1.002 126 107 100
-3.9660001 -4.5500002 -0.89499998 32 1 0
-3.9760001 -4.5489998 -0.87900001 73 20 12
-3.977 -4.5539999 -0.87400001 75 19 2
-3.9779999 -4.5450001 -0.86799997 67 10 1
-3.9719999 -4.5630002 -0.88800001 190 139 110
-3.9760001 -4.553 -1.023 150 87 46
-3.967 -4.5609999 -0.91299999 122 81 63
-3.9649999 -4.5609999 -0.91799998 65 15 4
-3.983 -4.5770001 -0.94700003 54 27 18
-3.9909999 -4.5830002 -0.93800002 67 35 20
-3.9990001 -4.5799999 -0.92900002 47 49 46
-4.0009999 -4.5760002 -0.921 46 48 45
-3.994 -4.5679998 -0.90700001 26 8 4
-3.993 -4.566 -0.91799998 131 108 100
-4.0149999 -4.5689998 -0.92400002 79 33 10
-4.0159998 -4.5650001 -0.92900002 42 5 0
-4.0180001 -4.5669999 -0.935 150 108 86
-4.0029998 -4.5809999 -0.94599998 77 45 32
-4.007 -4.5749998 -0.94099998 124 111 105
-3.9960001 -4.586 -0.94499999 53 52 48
-3.9960001 -4.585 -0.94 159 130 114
-4.027 -4.54 -1.026 102 59 40
-4.0310001 -4.5380001 -1.01 151 98 66
-4.0229998 -4.5149999 -1.0190001 60 32 18
-3.9860001 -4.5219998 -1.011 15 1 0
-3.9890001 -4.5190001 -1.007 55 22 7
-3.9779999 -4.5209999 -1.003 122 105 98
-4.0320001 -4.5370002 -1.0190001 62 35 26
-4.0159998 -4.5310001 -0.94300002 40 21 15
-4.0229998 -4.5359998 -0.95300001 35 6 0
-4.0229998 -4.539 -0.95099998 57 24 19
-3.9920001 -4.572 -0.87300003 71 53 41
-3.977 -4.5599999 -0.87699997 30 11 7
-3.9860001 -4.546 -0.801 165 76 8
-3.9920001 -4.5370002 -0.79100001 212 122 70
-3.9790001 -4.5599999 -0.815 150 106 67
-3.9820001 -4.5570002 -0.81099999 128 63 33
-3.9790001 -4.5440001 -0.82599998 131 66 34
-3.983 -4.5479999 -0.81099999 202 112 36
-3.9630001 -4.5619998 -0.829 207 135 35
-3.9679999 -4.5599999 -0.83499998 147 112 90
-3.9860001 -4.5380001 -0.81800002 63 37 22
-3.99 -4.5289998 -0.82200003 50 45 39
-3.984 -4.54 -0.88700002 91 49 24
-3.9790001 -4.5669999 -0.88800001 33 6 0
-3.9820001 -4.5300002 -0.92400002 56 19 11
-3.983 -4.526 -0.93199998 167 109 69
-3.9809999 -4.5289998 -0.93400002 36 21 16
-3.984 -4.5300002 -0.92400002 14 0 0
-3.961 -4.5570002 -0.926 30 10 3
-3.9660001 -4.5599999 -0.93400002 38 10 6
-3.9630001 -4.5510001 -0.94199997 112 90 79
-4.0149999 -4.5250001 -1.02 19 4 0
-3.9630001 -4.5539999 -0.89700001 140 114 99
-3.9749999 -4.5560002 -0.87900001 75 27 7
-3.97 -4.5560002 -1.011 81 73 70
-3.974 -4.559 -1.01 163 122 92
-3.987 -4.573 -0.995 93 64 50
-3.971 -4.5570002 -1 23 0 0
-3.97 -4.5370002 -0.99599999 124 116 113
-3.994 -4.54 -1.03 51 25 12
-4.007 -4.5710001 -1.0089999 39 12 5
-4.0120001 -4.5809999 -1.0089999 44 20 10
-4.0029998 -4.579 -1.01 30 3 0
-3.9890001 -4.5739999 -0.89899999 21 2 0
-3.9790001 -4.572 -0.90600002 63 32 4
-3.9760001 -4.5689998 -0.91399997 135 108 91
-4.013 -4.5650001 -0.91399997 45 3 0
-4.0139999 -4.5669999 -0.921 90 52 31
-4.0050001 -4.5770001 -0.92000002 33 8 1
-3.974 -4.5640001 -0.95499998 60 23 7
-3.97 -4.5609999 -0.96799999 36 21 16
-3.98 -4.5669999 -0.96899998 22 1 0
-4.007 -4.5689998 -0.991 32 7 0
-3.994 -4.5780001 -0.99699998 123 92 74
-3.997 -4.5700002 -0.98400003 24 0 0
-4.0009999 -4.572 -0.97500002 13 0 0
-3.994 -4.5710001 -0.977 23 2 1
-3.973 -4.5689998 -0.93400002 86 59 48
-4.0019999 -4.5739999 -0.917 46 45 41
-3.994 -4.5669999 -0.92000002 53 24 8
-4.0120001 -4.5739999 -0.93000001 74 32 10
-4.0029998 -4.5749998 -0.97100002 38 14 4
-3.973 -4.5370002 -0.98400003 46 18 6
-4.0229998 -4.5229998 -1.01 34 16 16
-4.0250001 -4.5229998 -1.01 141 94 74
-4.0219998 -4.5190001 -1.018 25 6 8
-4.0289998 -4.5339999 -1.008 63 19 8
-4.0180001 -4.5240002 -0.94400001 36 11 6
-4.0250001 -4.5229998 -1.003 139 87 50
-4.0110002 -4.5250001 -0.91000003 46 32 29
-3.9990001 -4.5209999 -0.91000003 125 105 94
-4.0250001 -4.5650001 -0.94099998 60 40 29
-4.0229998 -4.5430002 -0.94300002 59 27 14
-4.0219998 -4.5440001 -0.94099998 71 38 23
-4.0219998 -4.5469999 -0.93900001 40 6 0
-4.0229998 -4.5289998 -0.963 43 22 17
-4 -4.52 -1.008 55 19 7
-4.0289998 -4.5580001 -0.81400001 184 134 73
-4.0229998 -4.546 -0.81099999 242 176 90
-4.0079999 -4.5739999 -0.81 222 173 114
-4.0079999 -4.5650001 -0.80900002 202 146 71
-3.9779999 -4.553 -0.86799997 131 71 43
-3.983 -4.5539999 -0.86299998 81 33 10
-3.984 -4.5479999 -0.85900003 92 46 20
-3.977 -4.5679998 -0.82700002 104 75 59
-3.983 -4.5619998 -0.833 56 18 0
-3.9820001 -4.552 -0.81300002 190 93 24
-3.984 -4.5479999 -0.80400002 164 77 23
-3.9849999 -4.5560002 -0.80699998 150 100 49
-4.0110002 -4.5500002 -0.80699998 25 11 10
-3.9860001 -4.5650001 -0.80500001 166 92 29
-3.9790001 -4.553 -0.81699997 103 65 26
-3.984 -4.546 -0.81 218 120 33
-3.994 -4.539 -0.88700002 86 34 13
-4.0009999 -4.5409999 -0.88300002 133 83 50
-3.9960001 -4.5430002 -0.86400002 54 43 39
-3.9990001 -4.5229998 -0.90499997 122 82 56
-4.0029998 -4.5279999 -0.89999998 132 95 69
-3.9960001 -4.5289998 -0.90700001 35 11 9
-3.993 -4.5450001 -0.87099999 65 54 48
-3.9920001 -4.546 -0.87699997 71 58 52
-3.9849999 -4.54 -0.90200001 104 84 75
-4.0190001 -4.5510001 -0.90499997 91 48 29
-4.0190001 -4.5560002 -0.90799999 70 46 20
-4.027 -4.5510001 -0.917 43 30 24
-4.0180001 -4.559 -0.89600003 141 91 58
-4.0139999 -4.5370002 -0.89499998 31 22 17
-4.013 -4.5570002 -0.89600003 114 60 32
-3.9909999 -4.5749998 -0.89399999 33 16 8
-3.9960001 -4.5679998 -0.889 90 70 61
-3.9979999 -4.5739999 -0.87900001 60 38 27
-3.9890001 -4.5689998 -0.875 28 5 0
-3.9979999 -4.592 -0.82499999 229 138 33
-4 -4.5890002 -0.82099998 221 129 30
-4.013 -4.5830002 -0.81699997 82 39 5
-4.0009999 -4.5770001 -0.87400001 73 35 16
-3.9809999 -4.5320001 -0.921 18 2 2
-3.99 -4.533 -0.91799998 47 23 21
-3.974 -4.566 -0.91600001 35 14 11
-3.97 -4.5500002 -0.91500002 32 3 0
-3.9719999 -4.5419998 -0.92400002 183 151 110
-3.9679999 -4.5430002 -1.02 170 137 118
-3.973 -4.5300002 -1.0190001 37 14 6
-3.99 -4.5560002 -1.017 32 3 0
-4.0029998 -4.5549998 -1.0190001 64 34 23
-4.0279999 -4.533 -1.021 38 5 0
-3.974 -4.559 -0.88200003 100 51 21
-3.964 -4.5630002 -0.95300001 235 165 105
-3.9809999 -4.5630002 -1.001 57 34 28
-3.9790001 -4.5310001 -1.022 37 9 0
-4.0050001 -4.5780001 -0.921 51 33 13
-4.007 -4.5749998 -0.93199998 86 47 30
-4.006 -4.5770001 -1 131 101 93
-3.9719999 -4.54 -0.94599998 48 15 0
-3.9679999 -4.5430002 -0.93599999 54 18 0
-3.9949999 -4.5700002 -0.98400003 22 2 1
-3.9920001 -4.5700002 -0.98699999 33 15 1
-4.0089998 -4.5669999 -0.91600001 102 45 0
-4.013 -4.5679998 -0.94 66 25 5
-3.997 -4.5879998 -0.95300001 42 42 40
-4 -4.5760002 -0.949 44 4 0
-3.984 -4.573 -0.972 55 32 24
-3.9749999 -4.5650001 -0.986 68 46 33
-3.9790001 -4.5300002 -0.98000002 149 129 120
-4.0300002 -4.5310001 -1.011 39 26 20
-4.0149999 -4.5170002 -0.949 52 34 22
-4.0120001 -4.5139999 -0.958 17 3 2
-4.0040002 -4.5120001 -0.94999999 13 0 0
-4.007 -4.5180001 -0.95499998 85 68 61
-4.0029998 -4.52 -0.93099999 41 23 23
-3.9979999 -4.5180001 -0.95099998 16 5 1
-3.9920001 -4.526 -0.94499999 37 23 20
-4.0219998 -4.559 -0.93800002 48 20 0
-4.0240002 -4.5479999 -0.94999999 39 17 4
-4.0219998 -4.553 -0.94999999 49 30 15
-4.0089998 -4.559 -0.95499998 112 92 81
-4.0100002 -4.5609999 -0.96600002 40 16 4
-4.0170002 -4.5349998 -0.96399999 50 31 25
-4.0190001 -4.5320001 -0.96399999 77 31 5
-3.9960001 -4.5689998 -0.80599999 159 88 26
-4.0050001 -4.5780001 -0.81199998 156 95 48
-4.0050001 -4.5320001 -0.80500001 166 94 10
-4.0110002 -4.533 -0.81400001 43 13 5
-4.033 -4.5450001 -0.81400001 144 97 69
-4.0190001 -4.5599999 -0.81099999 29 8 0
-4.0240002 -4.5640001 -0.81400001 74 7 0
-3.984 -4.546 -0.86000001 74 30 21
-3.9860001 -4.5450001 -0.85500002 75 40 21
-3.9849999 -4.546 -0.85900003 74 37 18
-3.9979999 -4.5409999 -0.85600001 63 43 34
-3.9790001 -4.5770001 -0.81900001 108 92 92
-3.967 -4.5619998 -0.82800001 224 144 47
-3.9679999 -4.5669999 -0.82300001 196 113 9
-3.9820001 -4.5770001 -0.82700002 59 28 10
-3.9879999 -4.5510001 -0.80199999 180 129 84
-3.9779999 -4.5469999 -0.82700002 115 88 67
-3.98 -4.5549998 -0.82800001 187 112 55
-3.9879999 -4.5419998 -0.83899999 172 98 59
-3.9860001 -4.5570002 -0.833 55 20 1
-3.984 -4.5469999 -0.81599998 82 40 16
-4.0079999 -4.5500002 -0.80500001 131 103 91
-3.994 -4.5339999 -0.815 148 70 24
-3.987 -4.539 -0.79900002 197 126 80
-3.98 -4.546 -0.88 41 5 0
-3.9790001 -4.546 -0.87099999 58 4 0
-3.984 -4.5409999 -0.88499999 146 106 81
-3.9909999 -4.5700002 -0.87699997 56 38 28
-4.0089998 -4.5310001 -0.824 85 31 7
-4.0180001 -4.5370002 -0.81900001 50 22 11
-4.0149999 -4.52 -0.99900001 19 0 0
-4.013 -4.5489998 -0.86799997 60 31 15
-4.0110002 -4.5510001 -0.87400001 72 43 25
-3.9679999 -4.5409999 -0.92799997 169 133 85
-3.98 -4.5349998 -0.92000002 79 50 32
-3.9949999 -4.5320001 -0.90799999 40 3 0
-3.9690001 -4.5640001 -0.92699999 147 109 88
-3.997 -4.552 -1.018 58 28 20
-4.0120001 -4.559 -1.015 107 45 8
-3.97 -4.5539999 -1.006 24 4 0
-3.98 -4.5320001 -1.029 38 19 5
-3.9860001 -4.5339999 -1.03 71 41 17
-4.0029998 -4.5359998 -1.03 79 34 13
-3.9979999 -4.5300002 -1.027 80 70 69
-3.987 -4.5320001 -1.018 32 3 0
-4.007 -4.5279999 -1.012 20 4 4
-4.0289998 -4.5440001 -1.0089999 130 73 30
-3.9809999 -4.5409999 -0.903 50 12 0
-3.9660001 -4.5599999 -0.91799998 88 36 14
-3.9779999 -4.5419998 -0.91500002 85 64 47
-3.9719999 -4.5549998 -0.97600001 30 2 0
-3.974 -4.559 -0.97500002 28 13 8
-3.9690001 -4.553 -0.97100002 33 5 2
-3.9760001 -4.5609999 -0.986 28 0 0
-4.027 -4.5510001 -1.0039999 130 73 44
-4.0009999 -4.5710001 -0.98799998 139 111 99
-3.964 -4.553 -0.95499998 101 63 54
-3.971 -4.5700002 -0.94400001 79 39 13
-3.9820001 -4.5770001 -0.926 52 14 1
-4.0019999 -4.5679998 -0.90200001 75 53 55
-4.0120001 -4.5650001 -0.912 50 7 0
-4.013 -4.5619998 -0.94400001 41 24 17
-4.0159998 -4.5650001 -0.94099998 75 37 18
-4.0100002 -4.5780001 -0.97299999 58 36 25
-4.0009999 -4.5689998 -0.96600002 43 19 9
-4.0050001 -4.5669999 -0.96799999 36 16 7
-4.0100002 -4.5739999 -0.97799999 42 20 7
-4.0190001 -4.5539999 -0.92400002 34 1 0
-3.993 -4.5900002 -0.95599997 49 50 44
-4.0009999 -4.5689998 -0.95099998 42 1 0
-4 -4.5669999 -0.95499998 25 1 0
-3.9860001 -4.5710001 -0.963 76 49 40
-4.0120001 -4.553 -1.017 102 56 22
-3.9679999 -4.5430002 -0.94700003 131 96 74
-3.9849999 -4.5310001 -0.94700003 29 9 2
-4.026 -4.5250001 -1.0039999 144 89 48
-4.0170002 -4.5229998 -1.0089999 35 6 0
-4.0209999 -4.5539999 -0.94499999 102 84 72
-4.0229998 -4.5430002 -0.94999999 126 78 40
-3.9860001 -4.5679998 -0.98299998 38 15 9
-3.9809999 -4.5650001 -0.98100001 65 35 27
-3.99 -4.52 -0.99199998 54 10 0
-3.9790001 -4.5640001 -0.97299999 32 3 0
-3.9960001 -4.5630002 -0.80299997 211 162 57
-4.0170002 -4.533 -0.88800001 18 14 11
-4.0180001 -4.5510001 -0.87400001 107 57 30
-4.013 -4.5489998 -0.86500001 72 50 36
-3.9990001 -4.5710001 -0.84100002 97 69 48
-4.0029998 -4.573 -0.86000001 43 22 19
-3.9990001 -4.5640001 -0.85299999 22 4 4
-3.9909999 -4.566 -0.84899998 104 52 31
-3.993 -4.5450001 -0.86900002 68 59 54
-3.9990001 -4.5409999 -0.85500002 20 1 0
-4.0149999 -4.5479999 -0.85399997 55 23 10
-3.993 -4.559 -0.84899998 42 21 2
-3.9920001 -4.5619998 -0.85100001 111 58 24
-3.9820001 -4.5780001 -0.81800002 86 34 0
-3.977 -4.5749998 -0.81999999 157 109 69
-3.9820001 -4.579 -0.82599998 157 136 119
-3.9860001 -4.5799999 -0.82800001 172 154 132
-3.9849999 -4.559 -0.80699998 36 8 0
-3.9790001 -4.553 -0.81999999 125 101 91
-3.974 -4.5570002 -0.82499999 223 134 44
-3.9879999 -4.539 -0.83999997 75 12 0
-3.9949999 -4.5370002 -0.83099997 51 33 31
-4.0050001 -4.54 -0.83499998 49 26 20
-4.0089998 -4.539 -0.81099999 44 16 5
-4.0050001 -4.5310001 -0.81099999 212 140 56
-4 -4.5370002 -0.80199999 254 208 131
-4.0040002 -4.5479999 -0.80599999 32 5 0
-4 -4.526 -0.81300002 85 28 1
-3.9879999 -4.54 -0.79799998 204 123 76
-3.9860001 -4.5380001 -0.801 157 67 5
-3.9960001 -4.5300002 -0.90899998 44 17 10
-3.994 -4.572 -0.87699997 66 47 33
-3.9860001 -4.5770001 -0.81400001 145 92 52
-4.0190001 -4.5760002 -0.81800002 212 154 114
-4.0190001 -4.579 -0.81999999 108 55 21
-3.987 -4.5560002 -0.85799998 45 10 0
-3.9960001 -4.5640001 -0.85500002 58 39 22
-4.0019999 -4.5640001 -0.861 63 43 36
-4.0009999 -4.5710001 -0.866 113 92 75
-4.02 -4.5430002 -0.82700002 246 176 107
-3.9749999 -4.54 -0.92400002 43 16 0
-3.99 -4.5339999 -0.917 63 33 25
-3.9679999 -4.5500002 -1.0089999 63 17 0
-3.984 -4.5609999 -1.017 30 6 0
-3.9690001 -4.553 -1.005 135 89 56
-3.967 -4.5500002 -0.99400002 54 27 16
-3.987 -4.539 -1.035 57 35 22
-3.9790001 -4.5450001 -1.03 69 33 19
-4.0279999 -4.5229998 -0.99800003 26 6 0
-4.0110002 -4.5640001 -0.97799999 20 1 0
-4.0110002 -4.5580001 -0.98500001 24 0 0
-4.0110002 -4.5609999 -0.97600001 79 57 44
-4.0110002 -4.5710001 -0.98400003 20 2 0
-4.0180001 -4.553 -1.005 127 67 39
-4.0219998 -4.552 -1.005 105 45 11
-4.0240002 -4.5489998 -0.95200002 114 89 82
-4.0149999 -4.5450001 -0.95899999 19 1 0
-4.0289998 -4.5500002 -1.008 90 75 68
-4.0079999 -4.566 -0.90100002 105 51 23
-4.007 -4.5630002 -0.88999999 49 30 16
-4.0089998 -4.5539999 -0.88599998 97 46 15
-4.006 -4.5679998 -0.91299999 68 25 16
-4.0089998 -4.5640001 -0.94599998 108 61 33
-3.9660001 -4.5469999 -0.95099998 23 10 4
-4.0170002 -4.5310001 -0.96899998 20 0 1
-4.0190001 -4.5650001 -0.94 48 10 0
-4.0079999 -4.5580001 -0.80800003 238 184 112
-4.013 -4.5770001 -0.81599998 97 66 45
-4.0170002 -4.533 -0.88800001 18 14 11
-4.0139999 -4.5479999 -0.85000002 54 14 4
-4.0159998 -4.5479999 -0.85000002 52 12 4
-4.0089998 -4.5570002 -0.87599999 43 15 3
-4.0289998 -4.5619998 -0.81699997 114 40 11
-4.0279999 -4.5640001 -0.81800002 65 6 0
-4.006 -4.5939999 -0.829 204 121 41
-4.0139999 -4.586 -0.83399999 216 147 72
-3.994 -4.553 -0.83999997 55 23 2
-3.9960001 -4.5370002 -0.80299997 63 35 24
-4.0180001 -4.5440001 -0.90799999 69 47 34
-4.0209999 -4.5419998 -0.917 55 26 10
-4.0190001 -4.5359998 -0.912 61 12 0
-4.0089998 -4.5209999 -0.92900002 57 35 24
-4.0100002 -4.5219998 -0.93900001 13 7 7
-4.0029998 -4.5650001 -0.89600003 72 47 43
-4.0190001 -4.5770001 -0.81900001 108 52 15
-4.0159998 -4.573 -0.815 183 110 59
-4.0190001 -4.5440001 -0.838 79 30 23
-4.0229998 -4.5419998 -0.99800003 78 30 16
-4.02 -4.5419998 -0.99599999 73 58 53
-4.0100002 -4.5250001 -0.93000001 31 12 5
-3.994 -4.5669999 -1.013 83 47 31
-3.98 -4.527 -0.98100001 140 114 91
-3.987 -4.5279999 -0.97100002 15 4 2
-3.973 -4.5489998 -0.98299998 43 15 12
-3.9749999 -4.5609999 -0.991 54 34 23
-3.98 -4.546 -1.025 41 4 0
-3.9849999 -4.5689998 -0.99599999 144 117 106
-4.0100002 -4.5570002 -0.97600001 81 49 26
-3.9809999 -4.5409999 -0.96200001 19 14 18
-3.971 -4.5469999 -0.95200002 42 15 8
-4.0040002 -4.5650001 -0.95099998 73 29 18
-3.971 -4.5479999 -0.95300001 62 27 7
-4.013 -4.5339999 -0.93000001 33 15 5
-4.0149999 -4.5209999 -0.954 30 13 0
-3.9979999 -4.5250001 -0.95599997 34 15 9
-3.993 -4.5320001 -0.95599997 11 2 5
-4.0100002 -4.5609999 -0.972 41 22 16
-3.9949999 -4.5890002 -0.95300001 51 49 50
-3.9949999 -4.5580001 -0.80299997 81 70 42
-4.013 -4.5710001 -0.81400001 202 130 48
-4.006 -4.5609999 -0.86699998 123 79 52
-4.0120001 -4.5539999 -0.866 44 11 2
-4.013 -4.5479999 -0.84399998 55 6 2
-4.0149999 -4.5500002 -0.85500002 50 13 5
-3.9890001 -4.579 -0.82999998 97 61 27
-4.013 -4.5279999 -0.91399997 37 23 20
-3.9890001 -4.5640001 -0.875 27 8 4
-3.987 -4.5450001 -0.85500002 79 42 24
-3.993 -4.5599999 -0.86000001 13 0 0
-4.0089998 -4.5549998 -0.861 55 17 0
-4.0029998 -4.5570002 -0.85600001 216 158 74
-4.007 -4.5349998 -0.82999998 71 37 35
-4.0190001 -4.5440001 -0.83499998 107 49 25
-4.0250001 -4.5370002 -0.99900001 44 1 0
-4.026 -4.5359998 -1.0039999 121 60 15
-4.0159998 -4.5609999 -0.92699999 84 33 14
-4.0180001 -4.5409999 -0.91100001 148 94 50
-3.984 -4.5240002 -0.98299998 100 82 68
-4.0040002 -4.5159998 -0.98799998 36 17 11
-3.9790001 -4.572 -0.92000002 51 23 2
-4.0279999 -4.5450001 -1.007 150 89 45
-4.0149999 -4.54 -0.96399999 20 2 0
-3.971 -4.552 -0.96600002 22 2 1
-3.9760001 -4.5500002 -0.96899998 15 1 0
-3.973 -4.5689998 -0.94700003 94 52 28
-4.0139999 -4.5630002 -0.90100002 138 86 64
-4.0219998 -4.5479999 -0.93300003 100 70 62
-4.0149999 -4.5190001 -0.95300001 24 0 0
-3.993 -4.5310001 -0.95200002 95 46 14
-3.9890001 -4.5689998 -0.97899997 26 7 3
-4.0029998 -4.5549998 -0.80699998 48 21 2
-4.0089998 -4.572 -0.81099999 184 138 79
-4.0250001 -4.5419998 -0.81800002 169 106 52
-4.0289998 -4.5469999 -0.81900001 102 47 8
-4.0279999 -4.5489998 -0.824 106 53 19
-4.007 -4.559 -0.88599998 41 13 2
-4.0040002 -4.5640001 -0.87300003 122 95 86
-4.0100002 -4.552 -0.88200003 85 32 1
-4.0019999 -4.5450001 -0.84299999 69 44 39
-4.0139999 -4.5510001 -0.85900003 63 26 17
-4.0139999 -4.5500002 -0.85500002 50 10 2
-4.0300002 -4.5619998 -0.81800002 101 37 1
-4.0289998 -4.5650001 -0.82200003 120 63 36
-4.0289998 -4.5640001 -0.82200003 106 40 6
-3.984 -4.579 -0.82200003 151 103 55
-3.99 -4.579 -0.81999999 115 74 44
-3.9960001 -4.5809999 -0.81599998 74 38 22
-3.9920001 -4.5780001 -0.83200002 139 99 63
-3.9879999 -4.573 -0.829 93 52 8
-3.9960001 -4.586 -0.83200002 61 31 5
-3.9949999 -4.5339999 -0.81199998 193 117 83
-4.0180001 -4.5380001 -0.90399998 169 116 84
-4.0149999 -4.5359998 -0.91500002 104 55 25
-3.9979999 -4.5289998 -0.92299998 25 7 0
-4.0229998 -4.5689998 -0.81900001 46 12 0
-4.0229998 -4.5710001 -0.82599998 133 98 66
-4.0029998 -4.5560002 -0.85100001 220 168 66
-4.0180001 -4.5440001 -0.83399999 78 16 3
-4.026 -4.5320001 -1.002 161 101 73
-3.9820001 -4.5580001 -1.017 48 25 9
-4.0040002 -4.5669999 -1.0140001 65 9 0
-3.993 -4.5289998 -0.97100002 25 5 0
-4.013 -4.5170002 -0.99199998 82 72 71
-4.0089998 -4.5170002 -0.98799998 55 17 6
-3.9809999 -4.5320001 -1.025 18 0 0
-4.0120001 -4.5510001 -0.99699998 39 6 1
-4.0120001 -4.5479999 -0.995 19 0 0
-3.9679999 -4.553 -0.96200001 23 0 0
-3.9920001 -4.5320001 -0.963 80 33 15
-3.9749999 -4.5440001 -0.91799998 53 26 7
-4.0029998 -4.5219998 -0.95700002 80 32 0
-4.0089998 -4.5219998 -0.96899998 130 110 101
-4.0079999 -4.5190001 -0.97500002 127 105 92
-4.0100002 -4.5570002 -0.97100002 58 28 17
-4.0100002 -4.5419998 -0.97500002 22 1 0
-4.0219998 -4.5430002 -0.82200003 223 155 74
-4.0139999 -4.5489998 -0.85600001 51 23 9
-4.0149999 -4.5630002 -0.82999998 158 91 21
-4.0100002 -4.572 -0.83399999 179 132 76
-4.0190001 -4.5700002 -0.83099997 73 39 2
-4.0079999 -4.5599999 -0.83399999 132 91 25
-3.9960001 -4.586 -0.82700002 77 41 15
-4.0029998 -4.5609999 -0.838 59 2 0
-3.9920001 -4.5679998 -0.87199998 102 81 64
-4.0209999 -4.5700002 -0.81800002 252 221 174
-4.02 -4.5760002 -0.829 180 107 28
-4.0180001 -4.5780001 -0.82700002 255 181 97
-4.0219998 -4.559 -0.82999998 45 34 32
-4.026 -4.5630002 -0.824 127 63 25
-4.013 -4.552 -0.86500001 46 12 3
-4.0120001 -4.5180001 -0.97100002 40 16 4
-4.0139999 -4.5279999 -0.98000002 81 44 26
-3.9719999 -4.552 -0.96399999 24 4 3
-4.02 -4.533 -0.98799998 22 3 0
-4.02 -4.527 -0.995 23 4 0
-4.0079999 -4.5500002 -0.97100002 62 28 19
-4.006 -4.5250001 -0.96499997 15 1 0
-4.0009999 -4.5799999 -0.82999998 152 99 45
-4.0149999 -4.5770001 -0.83600003 253 216 172
-4.0079999 -4.552 -0.84600002 87 14 0
-4.013 -4.5539999 -0.833 90 39 12
-4.0029998 -4.5819998 -0.81699997 180 141 110
-4.0149999 -4.5809999 -0.82599998 216 134 50
-4.006 -4.5770001 -0.83099997 175 137 54
-4.0170002 -4.5619998 -0.82999998 250 224 139
-4.0300002 -4.5560002 -0.82499999 255 193 112
-4.0100002 -4.5539999 -0.88 70 41 27
-4.0190001 -4.5450001 -0.83399999 136 69 27
-4.0190001 -4.553 -0.833 122 80 20
-3.9809999 -4.552 -1.0190001 86 35 4
-3.9920001 -4.5209999 -0.98000002 58 38 27
-3.971 -4.552 -0.95999998 22 1 0
-4.0029998 -4.5669999 -0.949 41 24 14
-4.0100002 -4.546 -0.98400003 53 28 21
-4.013 -4.5359998 -0.97799999 22 1 0
-4.0139999 -4.5349998 -0.97399998 24 0 2
-4.0139999 -4.5310001 -0.97600001 23 0 0
-4.0009999 -4.526 -0.95999998 8 0 0
-4.0149999 -4.5300002 -0.972 27 3 3
-4.0089998 -4.5510001 -0.85000002 57 0 0
-4.0180001 -4.5250001 -0.995 34 16 6
-3.994 -4.5500002 -0.80599999 38 9 1
-4.0139999 -4.5310001 -0.97899997 23 1 3
-3.9749999 -4.5710001 -0.94599998 115 79 53
0 0 0 1 0 0 0 1 0 0 0 1 0 0 0 0 0 612 1 0 0
