ply
format ascii 1.0
comment PCL generated
element vertex 76
property float x
property float y
property float z
property uchar red
property uchar green
property uchar blue
element camera 1
property float view_px
property float view_py
property float view_pz
property float x_axisx
property float x_axisy
property float x_axisz
property float y_axisx
property float y_axisy
property float y_axisz
property float z_axisx
property float z_axisy
property float z_axisz
property float focal
property float scalex
property float scaley
property float centerx
property float centery
property int viewportx
property int viewporty
property float k1
property float k2
end_header
7.3109999 6.7740002 -0.85299999 87 69 59
7.2979999 6.7670002 -0.84200001 95 45 8
7.2969999 6.7729998 -0.84100002 111 92 114
7.296 6.7740002 -0.84299999 164 120 75
7.3590002 6.7649999 -0.86400002 180 127 85
7.355 6.7579999 -0.84600002 167 107 57
7.349 6.7649999 -0.847 155 93 42
7.3460002 6.7709999 -0.85000002 137 131 165
7.3390002 6.7680001 -0.87599999 94 79 74
7.355 6.7589998 -0.87699997 95 75 76
7.3340001 6.7620001 -0.87599999 111 60 5
7.3039999 6.7729998 -0.85299999 124 87 45
7.3429999 6.7589998 -0.847 76 47 29
7.342 6.7620001 -0.85000002 140 129 125
7.3410001 6.7620001 -0.85100001 76 43 34
7.3520002 6.7449999 -0.87400001 114 96 96
7.335 6.7709999 -0.87 129 94 75
7.335 6.763 -0.86199999 144 87 32
7.3540001 6.7600002 -0.85299999 169 111 38
7.355 6.7589998 -0.85500002 175 118 73
7.3579998 6.7639999 -0.86699998 131 79 42
7.3600001 6.7620001 -0.866 138 133 189
7.3449998 6.7550001 -0.83999997 54 23 3
7.3039999 6.7540002 -0.87400001 161 120 66
7.2979999 6.763 -0.87699997 135 120 117
7.2930002 6.756 -0.88099998 86 70 70
7.2919998 6.7579999 -0.87400001 143 104 49
7.3340001 6.757 -0.84200001 158 115 70
7.3319998 6.7579999 -0.84799999 212 150 91
7.3340001 6.7540002 -0.83499998 152 135 127
7.309 6.7680001 -0.85600001 133 104 86
7.3460002 6.7670002 -0.87099999 70 56 53
7.3429999 6.7709999 -0.86400002 191 137 90
7.3369999 6.776 -0.87099999 113 102 96
7.3439999 6.7639999 -0.87599999 56 41 38
7.3530002 6.7620001 -0.85500002 120 89 68
7.3499999 6.7509999 -0.847 62 35 18
7.342 6.7740002 -0.85900003 173 144 126
7.3429999 6.7719998 -0.85600001 167 109 59
7.335 6.7729998 -0.86400002 89 78 72
7.335 6.7820001 -0.85900003 115 84 66
7.303 6.763 -0.87400001 192 138 76
7.3039999 6.7610002 -0.87099999 95 82 73
7.3540001 6.7459998 -0.86900002 128 95 78
7.3579998 6.7529998 -0.85600001 131 125 171
7.3460002 6.7459998 -0.86699998 78 60 58
7.3270001 6.7509999 -0.85299999 64 42 29
7.3169999 6.7449999 -0.84299999 117 88 72
7.3239999 6.7470002 -0.852 175 138 109
7.3410001 6.7480001 -0.84200001 115 71 22
7.3000002 6.7540002 -0.86500001 72 49 33
7.3000002 6.7610002 -0.86000001 169 112 67
7.2919998 6.7449999 -0.85399997 135 117 105
7.2979999 6.7529998 -0.86299998 136 120 107
7.3400002 6.7779999 -0.85900003 135 135 171
7.3400002 6.7719998 -0.86900002 115 88 71
7.3559999 6.7579999 -0.86900002 103 76 57
7.3460002 6.757 -0.875 81 63 63
7.3410001 6.7540002 -0.866 84 39 8
7.2940001 6.7470002 -0.86500001 169 137 116
7.3540001 6.7459998 -0.84899998 129 92 73
7.3559999 6.75 -0.85299999 82 50 27
7.3189998 6.7470002 -0.83999997 71 31 5
7.329 6.7509999 -0.847 91 37 0
7.303 6.7670002 -0.86000001 137 111 98
7.336 6.7740002 -0.85699999 101 69 46
7.335 6.75 -0.85399997 76 38 15
7.2940001 6.7470002 -0.85900003 197 140 71
7.323 6.744 -0.838 103 44 2
7.2969999 6.7459998 -0.85000002 129 92 47
7.3439999 6.7540002 -0.86799997 77 62 59
7.3499999 6.7410002 -0.85799998 127 92 73
7.3499999 6.7420001 -0.85399997 80 66 63
7.3460002 6.743 -0.84299999 117 72 41
7.3299999 6.7509999 -0.83899999 101 44 1
7.3460002 6.7470002 -0.85500002 74 63 59
0 0 0 1 0 0 0 1 0 0 0 1 0 0 0 0 0 76 1 0 0
