ply
format ascii 1.0
comment PCL generated
element vertex 1200
property float x
property float y
property float z
property uchar red
property uchar green
property uchar blue
element camera 0
property float view_px
property float view_py
property float view_pz
property float x_axisx
property float x_axisy
property float x_axisz
property float y_axisx
property float y_axisy
property float y_axisz
property float z_axisx
property float z_axisy
property float z_axisz
property float focal
property float scalex
property float scaley
property float centerx
property float centery
property int viewportx
property int viewporty
property float k1
property float k2
end_header
-0.38499999 10.347 -0.95499998 88 62 35
-0.377 10.364 -0.94800001 58 31 14
-0.36500001 10.372 -0.93400002 255 225 127
-0.37200001 10.371 -0.935 98 58 0
-0.373 10.372 -0.94 228 198 128
-0.25799999 10.399 -0.82700002 248 200 102
-0.259 10.397 -0.82200003 249 211 78
-0.255 10.411 -0.82300001 83 65 27
-0.25999999 10.397 -0.82599998 251 202 73
-0.26499999 10.39 -0.81699997 254 201 97
-0.26699999 10.384 -0.83700001 244 201 99
-0.271 10.385 -0.83700001 239 180 78
-0.34200001 10.601 -0.83399999 169 114 73
-0.34299999 10.613 -0.84299999 255 195 89
-0.345 10.6 -0.84500003 184 130 84
-0.23 10.503 -0.80400002 106 91 52
-0.20999999 10.485 -0.85799998 198 146 98
-0.39899999 10.358 -0.96799999 245 207 126
-0.40200001 10.347 -0.95899999 195 128 39
-0.40000001 10.355 -0.95999998 145 101 28
-0.398 10.354 -0.949 243 176 95
-0.42199999 10.541 -0.94999999 255 249 185
-0.42300001 10.529 -0.96499997 255 255 243
-0.41999999 10.544 -0.95300001 255 215 120
-0.47999999 10.589 -0.99000001 243 225 179
-0.294 10.591 -0.98000002 208 192 159
-0.287 10.588 -0.97799999 109 102 94
-0.289 10.583 -0.98100001 185 151 126
-0.322 10.653 -0.96899998 48 28 19
-0.329 10.649 -0.96700001 163 137 100
-0.31900001 10.644 -0.977 246 202 127
-0.329 10.644 -0.97000003 126 87 54
-0.47299999 10.607 -0.97899997 253 198 116
-0.47799999 10.597 -0.98500001 168 153 146
-0.50700003 10.646 -0.90399998 187 143 98
-0.5 10.632 -0.96700001 255 209 145
-0.50099999 10.642 -0.96700001 215 187 148
-0.498 10.639 -0.98199999 191 165 130
-0.50099999 10.637 -0.96100003 128 80 31
-0.49700001 10.632 -0.94700003 137 98 59
-0.48500001 10.577 -0.95700002 65 64 62
-0.493 10.579 -0.95899999 132 90 48
-0.479 10.592 -0.963 127 112 115
-0.48699999 10.574 -0.95300001 246 225 194
-0.49599999 10.643 -0.898 253 199 77
-0.23800001 10.493 -0.78500003 129 43 0
-0.447 10.684 -0.86299998 203 163 78
-0.44999999 10.682 -0.866 255 233 140
-0.233 10.494 -0.78299999 185 91 21
-0.287 10.748 -0.83899999 247 173 78
-0.324 10.626 -0.87300003 117 77 51
-0.315 10.625 -0.87900001 206 148 74
-0.31900001 10.637 -0.88300002 204 144 90
-0.28 10.75 -0.861 149 68 3
-0.28 10.747 -0.86199999 233 145 81
-0.354 10.599 -0.84399998 181 97 11
-0.28 10.76 -0.86799997 181 144 118
-0.28 10.768 -0.86699998 223 134 50
-0.278 10.76 -0.889 251 168 64
-0.26899999 10.392 -0.89300001 255 255 243
-0.27599999 10.346 -0.96899998 255 249 172
-0.28 10.346 -0.97899997 208 173 151
-0.27700001 10.337 -0.97399998 110 80 82
-0.377 10.346 -0.96200001 249 217 142
-0.50400001 10.644 -0.889 255 219 122
-0.50199997 10.632 -0.89899999 237 193 144
-0.5 10.634 -0.89899999 255 205 106
-0.486 10.63 -0.90799999 255 229 109
-0.49200001 10.638 -0.90700001 255 227 102
-0.498 10.637 -0.89399999 255 191 91
-0.27000001 10.403 -0.90600002 255 247 173
-0.27500001 10.411 -0.90200001 193 171 98
-0.28200001 10.401 -0.912 255 240 142
-0.27900001 10.409 -0.92799997 205 168 97
-0.24600001 10.552 -0.88599998 85 41 16
-0.244 10.552 -0.88599998 204 122 23
-0.249 10.55 -0.88099998 223 144 49
-0.214 10.49 -0.87 234 176 53
-0.37599999 10.365 -0.97299999 244 210 172
-0.36700001 10.38 -0.98799998 227 178 119
-0.273 10.392 -0.82999998 215 146 45
-0.26899999 10.39 -0.82599998 195 130 28
-0.266 10.4 -0.81599998 255 199 97
-0.273 10.699 -0.90799999 222 150 65
-0.26899999 10.706 -0.90499997 203 126 20
-0.26300001 10.695 -0.921 243 186 73
-0.345 10.604 -0.84299999 204 141 88
-0.322 10.631 -0.87900001 144 107 80
-0.227 10.494 -0.78600001 247 155 82
-0.226 10.492 -0.79000002 253 171 72
-0.226 10.496 -0.79400003 244 170 81
-0.212 10.485 -0.85600001 203 150 110
-0.21699999 10.49 -0.86299998 204 144 32
-0.39300001 10.371 -0.963 204 191 159
-0.301 10.576 -0.96600002 188 125 45
-0.354 10.425 -0.93699998 252 233 164
-0.352 10.435 -0.93000001 186 144 106
-0.35299999 10.442 -0.94300002 72 36 0
-0.35100001 10.443 -0.94599998 103 65 29
-0.26899999 10.641 -0.96399999 147 128 121
-0.264 10.634 -0.96100003 177 134 99
-0.27399999 10.63 -0.97000003 156 153 164
-0.292 10.758 -0.86799997 202 136 49
-0.28299999 10.755 -0.86299998 239 146 76
-0.317 10.634 -0.89300001 244 182 81
-0.315 10.62 -0.889 247 197 76
-0.31600001 10.62 -0.90799999 225 162 69
-0.31799999 10.63 -0.89300001 236 183 69
-0.317 10.634 -0.88599998 238 173 105
-0.273 10.612 -0.93900001 220 170 75
-0.27399999 10.709 -0.958 48 10 0
-0.27700001 10.703 -0.963 116 72 43
-0.27500001 10.706 -0.96100003 161 91 3
-0.48899999 10.588 -0.94999999 205 145 85
-0.484 10.587 -0.94300002 214 167 49
-0.48199999 10.596 -0.98500001 255 236 160
-0.48199999 10.596 -0.98000002 255 225 152
-0.414 10.555 -0.97799999 234 173 110
-0.41299999 10.55 -0.97500002 255 218 141
-0.39300001 10.557 -0.96899998 160 124 92
-0.315 10.625 -0.88099998 203 161 111
-0.27700001 10.623 -0.92900002 240 187 109
-0.493 10.638 -0.977 237 177 117
-0.433 10.536 -0.92199999 227 189 144
-0.43799999 10.533 -0.92400002 255 213 96
-0.42500001 10.533 -0.91100001 254 255 239
-0.43700001 10.533 -0.91600001 203 139 75
-0.48500001 10.604 -0.92900002 228 190 151
-0.48500001 10.61 -0.94400001 135 120 115
-0.486 10.603 -0.935 216 175 123
-0.47299999 10.613 -0.93400002 154 142 142
-0.47600001 10.583 -0.93599999 250 221 91
-0.47099999 10.587 -0.92400002 239 206 73
-0.472 10.583 -0.92299998 198 168 36
-0.44400001 10.701 -0.88700002 218 147 57
-0.454 10.702 -0.884 251 222 190
-0.233 10.49 -0.78399998 234 128 52
-0.34999999 10.608 -0.829 184 128 77
-0.25999999 10.397 -0.81900001 255 225 92
-0.26100001 10.399 -0.81599998 248 214 91
-0.25999999 10.404 -0.81599998 103 52 5
-0.25799999 10.409 -0.82700002 237 177 114
-0.29499999 10.749 -0.84600002 196 107 15
-0.294 10.752 -0.84799999 213 129 69
-0.32100001 10.618 -0.90100002 221 168 124
-0.31900001 10.626 -0.88700002 158 106 69
-0.345 10.608 -0.84600002 234 176 53
-0.26499999 10.745 -0.90600002 243 148 54
-0.26300001 10.743 -0.90499997 247 158 74
-0.26300001 10.748 -0.917 168 137 119
-0.26199999 10.737 -0.90499997 229 140 50
-0.322 10.426 -0.95700002 247 228 186
-0.31600001 10.429 -0.95899999 255 249 162
-0.32699999 10.421 -0.95899999 197 129 54
-0.31799999 10.423 -0.95099998 109 83 86
-0.27000001 10.389 -0.90100002 255 237 150
-0.27700001 10.385 -0.88499999 252 194 95
-0.27500001 10.386 -0.898 125 71 7
-0.26699999 10.402 -0.88200003 99 65 38
-0.266 10.414 -0.87599999 73 68 48
-0.264 10.409 -0.86799997 255 216 139
-0.273 10.342 -0.963 255 245 165
-0.273 10.354 -0.96899998 232 186 108
-0.27399999 10.356 -0.96200001 149 142 126
-0.27500001 10.35 -0.96200001 165 130 100
-0.26800001 10.412 -0.88999999 158 123 93
-0.273 10.422 -0.88700002 142 107 79
-0.27500001 10.409 -0.89600003 174 143 114
-0.278 10.413 -0.88099998 180 151 111
-0.27399999 10.409 -0.89200002 127 116 114
-0.28799999 10.342 -0.97299999 242 226 193
-0.35600001 10.371 -0.91600001 219 193 106
-0.36899999 10.377 -0.89999998 253 213 115
-0.36300001 10.37 -0.92199999 122 80 22
-0.35299999 10.378 -0.89899999 211 159 99
-0.278 10.407 -0.93000001 243 204 127
-0.28 10.402 -0.94599998 247 208 169
-0.278 10.397 -0.93199998 249 213 151
-0.20999999 10.485 -0.86400002 242 192 69
-0.22 10.492 -0.87 135 72 41
-0.22499999 10.503 -0.87599999 90 31 0
-0.234 10.508 -0.86500001 149 100 60
-0.248 10.494 -0.90200001 194 128 78
-0.244 10.5 -0.90499997 229 189 58
-0.242 10.497 -0.89999998 249 204 75
-0.25 10.497 -0.90499997 153 117 91
-0.45199999 10.688 -0.87900001 140 84 47
-0.45199999 10.682 -0.88300002 236 160 72
-0.45500001 10.681 -0.89399999 158 104 57
-0.442 10.679 -0.875 255 182 85
-0.49399999 10.64 -0.90499997 238 198 74
-0.28600001 10.401 -0.98199999 241 197 126
-0.28799999 10.405 -0.98299998 156 144 118
-0.27900001 10.397 -0.98000002 119 109 99
-0.285 10.393 -0.98400003 220 189 158
-0.29499999 10.38 -0.99199998 252 240 216
-0.29800001 10.384 -0.99000001 139 103 71
-0.29699999 10.384 -0.97899997 138 107 79
-0.252 10.722 -0.96399999 228 163 97
-0.24600001 10.734 -0.97100002 52 24 20
-0.248 10.73 -0.96200001 185 134 177
-0.25099999 10.73 -0.96600002 93 72 45
-0.248 10.73 -0.94700003 245 185 113
-0.31600001 10.445 -0.94499999 205 163 87
-0.317 10.456 -0.935 154 139 136
-0.31799999 10.449 -0.95200002 200 143 62
-0.32300001 10.459 -0.94599998 154 133 114
-0.27200001 10.427 -0.88499999 128 94 67
-0.31600001 10.452 -0.82200003 251 179 94
-0.31799999 10.45 -0.82099998 178 113 33
-0.31600001 10.453 -0.81999999 214 147 66
-0.37099999 10.366 -0.97299999 215 174 118
-0.37099999 10.377 -0.90200001 182 118 54
-0.373 10.379 -0.90899998 183 133 46
-0.37599999 10.371 -0.93599999 242 243 227
-0.38100001 10.374 -0.93300003 250 194 137
-0.317 10.439 -0.85699999 234 145 51
-0.32100001 10.438 -0.838 199 125 62
-0.32499999 10.436 -0.86199999 201 127 66
-0.43099999 10.544 -0.88300002 248 219 125
-0.43099999 10.543 -0.88499999 255 217 124
-0.42899999 10.544 -0.89099997 247 218 148
-0.43200001 10.549 -0.88300002 255 237 145
-0.34900001 10.596 -0.85900003 221 150 94
-0.35600001 10.595 -0.86199999 177 90 23
-0.271 10.708 -0.90600002 164 88 0
-0.271 10.703 -0.90700001 252 178 81
-0.27599999 10.714 -0.90799999 109 67 27
-0.264 10.699 -0.91900003 252 210 92
-0.345 10.6 -0.83899999 220 152 91
-0.345 10.609 -0.82700002 70 34 0
-0.347 10.618 -0.83399999 240 165 63
-0.345 10.615 -0.83999997 247 184 79
-0.34799999 10.61 -0.82700002 110 68 30
-0.229 10.493 -0.78500003 235 139 62
-0.233 10.49 -0.81900001 244 183 76
-0.23100001 10.478 -0.80900002 220 132 58
-0.233 10.478 -0.80900002 225 132 54
-0.396 10.363 -0.96399999 90 89 84
-0.396 10.359 -0.972 251 235 209
-0.38999999 10.363 -0.96600002 182 162 137
-0.37599999 10.367 -0.97399998 255 199 109
-0.38299999 10.359 -0.96799999 210 170 98
-0.38 10.376 -0.97299999 179 146 105
-0.36899999 10.44 -0.97299999 211 207 178
-0.37099999 10.442 -0.95700002 253 239 174
-0.36500001 10.449 -0.96200001 134 121 128
-0.35600001 10.437 -0.98100001 252 188 98
-0.35600001 10.442 -0.98799998 242 185 106
-0.36399999 10.448 -0.94800001 120 103 109
-0.36399999 10.454 -0.93099999 164 123 44
-0.35800001 10.441 -0.96200001 253 240 185
-0.37 10.431 -0.90799999 238 198 163
-0.36399999 10.426 -0.90600002 159 102 35
-0.37099999 10.41 -0.90799999 221 191 157
-0.287 10.403 -0.88099998 234 198 136
-0.352 10.434 -0.98500001 205 190 157
-0.29699999 10.391 -0.98000002 247 236 204
-0.32499999 10.459 -0.95099998 208 166 90
-0.32499999 10.455 -0.95200002 189 151 80
-0.33000001 10.428 -0.96600002 251 252 236
-0.35499999 10.426 -0.96399999 207 188 109
-0.354 10.426 -0.95999998 253 239 166
-0.32699999 10.423 -0.97100002 215 168 80
-0.331 10.418 -0.97899997 213 185 146
-0.33399999 10.427 -0.977 188 177 147
-0.329 10.436 -0.95499998 152 118 80
-0.32800001 10.432 -0.96100003 246 214 175
-0.32800001 10.432 -0.963 218 178 91
-0.331 10.433 -0.98100001 162 140 126
-0.32100001 10.431 -0.98100001 243 226 183
-0.329 10.44 -0.97600001 145 119 120
-0.324 10.424 -1.002 181 158 152
-0.255 10.739 -0.921 195 128 50
-0.25299999 10.735 -0.92799997 200 133 62
-0.25 10.744 -0.93900001 177 143 118
-0.249 10.739 -0.958 52 24 20
-0.248 10.732 -0.94499999 202 139 68
-0.324 10.627 -0.88200003 182 118 70
-0.324 10.629 -0.88 205 150 109
-0.27900001 10.613 -0.92900002 168 123 42
-0.28200001 10.608 -0.93400002 130 106 70
-0.259 10.703 -0.92500001 92 65 35
-0.25799999 10.69 -0.94199997 120 89 60
-0.26100001 10.698 -0.92500001 219 151 52
-0.271 10.712 -0.95899999 126 81 26
-0.27399999 10.719 -0.95099998 199 144 79
-0.285 10.693 -0.95899999 199 141 101
-0.26800001 10.7 -0.963 158 135 104
-0.28600001 10.684 -0.95899999 200 122 39
-0.28999999 10.685 -0.963 188 112 26
-0.285 10.696 -0.95499998 154 111 77
-0.48699999 10.603 -0.958 168 114 44
-0.48800001 10.606 -0.954 225 161 74
-0.493 10.604 -0.94999999 218 152 76
-0.49200001 10.593 -0.93699998 254 217 149
-0.48100001 10.592 -0.95200002 241 210 153
-0.42300001 10.545 -0.963 255 235 152
-0.42399999 10.534 -0.96899998 222 217 179
-0.42500001 10.545 -0.963 244 223 144
-0.398 10.561 -0.96700001 202 185 159
-0.31299999 10.622 -0.92000002 253 191 82
-0.31099999 10.619 -0.92199999 223 163 51
-0.317 10.617 -0.90799999 236 167 64
-0.31099999 10.613 -0.92799997 255 198 95
-0.32600001 10.627 -0.903 208 134 63
-0.29899999 10.608 -0.95099998 255 212 125
-0.294 10.616 -0.963 252 236 200
-0.294 10.609 -0.96100003 184 128 45
-0.324 10.636 -0.97899997 204 188 154
-0.31400001 10.645 -0.977 125 118 110
-0.278 10.639 -0.95899999 124 113 127
-0.377 10.602 -0.96399999 156 122 87
-0.37400001 10.606 -0.96499997 255 196 120
-0.29800001 10.575 -0.97000003 80 73 63
-0.40000001 10.578 -0.96899998 253 221 174
-0.39500001 10.578 -0.96600002 253 203 140
-0.41100001 10.572 -0.96399999 246 236 200
-0.41800001 10.572 -0.96499997 189 141 79
-0.39700001 10.575 -0.95099998 205 154 88
-0.39700001 10.575 -0.954 160 125 93
-0.39899999 10.571 -0.95200002 185 145 109
-0.37099999 10.601 -0.94800001 255 208 121
-0.37799999 10.599 -0.94999999 132 99 68
-0.48300001 10.597 -0.97100002 217 186 157
-0.31600001 10.43 -0.94800001 253 229 139
-0.317 10.43 -0.95099998 253 229 133
-0.317 10.433 -0.95300001 217 153 89
-0.49900001 10.648 -0.95499998 255 209 143
-0.50400001 10.645 -0.92299998 166 105 60
-0.49900001 10.643 -0.93300003 252 192 82
-0.50099999 10.649 -0.92299998 165 124 94
-0.50999999 10.642 -0.921 160 133 112
-0.50800002 10.632 -0.92000002 223 148 106
-0.50199997 10.634 -0.917 207 141 65
-0.49599999 10.634 -0.92799997 215 180 140
-0.50599998 10.644 -0.91900003 236 173 104
-0.49700001 10.634 -0.93400002 155 99 48
-0.433 10.553 -0.96799999 150 120 70
-0.43399999 10.537 -0.96399999 255 209 135
-0.43399999 10.555 -0.96600002 239 222 194
-0.433 10.541 -0.954 224 171 95
-0.428 10.534 -0.96499997 130 102 91
-0.50199997 10.631 -0.90600002 184 121 28
-0.46700001 10.61 -0.93400002 157 120 93
-0.47499999 10.606 -0.954 126 114 116
-0.47099999 10.599 -0.94599998 184 158 131
-0.47799999 10.611 -0.95300001 194 125 48
-0.47999999 10.615 -0.94599998 146 120 95
-0.48100001 10.587 -0.93699998 231 201 165
-0.48100001 10.586 -0.92500001 255 208 147
-0.48699999 10.59 -0.92699999 236 181 127
-0.43599999 10.542 -0.89200002 255 233 100
-0.43700001 10.543 -0.87699997 255 228 98
-0.45300001 10.688 -0.889 255 179 93
-0.45500001 10.688 -0.89600003 160 138 115
-0.454 10.692 -0.89300001 210 128 46
-0.44400001 10.697 -0.87800002 208 169 138
-0.50400001 10.648 -0.90799999 140 93 49
-0.32100001 10.663 -0.95899999 196 128 55
-0.491 10.643 -0.98000002 222 192 164
-0.352 10.609 -0.83499998 118 51 0
-0.26199999 10.399 -0.81599998 244 179 99
-0.28999999 10.749 -0.84899998 231 149 67
-0.28999999 10.746 -0.85900003 222 126 49
-0.292 10.75 -0.83700001 211 137 52
-0.32100001 10.629 -0.90100002 241 182 124
-0.26800001 10.746 -0.90600002 202 109 16
-0.27500001 10.754 -0.89200002 226 139 36
-0.317 10.431 -0.94499999 226 163 92
-0.32499999 10.425 -0.94499999 132 101 72
-0.27500001 10.387 -0.88599998 242 198 109
-0.28 10.384 -0.88800001 216 153 82
-0.27000001 10.39 -0.852 255 233 105
-0.26699999 10.402 -0.898 131 96 66
-0.27900001 10.347 -0.958 90 63 44
-0.28 10.352 -0.95899999 114 79 51
-0.27700001 10.339 -0.96200001 236 218 156
-0.294 10.34 -0.95700002 77 45 0
-0.28400001 10.343 -0.95899999 254 233 166
-0.28200001 10.403 -0.87400001 110 70 8
-0.29699999 10.422 -0.88300002 254 252 239
-0.303 10.428 -0.87800002 242 196 134
-0.30000001 10.424 -0.88499999 131 103 99
-0.27399999 10.392 -0.852 232 157 55
-0.27399999 10.392 -0.84899998 231 145 46
-0.28999999 10.344 -0.96499997 204 181 147
-0.28600001 10.35 -0.96600002 253 234 201
-0.28799999 10.355 -0.95999998 156 128 106
-0.35499999 10.381 -0.91600001 250 230 117
-0.35600001 10.381 -0.912 255 233 124
-0.36000001 10.378 -0.926 248 237 175
-0.35499999 10.385 -0.921 237 211 136
-0.221 10.489 -0.88200003 253 182 66
-0.23999999 10.5 -0.89399999 201 136 80
-0.21699999 10.495 -0.87900001 233 160 31
-0.21600001 10.49 -0.87699997 225 166 108
-0.21799999 10.489 -0.87099999 218 150 101
-0.22 10.488 -0.87800002 253 183 71
-0.23800001 10.502 -0.86500001 200 160 90
-0.23800001 10.497 -0.866 249 192 59
-0.26899999 10.417 -0.86799997 255 190 98
-0.27000001 10.417 -0.85500002 152 118 81
-0.26699999 10.421 -0.86900002 163 134 128
-0.28 10.414 -0.83899999 245 184 34
-0.273 10.414 -0.85299999 255 181 83
-0.278 10.406 -0.84399998 245 199 44
-0.28299999 10.412 -0.83899999 247 190 39
-0.26699999 10.418 -0.852 247 155 52
-0.26800001 10.414 -0.85600001 178 132 99
-0.50300002 10.646 -0.89200002 246 194 92
-0.49599999 10.643 -0.90200001 246 196 73
-0.294 10.385 -0.986 211 199 175
-0.29499999 10.385 -0.97799999 246 245 224
-0.35699999 10.378 -0.96700001 249 239 204
-0.27900001 10.391 -0.93400002 255 243 167
-0.285 10.381 -0.95200002 253 216 171
-0.28 10.387 -0.954 252 233 157
-0.28400001 10.378 -0.95499998 250 214 128
-0.285 10.363 -0.95999998 220 205 166
-0.28999999 10.377 -0.95899999 249 250 232
-0.278 10.397 -0.95300001 163 120 85
-0.27200001 10.393 -0.95999998 222 167 111
-0.28600001 10.408 -0.958 133 106 77
-0.292 10.407 -0.954 225 197 160
-0.292 10.41 -0.96200001 249 250 234
-0.241 10.529 -0.90200001 124 103 102
-0.233 10.524 -0.89200002 253 182 58
-0.23899999 10.51 -0.903 234 166 67
-0.26899999 10.647 -0.94499999 198 165 120
-0.28200001 10.682 -0.95300001 141 88 46
-0.26100001 10.69 -0.95099998 238 182 121
-0.25 10.729 -0.95599997 108 86 62
-0.219 10.498 -0.87699997 246 178 51
-0.23800001 10.537 -0.90100002 242 177 83
-0.235 10.533 -0.89499998 235 173 62
-0.237 10.53 -0.89099997 254 191 60
-0.271 10.523 -0.96200001 249 210 133
-0.27200001 10.526 -0.96700001 255 218 117
-0.26899999 10.526 -0.96499997 151 144 136
-0.315 10.44 -0.92299998 109 75 50
-0.32100001 10.438 -0.92900002 188 129 73
-0.31799999 10.433 -0.91900003 248 235 193
-0.28099999 10.408 -0.95599997 84 43 0
-0.249 10.502 -0.91100001 255 237 114
-0.27200001 10.425 -0.88499999 237 168 90
-0.27399999 10.43 -0.87800002 173 136 94
-0.31999999 10.444 -0.81999999 217 150 61
-0.31200001 10.445 -0.84100002 130 109 88
-0.31999999 10.449 -0.82499999 255 182 88
-0.31999999 10.447 -0.82700002 247 161 50
-0.31900001 10.447 -0.82300001 227 139 33
-0.27599999 10.403 -0.83399999 239 189 128
-0.28 10.396 -0.85600001 231 184 112
-0.27599999 10.393 -0.85399997 255 236 120
-0.32300001 10.45 -0.84500003 189 104 0
-0.322 10.452 -0.83700001 232 148 34
-0.31999999 10.446 -0.83999997 206 124 50
-0.366 10.385 -0.90200001 205 154 99
-0.36399999 10.389 -0.89999998 193 163 113
-0.361 10.393 -0.90399998 255 237 153
-0.264 10.401 -0.815 177 127 56
-0.27200001 10.407 -0.82499999 254 216 69
-0.322 10.452 -0.833 230 146 32
-0.25999999 10.398 -0.852 189 138 73
-0.26100001 10.415 -0.84500003 161 125 99
-0.264 10.408 -0.86500001 228 175 105
-0.25999999 10.391 -0.86000001 162 120 36
-0.26800001 10.42 -0.838 219 167 120
-0.26699999 10.411 -0.82700002 221 147 42
-0.37 10.369 -0.97600001 227 174 108
-0.368 10.375 -0.92799997 206 166 97
-0.31900001 10.438 -0.86000001 213 142 62
-0.32300001 10.437 -0.86699998 195 155 94
-0.31299999 10.442 -0.85100001 248 219 81
-0.26300001 10.396 -0.82700002 251 196 51
-0.26199999 10.394 -0.83600003 252 199 67
-0.259 10.395 -0.83999997 248 198 111
-0.25999999 10.397 -0.83700001 249 195 95
-0.26100001 10.394 -0.847 244 190 81
-0.259 10.407 -0.84100002 194 130 82
-0.26800001 10.526 -0.90200001 117 97 98
-0.28099999 10.521 -0.90200001 75 57 57
-0.27900001 10.52 -0.90899998 228 192 132
-0.26300001 10.528 -0.926 251 208 95
-0.26699999 10.519 -0.912 224 186 141
-0.257 10.527 -0.912 94 93 75
-0.27599999 10.5 -0.89700001 222 174 126
-0.28 10.494 -0.90899998 152 78 0
-0.28099999 10.491 -0.88999999 252 176 80
-0.27700001 10.49 -0.89899999 225 147 39
-0.347 10.599 -0.866 143 86 33
-0.347 10.598 -0.86900002 239 186 132
-0.43200001 10.557 -0.884 164 112 75
-0.433 10.558 -0.87599999 255 233 151
-0.31900001 10.459 -0.93099999 249 214 156
-0.32300001 10.458 -0.935 156 138 118
-0.317 10.457 -0.90399998 250 212 150
-0.31799999 10.451 -0.90799999 254 225 165
-0.31299999 10.453 -0.89200002 163 110 66
-0.31600001 10.455 -0.91500002 247 226 199
-0.31900001 10.463 -0.89300001 223 154 59
-0.30899999 10.468 -0.875 116 70 46
-0.28 10.479 -0.88800001 228 159 81
-0.273 10.479 -0.88999999 223 180 86
-0.27399999 10.48 -0.898 224 180 91
-0.235 10.505 -0.88 84 51 34
-0.27399999 10.741 -0.92699999 250 151 50
-0.27700001 10.738 -0.90600002 236 168 93
-0.27599999 10.752 -0.91500002 246 153 49
-0.27200001 10.747 -0.92400002 227 126 20
-0.273 10.746 -0.91900003 200 105 0
-0.266 10.706 -0.91100001 252 192 72
-0.345 10.606 -0.83899999 226 153 85
-0.345 10.608 -0.83399999 196 127 60
-0.345 10.608 -0.83700001 195 120 52
-0.324 10.635 -0.88 202 154 118
-0.43799999 10.697 -0.89300001 254 199 116
-0.44400001 10.699 -0.89099997 216 139 57
-0.449 10.696 -0.91299999 134 66 3
-0.32300001 10.647 -0.88999999 254 190 93
-0.234 10.486 -0.81300002 250 175 82
-0.236 10.488 -0.81599998 237 194 90
-0.214 10.474 -0.85500002 197 145 97
-0.23100001 10.499 -0.847 229 169 59
-0.243 10.522 -0.86500001 211 144 92
-0.23999999 10.512 -0.86400002 244 191 113
-0.242 10.511 -0.861 211 136 55
-0.249 10.519 -0.86299998 219 142 60
-0.39399999 10.35 -0.95599997 254 212 138
-0.38 10.36 -0.96399999 218 180 118
-0.37799999 10.364 -0.96200001 251 185 99
-0.37599999 10.383 -0.98900002 250 247 240
-0.377 10.387 -0.98299998 244 244 236
-0.38999999 10.368 -0.96200001 110 100 108
-0.384 10.379 -0.94700003 143 128 97
-0.38499999 10.382 -0.95200002 241 227 182
-0.384 10.381 -0.94400001 198 171 90
-0.382 10.383 -0.94499999 253 229 141
-0.28600001 10.574 -0.949 247 182 114
-0.28799999 10.581 -0.95200002 245 186 118
-0.28600001 10.588 -0.95099998 135 125 124
-0.27599999 10.539 -0.95499998 255 240 137
-0.273 10.541 -0.94700003 255 232 142
-0.27000001 10.545 -0.954 213 202 184
-0.25999999 10.528 -0.95999998 255 215 135
-0.26199999 10.53 -0.96100003 201 155 77
-0.25999999 10.533 -0.95999998 245 198 106
-0.26300001 10.54 -0.96499997 183 130 80
-0.27500001 10.621 -0.96799999 183 124 58
-0.26300001 10.535 -0.95599997 255 229 112
-0.255 10.53 -0.91600001 60 40 39
-0.273 10.541 -0.94300002 146 126 119
-0.278 10.598 -0.95300001 255 225 190
-0.28299999 10.601 -0.95999998 227 179 103
-0.28799999 10.595 -0.95499998 200 138 81
-0.331 10.433 -0.97100002 125 84 5
-0.32699999 10.444 -0.963 253 233 136
-0.433 10.542 -0.89300001 225 166 76
-0.36500001 10.449 -0.91900003 111 93 93
-0.368 10.449 -0.917 255 231 141
-0.35800001 10.447 -0.912 105 76 36
-0.36300001 10.437 -0.90399998 166 131 50
-0.368 10.425 -0.91299999 250 230 179
-0.32300001 10.45 -0.85000002 209 120 18
-0.33000001 10.458 -0.85600001 253 226 109
-0.32300001 10.449 -0.85399997 213 115 16
-0.361 10.378 -0.90499997 90 50 0
-0.28200001 10.399 -0.90399998 218 157 90
-0.28799999 10.394 -0.91000003 244 227 184
-0.28 10.395 -0.92400002 240 227 195
-0.28400001 10.397 -0.91100001 243 225 123
-0.28600001 10.402 -0.91100001 108 68 17
-0.324 10.446 -0.93599999 199 150 71
-0.324 10.446 -0.935 121 75 15
-0.361 10.43 -0.958 219 153 75
-0.36000001 10.431 -0.96899998 253 186 99
-0.35699999 10.397 -0.94800001 149 130 123
-0.36199999 10.391 -0.935 228 213 128
-0.36000001 10.392 -0.94599998 168 122 62
-0.36300001 10.396 -0.94099998 241 221 134
-0.359 10.384 -0.93199998 131 95 63
-0.35800001 10.378 -0.94099998 252 244 169
-0.359 10.431 -0.97000003 255 238 151
-0.32499999 10.417 -0.977 223 163 77
-0.32699999 10.413 -0.98400003 223 217 191
-0.36199999 10.453 -0.958 255 248 211
-0.32699999 10.443 -0.97100002 235 176 76
-0.30000001 10.574 -0.95999998 255 224 143
-0.29800001 10.594 -0.96100003 209 162 74
-0.29300001 10.595 -0.96700001 151 134 104
-0.32100001 10.423 -0.99599999 124 113 93
-0.32699999 10.415 -1.0039999 158 149 144
-0.32100001 10.424 -0.98799998 220 159 76
-0.31999999 10.43 -0.97100002 181 115 39
-0.31900001 10.442 -0.97100002 255 205 103
-0.32499999 10.419 -0.99699998 251 189 112
-0.32800001 10.432 -0.95899999 164 129 39
-0.317 10.44 -0.95700002 237 197 110
-0.31600001 10.437 -0.94999999 206 138 65
-0.31999999 10.444 -0.95599997 212 187 156
-0.32600001 10.44 -0.93900001 186 139 59
-0.36500001 10.397 -0.90799999 102 59 16
-0.24699999 10.737 -0.96899998 124 88 62
-0.27500001 10.697 -0.91000003 230 157 78
-0.27500001 10.741 -0.912 143 104 73
-0.27599999 10.749 -0.91000003 250 163 60
-0.28299999 10.757 -0.87300003 225 133 32
-0.27900001 10.755 -0.89700001 206 115 22
-0.273 10.712 -0.90700001 152 114 65
-0.271 10.714 -0.90600002 255 176 85
-0.35800001 10.6 -0.85299999 173 97 37
-0.35600001 10.601 -0.84500003 162 95 52
-0.324 10.636 -0.88999999 235 165 105
-0.32800001 10.647 -0.89300001 193 127 69
-0.28200001 10.618 -0.93099999 206 153 87
-0.29300001 10.618 -0.94400001 240 176 76
-0.26699999 10.615 -0.95099998 215 176 71
-0.27200001 10.627 -0.958 125 122 133
-0.26699999 10.631 -0.954 153 119 82
-0.27000001 10.626 -0.95099998 254 225 108
-0.259 10.712 -0.93199998 207 148 56
-0.264 10.697 -0.92500001 254 185 81
-0.266 10.696 -0.93400002 119 93 58
-0.264 10.705 -0.93099999 244 174 78
-0.264 10.734 -0.958 123 90 71
-0.28299999 10.685 -0.954 221 179 137
-0.27599999 10.701 -0.94499999 182 113 18
-0.28999999 10.68 -0.95300001 197 174 42
-0.27599999 10.713 -0.94499999 211 153 90
-0.48199999 10.623 -0.94599998 126 83 41
-0.47999999 10.619 -0.95700002 102 77 72
-0.41100001 10.575 -0.95999998 248 233 194
-0.491 10.595 -0.94700003 254 210 139
-0.48199999 10.603 -0.96700001 230 209 182
-0.48100001 10.605 -0.95999998 198 175 144
-0.47999999 10.605 -0.97399998 193 146 78
-0.477 10.598 -0.958 111 60 0
-0.47299999 10.594 -0.94800001 121 74 18
-0.48199999 10.596 -0.96799999 133 97 101
-0.29699999 10.609 -0.94599998 132 118 117
-0.301 10.593 -0.93199998 233 162 48
-0.29699999 10.592 -0.93800002 142 116 91
-0.296 10.582 -0.93599999 124 80 33
-0.30500001 10.578 -0.949 173 121 71
-0.30700001 10.584 -0.94300002 194 140 94
-0.30500001 10.581 -0.94199997 220 166 122
-0.27000001 10.628 -0.93599999 46 23 15
-0.27599999 10.635 -0.93099999 211 165 116
-0.278 10.634 -0.93099999 142 92 23
-0.28 10.651 -0.93400002 165 128 84
-0.37099999 10.61 -0.963 222 186 136
-0.37099999 10.614 -0.96200001 182 142 90
-0.36899999 10.611 -0.95499998 246 217 149
-0.45899999 10.64 -0.97399998 211 195 170
-0.454 10.645 -0.97000003 161 151 152
-0.46599999 10.641 -0.97299999 180 122 49
-0.29100001 10.626 -0.963 252 189 96
-0.317 10.622 -0.91299999 219 155 58
-0.30700001 10.674 -0.94999999 255 191 81
-0.30500001 10.68 -0.95599997 251 194 81
-0.292 10.628 -0.95700002 184 138 86
-0.29300001 10.626 -0.96100003 225 177 92
-0.29800001 10.673 -0.95999998 216 151 51
-0.30000001 10.684 -0.96200001 255 199 91
-0.30399999 10.663 -0.96700001 255 206 133
-0.308 10.671 -0.963 236 179 89
-0.37900001 10.604 -0.95999998 127 76 29
-0.39500001 10.564 -0.96700001 249 250 234
-0.41299999 10.579 -0.963 255 244 186
-0.40200001 10.584 -0.95999998 110 67 25
-0.27900001 10.63 -0.93099999 250 187 81
-0.317 10.433 -0.94400001 198 143 76
-0.50999999 10.642 -0.91100001 168 138 112
-0.50099999 10.642 -0.92900002 253 192 109
-0.48699999 10.632 -0.917 205 167 58
-0.495 10.637 -0.95700002 161 129 106
-0.491 10.637 -0.94700003 238 219 127
-0.47999999 10.65 -0.96700001 186 152 124
-0.495 10.634 -0.95700002 202 143 75
-0.49200001 10.633 -0.96100003 189 137 79
-0.359 10.38 -0.935 241 231 159
-0.36000001 10.369 -0.92400002 228 203 163
-0.32499999 10.438 -0.91100001 194 128 76
-0.322 10.445 -0.91299999 239 215 167
-0.32300001 10.441 -0.921 212 148 87
-0.31999999 10.447 -0.90799999 253 235 173
-0.36000001 10.406 -0.91399997 219 192 105
-0.42899999 10.538 -0.96499997 254 240 193
-0.43099999 10.556 -0.96100003 231 211 152
-0.41600001 10.557 -0.97100002 92 63 67
-0.43000001 10.547 -0.958 253 228 164
-0.42899999 10.539 -0.94400001 242 223 154
-0.42699999 10.542 -0.94 255 244 165
-0.44499999 10.538 -0.93199998 124 84 48
-0.50199997 10.631 -0.903 249 203 107
-0.50400001 10.632 -0.90700001 248 188 115
-0.43900001 10.558 -0.87300003 121 54 0
-0.44299999 10.563 -0.88800001 234 208 69
-0.44800001 10.548 -0.88 129 80 47
-0.435 10.552 -0.87 255 236 148
-0.43599999 10.547 -0.86500001 201 160 78
-0.43700001 10.549 -0.86900002 184 144 56
-0.43799999 10.545 -0.86699998 252 195 106
-0.43799999 10.562 -0.88300002 235 207 81
-0.44600001 10.556 -0.92500001 249 224 79
-0.44800001 10.558 -0.93000001 247 224 86
-0.43799999 10.545 -0.89200002 221 152 59
-0.44 10.545 -0.884 211 140 50
-0.44 10.543 -0.87199998 219 158 65
-0.37 10.441 -0.95700002 237 209 172
-0.38299999 10.376 -0.94 205 138 59
-0.384 10.381 -0.93599999 194 171 127
-0.46000001 10.687 -0.90799999 126 81 50
-0.456 10.676 -0.90700001 209 136 57
-0.454 10.684 -0.92900002 191 149 99
-0.45100001 10.678 -0.90499997 223 155 72
-0.44299999 10.696 -0.87400001 74 25 0
-0.44 10.693 -0.88 222 167 67
-0.49700001 10.643 -0.92900002 253 194 94
-0.498 10.643 -0.93599999 157 140 130
-0.44299999 10.679 -0.89700001 255 194 88
-0.296 10.69 -0.96499997 141 100 68
-0.30599999 10.691 -0.96200001 62 21 0
-0.49399999 10.64 -0.96899998 250 194 107
-0.49599999 10.634 -0.96499997 204 145 87
-0.37099999 10.617 -0.96100003 216 176 117
-0.37099999 10.612 -0.95200002 253 220 139
-0.463 10.653 -0.97600001 164 147 121
-0.46200001 10.658 -0.96899998 251 190 127
-0.46200001 10.646 -0.97100002 190 140 53
-0.48300001 10.628 -0.95700002 172 148 114
-0.48100001 10.624 -0.95599997 123 108 105
-0.345 10.609 -0.85000002 248 192 73
-0.34599999 10.604 -0.87199998 246 201 82
-0.227 10.48 -0.80199999 160 99 54
-0.227 10.476 -0.80599999 150 80 20
-0.242 10.481 -0.80800003 196 119 41
-0.234 10.487 -0.79100001 233 153 56
-0.237 10.49 -0.787 227 146 55
-0.28999999 10.753 -0.847 226 138 48
-0.41299999 10.574 -0.94 228 192 140
-0.41499999 10.572 -0.93900001 159 116 63
-0.414 10.57 -0.935 185 135 76
-0.26899999 10.716 -0.90700001 214 128 25
-0.26800001 10.711 -0.90700001 213 162 117
-0.259 10.717 -0.91299999 235 160 58
-0.266 10.712 -0.90799999 201 123 14
-0.27200001 10.736 -0.89899999 255 191 106
-0.27200001 10.727 -0.90600002 212 120 35
-0.26699999 10.745 -0.903 216 130 45
-0.26300001 10.744 -0.91100001 235 166 75
-0.25999999 10.737 -0.91399997 255 201 103
-0.28999999 10.392 -0.90700001 126 70 11
-0.28999999 10.395 -0.88800001 240 205 147
-0.278 10.401 -0.92900002 237 197 125
-0.28 10.393 -0.93199998 250 211 154
-0.285 10.391 -0.949 116 97 83
-0.28799999 10.396 -0.958 113 91 93
-0.359 10.418 -0.93199998 246 233 180
-0.361 10.416 -0.93900001 250 233 141
-0.31900001 10.43 -0.94499999 249 191 109
-0.32699999 10.431 -0.954 125 91 28
-0.27599999 10.395 -0.90700001 234 195 118
-0.278 10.395 -0.92799997 250 209 143
-0.27599999 10.387 -0.88800001 250 242 131
-0.289 10.338 -0.95999998 155 120 90
-0.28600001 10.34 -0.96499997 130 123 105
-0.28299999 10.339 -0.96399999 253 239 212
-0.28099999 10.338 -0.97100002 212 207 115
-0.28 10.384 -0.884 209 142 71
-0.28099999 10.398 -0.87099999 234 220 113
-0.28099999 10.397 -0.86400002 242 199 131
-0.27399999 10.389 -0.903 252 235 131
-0.28200001 10.389 -0.898 148 85 18
-0.278 10.404 -0.86900002 248 192 105
-0.264 10.398 -0.86699998 225 187 112
-0.273 10.399 -0.83999997 224 173 110
-0.27500001 10.398 -0.84899998 175 94 12
-0.354 10.392 -0.90899998 183 127 66
-0.287 10.347 -0.95899999 181 155 96
-0.27599999 10.345 -0.96100003 199 180 101
-0.223 10.489 -0.87400001 237 164 95
-0.21600001 10.487 -0.884 254 193 87
-0.23999999 10.495 -0.89399999 246 176 116
-0.23999999 10.5 -0.90100002 255 191 67
-0.25600001 10.414 -0.83099997 122 87 67
-0.449 10.696 -0.87099999 240 171 80
-0.44999999 10.689 -0.87199998 200 162 65
-0.35299999 10.626 -0.85600001 245 186 92
-0.361 10.372 -0.95200002 243 237 153
-0.36700001 10.374 -0.94599998 255 245 137
-0.28600001 10.402 -0.97500002 185 142 87
-0.29300001 10.402 -0.98000002 252 251 233
-0.285 10.355 -0.958 253 236 208
-0.28400001 10.383 -0.95899999 235 230 200
-0.28400001 10.357 -0.972 252 243 212
-0.252 10.542 -0.88800001 104 77 60
-0.26300001 10.685 -0.94199997 230 161 58
-0.27700001 10.667 -0.94499999 251 208 103
-0.27599999 10.669 -0.95099998 188 136 35
-0.227 10.49 -0.87599999 211 179 130
-0.266 10.52 -0.92000002 241 218 106
-0.26899999 10.516 -0.92299998 132 127 133
-0.278 10.538 -0.93199998 250 225 122
-0.27200001 10.51 -0.91100001 194 124 72
-0.271 10.511 -0.90200001 182 109 54
-0.27200001 10.514 -0.91500002 236 203 149
-0.31999999 10.44 -0.93099999 167 152 147
-0.31600001 10.44 -0.91900003 101 72 76
-0.31400001 10.439 -0.89600003 209 174 120
-0.31600001 10.453 -0.921 253 193 97
-0.31799999 10.446 -0.912 255 190 98
-0.28099999 10.406 -0.97000003 255 243 217
-0.31600001 10.435 -0.949 251 237 148
-0.25600001 10.527 -0.954 252 204 130
-0.31200001 10.446 -0.88499999 245 194 128
-0.31099999 10.456 -0.88 136 85 40
-0.31200001 10.447 -0.88300002 120 72 0
-0.257 10.489 -0.88099998 161 126 86
-0.27700001 10.476 -0.87900001 175 116 40
-0.26899999 10.486 -0.89700001 124 75 34
-0.25799999 10.5 -0.866 238 189 123
-0.25099999 10.49 -0.861 220 136 38
-0.26699999 10.423 -0.84299999 255 181 83
-0.27399999 10.414 -0.87 212 127 37
-0.27700001 10.403 -0.84899998 232 182 113
-0.32100001 10.441 -0.84500003 207 127 58
-0.37400001 10.399 -0.90899998 215 188 135
-0.373 10.39 -0.91299999 215 164 109
-0.37400001 10.4 -0.91600001 228 206 156
-0.264 10.399 -0.81599998 246 189 102
-0.25999999 10.402 -0.81800002 221 158 89
-0.26199999 10.41 -0.81699997 62 20 0
-0.273 10.411 -0.86299998 178 134 87
-0.26199999 10.405 -0.84799999 243 179 108
-0.361 10.377 -0.96799999 251 246 208
-0.37900001 10.376 -0.97600001 188 137 72
-0.375 10.382 -0.97500002 251 251 241
-0.38 10.373 -0.93900001 230 215 174
-0.37799999 10.37 -0.94499999 211 195 159
-0.36700001 10.376 -0.921 216 170 93
-0.35600001 10.392 -0.91399997 252 233 154
-0.35499999 10.385 -0.917 252 227 135
-0.31799999 10.446 -0.83499998 236 144 45
-0.31099999 10.44 -0.866 240 173 94
-0.30700001 10.443 -0.87199998 255 255 242
-0.27200001 10.393 -0.829 239 178 95
-0.27200001 10.402 -0.82999998 250 193 42
-0.264 10.392 -0.85399997 237 191 71
-0.26100001 10.393 -0.84299999 244 191 77
-0.285 10.525 -0.87699997 193 159 134
-0.29100001 10.531 -0.87800002 209 139 53
-0.29100001 10.525 -0.87800002 161 97 10
-0.27700001 10.529 -0.87199998 140 108 85
-0.29100001 10.536 -0.875 255 183 98
-0.25799999 10.537 -0.89899999 217 130 25
-0.29699999 10.536 -0.85699999 213 162 53
-0.296 10.527 -0.866 244 193 127
-0.29100001 10.533 -0.87099999 247 169 94
-0.289 10.538 -0.86400002 178 99 40
-0.28999999 10.522 -0.85399997 172 104 41
-0.29300001 10.522 -0.84899998 231 181 144
-0.32100001 10.439 -0.903 141 97 62
-0.31799999 10.448 -0.90799999 255 235 170
-0.31900001 10.441 -0.91299999 251 223 158
-0.28099999 10.484 -0.89899999 177 131 97
-0.28 10.483 -0.89300001 195 159 65
-0.315 10.46 -0.88200003 255 215 135
-0.317 10.462 -0.88300002 255 210 125
-0.32300001 10.462 -0.89399999 252 192 120
-0.322 10.453 -0.88700002 191 138 70
-0.28 10.48 -0.88700002 234 168 90
-0.28 10.71 -0.935 186 132 70
-0.345 10.609 -0.838 253 193 73
-0.345 10.607 -0.82800001 192 142 89
-0.35100001 10.612 -0.83999997 236 170 50
-0.34799999 10.614 -0.83200002 253 177 67
-0.347 10.617 -0.83700001 234 171 66
-0.237 10.485 -0.81300002 240 143 64
-0.214 10.481 -0.85600001 175 123 76
-0.25299999 10.492 -0.85699999 217 133 60
-0.25299999 10.502 -0.85900003 210 134 59
-0.249 10.502 -0.84200001 216 171 112
-0.38600001 10.352 -0.96600002 255 238 164
-0.38999999 10.353 -0.96799999 254 237 159
-0.391 10.357 -0.96899998 191 184 158
-0.38299999 10.349 -0.95700002 187 150 80
-0.37400001 10.362 -0.95200002 205 172 121
-0.36500001 10.372 -0.95300001 252 244 159
-0.38100001 10.372 -0.95200002 252 236 174
-0.37099999 10.389 -0.98299998 242 244 241
-0.36000001 10.391 -0.949 255 247 166
-0.38100001 10.379 -0.96600002 255 247 214
-0.37900001 10.394 -0.96600002 255 246 217
-0.29699999 10.567 -0.963 169 132 87
-0.294 10.576 -0.96499997 218 158 60
-0.289 10.524 -0.95999998 139 125 98
-0.28099999 10.523 -0.96399999 255 245 203
-0.28299999 10.524 -0.95700002 247 234 190
-0.266 10.535 -0.96499997 223 200 168
-0.25099999 10.529 -0.91500002 197 149 103
-0.25400001 10.526 -0.93099999 238 175 96
-0.25400001 10.526 -0.92500001 65 19 0
-0.26800001 10.535 -0.93400002 253 216 171
-0.271 10.539 -0.935 255 216 111
-0.292 10.571 -0.94 163 136 129
-0.289 10.584 -0.954 113 57 6
-0.428 10.543 -0.93699998 255 245 159
-0.42899999 10.544 -0.926 251 225 104
-0.42899999 10.545 -0.93000001 224 192 89
-0.44100001 10.546 -0.935 222 162 89
-0.43900001 10.551 -0.935 231 177 113
-0.433 10.55 -0.94800001 254 239 170
-0.428 10.551 -0.93900001 194 135 65
-0.35299999 10.435 -0.95499998 221 200 145
-0.331 10.429 -0.96899998 169 148 131
-0.32499999 10.424 -0.98000002 222 200 159
-0.36500001 10.453 -0.926 166 143 102
-0.36899999 10.439 -0.926 239 206 103
-0.36000001 10.445 -0.92199999 253 242 163
-0.366 10.441 -0.93000001 236 222 183
-0.37 10.435 -0.91600001 164 139 98
-0.31400001 10.453 -0.82499999 255 225 112
-0.36300001 10.434 -0.90499997 245 217 120
-0.36700001 10.437 -0.90700001 255 228 152
-0.43399999 10.545 -0.875 252 207 122
-0.35699999 10.378 -0.89999998 90 36 0
-0.28400001 10.399 -0.90600002 193 142 95
-0.32499999 10.454 -0.94499999 182 140 64
-0.36500001 10.437 -0.96399999 237 230 211
-0.359 10.38 -0.94599998 255 250 178
-0.36000001 10.388 -0.95200002 253 244 185
-0.37099999 10.39 -0.96499997 240 235 206
-0.32499999 10.448 -0.96100003 166 147 115
-0.361 10.446 -0.95099998 226 211 190
-0.32100001 10.45 -0.972 132 119 103
-0.296 10.582 -0.972 252 235 205
-0.292 10.611 -0.97000003 209 146 66
-0.28799999 10.601 -0.96100003 120 56 0
-0.32499999 10.423 -0.97500002 143 110 75
-0.32600001 10.423 -0.98199999 173 112 32
-0.361 10.384 -0.93800002 145 110 91
-0.292 10.747 -0.86299998 239 150 70
-0.27200001 10.744 -0.88200003 197 110 39
-0.27500001 10.745 -0.88200003 177 87 11
-0.28400001 10.754 -0.89200002 255 172 73
-0.35699999 10.606 -0.84600002 179 89 3
-0.36300001 10.605 -0.85900003 193 127 69
-0.35699999 10.607 -0.85100001 206 117 33
-0.43200001 10.55 -0.86900002 255 238 149
-0.32699999 10.465 -0.87199998 243 201 53
-0.32499999 10.463 -0.85399997 189 145 98
-0.26800001 10.635 -0.95700002 110 71 38
-0.27399999 10.643 -0.95099998 171 125 73
-0.27700001 10.651 -0.94099998 217 194 153
-0.27200001 10.641 -0.94099998 253 245 102
-0.27900001 10.609 -0.94999999 144 126 122
-0.26899999 10.704 -0.96100003 171 138 85
-0.278 10.696 -0.95700002 50 19 0
-0.266 10.697 -0.95300001 142 117 86
-0.266 10.708 -0.95999998 105 56 0
-0.252 10.724 -0.94999999 255 235 155
-0.25799999 10.71 -0.95200002 160 104 47
-0.25400001 10.736 -0.96200001 102 65 39
-0.48300001 10.62 -0.94599998 201 162 123
-0.47600001 10.586 -0.93099999 155 106 109
-0.414 10.587 -0.95300001 248 212 154
-0.40599999 10.586 -0.95899999 114 76 40
-0.43099999 10.562 -0.94099998 231 171 117
-0.43099999 10.558 -0.94700003 250 225 158
-0.43799999 10.557 -0.935 219 157 80
-0.484 10.604 -0.97299999 212 161 95
-0.48100001 10.588 -0.94300002 230 192 67
-0.289 10.584 -0.94599998 107 56 3
-0.30500001 10.583 -0.95499998 184 134 81
-0.29899999 10.591 -0.94 135 112 106
-0.301 10.589 -0.94400001 229 210 170
-0.29699999 10.599 -0.94999999 246 182 84
-0.30000001 10.577 -0.93300003 177 134 89
-0.296 10.581 -0.93599999 188 143 102
-0.271 10.621 -0.93400002 198 185 47
-0.27900001 10.634 -0.93300003 170 101 34
-0.32699999 10.647 -0.96899998 155 128 101
-0.30199999 10.675 -0.94999999 182 110 10
-0.37599999 10.601 -0.954 238 172 96
-0.403 10.581 -0.96700001 250 200 127
-0.35100001 10.596 -0.87 207 153 107
-0.479 10.6 -0.97500002 164 98 37
-0.366 10.606 -0.94599998 242 208 137
-0.37099999 10.609 -0.94199997 112 61 0
-0.38 10.616 -0.95200002 244 220 130
-0.46900001 10.657 -0.97899997 197 163 135
-0.491 10.637 -0.93099999 253 225 115
-0.491 10.637 -0.92299998 250 212 103
-0.50199997 10.636 -0.93000001 203 158 103
-0.495 10.636 -0.92000002 180 113 35
-0.47099999 10.613 -0.92699999 177 140 87
-0.47099999 10.605 -0.93400002 165 147 35
-0.47799999 10.6 -0.93199998 249 193 118
-0.48100001 10.597 -0.93000001 203 139 75
-0.49000001 10.632 -0.90799999 218 172 113
-0.49900001 10.643 -0.95599997 225 161 97
-0.48699999 10.63 -0.95499998 192 152 116
-0.36899999 10.384 -0.90700001 210 187 145
-0.36199999 10.378 -0.91299999 199 173 80
-0.32300001 10.436 -0.91600001 177 118 62
-0.36399999 10.424 -0.90899998 254 206 124
-0.361 10.422 -0.91399997 215 186 130
-0.361 10.424 -0.912 206 161 80
-0.35699999 10.383 -0.90600002 248 205 136
-0.426 10.538 -0.95999998 238 230 183
-0.42300001 10.558 -0.958 218 172 120
-0.43200001 10.551 -0.95200002 255 233 177
-0.42199999 10.544 -0.94999999 249 220 128
-0.442 10.681 -0.86799997 255 196 98
-0.44299999 10.685 -0.875 241 170 66
-0.44299999 10.553 -0.89099997 143 86 41
-0.442 10.55 -0.87599999 212 171 45
-0.45199999 10.701 -0.89099997 183 109 20
-0.44400001 10.696 -0.92699999 158 106 56
-0.454 10.696 -0.926 202 145 74
-0.454 10.692 -0.91600001 150 79 13
-0.44299999 10.689 -0.87400001 255 193 90
-0.49700001 10.649 -0.917 177 137 111
-0.493 10.644 -0.917 193 150 48
-0.442 10.676 -0.92699999 255 202 127
-0.44100001 10.674 -0.92900002 220 161 85
-0.44499999 10.68 -0.92900002 255 216 129
-0.44499999 10.68 -0.926 253 221 136
-0.30399999 10.686 -0.96399999 192 146 133
-0.48199999 10.624 -0.96100003 167 119 79
-0.37900001 10.619 -0.95999998 230 171 105
-0.32699999 10.653 -0.96100003 131 104 77
-0.324 10.637 -0.958 110 85 45
-0.31999999 10.645 -0.95899999 176 125 78
-0.44299999 10.688 -0.94499999 191 139 81
-0.442 10.683 -0.93000001 255 240 163
-0.25400001 10.735 -0.972 104 71 52
-0.24699999 10.737 -0.97600001 112 76 50
-0.33199999 10.631 -0.92199999 169 84 4
-0.331 10.636 -0.91900003 176 91 10
-0.32800001 10.63 -0.92699999 223 139 53
-0.31999999 10.643 -0.94099998 199 136 69
-0.34900001 10.6 -0.847 237 157 96
-0.34900001 10.604 -0.85799998 215 154 99
-0.227 10.492 -0.79299998 249 174 73
-0.227 10.492 -0.815 247 195 93
-0.23100001 10.493 -0.84100002 240 167 99
-0.233 10.488 -0.84100002 227 148 79
-0.229 10.49 -0.815 251 198 84
-0.214 10.478 -0.852 141 93 57
-0.23100001 10.488 -0.815 251 198 82
-0.26100001 10.714 -0.93000001 213 179 141
-0.255 10.734 -0.91600001 196 129 59
-0.31799999 10.629 -0.91900003 245 183 80
-0.322 10.635 -0.91799998 193 147 113
-0.324 10.628 -0.92699999 234 153 64
-0.32499999 10.638 -0.921 180 152 128
-0.32600001 10.629 -0.88599998 116 50 0
-0.34799999 10.619 -0.884 235 198 127
-0.43000001 10.549 -0.89700001 255 225 160
-0.42399999 10.555 -0.91600001 182 120 61
-0.43000001 10.548 -0.91000003 252 220 121
-0.42899999 10.539 -0.921 252 231 88
-0.428 10.541 -0.91500002 202 165 123
-0.428 10.543 -0.921 246 220 84
-0.421 10.548 -0.95300001 244 200 113
-0.428 10.558 -0.93400002 192 142 79
-0.26199999 10.709 -0.91600001 255 232 103
-0.26800001 10.736 -0.90399998 197 145 105
-0.26300001 10.746 -0.91500002 255 207 108
-0.25999999 10.733 -0.90899998 255 209 120
-0.271 10.72 -0.91299999 250 169 51
-0.28 10.385 -0.89099997 171 142 110
-0.28099999 10.399 -0.93300003 240 228 170
-0.28600001 10.401 -0.94599998 105 70 48
-0.35600001 10.422 -0.92900002 197 155 79
-0.35499999 10.43 -0.91299999 228 210 170
-0.36000001 10.405 -0.91600001 249 224 124
-0.36399999 10.397 -0.93199998 203 164 69
-0.32300001 10.436 -0.93800002 254 214 142
-0.278 10.338 -0.963 101 72 74
-0.27599999 10.389 -0.86299998 145 105 70
-0.278 10.392 -0.903 232 167 99
-0.26800001 10.397 -0.88499999 238 211 124
-0.264 10.405 -0.866 119 85 60
-0.242 10.492 -0.87300003 253 196 67
-0.244 10.488 -0.86799997 255 219 99
-0.233 10.49 -0.87 249 181 58
-0.242 10.492 -0.89499998 241 160 95
-0.248 10.494 -0.898 227 174 120
-0.241 10.502 -0.90499997 234 168 45
-0.23899999 10.504 -0.90200001 248 179 62
-0.25400001 10.52 -0.95099998 249 213 116
-0.25600001 10.526 -0.94800001 206 159 79
-0.215 10.491 -0.88099998 252 180 60
-0.237 10.49 -0.84500003 251 193 67
-0.25 10.486 -0.85900003 235 144 65
-0.31 10.462 -0.87199998 233 162 96
-0.31 10.451 -0.86400002 209 138 74
-0.31 10.449 -0.86000001 218 151 83
-0.30899999 10.439 -0.88999999 113 85 74
-0.50099999 10.649 -0.912 156 115 85
-0.35600001 10.376 -0.95099998 251 245 187
-0.29800001 10.393 -0.97299999 249 236 201
-0.292 10.398 -0.96899998 254 237 149
-0.28099999 10.357 -0.963 241 220 131
-0.28 10.384 -0.96799999 131 110 109
-0.28799999 10.385 -0.95999998 221 195 158
-0.28400001 10.517 -0.87400001 244 184 72
-0.27700001 10.514 -0.87599999 252 195 92
-0.27599999 10.505 -0.889 249 177 75
-0.259 10.504 -0.88200003 174 123 78
-0.255 10.499 -0.87400001 128 66 15
-0.252 10.499 -0.90799999 165 87 4
-0.26499999 10.693 -0.94300002 117 93 59
-0.27900001 10.672 -0.95099998 204 183 140
-0.28999999 10.679 -0.95700002 204 147 78
-0.28400001 10.678 -0.95499998 254 240 105
-0.22499999 10.489 -0.87599999 234 196 99
-0.26499999 10.521 -0.92500001 131 108 90
-0.27200001 10.505 -0.921 224 148 54
-0.27599999 10.492 -0.91299999 204 128 32
-0.26499999 10.492 -0.92799997 147 110 66
-0.26899999 10.507 -0.93599999 196 128 55
-0.27000001 10.506 -0.92400002 181 108 39
-0.28099999 10.482 -0.90600002 164 134 96
-0.32100001 10.47 -0.89899999 237 176 83
-0.317 10.44 -0.917 236 202 139
-0.25099999 10.516 -0.94499999 252 222 132
-0.28 10.402 -0.972 181 127 65
-0.26899999 10.523 -0.96100003 203 177 120
-0.271 10.488 -0.90399998 254 227 136
-0.26300001 10.493 -0.91100001 255 187 104
-0.259 10.494 -0.89099997 179 113 61
-0.322 10.445 -0.85000002 216 133 65
-0.37400001 10.408 -0.92199999 243 187 130
-0.377 10.395 -0.935 255 219 135
-0.31999999 10.467 -0.838 241 192 74
-0.315 10.474 -0.838 215 139 45
-0.31400001 10.455 -0.82300001 251 185 107
-0.31 10.454 -0.852 233 156 84
-0.30700001 10.448 -0.84600002 133 77 18
-0.30500001 10.447 -0.84399998 246 196 45
-0.31099999 10.451 -0.85900003 250 248 235
-0.36700001 10.386 -0.95899999 211 198 96
-0.36700001 10.377 -0.91900003 215 167 93
-0.308 10.445 -0.847 233 179 29
-0.26800001 10.401 -0.82499999 224 138 53
-0.26699999 10.406 -0.81999999 117 95 74
-0.26699999 10.391 -0.85100001 255 223 84
-0.264 10.392 -0.85799998 234 191 78
-0.28799999 10.521 -0.85600001 208 143 87
-0.28799999 10.528 -0.86400002 255 216 103
-0.28400001 10.519 -0.866 186 115 63
-0.29100001 10.533 -0.86199999 255 220 117
-0.31799999 10.451 -0.912 254 221 152
-0.322 10.457 -0.92000002 119 114 108
-0.322 10.443 -0.92799997 212 161 114
-0.32699999 10.462 -0.88499999 217 176 114
-0.278 10.48 -0.884 194 127 46
-0.23800001 10.507 -0.898 103 92 96
-0.27500001 10.707 -0.91399997 244 161 43
-0.27399999 10.7 -0.92799997 163 123 74
-0.27399999 10.708 -0.91900003 226 145 30
-0.27399999 10.719 -0.921 114 106 117
-0.27399999 10.717 -0.92299998 218 181 136
-0.27599999 10.72 -0.926 171 82 0
-0.27599999 10.709 -0.92900002 146 114 67
-0.26499999 10.737 -0.93199998 73 50 42
-0.25999999 10.731 -0.94800001 252 216 132
-0.25799999 10.737 -0.93900001 255 212 116
-0.264 10.745 -0.93400002 100 59 29
-0.255 10.744 -0.94400001 139 114 107
-0.26199999 10.727 -0.94499999 238 187 98
-0.23999999 10.495 -0.80400002 167 84 18
-0.245 10.498 -0.81800002 219 184 126
-0.241 10.496 -0.815 246 210 113
-0.21699999 10.489 -0.866 204 141 36
-0.23100001 10.499 -0.84299999 245 189 68
-0.23100001 10.504 -0.84100002 130 60 9
-0.233 10.492 -0.83999997 251 162 82
-0.233 10.496 -0.82099998 236 177 73
-0.24600001 10.507 -0.85900003 235 148 55
-0.25299999 10.511 -0.86199999 229 138 57
-0.28799999 10.519 -0.85799998 219 151 90
-0.236 10.509 -0.84100002 154 74 21
-0.249 10.536 -0.88599998 248 165 69
-0.382 10.376 -0.94999999 218 160 76
-0.384 10.381 -0.95899999 248 236 196
-0.382 10.401 -0.958 244 237 208
-0.377 10.407 -0.95899999 240 236 207
-0.384 10.408 -0.95499998 96 95 91
-0.36500001 10.395 -0.949 234 231 200
-0.292 10.574 -0.958 172 125 43
-0.28099999 10.527 -0.94599998 141 95 61
-0.25 10.526 -0.91000003 122 83 40
-0.289 10.577 -0.93900001 145 93 45
-0.292 10.595 -0.94199997 188 131 76
