ply
format ascii 1.0
comment PCL generated
element vertex 288
property float x
property float y
property float z
property uchar red
property uchar green
property uchar blue
element camera 1
property float view_px
property float view_py
property float view_pz
property float x_axisx
property float x_axisy
property float x_axisz
property float y_axisx
property float y_axisy
property float y_axisz
property float z_axisx
property float z_axisy
property float z_axisz
property float focal
property float scalex
property float scaley
property float centerx
property float centery
property int viewportx
property int viewporty
property float k1
property float k2
end_header
8.9949999 4.6399999 -0.77999997 91 69 58
8.9790001 4.6550002 -0.78200001 118 79 48
8.974 4.6500001 -0.77899998 68 35 18
8.993 4.6290002 -0.78100002 159 98 70
8.9989996 4.6279998 -0.78100002 87 70 54
8.9440002 4.6370001 -0.829 86 51 29
8.9379997 4.6389999 -0.81699997 48 24 14
8.9359999 4.645 -0.83099997 19 4 0
8.9420004 4.6389999 -0.85399997 108 94 83
8.9510002 4.632 -0.82200003 104 86 72
8.9420004 4.6409998 -0.847 65 38 29
8.9420004 4.658 -0.83499998 55 33 22
9.0039997 4.6230001 -0.78899997 150 65 24
9.0059996 4.6370001 -0.78100002 137 71 39
9.0050001 4.6290002 -0.79000002 121 104 96
9.0050001 4.6620002 -0.81400001 109 68 46
9.0059996 4.6560001 -0.81199998 78 61 51
9.0120001 4.6490002 -0.83399999 36 25 7
9.0430002 4.6599998 -0.85799998 36 11 6
9.0319996 4.645 -0.86500001 71 54 46
9.0360003 4.6589999 -0.86000001 148 130 128
8.9890003 4.632 -0.85399997 34 15 11
8.9860001 4.6329999 -0.84399998 172 133 104
8.993 4.6259999 -0.85500002 64 47 37
8.9899998 4.631 -0.84799999 21 6 1
8.9440002 4.652 -0.83700001 124 39 10
8.9639997 4.6560001 -0.79500002 62 38 26
8.9560003 4.6539998 -0.80299997 128 106 93
8.9440002 4.6589999 -0.80199999 53 33 22
8.9460001 4.6599998 -0.81099999 37 13 1
8.9560003 4.6680002 -0.81800002 123 86 67
8.9549999 4.6630001 -0.82200003 84 48 26
8.948 4.6529999 -0.81900001 78 40 17
8.9759998 4.6360002 -0.85799998 30 12 10
8.993 4.6729999 -0.88599998 117 102 95
8.9829998 4.6609998 -0.89399999 39 5 0
8.9840002 4.6690001 -0.88499999 35 16 9
8.9519997 4.6389999 -0.85000002 23 2 0
9.0109997 4.6739998 -0.86199999 120 110 109
9.0129995 4.6890001 -0.85699999 109 39 5
9.0010004 4.6729999 -0.85399997 53 51 26
9.0129995 4.6789999 -0.86400002 147 81 7
9.0439997 4.6609998 -0.86400002 179 155 119
9.0419998 4.6609998 -0.866 136 128 126
9.0190001 4.6859999 -0.87 85 21 0
8.9980001 4.6960001 -0.84100002 104 60 25
9.0010004 4.697 -0.83999997 162 86 11
9.0039997 4.6550002 -0.82099998 61 32 18
9.0120001 4.6490002 -0.80599999 81 65 40
9.0050001 4.6950002 -0.82999998 181 98 30
9.0039997 4.6989999 -0.824 63 32 30
9.0030003 4.7030001 -0.82999998 85 63 42
9.0019999 4.6999998 -0.83399999 49 19 17
8.9860001 4.6680002 -0.81800002 160 67 23
8.9899998 4.6690001 -0.82599998 55 48 22
8.9840002 4.6719999 -0.82599998 99 71 57
9.0010004 4.6459999 -0.796 83 66 40
8.9989996 4.638 -0.78399998 72 41 20
9.0039997 4.658 -0.80699998 121 103 91
9.0120001 4.6500001 -0.84299999 44 33 15
8.9989996 4.6539998 -0.838 127 110 103
9.0059996 4.6430001 -0.84399998 39 5 0
8.9969997 4.645 -0.847 40 20 11
8.9770002 4.6599998 -0.78799999 98 64 37
8.9619999 4.6550002 -0.77999997 91 51 26
8.9639997 4.6550002 -0.78399998 167 75 26
8.9549999 4.6370001 -0.84200001 28 10 8
8.967 4.6490002 -0.78299999 101 60 30
8.9949999 4.6630001 -0.81300002 61 28 11
8.9809999 4.6620002 -0.89200002 21 6 3
8.9989996 4.664 -0.85399997 81 58 52
8.993 4.6589999 -0.84399998 26 7 1
9.0129995 4.691 -0.86400002 141 73 0
9.0430002 4.6589999 -0.86500001 161 150 148
9.0380001 4.6529999 -0.87 120 110 109
9.033 4.6409998 -0.87 40 21 14
9.0340004 4.652 -0.87099999 136 130 130
9.0170002 4.7010002 -0.875 129 123 125
9.0159998 4.6939998 -0.88200003 152 150 155
9.0100002 4.6900001 -0.88200003 90 30 2
9.0150003 4.6939998 -0.875 139 137 140
9.0240002 4.698 -0.88300002 153 87 52
8.9940004 4.6999998 -0.85000002 150 78 4
8.9949999 4.665 -0.81800002 70 34 18
9.0059996 4.6570001 -0.80800003 38 18 9
9.0010004 4.6329999 -0.833 21 6 3
9.0019999 4.6339998 -0.85100001 146 120 105
9.0109997 4.6389999 -0.84500003 66 29 11
9.007 4.6279998 -0.82800001 82 50 27
9.0220003 4.645 -0.86699998 127 121 121
9.0019999 4.6420002 -0.87099999 26 14 14
8.9879999 4.6430001 -0.87400001 22 10 10
8.9969997 4.6339998 -0.86299998 25 10 5
8.9910002 4.638 -0.889 7 0 0
8.941 4.6459999 -0.824 31 18 12
8.9370003 4.6430001 -0.81400001 92 72 63
8.9709997 4.6570001 -0.79000002 75 49 34
8.9490004 4.6589999 -0.81099999 85 45 19
8.9569998 4.638 -0.84600002 36 13 7
8.9680004 4.6389999 -0.84299999 38 19 15
8.9580002 4.6350002 -0.85500002 71 52 48
8.9610004 4.6409998 -0.86199999 39 24 21
8.948 4.6440001 -0.85399997 47 21 8
8.9510002 4.6469998 -0.85799998 33 13 6
8.9429998 4.6409998 -0.83099997 88 53 33
9.0039997 4.6259999 -0.81300002 62 37 30
8.948 4.6389999 -0.81599998 139 52 9
8.9530001 4.6370001 -0.82599998 38 18 17
8.9659996 4.6529999 -0.787 66 28 7
8.9549999 4.6760001 -0.83499998 75 67 20
8.9659996 4.6680002 -0.82099998 46 22 10
9.0109997 4.6669998 -0.86199999 56 41 38
9.007 4.678 -0.87 126 70 45
8.9940004 4.6700001 -0.88200003 77 34 18
8.9949999 4.6760001 -0.884 132 79 9
8.9890003 4.6739998 -0.87900001 101 86 83
8.9840002 4.6690001 -0.884 118 64 2
9.0170002 4.6859999 -0.87599999 136 135 141
9.007 4.6820002 -0.88099998 127 121 125
8.9940004 4.6560001 -0.88599998 22 12 10
9.0019999 4.684 -0.87400001 139 137 140
9.0190001 4.6999998 -0.88300002 147 145 148
9.0010004 4.7020001 -0.83600003 115 92 76
9.0109997 4.6430001 -0.838 136 125 123
8.9779997 4.671 -0.82200003 69 41 29
8.9770002 4.6750002 -0.80900002 52 24 21
8.9639997 4.6560001 -0.80299997 44 20 10
8.9890003 4.6659999 -0.83499998 50 43 15
8.9879999 4.6669998 -0.85100001 157 77 24
8.9949999 4.6560001 -0.83399999 38 32 6
9.0010004 4.631 -0.80199999 52 36 21
9.007 4.6279998 -0.815 70 56 47
9.0019999 4.6360002 -0.79699999 71 54 46
8.9910002 4.632 -0.85500002 30 15 10
8.9980001 4.651 -0.866 7 0 0
9.0080004 4.6389999 -0.86400002 125 119 123
8.941 4.652 -0.80900002 48 26 15
9.007 4.6279998 -0.82200003 110 95 90
9.0019999 4.612 -0.81199998 107 94 86
9.0019999 4.6230001 -0.81800002 44 25 19
8.9899998 4.631 -0.79000002 96 65 44
8.9969997 4.6290002 -0.79299998 73 46 35
8.9870005 4.6329999 -0.80299997 57 45 21
8.9940004 4.6129999 -0.80900002 61 43 41
8.96 4.632 -0.81800002 24 9 2
8.96 4.632 -0.80199999 120 93 76
8.9580002 4.6329999 -0.80199999 53 42 12
8.9689999 4.6490002 -0.78899997 65 41 29
8.9580002 4.6329999 -0.81900001 89 48 18
8.9680004 4.6539998 -0.78399998 89 81 62
8.9680004 4.652 -0.79100001 87 50 21
8.967 4.6409998 -0.83200002 99 82 72
8.9720001 4.6329999 -0.81900001 89 57 36
8.9729996 4.638 -0.84799999 39 9 0
8.9569998 4.6490002 -0.861 31 15 15
8.9589996 4.6490002 -0.86799997 29 15 15
8.9589996 4.6440001 -0.86699998 66 33 18
8.9619999 4.645 -0.88 47 29 25
8.9700003 4.6539998 -0.88800001 27 10 3
8.9610004 4.6550002 -0.88099998 32 18 18
9.0139999 4.6680002 -0.85900003 30 12 2
8.9770002 4.677 -0.86900002 59 33 18
8.9720001 4.6719999 -0.86900002 32 12 11
8.9770002 4.6719999 -0.87199998 121 61 0
8.9750004 4.6849999 -0.86199999 42 19 13
9.0310001 4.6550002 -0.87599999 164 160 161
9.0270004 4.6440001 -0.875 118 114 113
9.0120001 4.6880002 -0.88200003 32 30 35
8.993 4.651 -0.89099997 14 4 2
8.9980001 4.651 -0.87900001 15 7 5
8.993 4.6700001 -0.86900002 80 32 10
8.993 4.691 -0.85299999 33 10 4
8.9960003 4.6789999 -0.88 133 123 122
8.9940004 4.6789999 -0.88599998 137 126 122
8.9969997 4.6999998 -0.84200001 84 62 48
9.007 4.6329999 -0.829 90 37 5
8.9689999 4.664 -0.815 35 11 7
8.9700003 4.6589999 -0.80800003 63 34 20
8.9630003 4.6539998 -0.80000001 113 70 38
8.9980001 4.6279998 -0.79100001 47 27 18
9.0019999 4.6149998 -0.81099999 34 15 8
9.0039997 4.638 -0.80400002 60 43 35
9.0109997 4.665 -0.85299999 170 152 142
9.0030003 4.6420002 -0.86400002 20 14 18
8.9720001 4.6570001 -0.796 66 43 29
8.9750004 4.658 -0.792 82 48 21
8.9799995 4.6259999 -0.81300002 29 10 3
8.9700003 4.6370001 -0.80699998 45 26 20
8.9770002 4.631 -0.81300002 109 56 24
8.993 4.6329999 -0.84399998 17 0 0
8.9729996 4.6479998 -0.79000002 159 110 70
8.9720001 4.677 -0.861 26 6 0
8.9659996 4.6550002 -0.87099999 28 10 6
8.9689999 4.6669998 -0.85799998 29 16 23
8.9610004 4.6760001 -0.83700001 138 102 78
8.9630003 4.6760001 -0.85500002 133 102 84
8.9460001 4.6500001 -0.83999997 53 15 2
8.9809999 4.6700001 -0.87699997 33 14 10
8.9790001 4.6659999 -0.87400001 59 41 31
8.9809999 4.6630001 -0.87800002 28 9 5
8.9770002 4.6560001 -0.884 26 12 9
8.9630003 4.6550002 -0.88200003 113 51 0
8.9639997 4.651 -0.88200003 66 51 46
9.007 4.651 -0.88 21 15 15
9.0089998 4.6500001 -0.88599998 17 8 11
9.0159998 4.6479998 -0.88700002 11 2 7
9.0170002 4.6420002 -0.88 131 124 131
9.0139999 4.6490002 -0.88099998 143 134 139
9.0139999 4.6490002 -0.88800001 16 7 12
9.0340004 4.6599998 -0.87300003 103 83 58
9.0050001 4.6490002 -0.88700002 12 3 6
8.9940004 4.6459999 -0.89200002 15 5 4
9.0249996 4.6409998 -0.87400001 106 91 88
9.0129995 4.6440001 -0.87900001 135 129 133
8.9829998 4.6810002 -0.87 55 33 20
8.9840002 4.6890001 -0.84200001 89 53 37
8.9809999 4.671 -0.81300002 71 54 47
8.9750004 4.6599998 -0.80299997 54 39 32
8.9940004 4.6529999 -0.79799998 99 87 75
8.9790001 4.6529999 -0.78799999 161 151 152
8.9790001 4.645 -0.78799999 135 117 107
9.007 4.6370001 -0.82300001 52 40 18
9.0089998 4.6420002 -0.81400001 78 63 40
9.0059996 4.671 -0.86299998 13 5 3
9.0120001 4.6490002 -0.87099999 119 97 86
9.0019999 4.6360002 -0.86400002 101 95 99
8.9440002 4.6529999 -0.80400002 62 38 26
8.9490004 4.6500001 -0.80699998 117 106 104
8.9879999 4.6290002 -0.81 64 37 28
8.9829998 4.6370001 -0.833 112 95 87
8.9969997 4.6339998 -0.84899998 36 29 10
8.9580002 4.6360002 -0.81400001 76 55 52
8.9469995 4.6459999 -0.80900002 48 29 23
8.9840002 4.6399999 -0.86799997 126 120 120
8.9530001 4.658 -0.84100002 117 110 117
8.9490004 4.6539998 -0.84200001 71 39 24
8.9530001 4.6560001 -0.84299999 40 21 14
8.948 4.6500001 -0.84799999 120 40 7
8.9580002 4.651 -0.85699999 45 30 25
8.9680004 4.6719999 -0.85699999 24 9 12
8.9680004 4.6760001 -0.85799998 35 11 7
8.9700003 4.6830001 -0.85500002 44 21 15
8.9820004 4.658 -0.89099997 16 2 1
8.9639997 4.6539998 -0.875 28 14 14
8.9610004 4.6529999 -0.86400002 20 2 0
9.0010004 4.6500001 -0.87800002 22 12 13
8.9870005 4.6440001 -0.87599999 17 9 6
8.9829998 4.6529999 -0.88499999 13 2 0
8.9969997 4.6389999 -0.89099997 22 12 13
9 4.684 -0.866 116 114 117
8.96 4.6789999 -0.84100002 73 56 49
8.9779997 4.678 -0.847 75 44 26
8.9809999 4.6890001 -0.85000002 103 63 28
8.9610004 4.6750002 -0.84500003 127 92 72
8.9820004 4.6719999 -0.80599999 66 51 44
8.9840002 4.6529999 -0.796 84 69 46
8.993 4.6389999 -0.78600001 85 63 52
9.007 4.6339998 -0.82300001 162 134 120
9.0129995 4.6539998 -0.87099999 38 25 9
8.967 4.652 -0.79799998 147 137 136
8.9969997 4.6240001 -0.81599998 87 53 26
8.9829998 4.6220002 -0.815 55 36 32
9.0019999 4.625 -0.82200003 55 32 26
8.9940004 4.6339998 -0.83899999 143 129 126
8.9650002 4.6350002 -0.81300002 122 102 91
8.9650002 4.671 -0.83600003 116 101 98
8.9569998 4.6690001 -0.84899998 30 18 22
8.967 4.6609998 -0.85600001 137 125 127
8.967 4.6459999 -0.87599999 23 11 13
8.9779997 4.6479998 -0.87900001 48 9 2
8.9899998 4.6900001 -0.84600002 113 90 82
8.9840002 4.6820002 -0.84799999 121 107 106
8.9720001 4.658 -0.801 88 51 32
8.9890003 4.6389999 -0.79100001 109 77 62
9.0059996 4.6350002 -0.861 44 19 14
8.967 4.6529999 -0.79500002 151 59 18
8.9759998 4.625 -0.82099998 26 8 0
8.9820004 4.6409998 -0.86699998 41 29 29
8.9490004 4.652 -0.84500003 30 11 7
8.9899998 4.697 -0.847 38 16 3
8.9829998 4.6890001 -0.85100001 73 42 24
8.9790001 4.625 -0.82599998 86 42 13
8.9849997 4.6290002 -0.82800001 44 26 24
8.9860001 4.6269999 -0.82099998 121 108 102
8.9949999 4.6279998 -0.829 23 5 3
8.9779997 4.6459999 -0.87300003 16 4 4
8.9560003 4.658 -0.84600002 44 23 18
8.9890003 4.6269999 -0.81999999 30 11 4
0 0 0 1 0 0 0 1 0 0 0 1 0 0 0 0 0 288 1 0 0
