ply
format ascii 1.0
comment PCL generated
element vertex 1308
property float x
property float y
property float z
property uchar red
property uchar green
property uchar blue
element camera 0
property float view_px
property float view_py
property float view_pz
property float x_axisx
property float x_axisy
property float x_axisz
property float y_axisx
property float y_axisy
property float y_axisz
property float z_axisx
property float z_axisy
property float z_axisz
property float focal
property float scalex
property float scaley
property float centerx
property float centery
property int viewportx
property int viewporty
property float k1
property float k2
end_header
1.921 5.8340001 -0.98299998 44 4 0
1.903 5.855 -0.98299998 22 3 0
1.915 5.8309999 -0.97799999 46 13 4
1.965 5.8400002 -0.95999998 61 23 22
1.961 5.842 -0.95999998 111 109 110
1.969 5.823 -0.90200001 139 114 92
1.862 5.849 -0.495 243 229 182
1.984 5.8299999 -0.91799998 112 68 41
1.942 5.816 -0.88200003 128 113 108
1.9529999 5.822 -0.88200003 153 150 157
1.9349999 5.8769999 -0.96700001 104 112 114
1.908 5.875 -0.95999998 9 0 1
1.909 5.875 -0.96499997 10 4 4
1.899 5.8720002 -0.95700002 72 33 0
1.9069999 5.8730001 -0.95999998 6 0 0
1.957 5.8860002 -0.96799999 103 108 112
1.967 5.8969998 -0.97299999 64 63 68
1.883 5.855 -0.46599999 54 19 0
1.877 5.8460002 -0.472 211 158 82
1.89 5.8520002 -0.463 82 51 30
1.887 5.8590002 -0.46799999 113 58 38
1.895 5.8569999 -0.46900001 121 70 23
1.924 5.8709998 -0.84799999 94 85 56
1.892 5.8530002 -0.463 72 42 18
1.901 5.8439999 -0.465 92 48 11
1.908 5.8470001 -0.465 202 171 150
1.887 5.8260002 -0.472 247 216 159
1.873 5.8140001 -0.68900001 54 39 34
1.881 5.8210001 -0.71200001 115 96 79
1.903 5.7810001 -0.67699999 88 61 52
1.904 5.7810001 -0.65799999 68 16 0
1.869 5.836 -0.64099997 56 37 22
1.872 5.8400002 -0.639 105 86 69
1.8710001 5.8200002 -0.58600003 56 24 11
1.8559999 5.8340001 -0.57099998 111 92 86
1.859 5.8379998 -0.57700002 31 14 6
1.916 5.7930002 -0.65100002 53 9 0
1.865 5.8340001 -0.61799997 70 50 43
1.874 5.8410001 -0.63099998 16 7 0
1.877 5.8330002 -0.62900001 87 30 3
1.955 5.8130002 -0.77399999 53 38 33
1.957 5.8080001 -0.76700002 111 79 66
1.9349999 5.8049998 -0.78299999 49 20 6
1.952 5.8119998 -0.77399999 28 9 0
1.88 5.836 -0.69800001 106 94 98
1.88 5.842 -0.69300002 80 64 51
1.896 5.842 -0.71100003 65 42 36
1.874 5.8390002 -0.69499999 41 22 16
1.888 5.849 -0.74199998 16 0 1
1.893 5.8400002 -0.73199999 69 61 59
1.904 5.8569999 -0.75400001 49 29 22
1.875 5.8569999 -0.76499999 56 23 8
1.877 5.8449998 -0.76999998 18 4 3
1.8789999 5.835 -0.77999997 79 37 13
1.8839999 5.8579998 -0.787 85 80 77
1.883 5.8579998 -0.792 154 131 125
1.8839999 5.8569999 -0.78200001 7 1 1
1.8839999 5.8559999 -0.77899998 11 1 0
1.8839999 5.8590002 -0.76899999 121 93 79
1.8839999 5.8610001 -0.80599999 149 147 152
1.885 5.862 -0.81 143 142 150
1.8789999 5.8590002 -0.81099999 98 93 97
1.883 5.8600001 -0.80500001 4 0 0
1.883 5.8590002 -0.80299997 9 5 4
1.86 5.855 -0.47999999 76 33 14
1.965 5.8990002 -0.97500002 67 71 74
1.873 5.8569999 -0.60500002 44 11 6
1.8839999 5.8559999 -0.50800002 89 50 51
1.8839999 5.8660002 -0.49599999 72 30 6
1.857 5.8379998 -0.56800002 68 49 17
1.823 5.8119998 -0.53899997 65 40 33
1.854 5.829 -0.56599998 20 2 0
1.904 5.8150001 -0.84100002 81 35 11
1.899 5.803 -0.85500002 27 17 16
1.8890001 5.822 -0.84899998 115 92 78
1.911 5.8010001 -0.764 33 3 0
1.89 5.8150001 -0.76899999 23 16 0
1.906 5.8140001 -0.76800001 48 18 10
1.899 5.8070002 -0.755 37 18 14
1.919 5.7859998 -0.75400001 171 148 130
1.9119999 5.7810001 -0.745 76 52 42
1.839 5.7989998 -0.509 99 44 14
1.837 5.7950001 -0.50999999 86 45 13
1.844 5.7989998 -0.50800002 92 41 22
1.994 5.8410001 -0.93199998 108 46 5
1.995 5.8449998 -0.926 47 28 14
1.875 5.8280001 -0.75700003 149 127 114
1.874 5.842 -0.755 145 96 63
1.875 5.8369999 -0.759 41 12 4
1.873 5.8470001 -0.75199997 11 2 3
1.875 5.836 -0.75999999 143 104 73
1.887 5.829 -0.74800003 159 130 116
1.882 5.8319998 -0.75300002 178 97 41
1.885 5.8249998 -0.75700003 134 89 50
1.8890001 5.8210001 -0.755 131 80 33
1.89 5.8130002 -0.77700001 150 98 76
1.8940001 5.809 -0.75 58 33 26
1.883 5.8379998 -0.75 43 0 0
1.921 5.8439999 -0.64899999 110 105 109
1.909 5.8460002 -0.65600002 82 58 48
1.916 5.8429999 -0.662 34 16 16
1.902 5.8520002 -0.64899999 16 7 0
1.921 5.842 -0.64300001 101 95 99
1.921 5.8400002 -0.64300001 85 62 54
1.913 5.8439999 -0.66600001 68 41 30
1.92 5.8340001 -0.67199999 93 48 17
1.92 5.8210001 -0.64600003 232 152 79
1.921 5.816 -0.65100002 254 171 101
1.921 5.8179998 -0.65399998 129 55 10
1.916 5.835 -0.66000003 83 31 18
1.929 5.8189998 -0.67299998 68 66 67
1.942 5.7719998 -0.78600001 79 48 30
1.941 5.7820001 -0.76800001 114 67 47
1.947 5.7880001 -0.76999998 36 12 2
1.952 5.789 -0.77499998 36 17 13
1.9529999 5.8049998 -0.759 91 60 42
1.914 5.7950001 -0.74199998 114 109 105
1.92 5.7880001 -0.74199998 195 137 89
1.919 5.796 -0.73799998 192 144 104
1.909 5.7950001 -0.74400002 73 42 13
1.931 5.7940001 -0.73900002 144 116 95
1.923 5.7870002 -0.745 82 54 33
1.924 5.7880001 -0.745 170 107 66
1.926 5.7810001 -0.76300001 97 58 41
1.946 5.8610001 -0.79900002 143 82 38
1.929 5.8660002 -0.79299998 183 129 67
1.923 5.862 -0.80299997 46 14 3
1.949 5.8039999 -0.75599998 103 62 40
1.949 5.8049998 -0.755 131 95 71
1.9579999 5.8460002 -0.81699997 183 135 95
1.932 5.8099999 -0.815 103 58 27
1.949 5.8150001 -0.82800001 155 116 85
1.932 5.816 -0.815 156 111 82
1.948 5.823 -0.82499999 81 52 18
1.9630001 5.8530002 -0.89300001 47 28 22
1.951 5.8559999 -0.89600003 100 63 44
1.9630001 5.8499999 -0.89999998 165 160 166
1.9579999 5.8499999 -0.87699997 21 9 9
1.9579999 5.8429999 -0.87900001 164 110 74
1.96 5.8559999 -0.93199998 116 70 37
1.9680001 5.8509998 -0.94 79 32 24
1.915 5.8600001 -0.80199999 36 7 1
1.897 5.8670001 -0.83099997 57 20 4
1.909 5.8540001 -0.82599998 41 20 17
1.896 5.8590002 -0.82300001 43 23 16
1.891 5.8660002 -0.81199998 151 130 125
1.888 5.862 -0.79900002 10 8 9
1.9450001 5.8670001 -0.80599999 119 71 48
1.928 5.8530002 -0.76800001 172 136 102
1.904 5.8169999 -0.48199999 170 129 85
1.88 5.7810001 -0.59100002 156 84 36
1.88 5.7820001 -0.58600003 194 135 79
1.86 5.776 -0.537 143 110 56
1.872 5.7880001 -0.57200003 63 27 3
1.874 5.789 -0.57599998 69 27 3
1.869 5.7820001 -0.57499999 51 27 17
1.868 5.7779999 -0.58600003 136 73 40
1.8559999 5.7849998 -0.57499999 54 27 16
1.849 5.8130002 -0.58099997 30 11 0
1.848 5.8099999 -0.57300001 41 24 8
1.83 5.8039999 -0.54100001 69 41 2
1.8380001 5.8010001 -0.54500002 46 18 6
1.84 5.8119998 -0.54400003 45 22 14
1.845 5.8000002 -0.59299999 64 29 9
1.916 5.7719998 -0.67299998 62 30 19
1.932 5.7779999 -0.662 155 122 107
1.925 5.8319998 -0.96899998 52 25 18
1.868 5.7909999 -0.537 135 98 79
1.868 5.7880001 -0.53799999 139 95 60
1.8660001 5.79 -0.54400003 78 43 23
1.868 5.7870002 -0.537 99 70 52
1.8380001 5.8200002 -0.51499999 151 125 102
1.846 5.7729998 -0.51200002 84 40 13
1.8839999 5.8179998 -0.49399999 255 218 176
1.875 5.8249998 -0.50199997 142 86 59
1.886 5.8109999 -0.48800001 69 42 25
1.892 5.8189998 -0.47499999 94 59 27
1.924 5.7839999 -0.86500001 115 60 19
1.933 5.7919998 -0.85799998 180 141 112
1.862 5.8060002 -0.671 72 52 41
1.854 5.8249998 -0.62300003 41 25 25
1.859 5.7839999 -0.59799999 111 67 42
1.854 5.777 -0.59200001 91 49 11
1.86 5.8060002 -0.62400001 37 23 22
1.859 5.809 -0.63999999 88 69 62
1.868 5.8080001 -0.63700002 88 69 62
1.858 5.803 -0.62199998 29 15 14
1.869 5.8280001 -0.61400002 43 13 3
1.849 5.7909999 -0.50599998 126 77 36
1.899 5.8379998 -0.699 130 117 109
1.92 5.7859998 -0.65200001 236 186 115
1.906 5.7839999 -0.65200001 114 86 65
1.8660001 5.8150001 -0.58200002 59 27 12
1.897 5.842 -0.53899997 63 43 36
1.895 5.8410001 -0.53600001 45 22 14
1.887 5.8340001 -0.50800002 71 44 35
1.887 5.8369999 -0.53100002 113 93 84
1.8710001 5.835 -0.498 49 18 0
1.8710001 5.822 -0.49599999 101 62 23
1.886 5.829 -0.56300002 76 52 40
1.906 5.8429999 -0.57300001 73 29 2
1.916 5.8579998 -0.565 19 1 0
1.9220001 5.8520002 -0.56300002 119 72 42
1.813 5.8060002 -0.53500003 96 70 55
1.8200001 5.809 -0.52899998 138 98 63
1.821 5.7969999 -0.52700001 167 120 94
1.852 5.8270001 -0.56199998 35 17 13
1.849 5.8200002 -0.55299997 23 7 7
1.883 5.8270001 -0.53799999 122 93 87
1.876 5.8530002 -0.495 119 77 52
1.901 5.8730001 -0.94800001 143 100 68
1.9119999 5.8899999 -0.93800002 86 70 70
1.901 5.8899999 -0.93400002 52 19 4
1.9220001 5.8130002 -0.958 202 154 132
1.913 5.8109999 -0.963 111 75 59
1.905 5.822 -0.96799999 69 34 2
1.895 5.8540001 -0.93000001 22 7 2
1.896 5.855 -0.93199998 24 8 8
1.897 5.8600001 -0.92900002 13 5 3
1.896 5.8569999 -0.92799997 133 116 108
1.899 5.8600001 -0.94099998 19 5 4
1.898 5.8579998 -0.935 23 8 3
1.898 5.8590002 -0.93400002 155 149 159
1.921 5.8559999 -0.47499999 45 16 0
1.9170001 5.848 -0.477 146 98 58
1.915 5.8330002 -0.47600001 168 130 85
1.915 5.835 -0.47499999 175 136 93
1.962 5.8210001 -0.89999998 173 134 103
1.959 5.822 -0.91500002 60 40 31
1.905 5.836 -0.92000002 163 127 93
1.9 5.848 -0.91500002 26 15 0
1.896 5.7950001 -0.88300002 77 45 22
1.891 5.7979999 -0.87900001 139 117 104
1.89 5.7969999 -0.88499999 123 92 71
1.9 5.79 -0.87199998 106 66 40
1.881 5.8309999 -0.81599998 123 86 67
1.895 5.8280001 -0.82300001 164 125 84
1.888 5.8319998 -0.81699997 151 119 98
1.8890001 5.8299999 -0.81 141 106 78
1.882 5.8390002 -0.80500001 93 56 37
1.881 5.8410001 -0.81 100 68 53
1.929 5.7909999 -0.833 75 49 32
1.932 5.8070002 -0.82300001 78 44 32
1.9299999 5.8039999 -0.829 159 127 114
1.924 5.7839999 -0.69800001 80 49 20
1.937 5.7820001 -0.67299998 150 122 108
1.938 5.7820001 -0.667 106 63 18
1.933 5.7779999 -0.66500002 170 131 72
1.929 5.7750001 -0.67000002 112 72 46
1.927 5.7740002 -0.66600001 120 75 42
1.928 5.8179998 -0.73000002 38 18 7
1.9299999 5.8210001 -0.708 105 77 53
1.929 5.8270001 -0.70700002 99 85 84
1.932 5.8060002 -0.73199999 230 207 191
1.928 5.8070002 -0.72899997 53 37 22
1.926 5.8119998 -0.71100003 82 47 25
1.9299999 5.8109999 -0.70300001 64 39 34
1.8789999 5.8060002 -0.699 48 7 1
1.8890001 5.8049998 -0.71100003 104 69 50
1.8890001 5.8130002 -0.722 101 78 72
1.895 5.8099999 -0.72100002 63 34 16
1.893 5.7989998 -0.69700003 43 20 12
1.902 5.8439999 -0.53100002 92 59 52
1.9 5.8390002 -0.51599997 42 25 17
1.899 5.842 -0.55199999 27 6 5
1.904 5.8470001 -0.55699998 16 1 0
1.895 5.8410001 -0.55699998 91 72 66
1.896 5.8390002 -0.55900002 99 78 47
1.902 5.8460002 -0.55699998 23 5 3
1.915 5.8530002 -0.48699999 253 175 111
1.914 5.8509998 -0.49200001 115 86 70
1.869 5.8340001 -0.48300001 139 101 54
1.873 5.8179998 -0.484 51 15 3
1.952 5.8779998 -0.97299999 91 96 99
1.951 5.8800001 -0.96600002 104 109 112
1.949 5.8769999 -0.96700001 94 99 102
1.961 5.8189998 -0.89200002 79 48 27
1.941 5.7989998 -0.87800002 112 84 70
1.936 5.8699999 -0.97600001 125 133 135
1.909 5.8239999 -0.977 26 9 2
1.909 5.8260002 -0.97899997 23 6 0
1.911 5.8239999 -0.98000002 16 1 0
1.8890001 5.8530002 -0.98400003 22 8 0
1.903 5.8590002 -0.98400003 14 0 0
1.902 5.8610001 -0.98400003 11 1 0
1.902 5.8509998 -0.98400003 42 21 0
1.898 5.8520002 -0.98299998 105 71 62
1.977 5.8299999 -0.96399999 60 23 17
1.971 5.8249998 -0.96200001 92 86 90
1.904 5.8629999 -0.95599997 122 116 116
1.943 5.8730001 -0.96200001 114 115 119
1.9170001 5.8109999 -0.95300001 63 21 7
1.947 5.8060002 -0.91799998 32 20 20
1.937 5.8150001 -0.88999999 164 161 170
1.971 5.816 -0.93099999 34 22 24
1.966 5.8119998 -0.92299998 125 95 71
1.95 5.809 -0.95899999 78 75 82
1.9450001 5.8200002 -0.96499997 54 33 32
1.947 5.8080001 -0.95300001 94 95 100
1.934 5.8130002 -0.95899999 43 13 3
1.949 5.809 -0.958 253 250 255
1.951 5.8140001 -0.95499998 95 100 104
1.974 5.816 -0.93300003 62 35 16
1.8789999 5.8499999 -0.59500003 32 13 7
1.881 5.8449998 -0.59299999 8 0 2
1.88 5.8429999 -0.59100002 72 64 62
1.959 5.816 -0.93699998 93 59 34
1.96 5.822 -0.94700003 169 146 128
1.985 5.8460002 -0.91500002 60 28 7
1.974 5.8509998 -0.89099997 181 139 91
1.977 5.823 -0.91299999 109 62 32
1.956 5.8499999 -0.90799999 165 123 75
1.955 5.8590002 -0.921 62 33 27
1.949 5.8509998 -0.90100002 74 35 20
1.946 5.8130002 -0.86299998 255 215 161
1.942 5.8099999 -0.85500002 249 213 163
1.897 5.855 -0.935 38 24 21
1.898 5.8559999 -0.93900001 120 108 108
1.925 5.8829999 -0.90799999 129 119 117
1.926 5.8860002 -0.898 83 43 18
1.931 5.8769999 -0.912 80 30 5
1.9 5.8660002 -0.93900001 7 3 4
1.8890001 5.8730001 -0.91900003 33 20 14
1.896 5.8569999 -0.92500001 97 84 78
1.9299999 5.875 -0.958 95 100 104
1.919 5.8670001 -0.94199997 79 85 85
1.9400001 5.8829999 -0.96799999 92 95 100
1.949 5.8800001 -0.96100003 103 108 111
1.942 5.8829999 -0.95700002 79 83 86
1.939 5.8800001 -0.94800001 93 94 98
1.902 5.8660002 -0.493 108 54 18
1.902 5.8569999 -0.50099999 65 34 13
1.887 5.8540001 -0.51599997 44 24 0
1.898 5.8559999 -0.50099999 198 164 162
1.915 5.8569999 -0.56199998 23 2 0
1.903 5.8579998 -0.47499999 163 116 86
1.946 5.8639998 -0.82300001 70 30 18
1.883 5.8639998 -0.61400002 89 68 49
1.921 5.8379998 -0.49000001 198 168 140
1.9119999 5.8460002 -0.495 123 96 87
1.9 5.8429999 -0.46599999 105 58 16
1.908 5.8449998 -0.46799999 202 161 109
1.891 5.849 -0.461 104 68 36
1.936 5.8210001 -0.75700003 123 69 23
1.936 5.8270001 -0.76999998 130 93 77
1.934 5.8239999 -0.76499999 35 2 0
1.931 5.8319998 -0.75599998 67 49 45
1.934 5.8109999 -0.78799999 80 51 33
1.929 5.803 -0.787 72 38 29
1.944 5.7979999 -0.68699998 104 73 55
1.929 5.7849998 -0.75 140 127 121
1.9400001 5.789 -0.745 40 7 0
1.873 5.8270001 -0.67699999 157 120 94
1.885 5.803 -0.69300002 87 50 42
1.8890001 5.8049998 -0.699 71 33 22
1.874 5.842 -0.75999999 126 82 55
1.876 5.842 -0.76599997 23 0 0
1.877 5.8400002 -0.76599997 87 77 75
1.895 5.7930002 -0.68400002 60 25 6
1.901 5.7940001 -0.68800002 41 22 24
1.91 5.7849998 -0.68599999 93 60 29
1.911 5.777 -0.69999999 70 46 34
1.909 5.7729998 -0.68000001 134 125 120
1.864 5.8179998 -0.68199998 115 67 47
1.8710001 5.8169999 -0.68699998 17 3 2
1.8710001 5.8200002 -0.67500001 142 90 68
1.86 5.8140001 -0.66000003 169 145 133
1.864 5.809 -0.67199999 33 13 6
1.869 5.8099999 -0.68099999 53 34 27
1.904 5.8379998 -0.67000002 66 45 42
1.905 5.8379998 -0.67299998 60 39 36
1.899 5.836 -0.67299998 45 4 0
1.9069999 5.8429999 -0.66600001 118 84 59
1.904 5.842 -0.66399997 69 18 0
1.881 5.8080001 -0.65200001 95 71 61
1.893 5.8499999 -0.63300002 28 21 13
1.886 5.8639998 -0.61500001 45 28 10
1.9 5.8449998 -0.63999999 14 7 0
1.896 5.8390002 -0.64399999 81 27 3
1.896 5.8379998 -0.66100001 76 23 5
1.872 5.8449998 -0.63700002 95 61 34
1.95 5.7950001 -0.77100003 38 21 14
1.939 5.8169999 -0.79500002 17 11 0
1.942 5.823 -0.78899997 109 77 52
1.938 5.8130002 -0.77899998 3 0 0
1.936 5.8119998 -0.78200001 112 76 50
1.951 5.8319998 -0.792 90 67 53
1.929 5.8179998 -0.80400002 80 42 19
1.943 5.8280001 -0.78500003 83 57 40
1.947 5.8109999 -0.74599999 201 178 160
1.9450001 5.8039999 -0.74699998 173 145 124
1.888 5.8330002 -0.71200001 72 60 60
1.893 5.8410001 -0.72100002 27 13 12
1.896 5.8439999 -0.73299998 9 0 1
1.877 5.8390002 -0.755 45 9 0
1.876 5.848 -0.75099999 80 61 63
1.905 5.8540001 -0.73400003 66 54 54
1.892 5.8590002 -0.745 133 94 77
1.885 5.8210001 -0.78899997 147 129 125
1.887 5.8299999 -0.79799998 57 28 14
1.893 5.8590002 -0.80000001 16 2 2
1.8890001 5.8600001 -0.76800001 32 7 0
1.896 5.8579998 -0.76899999 30 3 0
1.896 5.8579998 -0.78399998 100 71 55
1.9 5.8540001 -0.773 34 4 0
1.904 5.8509998 -0.77200001 54 15 0
1.905 5.8509998 -0.76700002 42 12 4
1.891 5.8299999 -0.82700002 124 90 62
1.882 5.849 -0.80699998 55 35 28
1.882 5.849 -0.81 71 43 32
1.881 5.842 -0.81300002 77 44 27
1.883 5.8569999 -0.80299997 102 60 35
1.895 5.8870001 -0.88599998 52 22 12
1.886 5.8639998 -0.47499999 225 202 161
1.892 5.862 -0.48100001 79 33 9
1.874 5.855 -0.47499999 43 17 0
1.906 5.855 -0.50400001 220 170 117
1.9 5.8449998 -0.52200001 91 69 56
1.8940001 5.8530002 -0.56300002 26 8 0
1.8940001 5.8499999 -0.56999999 24 11 2
1.8890001 5.8509998 -0.56999999 40 22 18
1.9450001 5.875 -0.85299999 54 24 22
1.948 5.8699999 -0.86400002 64 33 30
1.928 5.8800001 -0.84899998 123 112 106
1.921 5.8779998 -0.889 47 10 1
1.936 5.8649998 -0.88800001 213 192 175
1.928 5.8759999 -0.87 94 83 87
1.92 5.8870001 -0.89200002 89 50 33
1.92 5.8930001 -0.88999999 117 73 46
1.934 5.8629999 -0.90100002 53 28 24
1.941 5.8569999 -0.921 162 112 79
1.903 5.8709998 -0.84299999 25 4 1
1.905 5.816 -0.824 43 30 24
1.91 5.8099999 -0.76800001 50 17 2
1.977 5.8499999 -0.93900001 44 6 0
1.8890001 5.816 -0.76999998 48 12 0
1.913 5.8099999 -0.79100001 55 23 34
1.915 5.8080001 -0.79500002 54 35 31
1.92 5.809 -0.77899998 42 24 22
1.891 5.8169999 -0.75599998 111 71 36
1.8940001 5.8189998 -0.74900001 127 88 57
1.887 5.836 -0.74800003 124 79 48
1.8940001 5.8379998 -0.73699999 20 2 0
1.887 5.842 -0.745 99 71 59
1.906 5.835 -0.63099998 96 68 54
1.915 5.836 -0.64099997 109 84 77
1.914 5.829 -0.64399999 51 27 17
1.9119999 5.8449998 -0.63700002 131 116 113
1.901 5.8260002 -0.62800002 94 62 41
1.9 5.8369999 -0.60900003 100 71 53
1.904 5.835 -0.62800002 173 138 119
1.883 5.8369999 -0.676 45 22 6
1.915 5.8369999 -0.67000002 58 15 6
1.905 5.8330002 -0.68300003 48 27 24
1.941 5.8000002 -0.65399998 141 129 131
1.9349999 5.8039999 -0.662 185 134 105
1.942 5.796 -0.68300003 123 89 64
1.944 5.8010001 -0.68599999 89 58 40
1.932 5.8260002 -0.68699998 57 37 30
1.934 5.8249998 -0.68300003 66 67 69
1.938 5.8270001 -0.68599999 68 69 73
1.9170001 5.8330002 -0.65399998 102 37 7
1.944 5.7740002 -0.78600001 90 54 32
1.942 5.7719998 -0.792 101 66 44
1.92 5.7870002 -0.74299997 172 113 73
1.9170001 5.7820001 -0.74699998 60 24 10
1.923 5.7870002 -0.75800002 51 23 9
1.937 5.803 -0.74000001 149 108 80
1.941 5.802 -0.741 27 12 5
1.875 5.836 -0.76300001 147 111 85
1.92 5.849 -0.74800003 54 6 0
1.9299999 5.8439999 -0.76700002 85 53 42
1.92 5.849 -0.75 74 66 77
1.95 5.7859998 -0.77499998 24 0 0
1.951 5.7979999 -0.76599997 25 4 0
1.9630001 5.848 -0.82300001 195 161 133
1.955 5.8439999 -0.81300002 143 118 98
1.9529999 5.8470001 -0.80599999 152 96 49
1.937 5.8169999 -0.82499999 76 39 20
1.965 5.849 -0.83200002 175 140 110
1.97 5.8499999 -0.88599998 165 146 140
1.96 5.8509998 -0.88700002 132 88 53
1.974 5.8610001 -0.91100001 68 18 0
1.952 5.8540001 -0.85900003 22 10 14
1.9529999 5.8439999 -0.87599999 14 2 4
1.952 5.8369999 -0.87199998 54 24 22
1.934 5.848 -0.81999999 59 49 48
1.92 5.8579998 -0.80299997 102 71 53
1.942 5.8540001 -0.80800003 229 176 134
1.948 5.869 -0.94999999 12 0 4
1.946 5.8740001 -0.93199998 78 36 12
1.946 5.8639998 -0.93900001 46 29 37
1.95 5.8610001 -0.93099999 128 87 67
1.888 5.8649998 -0.81199998 26 2 2
1.885 5.862 -0.81699997 22 1 0
1.887 5.8559999 -0.82099998 85 58 49
1.886 5.8540001 -0.83200002 18 0 0
1.937 5.777 -0.77700001 62 25 6
1.947 5.849 -0.792 99 53 20
1.941 5.8590002 -0.79299998 169 107 58
1.877 5.783 -0.57700002 57 18 1
1.8789999 5.7930002 -0.58200002 78 34 9
1.878 5.7940001 -0.58200002 179 141 120
1.878 5.8000002 -0.58399999 176 152 140
1.88 5.8080001 -0.58899999 47 33 20
1.85 5.79 -0.56999999 126 101 81
1.8329999 5.7940001 -0.56999999 142 86 51
1.85 5.8169999 -0.57999998 51 26 19
1.852 5.8080001 -0.60000002 14 0 0
1.851 5.8049998 -0.597 15 1 0
1.9299999 5.8210001 -0.95499998 142 114 90
1.915 5.8309999 -0.95099998 98 55 21
1.926 5.823 -0.95099998 101 72 56
1.967 5.822 -0.95200002 67 63 64
1.9299999 5.816 -0.97500002 6 0 0
1.862 5.7969999 -0.509 75 52 44
1.8660001 5.7989998 -0.51200002 86 66 57
1.8430001 5.8150001 -0.51099998 84 35 5
1.849 5.822 -0.51200002 99 45 17
1.845 5.8210001 -0.514 154 132 109
1.836 5.8109999 -0.51099998 87 46 14
1.846 5.8070002 -0.51099998 168 121 75
1.846 5.7729998 -0.51099998 186 142 97
1.893 5.823 -0.49599999 131 95 61
1.892 5.8319998 -0.50599998 106 63 29
1.902 5.816 -0.48500001 224 194 160
1.926 5.7849998 -0.87199998 177 113 65
1.916 5.783 -0.87099999 26 6 0
1.934 5.7930002 -0.847 56 38 28
1.9630001 5.8470001 -0.83399999 148 111 84
1.955 5.8460002 -0.84200001 156 117 86
1.825 5.7969999 -0.537 90 55 27
1.869 5.8309999 -0.63999999 89 57 36
1.8660001 5.8309999 -0.639 48 15 8
1.863 5.8150001 -0.65700001 54 31 17
1.86 5.8049998 -0.667 55 31 21
1.853 5.8080001 -0.64899999 179 153 140
1.869 5.809 -0.64899999 56 20 0
1.855 5.816 -0.648 124 98 83
1.862 5.8150001 -0.66100001 119 90 74
1.869 5.7820001 -0.59399998 137 80 50
1.862 5.7870002 -0.62 115 85 74
1.857 5.7930002 -0.60500002 97 54 22
1.882 5.8060002 -0.61299998 70 29 9
1.881 5.8179998 -0.62 32 13 9
1.886 5.8060002 -0.625 62 39 25
1.888 5.8010001 -0.611 61 27 15
1.885 5.7950001 -0.61299998 67 24 5
1.842 5.7919998 -0.50999999 116 67 35
1.836 5.7810001 -0.51899999 197 153 104
1.906 5.8400002 -0.69499999 27 20 12
1.931 5.8460002 -0.708 216 179 135
1.9170001 5.8400002 -0.69800001 129 71 34
1.9299999 5.842 -0.70700002 100 64 38
1.928 5.835 -0.713 126 116 117
1.926 5.8299999 -0.72399998 20 2 0
1.924 5.8499999 -0.72899997 118 95 81
1.927 5.8060002 -0.65200001 119 77 65
1.925 5.8140001 -0.667 64 55 50
1.906 5.789 -0.65200001 104 78 61
1.8609999 5.8299999 -0.53799999 12 2 0
1.864 5.8060002 -0.53399998 118 69 29
1.862 5.8060002 -0.52899998 242 189 139
1.854 5.803 -0.55400002 114 87 70
1.85 5.8070002 -0.546 42 18 8
1.892 5.8379998 -0.52200001 39 6 0
1.9 5.8470001 -0.53399998 30 5 1
1.897 5.8429999 -0.52700001 73 43 32
1.905 5.849 -0.53899997 44 19 14
1.8710001 5.8439999 -0.49599999 65 31 32
1.855 5.8470001 -0.49399999 78 44 34
1.8710001 5.8559999 -0.48699999 60 18 0
1.885 5.8319998 -0.505 68 38 28
1.9 5.8379998 -0.565 75 31 6
1.8940001 5.8260002 -0.597 135 95 69
1.893 5.8299999 -0.59299999 103 78 58
1.853 5.8260002 -0.56199998 67 48 44
1.882 5.8309999 -0.583 69 29 4
1.882 5.8600001 -0.495 24 0 0
1.877 5.8569999 -0.48800001 69 31 12
1.89 5.8600001 -0.91000003 141 138 145
1.901 5.8649998 -0.94999999 11 1 0
1.901 5.8660002 -0.94300002 4 0 1
1.905 5.783 -0.86900002 109 74 52
1.908 5.7820001 -0.86500001 134 87 57
1.898 5.7870002 -0.85399997 95 62 47
1.901 5.8150001 -0.89300001 59 39 30
1.902 5.8179998 -0.89600003 151 149 152
1.9 5.8189998 -0.88599998 24 5 7
1.899 5.8119998 -0.88800001 250 244 244
1.914 5.8210001 -0.95599997 164 112 72
1.904 5.835 -0.88999999 102 66 42
1.897 5.8400002 -0.88099998 37 9 0
1.903 5.8330002 -0.89999998 39 12 1
1.899 5.8099999 -0.875 106 92 89
1.898 5.8070002 -0.86900002 37 19 15
1.899 5.7930002 -0.87300003 147 105 83
1.932 5.7880001 -0.83600003 67 45 32
1.934 5.7950001 -0.86400002 72 33 4
1.928 5.7950001 -0.704 25 7 3
1.936 5.783 -0.66299999 204 161 110
1.937 5.7800002 -0.66900003 166 129 87
1.938 5.7859998 -0.68300003 41 3 0
1.931 5.783 -0.685 67 29 10
1.927 5.776 -0.66100001 244 218 143
1.928 5.776 -0.662 244 210 139
1.938 5.802 -0.69499999 98 79 75
1.928 5.8000002 -0.70300001 72 33 4
1.927 5.8099999 -0.70700002 83 46 19
1.883 5.8169999 -0.713 90 71 56
1.904 5.8000002 -0.69700003 112 93 86
1.895 5.8080001 -0.70999998 64 21 12
1.915 5.8470001 -0.49000001 181 147 102
1.959 5.8210001 -0.88200003 128 96 73
1.9680001 5.835 -0.884 23 11 11
1.967 5.8379998 -0.88300002 85 55 53
1.9630001 5.8319998 -0.87900001 200 182 178
1.927 5.79 -0.87699997 210 140 88
1.899 5.868 -0.98699999 134 110 98
1.913 5.8309999 -0.98400003 36 17 11
1.903 5.8559999 -0.98299998 24 7 0
1.899 5.8600001 -0.98400003 25 10 7
1.913 5.8189998 -0.97500002 32 7 3
1.972 5.8270001 -0.96799999 88 86 89
1.969 5.8239999 -0.963 73 67 71
1.9 5.8590002 -0.98299998 18 4 1
1.886 5.855 -0.98299998 54 34 27
1.921 5.8850002 -0.93400002 104 69 41
1.918 5.8870001 -0.93800002 110 80 56
1.9400001 5.8060002 -0.85299999 227 190 146
1.923 5.8130002 -0.95599997 181 125 98
1.9299999 5.8130002 -0.95599997 94 47 29
1.918 5.8109999 -0.95200002 105 54 37
1.925 5.7880001 -0.87900001 142 80 31
1.939 5.809 -0.93699998 100 99 105
1.9859999 5.835 -0.94300002 141 121 110
1.9859999 5.8390002 -0.91900003 141 107 79
1.946 5.822 -0.96200001 255 245 251
1.948 5.8439999 -0.94800001 74 36 33
1.946 5.8260002 -0.94999999 84 81 88
1.9299999 5.8520002 -0.94599998 10 4 4
1.892 5.8470001 -0.57800001 16 9 1
1.881 5.8429999 -0.588 10 0 1
1.946 5.8779998 -0.94 60 59 64
1.941 5.8800001 -0.93099999 182 141 123
1.901 5.8520002 -0.92900002 31 12 8
1.909 5.8579998 -0.95899999 154 140 139
1.916 5.829 -0.97500002 65 23 9
1.923 5.881 -0.89700001 96 82 79
1.891 5.8769999 -0.912 29 4 0
1.877 5.8629999 -0.90600002 127 115 119
1.893 5.8610001 -0.91500002 152 151 159
1.915 5.881 -0.93599999 200 162 125
1.906 5.8730001 -0.94800001 16 10 12
1.897 5.862 -0.92299998 111 106 112
1.923 5.875 -0.92900002 57 20 11
1.921 5.8769999 -0.93000001 87 50 23
1.9119999 5.8169999 -0.92299998 138 101 75
1.921 5.8189998 -0.93199998 131 83 63
1.929 5.8109999 -0.92900002 106 104 115
1.9400001 5.8829999 -0.96600002 96 100 103
1.938 5.8800001 -0.96200001 100 105 108
1.939 5.881 -0.958 85 90 93
1.902 5.8629999 -0.484 85 54 33
1.8890001 5.8610001 -0.48699999 69 25 0
1.901 5.8439999 -0.57200003 28 9 5
1.8789999 5.8559999 -0.60299999 13 0 0
1.91 5.8390002 -0.49700001 132 90 52
1.9069999 5.8340001 -0.49599999 189 175 114
1.915 5.8410001 -0.47499999 190 105 24
1.923 5.8330002 -0.48800001 210 165 132
1.8890001 5.8470001 -0.46000001 171 132 101
1.8839999 5.8569999 -0.46900001 105 60 19
1.9 5.8270001 -0.472 245 208 138
1.921 5.8070002 -0.79400003 42 20 7
1.943 5.8169999 -0.759 100 79 62
1.9400001 5.8309999 -0.77399999 84 52 41
1.942 5.8150001 -0.75 63 39 29
1.937 5.8099999 -0.77899998 132 89 55
1.885 5.803 -0.69099998 45 17 5
1.876 5.8439999 -0.76700002 22 6 6
1.855 5.7989998 -0.60699999 28 4 0
1.8559999 5.8099999 -0.61000001 18 4 1
1.9069999 5.7839999 -0.68099999 156 116 91
1.911 5.7729998 -0.68099999 129 75 41
1.878 5.8260002 -0.67199999 15 0 0
1.877 5.8249998 -0.66900003 17 1 1
1.863 5.8150001 -0.66299999 160 132 120
1.87 5.8200002 -0.66399997 28 7 2
1.868 5.8189998 -0.667 62 34 20
1.876 5.8239999 -0.60000002 34 4 2
1.887 5.7839999 -0.59399998 164 119 80
1.8890001 5.8000002 -0.58899999 168 138 114
1.88 5.8530002 -0.60399997 97 83 82
1.883 5.8509998 -0.61000001 155 127 88
1.886 5.849 -0.61199999 61 31 3
1.8839999 5.8280001 -0.611 79 59 52
1.904 5.8470001 -0.63700002 91 54 27
1.89 5.8369999 -0.653 24 7 0
1.88 5.8309999 -0.64399999 120 106 97
1.9450001 5.8309999 -0.80199999 72 40 17
1.9400001 5.8299999 -0.82099998 115 85 57
1.942 5.8270001 -0.78200001 50 19 1
1.942 5.8000002 -0.69400001 141 97 70
1.947 5.8039999 -0.75300002 132 94 71
1.928 5.829 -0.73400003 115 105 106
1.927 5.829 -0.73900002 64 45 30
1.926 5.8379998 -0.73199999 152 118 93
1.8890001 5.8520002 -0.74599999 66 37 21
1.908 5.8520002 -0.76300001 36 11 6
1.896 5.8579998 -0.75 63 27 13
1.88 5.8379998 -0.78899997 55 17 0
1.881 5.8400002 -0.79400003 35 6 0
1.88 5.8429999 -0.80199999 19 4 1
1.89 5.8610001 -0.81900001 17 6 4
1.891 5.8590002 -0.82999998 177 168 173
1.882 5.8379998 -0.824 86 45 27
1.8839999 5.836 -0.83200002 82 54 33
1.885 5.8340001 -0.82599998 116 71 38
1.868 5.8569999 -0.484 47 23 19
1.8940001 5.862 -0.47499999 91 75 76
1.899 5.8429999 -0.55500001 25 4 1
1.878 5.8600001 -0.61400002 51 40 36
1.877 5.8590002 -0.61000001 45 11 2
1.913 5.8909998 -0.87599999 5 1 0
1.939 5.8600001 -0.92199999 208 197 203
1.903 5.882 -0.87 151 121 111
1.9069999 5.8829999 -0.86699998 18 2 2
1.904 5.8790002 -0.861 24 9 6
1.91 5.8839998 -0.86699998 37 26 24
1.905 5.8779998 -0.86000001 30 19 17
1.9170001 5.8829999 -0.86400002 131 85 36
1.882 5.848 -0.815 147 143 157
1.885 5.8509998 -0.81999999 140 134 144
1.909 5.849 -0.77100003 35 6 0
1.933 5.8330002 -0.76899999 100 74 51
1.925 5.8000002 -0.81199998 103 72 51
1.919 5.803 -0.81800002 149 99 66
1.8890001 5.8299999 -0.83899999 112 88 76
1.89 5.8260002 -0.847 51 26 21
1.89 5.8260002 -0.83700001 133 107 94
1.9170001 5.8080001 -0.81999999 92 64 43
1.91 5.822 -0.81599998 43 28 21
1.901 5.8200002 -0.773 55 27 16
1.9859999 5.8509998 -0.92199999 79 47 26
1.973 5.8530002 -0.926 200 149 128
1.971 5.8610001 -0.92000002 106 59 43
1.973 5.849 -0.94599998 133 123 122
1.885 5.8340001 -0.75 147 87 37
1.905 5.8200002 -0.78500003 34 9 4
1.898 5.8249998 -0.792 86 57 39
1.914 5.816 -0.796 42 24 24
1.9069999 5.8260002 -0.79900002 20 1 0
1.901 5.8410001 -0.60699999 110 82 60
1.901 5.8410001 -0.611 62 10 0
1.906 5.8410001 -0.62699997 58 25 6
1.895 5.8270001 -0.61699998 95 57 36
1.8789999 5.8319998 -0.68300003 61 43 39
1.9400001 5.7950001 -0.65799999 144 113 92
1.9400001 5.7909999 -0.68400002 173 120 70
1.934 5.8060002 -0.67199999 117 86 81
1.942 5.8039999 -0.68199998 123 56 11
1.919 5.842 -0.65499997 102 80 67
1.941 5.7810001 -0.773 52 32 23
1.923 5.7979999 -0.736 192 151 95
1.92 5.7950001 -0.73900002 194 141 87
1.921 5.802 -0.73299998 60 14 1
1.9119999 5.7989998 -0.75800002 48 30 18
1.911 5.7989998 -0.75099999 39 10 4
1.9170001 5.7849998 -0.74900001 92 59 44
1.915 5.8559999 -0.741 52 21 3
1.9170001 5.8509998 -0.74599999 121 103 99
1.92 5.8540001 -0.71899998 124 94 66
1.934 5.8179998 -0.745 146 121 116
1.931 5.8249998 -0.745 51 29 16
1.946 5.7909999 -0.764 76 48 34
1.951 5.8369999 -0.82300001 151 128 110
1.954 5.8439999 -0.81099999 183 126 73
1.931 5.8060002 -0.833 207 164 145
1.949 5.8629999 -0.85900003 12 9 16
1.956 5.8369999 -0.87699997 181 152 120
1.957 5.8330002 -0.875 73 60 67
1.918 5.8439999 -0.81800002 46 22 20
1.915 5.849 -0.80699998 46 25 24
1.918 5.8559999 -0.829 134 120 117
1.955 5.8439999 -0.949 57 15 0
1.95 5.8509998 -0.93800002 89 75 74
1.906 5.8569999 -0.81300002 31 0 0
1.901 5.8590002 -0.80500001 116 99 92
1.903 5.8579998 -0.801 119 116 127
1.887 5.8639998 -0.81400001 139 136 145
1.941 5.8579998 -0.79299998 77 65 69
1.877 5.7800002 -0.59399998 74 46 34
1.878 5.7810001 -0.58899999 153 72 25
1.877 5.7849998 -0.57599998 36 6 0
1.851 5.7909999 -0.56699997 75 42 9
1.865 5.7800002 -0.53600001 91 63 49
1.857 5.7940001 -0.574 81 50 30
1.852 5.7989998 -0.56199998 69 33 11
1.874 5.7820001 -0.59500003 158 89 32
1.8710001 5.7789998 -0.58700001 183 114 75
1.874 5.8060002 -0.58600003 78 51 40
1.834 5.7969999 -0.57599998 83 41 19
1.859 5.8119998 -0.59799999 114 97 89
1.858 5.8150001 -0.58899999 31 13 11
1.851 5.8070002 -0.597 13 1 1
1.927 5.7820001 -0.68699998 84 57 38
1.9400001 5.8070002 -0.94199997 96 99 104
1.8559999 5.789 -0.509 33 2 0
1.857 5.8010001 -0.505 35 17 13
1.8710001 5.803 -0.52200001 130 98 85
1.8660001 5.7919998 -0.53100002 136 91 50
1.862 5.809 -0.51800001 41 8 3
1.867 5.7859998 -0.52399999 159 108 65
1.865 5.79 -0.51899999 106 73 28
1.84 5.8070002 -0.51200002 93 29 2
1.893 5.8179998 -0.493 118 79 46
1.898 5.8179998 -0.49000001 143 95 57
1.9349999 5.7989998 -0.84899998 118 75 59
1.954 5.8590002 -0.85500002 65 37 26
1.952 5.8559999 -0.87599999 53 24 18
1.836 5.7800002 -0.551 105 76 46
1.835 5.7800002 -0.54699999 191 164 135
1.8329999 5.7800002 -0.54299998 183 158 138
1.829 5.7969999 -0.53899997 108 58 35
1.826 5.8070002 -0.53799999 64 25 8
1.873 5.8119998 -0.68699998 58 41 33
1.86 5.809 -0.64899999 96 64 53
1.864 5.8099999 -0.64099997 53 29 19
1.875 5.8039999 -0.63800001 91 64 34
1.878 5.8060002 -0.64999998 86 56 45
1.857 5.8270001 -0.62300003 24 4 3
1.8559999 5.8189998 -0.62 30 6 2
1.8710001 5.8210001 -0.64499998 43 19 19
1.876 5.8280001 -0.64300001 34 21 13
1.877 5.8210001 -0.65499997 85 66 62
1.8559999 5.8049998 -0.62300003 46 32 31
1.869 5.8080001 -0.63300002 63 45 41
1.92 5.8000002 -0.64700001 126 78 58
1.91 5.8070002 -0.64899999 65 14 0
1.915 5.8000002 -0.65100002 98 40 3
1.916 5.8099999 -0.65200001 142 77 35
1.913 5.7969999 -0.65200001 97 82 79
1.899 5.836 -0.67699999 38 0 0
1.897 5.8379998 -0.68599999 16 7 2
1.902 5.835 -0.68099999 30 1 0
1.909 5.8520002 -0.708 108 97 101
1.937 5.836 -0.704 79 51 47
1.933 5.849 -0.71200001 119 90 48
1.906 5.8540001 -0.73500001 78 64 63
1.913 5.8429999 -0.69800001 146 107 78
1.914 5.7940001 -0.65200001 71 49 52
1.931 5.8080001 -0.66100001 119 99 90
1.902 5.7880001 -0.66299999 81 53 32
1.8559999 5.8080001 -0.56599998 58 25 8
1.852 5.823 -0.51999998 59 24 5
1.8559999 5.8169999 -0.53600001 108 58 25
1.859 5.7969999 -0.542 146 93 59
1.902 5.8449998 -0.53399998 43 14 8
1.901 5.8449998 -0.537 28 8 1
1.885 5.849 -0.51300001 99 43 0
1.898 5.8390002 -0.53399998 73 29 4
1.908 5.8499999 -0.542 42 17 10
1.9 5.8439999 -0.52600002 112 83 69
1.902 5.8470001 -0.53899997 37 16 11
1.896 5.842 -0.528 46 16 6
1.895 5.8410001 -0.53100002 92 70 59
1.8940001 5.8410001 -0.53399998 40 18 7
1.86 5.842 -0.49700001 142 107 111
1.869 5.8390002 -0.49599999 35 1 2
1.874 5.8340001 -0.49900001 133 92 88
1.869 5.835 -0.493 84 41 0
1.881 5.8239999 -0.49599999 100 63 34
1.821 5.8140001 -0.53399998 152 106 83
1.825 5.7979999 -0.52100003 254 207 161
1.848 5.8239999 -0.537 16 2 1
1.842 5.816 -0.54000002 19 0 0
1.882 5.8260002 -0.583 114 95 88
1.885 5.8239999 -0.58700001 50 28 14
1.885 5.836 -0.57200003 53 30 22
1.88 5.8379998 -0.588 113 95 91
1.881 5.8429999 -0.59200001 63 53 51
1.887 5.8299999 -0.56199998 44 20 10
1.891 5.835 -0.56400001 93 67 54
1.895 5.8390002 -0.57499999 164 139 132
1.8940001 5.8379998 -0.56599998 57 33 23
1.8839999 5.8629999 -0.498 33 6 0
1.878 5.8509998 -0.47299999 57 33 21
1.876 5.8540001 -0.47400001 233 210 143
1.904 5.8530002 -0.47099999 229 199 139
1.908 5.8509998 -0.47099999 145 96 66
1.959 5.822 -0.89999998 117 100 92
1.906 5.7810001 -0.85799998 59 32 15
1.903 5.8119998 -0.89399999 169 160 161
1.9119999 5.8119998 -0.95700002 74 44 34
1.911 5.8140001 -0.963 126 83 48
1.908 5.8150001 -0.90700001 125 85 50
1.905 5.8210001 -0.903 145 141 142
1.909 5.8130002 -0.903 174 129 88
1.906 5.8000002 -0.89300001 156 155 163
1.916 5.8119998 -0.95099998 42 2 0
1.909 5.8189998 -0.912 113 78 46
1.925 5.8130002 -0.93800002 96 58 22
1.9220001 5.816 -0.94099998 42 12 4
1.905 5.8249998 -0.90399998 49 29 28
1.901 5.8429999 -0.89300001 37 6 3
1.898 5.8499999 -0.88099998 35 8 1
1.892 5.8330002 -0.861 45 17 13
1.898 5.8239999 -0.85799998 58 20 7
1.898 5.823 -0.86799997 36 2 0
1.893 5.7909999 -0.861 170 146 134
1.934 5.7909999 -0.83700001 20 0 0
1.936 5.7870002 -0.83899999 15 0 0
1.939 5.7849998 -0.66399997 179 133 97
1.929 5.777 -0.66100001 240 214 140
1.936 5.7839999 -0.66100001 195 149 100
1.936 5.7849998 -0.66000003 150 100 65
1.936 5.8060002 -0.69599998 152 107 65
1.891 5.8049998 -0.70300001 71 27 14
1.919 5.7870002 -0.70300001 110 101 102
1.918 5.7810001 -0.69999999 86 71 64
1.906 5.829 -0.495 155 140 73
1.965 5.835 -0.88099998 179 161 151
1.906 5.7880001 -0.87099999 136 89 59
1.936 5.8709998 -0.95300001 116 121 124
1.902 5.8559999 -0.98299998 26 8 4
1.91 5.8179998 -0.96799999 189 146 112
1.971 5.835 -0.97299999 96 85 89
1.971 5.8340001 -0.96700001 11 2 7
1.971 5.8249998 -0.95999998 95 89 91
1.969 5.8249998 -0.95599997 86 80 80
1.8890001 5.8520002 -0.98299998 34 20 11
1.91 5.8439999 -0.93699998 30 10 11
1.914 5.8340001 -0.94300002 77 35 10
1.913 5.8509998 -0.94499999 24 1 0
1.916 5.836 -0.93800002 120 82 46
1.9119999 5.8860002 -0.93400002 150 120 110
1.9220001 5.8839998 -0.93599999 76 45 25
1.941 5.8099999 -0.852 205 179 142
1.929 5.8130002 -0.954 91 41 18
1.925 5.7950001 -0.88200003 185 119 67
1.916 5.8119998 -0.97100002 44 15 0
1.932 5.8140001 -0.96499997 61 23 12
1.985 5.8470001 -0.92699999 128 127 135
1.883 5.849 -0.59500003 82 68 67
1.949 5.8119998 -0.91900003 25 13 13
1.937 5.8260002 -0.94400001 153 146 153
1.976 5.8520002 -0.91100001 166 113 71
1.979 5.8460002 -0.91000003 141 84 41
1.941 5.8800001 -0.935 53 16 0
1.941 5.8800001 -0.94 51 18 1
1.9450001 5.875 -0.94300002 95 96 101
1.944 5.8720002 -0.93800002 93 86 93
1.954 5.8249998 -0.87699997 135 125 123
1.947 5.8239999 -0.87 79 42 13
1.9170001 5.881 -0.92900002 103 57 21
1.915 5.8889999 -0.90499997 177 145 132
1.9220001 5.8639998 -0.96100003 146 131 128
1.941 5.8800001 -0.94499999 47 16 0
1.928 5.875 -0.91000003 34 4 0
1.903 5.8889999 -0.91299999 198 156 118
1.91 5.8870001 -0.90399998 126 96 88
1.903 5.8889999 -0.89999998 102 65 38
1.901 5.8660002 -0.94599998 7 1 1
1.901 5.8649998 -0.94499999 8 0 0
1.901 5.868 -0.93900001 7 1 3
1.898 5.8629999 -0.93199998 5 0 0
1.897 5.8569999 -0.93199998 22 5 0
1.897 5.855 -0.92500001 65 50 47
1.937 5.8699999 -0.92299998 38 38 40
1.891 5.8610001 -0.484 125 80 51
1.959 5.8610001 -0.82800001 33 15 15
1.896 5.8520002 -0.60299999 105 71 44
1.901 5.8410001 -0.59600002 102 65 46
1.9 5.8460002 -0.60299999 75 19 0
1.874 5.8559999 -0.60399997 32 8 4
1.95 5.8330002 -0.79699999 90 71 57
1.859 5.8150001 -0.60799998 127 99 78
1.918 5.776 -0.68400002 35 10 3
1.8660001 5.8179998 -0.66600001 65 47 43
1.872 5.822 -0.66399997 19 0 0
1.869 5.8200002 -0.66600001 54 28 15
1.885 5.8049998 -0.63 85 65 56
1.8839999 5.803 -0.64300001 122 81 49
1.886 5.8049998 -0.64300001 80 59 56
1.885 5.783 -0.59399998 157 107 72
1.882 5.7820001 -0.58999997 212 152 102
1.883 5.7839999 -0.602 90 44 20
1.885 5.7849998 -0.588 200 157 123
1.902 5.829 -0.63499999 82 50 25
1.872 5.855 -0.60799998 123 77 54
1.906 5.8470001 -0.64300001 81 50 32
1.9 5.8460002 -0.63499999 69 38 43
1.89 5.8369999 -0.64399999 26 11 4
1.9450001 5.8340001 -0.81999999 92 59 28
1.9400001 5.802 -0.69400001 56 25 4
1.944 5.802 -0.75 115 78 51
1.9220001 5.842 -0.73699999 110 73 47
1.923 5.8319998 -0.745 129 92 66
1.888 5.8280001 -0.72500002 118 109 112
1.909 5.8070002 -0.73199999 78 37 15
1.904 5.8130002 -0.71799999 120 66 42
1.901 5.8140001 -0.72799999 185 149 135
1.899 5.849 -0.73699999 7 0 1
1.9 5.849 -0.736 33 22 26
1.8839999 5.823 -0.77200001 39 16 0
1.88 5.8309999 -0.77999997 109 104 110
1.877 5.8319998 -0.79100001 112 77 47
1.896 5.8600001 -0.78799999 52 22 11
1.8789999 5.8499999 -0.75400001 17 3 3
1.892 5.8610001 -0.83399999 20 1 0
1.888 5.8559999 -0.82499999 84 60 50
1.882 5.869 -0.87599999 25 7 5
1.8839999 5.8709998 -0.87699997 57 42 39
1.885 5.8699999 -0.88300002 18 2 2
1.9 5.8730001 -0.852 12 1 0
1.902 5.875 -0.85699999 14 0 0
1.906 5.8759999 -0.85799998 43 11 0
1.88 5.8660002 -0.87099999 22 1 0
1.878 5.8569999 -0.87099999 143 120 102
1.91 5.8920002 -0.89399999 137 100 82
1.904 5.8899999 -0.88800001 167 134 117
1.9 5.8930001 -0.89200002 148 110 89
1.882 5.8610001 -0.48500001 127 106 89
1.865 5.8509998 -0.47999999 61 25 1
1.898 5.8439999 -0.51899999 69 43 30
1.874 5.8579998 -0.60799998 60 22 11
1.8890001 5.8449998 -0.62400001 83 43 18
1.888 5.8600001 -0.61299998 46 8 0
1.936 5.8699999 -0.85600001 35 5 0
1.937 5.8670001 -0.86699998 64 21 15
1.937 5.8670001 -0.87199998 147 104 72
1.943 5.8610001 -0.87099999 80 43 25
1.9349999 5.8639998 -0.88499999 231 212 198
1.9119999 5.8889999 -0.87300003 11 3 1
1.924 5.8800001 -0.86500001 139 128 132
1.909 5.8790002 -0.86299998 35 8 0
1.914 5.875 -0.85600001 135 123 125
1.887 5.8740001 -0.86699998 9 0 0
1.882 5.8460002 -0.815 31 6 1
1.887 5.8530002 -0.82300001 33 5 1
1.887 5.8540001 -0.82200003 56 28 16
1.883 5.8410001 -0.82499999 75 37 18
1.901 5.8330002 -0.81 93 61 50
1.892 5.8319998 -0.80699998 50 17 0
1.92 5.8410001 -0.64600003 105 100 104
1.901 5.8400002 -0.59899998 23 0 0
1.899 5.8379998 -0.60100001 81 47 22
1.901 5.842 -0.60699999 73 21 0
1.898 5.8470001 -0.61199999 105 79 64
1.908 5.8379998 -0.634 128 61 6
1.901 5.8429999 -0.62900001 109 81 60
1.895 5.8260002 -0.611 126 82 55
1.895 5.8249998 -0.62699997 90 51 12
1.9170001 5.8429999 -0.653 119 113 115
1.938 5.7779999 -0.77600002 62 26 10
1.925 5.803 -0.73000002 219 190 148
1.929 5.803 -0.73400003 113 75 39
1.918 5.7909999 -0.75300002 36 8 4
1.9170001 5.783 -0.74800003 62 25 9
1.931 5.7839999 -0.759 91 62 20
1.947 5.7950001 -0.76200002 32 8 4
1.9579999 5.8470001 -0.82800001 163 128 98
1.936 5.8010001 -0.84100002 102 74 63
1.948 5.862 -0.86500001 76 47 43
1.955 5.855 -0.88099998 120 70 37
1.944 5.8260002 -0.85799998 78 50 46
1.9630001 5.8439999 -0.954 60 20 18
1.896 5.8600001 -0.81800002 185 162 156
1.937 5.8319998 -0.77200001 80 50 39
1.891 5.836 -0.84500003 88 57 37
1.8890001 5.8470001 -0.83600003 44 18 5
1.8890001 5.8439999 -0.838 72 44 33
1.892 5.8460002 -0.84500003 78 41 33
1.923 5.8470001 -0.80699998 117 99 95
1.9400001 5.8499999 -0.79100001 131 85 26
1.9400001 5.8439999 -0.787 139 89 54
1.849 5.789 -0.56599998 146 117 87
1.867 5.7839999 -0.602 141 105 89
1.8609999 5.8130002 -0.57300001 67 34 17
1.862 5.8109999 -0.57499999 57 24 5
1.87 5.8010001 -0.58200002 130 104 91
1.875 5.823 -0.597 31 1 0
1.875 5.823 -0.59500003 36 7 1
1.865 5.8210001 -0.58999997 43 21 8
1.919 5.7729998 -0.67900002 103 76 65
1.929 5.8260002 -0.94499999 72 47 43
1.918 5.8239999 -0.963 131 79 42
1.915 5.8239999 -0.96700001 90 42 19
1.859 5.7909999 -0.50999999 22 0 0
1.8559999 5.802 -0.505 72 52 41
1.834 5.7950001 -0.51999998 83 22 1
1.834 5.79 -0.52200001 79 25 0
1.841 5.7880001 -0.514 189 133 82
1.8559999 5.7940001 -0.53299999 211 172 115
1.8559999 5.7750001 -0.523 136 115 110
1.9579999 5.8499999 -0.85000002 94 64 53
1.841 5.783 -0.55900002 41 14 0
1.8609999 5.8280001 -0.63 78 57 56
1.86 5.8260002 -0.62800002 25 4 1
1.863 5.8189998 -0.63099998 23 5 5
1.859 5.816 -0.625 15 1 0
1.88 5.7930002 -0.62599999 65 35 9
1.867 5.7870002 -0.61699998 62 44 40
1.88 5.7919998 -0.61400002 163 129 101
1.886 5.8060002 -0.62800002 102 80 67
1.8789999 5.8010001 -0.63999999 63 48 45
1.863 5.79 -0.61900002 98 79 75
1.886 5.7859998 -0.60100001 148 106 81
1.9069999 5.803 -0.653 127 99 87
1.904 5.7979999 -0.65700001 139 113 100
1.896 5.8080001 -0.65100002 43 16 5
1.857 5.7859998 -0.509 132 93 78
1.896 5.842 -0.72600001 36 24 26
1.902 5.7880001 -0.66000003 92 43 26
1.891 5.8039999 -0.65600002 87 70 63
1.855 5.8070002 -0.56400001 76 43 28
1.851 5.8210001 -0.54299998 33 14 10
1.8609999 5.7839999 -0.54500002 104 52 28
1.85 5.796 -0.53899997 144 114 86
1.86 5.777 -0.54299998 77 48 34
1.86 5.7880001 -0.54699999 151 81 30
1.851 5.7969999 -0.55800003 134 101 82
1.854 5.79 -0.54799998 137 101 69
1.859 5.7820001 -0.54500002 99 58 36
1.897 5.8330002 -0.51700002 92 50 25
1.901 5.8470001 -0.53600001 23 0 0
1.9 5.8400002 -0.56199998 68 44 32
1.895 5.8270001 -0.59799999 103 79 69
1.903 5.8429999 -0.574 81 49 28
1.897 5.8390002 -0.57999998 79 58 53
1.897 5.8429999 -0.57999998 72 48 24
1.901 5.842 -0.57200003 59 10 0
1.8380001 5.8210001 -0.523 96 40 7
1.852 5.822 -0.53200001 11 3 1
1.88 5.842 -0.58899999 68 60 58
1.8890001 5.8369999 -0.574 118 94 84
1.887 5.8390002 -0.56800002 69 51 41
1.891 5.8590002 -0.90600002 88 92 95
1.897 5.8569999 -0.90899998 96 89 97
1.903 5.8520002 -0.90499997 104 67 40
1.936 5.8210001 -0.90399998 115 83 68
1.913 5.8119998 -0.95499998 50 21 15
1.9170001 5.8189998 -0.95099998 164 115 75
1.9119999 5.8130002 -0.958 35 7 0
1.9119999 5.8119998 -0.90499997 104 60 21
1.9069999 5.8080001 -0.89600003 32 4 0
1.921 5.796 -0.88700002 122 64 16
1.923 5.8039999 -0.89700001 154 149 156
1.906 5.8000002 -0.89099997 106 72 45
1.918 5.8249998 -0.94099998 78 38 13
1.919 5.8270001 -0.93599999 72 36 2
1.905 5.8369999 -0.89999998 47 18 10
1.905 5.829 -0.90600002 52 24 12
1.904 5.822 -0.89999998 154 150 151
1.904 5.822 -0.898 81 77 76
1.9 5.8130002 -0.88 18 4 3
1.897 5.796 -0.86000001 150 126 116
1.882 5.848 -0.80900002 78 51 42
1.91 5.8010001 -0.83399999 109 99 98
1.9400001 5.796 -0.68900001 213 165 117
1.936 5.7930002 -0.69099998 151 97 50
1.9400001 5.8099999 -0.69099998 161 124 82
1.941 5.8060002 -0.69 54 18 4
1.9349999 5.8150001 -0.685 65 13 0
1.9299999 5.8070002 -0.69999999 147 100 56
1.927 5.8239999 -0.67900002 80 36 7
1.932 5.8169999 -0.68000001 76 47 41
1.905 5.8410001 -0.49900001 75 29 0
1.921 5.7909999 -0.87800002 152 94 48
1.914 5.7940001 -0.88099998 120 68 21
1.934 5.8769999 -0.96100003 107 110 115
1.933 5.8720002 -0.949 113 118 121
1.918 5.816 -0.98000002 48 26 15
1.972 5.8330002 -0.96700001 2 0 5
1.905 5.8569999 -0.95499998 174 163 159
1.936 5.8769999 -0.95300001 91 96 99
1.937 5.8610001 -0.94300002 48 20 8
1.931 5.8109999 -0.94999999 55 25 15
1.931 5.8109999 -0.94700003 63 32 27
1.926 5.8070002 -0.89600003 149 146 155
1.927 5.8099999 -0.89499998 165 162 171
1.926 5.8140001 -0.89899999 99 65 40
1.932 5.8099999 -0.93199998 100 99 107
1.9170001 5.8119998 -0.97600001 90 60 36
1.978 5.842 -0.90700001 87 47 21
1.881 5.8530002 -0.59899998 37 16 13
1.882 5.8509998 -0.597 37 18 12
1.89 5.8569999 -0.60299999 174 130 95
1.956 5.829 -0.87400001 196 159 117
1.898 5.8569999 -0.90600002 64 28 4
1.8890001 5.8610001 -0.90899998 52 17 0
1.892 5.8649998 -0.91500002 129 122 129
1.919 5.888 -0.90100002 42 8 0
1.901 5.868 -0.93800002 151 148 159
1.9 5.8670001 -0.93300003 145 142 151
1.899 5.8639998 -0.93400002 4 0 1
1.9 5.8499999 -0.91900003 34 15 11
1.9400001 5.8670001 -0.92500001 42 33 36
1.951 5.869 -0.83099997 43 6 0
1.943 5.8629999 -0.83600003 244 195 139
1.8940001 5.8520002 -0.60100001 95 82 76
1.882 5.855 -0.602 33 12 9
1.882 5.8559999 -0.60299999 49 28 23
1.883 5.8579998 -0.61299998 134 124 123
1.91 5.849 -0.46799999 123 89 62
1.948 5.8400002 -0.78899997 157 103 67
1.8710001 5.8210001 -0.58700001 46 14 3
1.923 5.7789998 -0.69599998 110 81 51
1.873 5.822 -0.66900003 30 12 8
1.885 5.8039999 -0.62400001 58 31 20
1.8890001 5.809 -0.64600003 25 0 0
1.867 5.8099999 -0.64300001 82 52 41
1.874 5.8060002 -0.64200002 167 141 108
1.906 5.8470001 -0.64499998 67 39 27
1.9069999 5.8460002 -0.639 82 48 23
1.908 5.8530002 -0.736 35 21 18
1.919 5.8499999 -0.72500002 232 178 142
1.8839999 5.8260002 -0.787 255 227 180
1.8839999 5.848 -0.79400003 38 19 13
1.882 5.842 -0.796 26 5 2
1.88 5.8439999 -0.80199999 34 13 10
1.8839999 5.8499999 -0.79799998 161 140 135
1.8789999 5.8369999 -0.79500002 51 15 3
1.91 5.8590002 -0.78899997 43 16 9
1.878 5.8509998 -0.75599998 55 41 41
1.89 5.8579998 -0.82599998 145 138 146
1.893 5.8600001 -0.838 27 7 6
1.8940001 5.8629999 -0.84399998 15 0 0
1.887 5.8730001 -0.88599998 18 0 0
1.885 5.8559999 -0.88200003 101 86 83
1.881 5.8660002 -0.86900002 27 6 1
1.891 5.8639998 -0.86500001 98 83 80
1.895 5.8559999 -0.85500002 94 70 58
1.893 5.8449998 -0.85699999 35 4 0
1.892 5.8460002 -0.852 42 9 0
1.89 5.842 -0.86000001 73 72 78
1.909 5.8889999 -0.89899999 176 140 114
1.88 5.8590002 -0.48100001 107 48 18
1.882 5.8530002 -0.61299998 76 49 19
1.875 5.8579998 -0.61000001 83 42 22
1.892 5.849 -0.61400002 133 103 105
1.8940001 5.8600001 -0.60600001 51 40 36
1.883 5.8579998 -0.60699999 35 15 17
1.899 5.8080001 -0.86799997 35 20 17
1.903 5.8200002 -0.89300001 21 12 13
1.915 5.8699999 -0.85100001 89 47 22
1.9299999 5.875 -0.852 139 125 124
1.95 5.8569999 -0.87900001 85 44 38
1.909 5.888 -0.87599999 189 163 150
1.911 5.8860002 -0.87 27 17 16
1.882 5.8449998 -0.81300002 45 18 9
1.885 5.849 -0.82099998 36 11 4
1.918 5.8109999 -0.81400001 82 53 45
1.9 5.8249998 -0.79500002 42 23 19
1.97 5.8509998 -0.92900002 57 35 37
1.891 5.8179998 -0.73100001 68 18 0
1.8839999 5.8400002 -0.74800003 158 125 106
1.9069999 5.8410001 -0.63200003 93 70 64
1.9 5.8369999 -0.61500001 75 48 41
1.892 5.8330002 -0.671 51 13 0
1.915 5.7930002 -0.74800003 23 3 2
1.9069999 5.855 -0.75099999 121 92 76
1.956 5.8429999 -0.954 52 14 13
1.939 5.842 -0.77999997 66 46 45
1.8890001 5.8559999 -0.83600003 20 1 0
1.946 5.8600001 -0.81900001 104 98 102
1.881 5.7820001 -0.588 227 157 98
1.881 5.7820001 -0.59399998 183 123 86
1.885 5.7839999 -0.59600002 149 87 50
1.872 5.7859998 -0.60399997 72 29 10
1.867 5.7849998 -0.60399997 144 112 97
1.878 5.7820001 -0.58499998 209 140 83
1.875 5.7810001 -0.58700001 157 71 20
1.882 5.79 -0.58200002 27 0 0
1.86 5.8189998 -0.58700001 81 63 53
1.8609999 5.8119998 -0.57300001 66 33 16
1.862 5.8070002 -0.57599998 54 32 21
1.9220001 5.7740002 -0.68400002 59 40 33
1.939 5.8080001 -0.94300002 91 94 99
1.847 5.8010001 -0.509 52 9 0
1.853 5.8169999 -0.509 142 89 57
1.8660001 5.8119998 -0.5 152 105 63
1.859 5.7969999 -0.52399999 161 106 50
1.857 5.8039999 -0.52399999 87 37 12
1.835 5.8119998 -0.514 92 50 25
1.933 5.796 -0.838 42 14 0
1.858 5.776 -0.546 99 71 59
1.839 5.783 -0.55599999 163 135 111
1.868 5.7870002 -0.616 69 51 47
1.869 5.7880001 -0.61400002 61 41 34
1.877 5.7969999 -0.63 124 103 98
1.877 5.7950001 -0.62699997 53 34 28
1.902 5.836 -0.68800002 36 13 7
1.915 5.809 -0.72799999 45 22 14
1.919 5.8060002 -0.73000002 55 12 0
1.901 5.7989998 -0.65899998 62 39 8
1.855 5.8150001 -0.53299999 99 77 63
1.8430001 5.7800002 -0.53899997 156 113 81
1.85 5.7800002 -0.54000002 234 204 134
1.899 5.8299999 -0.498 224 180 151
1.8890001 5.8340001 -0.60600001 54 35 28
1.887 5.8299999 -0.61500001 20 9 5
1.8890001 5.842 -0.60600001 72 42 8
1.901 5.842 -0.57499999 51 3 0
1.852 5.8210001 -0.52999997 10 2 0
1.8430001 5.8179998 -0.53100002 75 56 52
1.896 5.8390002 -0.58899999 105 81 71
