ply
format ascii 1.0
comment PCL generated
element vertex 994
property float x
property float y
property float z
property uchar red
property uchar green
property uchar blue
element camera 1
property float view_px
property float view_py
property float view_pz
property float x_axisx
property float x_axisy
property float x_axisz
property float y_axisx
property float y_axisy
property float y_axisz
property float z_axisx
property float z_axisy
property float z_axisz
property float focal
property float scalex
property float scaley
property float centerx
property float centery
property int viewportx
property int viewporty
property float k1
property float k2
end_header
8.7609997 -4.2449999 -0.82499999 41 19 8
8.7609997 -4.2509999 -0.82700002 53 30 22
8.7600002 -4.2410002 -0.81099999 38 8 0
8.7670002 -4.2550001 -0.81300002 56 31 24
8.8959999 -4.2519999 -0.66900003 78 34 7
8.8950005 -4.2509999 -0.66100001 166 125 103
8.8990002 -4.2540002 -0.66600001 66 24 0
8.8210001 -4.1539998 -0.66299999 177 145 98
8.8240004 -4.1570001 -0.67199999 186 156 104
8.823 -4.1609998 -0.66900003 86 55 11
8.8260002 -4.1680002 -0.671 47 35 19
8.8929996 -4.2659998 -0.65899998 82 38 3
8.8059998 -4.1490002 -0.60699999 248 218 145
8.8269997 -4.1500001 -0.59899998 80 43 16
8.8240004 -4.1469998 -0.61000001 80 39 9
8.8120003 -4.1500001 -0.60799998 111 53 7
8.8120003 -4.1500001 -0.616 95 54 2
8.8199997 -4.1529999 -0.667 154 122 73
8.8170004 -4.1609998 -0.66799998 59 29 0
8.8299999 -4.2199998 -0.56999999 145 102 67
8.8360004 -4.2210002 -0.56699997 92 55 29
8.8170004 -4.2319999 -0.56599998 135 98 69
8.8330002 -4.223 -0.56699997 97 60 33
8.8280001 -4.2280002 -0.56699997 142 111 90
8.8280001 -4.223 -0.56999999 177 141 107
8.8269997 -4.1500001 -0.60699999 106 61 32
8.8330002 -4.1550002 -0.597 105 73 52
8.8290005 -4.152 -0.60399997 87 43 14
8.8050003 -4.1630001 -0.60100001 166 129 87
8.8000002 -4.164 -0.60500002 252 233 157
8.7969999 -4.1690001 -0.59899998 79 48 30
8.8030005 -4.1560001 -0.60600001 140 82 34
8.7910004 -4.1659999 -0.62699997 253 232 211
8.7849998 -4.1799998 -0.61900002 76 57 59
8.7840004 -4.164 -0.62199998 236 214 191
8.8140001 -4.2069998 -0.87599999 27 13 10
8.8100004 -4.2030001 -0.87599999 90 44 20
8.8240004 -4.197 -0.86699998 90 59 39
8.8079996 -4.2080002 -0.88099998 88 50 31
8.8249998 -4.21 -0.87 15 0 3
8.8339996 -4.1999998 -0.85799998 30 2 0
8.8039999 -4.2779999 -0.85799998 17 0 0
8.8000002 -4.2659998 -0.86199999 40 3 0
8.8100004 -4.2659998 -0.87699997 23 8 5
8.8330002 -4.2290001 -0.56800002 138 102 78
8.8400002 -4.2199998 -0.56800002 123 91 68
8.7679996 -4.256 -0.82300001 58 41 31
8.7889996 -4.276 -0.80699998 132 114 102
8.7919998 -4.2820001 -0.81400001 101 81 72
8.7819996 -4.2789998 -0.82200003 40 19 2
8.7930002 -4.2839999 -0.80900002 119 86 69
8.7950001 -4.2859998 -0.82300001 59 28 10
8.7959995 -4.2859998 -0.82200003 249 195 157
8.7629995 -4.2410002 -0.81699997 127 104 86
8.8500004 -4.2140002 -0.82599998 86 64 43
8.8509998 -4.2270002 -0.824 53 24 8
8.8549995 -4.2179999 -0.83200002 67 45 24
8.8339996 -4.1620002 -0.59799999 111 70 42
8.8210001 -4.164 -0.59600002 166 130 98
8.8310003 -4.1799998 -0.66799998 98 83 76
8.8310003 -4.1810002 -0.66299999 81 28 0
8.8079996 -4.2259998 -0.88200003 40 5 0
8.8120003 -4.2379999 -0.889 75 34 16
8.8140001 -4.2270002 -0.889 49 9 0
8.8140001 -4.2319999 -0.889 64 23 5
8.809 -4.276 -0.85600001 28 4 2
8.8149996 -4.2729998 -0.86500001 18 0 0
8.8970003 -4.2579999 -0.66600001 106 57 25
8.8909998 -4.2529998 -0.66000003 86 41 10
8.8520002 -4.237 -0.69599998 50 35 16
8.849 -4.2449999 -0.68000001 79 56 24
8.8369999 -4.2319999 -0.68000001 52 31 2
8.8179998 -4.2449999 -0.65399998 107 78 80
8.8190002 -4.237 -0.66900003 32 13 7
8.8170004 -4.2329998 -0.66900003 56 18 0
8.8190002 -4.2490001 -0.66100001 34 10 0
8.8070002 -4.2649999 -0.59200001 205 176 146
8.7950001 -4.243 -0.58700001 76 58 54
8.8059998 -4.2540002 -0.602 66 37 19
8.7869997 -4.1609998 -0.616 255 219 157
8.8009996 -4.1560001 -0.61500001 93 52 0
8.7980003 -4.1550002 -0.611 114 63 16
8.8120003 -4.1550002 -0.60500002 255 241 175
8.7910004 -4.178 -0.61900002 73 55 35
8.7860003 -4.1719999 -0.616 253 222 139
8.8179998 -4.2210002 -0.88200003 135 107 93
8.8450003 -4.2550001 -0.852 29 5 0
8.8430004 -4.257 -0.85699999 27 7 6
8.8479996 -4.2420001 -0.861 8 0 0
8.8380003 -4.2129998 -0.85500002 89 63 50
8.8459997 -4.2150002 -0.85000002 55 29 14
8.8409996 -4.204 -0.85100001 31 7 3
8.8389997 -4.2490001 -0.87 45 21 11
8.8360004 -4.2340002 -0.86900002 18 0 0
8.835 -4.256 -0.87099999 16 5 3
8.8149996 -4.2670002 -0.87599999 88 57 39
8.8149996 -4.2670002 -0.87800002 14 0 0
8.8260002 -4.2690001 -0.87400001 19 5 2
8.8269997 -4.2639999 -0.88200003 78 59 55
8.8050003 -4.2779999 -0.852 31 10 7
8.7939997 -4.283 -0.838 36 7 0
8.8009996 -4.2789998 -0.84100002 42 13 0
8.7810001 -4.2719998 -0.82599998 54 28 15
8.776 -4.2509999 -0.83099997 36 20 20
8.8100004 -4.2529998 -0.56900001 126 101 79
8.802 -4.2410002 -0.57499999 148 104 59
8.8070002 -4.2410002 -0.574 119 95 57
8.8970003 -4.2719998 -0.67400002 64 13 0
8.8959999 -4.2670002 -0.66799998 173 124 81
8.8330002 -4.2750001 -0.63700002 23 4 0
8.8409996 -4.2820001 -0.64300001 95 65 41
8.8540001 -4.2670002 -0.63499999 128 79 46
8.7670002 -4.2529998 -0.82599998 51 35 35
8.7860003 -4.2690001 -0.81400001 97 75 62
8.7700005 -4.257 -0.81900001 49 33 33
8.7819996 -4.2659998 -0.801 54 31 13
8.8549995 -4.223 -0.83999997 29 14 9
8.842 -4.2199998 -0.85100001 49 23 6
8.8319998 -4.1869998 -0.66500002 41 20 15
8.8850002 -4.25 -0.66500002 47 14 0
8.8789997 -4.2490001 -0.67500001 148 134 125
8.849 -4.2810001 -0.64600003 77 46 25
8.8430004 -4.2870002 -0.64700001 39 13 0
8.8889999 -4.27 -0.65499997 68 16 0
8.8859997 -4.2649999 -0.65700001 116 70 36
8.8479996 -4.2709999 -0.639 130 102 78
8.8070002 -4.1630001 -0.59899998 63 32 14
8.8360004 -4.2360001 -0.676 130 109 82
8.8430004 -4.25 -0.67000002 73 25 3
8.8210001 -4.1750002 -0.68300003 34 15 0
8.8240004 -4.178 -0.68800002 44 24 15
8.8109999 -4.2319999 -0.88300002 52 15 6
8.7749996 -4.2459998 -0.833 54 32 21
8.7709999 -4.2420001 -0.82700002 63 43 36
8.8330002 -4.2589998 -0.87099999 82 63 48
8.8120003 -4.277 -0.847 61 42 28
8.8269997 -4.2670002 -0.847 21 3 1
8.8179998 -4.2680001 -0.86000001 15 0 0
8.8730001 -4.2540002 -0.67199999 57 22 3
8.7910004 -4.283 -0.74599999 57 18 1
8.79 -4.2880001 -0.75400001 141 131 121
8.7889996 -4.2800002 -0.74299997 24 4 0
8.8009996 -4.289 -0.74000001 39 19 10
8.8000002 -4.2870002 -0.81199998 198 144 100
8.7980003 -4.2919998 -0.76300001 58 24 15
8.802 -4.2919998 -0.75099999 122 88 40
8.7889996 -4.289 -0.76499999 28 14 11
8.8190002 -4.2360001 -0.67299998 32 8 4
8.8170004 -4.2329998 -0.67699999 43 10 0
8.7989998 -4.2490001 -0.579 45 23 10
8.8009996 -4.2389998 -0.583 206 163 118
8.7849998 -4.1739998 -0.61000001 87 56 38
8.8070002 -4.2659998 -0.588 107 80 63
8.7819996 -4.2810001 -0.75800002 52 25 8
8.7860003 -4.2779999 -0.77399999 14 0 0
8.7959995 -4.1609998 -0.611 193 148 81
8.8009996 -4.1729999 -0.67699999 137 125 111
8.7980003 -4.171 -0.66600001 47 20 9
8.8430004 -4.2529998 -0.85799998 43 20 14
8.8280001 -4.2410002 -0.875 95 67 56
8.8030005 -4.2420001 -0.57499999 69 35 8
8.8079996 -4.2340002 -0.57499999 175 136 97
8.8120003 -4.2379999 -0.57300001 169 113 54
8.8260002 -4.2319999 -0.56699997 136 109 90
8.7849998 -4.277 -0.824 80 47 28
8.8280001 -4.2420001 -0.56800002 69 42 25
8.8149996 -4.243 -0.57099998 195 174 145
8.8199997 -4.2360001 -0.56800002 50 27 11
8.8199997 -4.2420001 -0.56999999 226 192 155
8.8219995 -4.2509999 -0.56699997 67 19 0
8.8280001 -4.2449999 -0.56999999 84 63 46
8.8290005 -4.2659998 -0.57999998 172 115 72
8.8129997 -4.2639999 -0.57700002 130 90 82
8.8140001 -4.2740002 -0.58700001 134 92 70
8.8050003 -4.2509999 -0.57800001 42 21 4
8.8050003 -4.2540002 -0.58399999 210 138 56
8.8219995 -4.2709999 -0.58399999 54 25 7
8.8179998 -4.2639999 -0.57599998 118 56 7
8.823 -4.2639999 -0.58399999 175 141 104
8.776 -4.2480001 -0.796 101 79 58
8.7779999 -4.257 -0.81199998 38 20 16
8.835 -4.2049999 -0.83700001 54 35 18
8.842 -4.211 -0.81900001 105 84 67
8.8430004 -4.2259998 -0.80699998 41 11 0
8.842 -4.2270002 -0.801 121 40 49
8.8470001 -4.2470002 -0.80500001 65 30 10
8.8500004 -4.2340002 -0.833 57 42 35
8.8520002 -4.23 -0.84100002 65 33 12
8.8470001 -4.2189999 -0.84600002 73 49 37
8.816 -4.1599998 -0.65899998 184 155 113
8.875 -4.2670002 -0.66000003 70 38 13
8.8769999 -4.2750001 -0.65899998 53 24 6
8.8800001 -4.2579999 -0.66299999 143 86 41
8.8500004 -4.2849998 -0.64899999 87 30 0
8.8549995 -4.2670002 -0.64999998 109 53 20
8.8570004 -4.2600002 -0.64999998 61 20 2
8.816 -4.1700001 -0.59600002 174 146 124
8.8260002 -4.1750002 -0.59500003 83 50 33
8.8219995 -4.1760001 -0.59399998 89 57 44
8.8170004 -4.1669998 -0.676 110 104 106
8.8129997 -4.2620001 -0.59399998 73 44 26
8.8120003 -4.2740002 -0.59399998 63 25 6
8.8179998 -4.27 -0.58999997 120 88 65
8.8000002 -4.2600002 -0.86299998 18 5 0
8.8100004 -4.2610002 -0.88300002 33 16 9
8.8100004 -4.2600002 -0.87400001 54 26 4
8.7950001 -4.256 -0.85100001 20 5 2
8.8170004 -4.256 -0.87800002 28 8 1
8.7709999 -4.2379999 -0.824 28 3 0
8.7650003 -4.237 -0.81599998 123 98 78
8.7709999 -4.2379999 -0.81800002 88 66 45
8.8100004 -4.283 -0.83499998 48 17 0
8.8059998 -4.2880001 -0.82499999 82 53 37
8.8210001 -4.2059999 -0.87 25 0 0
8.8260002 -4.263 -0.86699998 98 72 59
8.809 -4.2789998 -0.84899998 29 11 0
8.8310003 -4.2659998 -0.84799999 61 23 12
8.8439999 -4.2589998 -0.847 17 3 2
8.8170004 -4.2729998 -0.84399998 33 15 3
8.8109999 -4.2670002 -0.87 78 57 40
8.8380003 -4.1960001 -0.75999999 167 146 119
8.8389997 -4.1999998 -0.75999999 52 24 10
8.842 -4.1890001 -0.73799998 42 4 0
8.8269997 -4.224 -0.72100002 38 24 15
8.8280001 -4.2249999 -0.71899998 32 9 1
8.8219995 -4.2119999 -0.71899998 89 71 51
8.8400002 -4.2179999 -0.778 45 30 25
8.8380003 -4.2129998 -0.78299999 62 29 0
8.8979998 -4.2540002 -0.67299998 81 57 45
8.8959999 -4.2579999 -0.67000002 123 73 38
8.7989998 -4.25 -0.78399998 80 51 19
8.8009996 -4.2410002 -0.77899998 74 41 22
8.7889996 -4.2340002 -0.77700001 44 29 24
8.7919998 -4.2649999 -0.773 96 69 40
8.7969999 -4.2639999 -0.77399999 70 39 8
8.7969999 -4.289 -0.773 105 92 83
8.79 -4.2820001 -0.77100003 147 133 120
8.8299999 -4.289 -0.736 40 21 14
8.842 -4.2909999 -0.73299998 23 8 5
8.8400002 -4.2930002 -0.72100002 41 22 15
8.835 -4.2880001 -0.741 30 14 14
8.8310003 -4.237 -0.66799998 103 61 36
8.8210001 -4.2270002 -0.66799998 36 20 0
8.8319998 -4.2750001 -0.63800001 60 23 5
8.8330002 -4.2639999 -0.63999999 42 17 12
8.8260002 -4.263 -0.64999998 101 86 81
8.8260002 -4.2680001 -0.65200001 127 79 57
8.7869997 -4.1890001 -0.61000001 117 63 19
8.7919998 -4.1849999 -0.59899998 49 25 15
8.7939997 -4.1919999 -0.62099999 68 41 46
8.7910004 -4.177 -0.60299999 49 31 21
8.8030005 -4.237 -0.57599998 108 88 81
8.8039999 -4.178 -0.59899998 35 12 4
8.809 -4.1890001 -0.59399998 66 37 19
8.8149996 -4.2690001 -0.58099997 53 20 1
8.8249998 -4.2259998 -0.66399997 121 101 66
8.8000002 -4.2519999 -0.58499998 94 54 29
8.8059998 -4.2550001 -0.59100002 105 79 56
8.802 -4.2480001 -0.58899999 255 220 135
8.8070002 -4.177 -0.68900001 57 34 16
8.8009996 -4.1849999 -0.69499999 124 114 105
8.8050003 -4.1789999 -0.68400002 136 124 112
8.8070002 -4.177 -0.685 36 14 1
8.7910004 -4.1900001 -0.71100003 118 95 77
8.7980003 -4.1890001 -0.72600001 42 20 9
8.7939997 -4.2010002 -0.72299999 67 38 22
8.7930002 -4.1999998 -0.71600002 83 49 24
8.7959995 -4.184 -0.70599997 106 89 79
8.8079996 -4.1789999 -0.75400001 28 10 6
8.8240004 -4.1820002 -0.74699998 82 59 28
8.8190002 -4.1830001 -0.76200002 52 28 4
8.8039999 -4.1849999 -0.76499999 58 30 19
8.7989998 -4.1919999 -0.76200002 96 65 44
8.8129997 -4.1830001 -0.76899999 47 25 4
8.8240004 -4.1890001 -0.77700001 82 56 33
8.8219995 -4.1859999 -0.76800001 76 50 25
8.8120003 -4.198 -0.78100002 28 11 4
8.8120003 -4.2010002 -0.78500003 75 58 50
8.7959995 -4.1609998 -0.61900002 244 196 122
8.802 -4.1620002 -0.62800002 253 231 208
8.8030005 -4.158 -0.62 66 30 0
8.8030005 -4.158 -0.62 66 30 0
8.8319998 -4.23 -0.87 15 1 0
8.8260002 -4.2259998 -0.87099999 20 10 11
8.8280001 -4.2529998 -0.87599999 50 20 10
8.809 -4.2550001 -0.57800001 51 26 6
8.8219995 -4.2620001 -0.59799999 172 115 44
8.8030005 -4.2480001 -0.85900003 68 43 36
8.7969999 -4.2540002 -0.85000002 61 34 25
8.7770004 -4.243 -0.82499999 38 19 13
8.8959999 -4.2670002 -0.676 145 94 49
8.8909998 -4.2639999 -0.67900002 41 18 4
8.7860003 -4.2579999 -0.796 32 11 0
8.7840004 -4.27 -0.78200001 88 58 34
8.7939997 -4.2610002 -0.78100002 93 64 34
8.8459997 -4.2150002 -0.838 48 29 12
8.8430004 -4.223 -0.81300002 89 70 55
8.8369999 -4.2179999 -0.80400002 63 37 24
8.8540001 -4.224 -0.83700001 107 75 50
8.8240004 -4.1880002 -0.65600002 78 35 1
8.8280001 -4.177 -0.64399999 80 50 22
8.8170004 -4.1500001 -0.61699998 116 77 36
8.8059998 -4.1729999 -0.66000003 150 127 109
8.8070002 -4.1719999 -0.65100002 123 77 41
8.8210001 -4.1589999 -0.66399997 96 63 18
8.8620005 -4.2649999 -0.65799999 74 48 31
8.8549995 -4.256 -0.65600002 96 60 44
8.8599997 -4.2719998 -0.66100001 52 19 4
8.8559999 -4.2820001 -0.64999998 85 37 1
8.8070002 -4.1719999 -0.59899998 251 223 183
8.8190002 -4.1620002 -0.60000002 248 221 176
8.8269997 -4.165 -0.597 139 99 63
8.8540001 -4.257 -0.66399997 36 14 1
8.8599997 -4.2579999 -0.67199999 80 57 39
8.8409996 -4.2670002 -0.63800001 53 17 3
8.8450003 -4.2540002 -0.66399997 112 94 82
8.8269997 -4.27 -0.66000003 98 71 60
8.8240004 -4.2519999 -0.653 38 24 21
8.7950001 -4.198 -0.70700002 76 51 29
8.8190002 -4.237 -0.676 16 0 0
8.8219995 -4.2080002 -0.70200002 94 83 79
8.8360004 -4.1999998 -0.71200001 20 5 0
8.8109999 -4.2410002 -0.87400001 27 3 0
8.8120003 -4.2030001 -0.85299999 60 36 24
8.8199997 -4.2010002 -0.84600002 73 51 40
8.8129997 -4.2090001 -0.85799998 74 34 9
8.8109999 -4.2090001 -0.852 94 54 28
8.8000002 -4.2779999 -0.83899999 19 0 1
8.8059998 -4.2150002 -0.87400001 73 49 37
8.8149996 -4.2210002 -0.88300002 81 47 38
8.8179998 -4.204 -0.86900002 74 38 12
8.823 -4.2059999 -0.86900002 66 39 22
8.8430004 -4.2340002 -0.82200003 51 29 18
8.8389997 -4.2449999 -0.84100002 68 47 30
8.8400002 -4.2610002 -0.84200001 51 29 18
8.8360004 -4.2059999 -0.77200001 49 14 0
8.8400002 -4.2210002 -0.76899999 21 0 0
8.8369999 -4.2350001 -0.792 78 46 23
8.8920002 -4.2529998 -0.67299998 123 74 34
8.8809996 -4.2579999 -0.67799997 61 28 19
8.8030005 -4.2010002 -0.741 36 23 15
8.8039999 -4.1929998 -0.74900001 31 12 8
8.8059998 -4.1960001 -0.75199997 159 138 121
8.8210001 -4.2659998 -0.792 38 23 18
8.8070002 -4.2719998 -0.77999997 147 128 111
8.8249998 -4.2610002 -0.78299999 75 61 60
8.7930002 -4.283 -0.80800003 108 92 79
8.7950001 -4.283 -0.778 137 123 110
8.809 -4.2709999 -0.77399999 61 31 0
8.8050003 -4.2880001 -0.82200003 109 82 65
8.8050003 -4.29 -0.76899999 68 42 27
8.8079996 -4.2880001 -0.764 32 14 4
8.842 -4.2490001 -0.80000001 53 25 13
8.8319998 -4.2470002 -0.79000002 32 7 0
8.8280001 -4.2340002 -0.67500001 28 11 0
8.8260002 -4.2350001 -0.68300003 39 20 14
8.8170004 -4.2290001 -0.56900001 252 238 211
8.8179998 -4.2290001 -0.56900001 139 105 68
8.8140001 -4.2259998 -0.57300001 255 242 200
8.8100004 -4.2290001 -0.57599998 177 153 141
8.8149996 -4.1729999 -0.59600002 189 159 135
8.8190002 -4.2309999 -0.66399997 30 14 0
8.8260002 -4.1939998 -0.65899998 97 79 65
8.8269997 -4.1929998 -0.67400002 64 35 39
8.8219995 -4.223 -0.667 81 62 30
8.7869997 -4.27 -0.76899999 43 28 25
8.8269997 -4.2020001 -0.84799999 51 25 12
8.8240004 -4.2329998 -0.87599999 38 21 14
8.816 -4.2420001 -0.88 15 6 7
8.8030005 -4.2420001 -0.58899999 255 233 145
8.8109999 -4.2579999 -0.57499999 120 89 60
8.8260002 -4.2379999 -0.56800002 113 90 74
8.8210001 -4.2270002 -0.56999999 255 240 207
8.8240004 -4.25 -0.56999999 106 71 33
8.7989998 -4.1919999 -0.60299999 129 85 50
8.809 -4.1960001 -0.60299999 121 90 62
8.8339996 -4.2129998 -0.574 128 94 67
8.8400002 -4.2189999 -0.57200003 108 73 45
8.8559999 -4.2459998 -0.63999999 114 72 30
8.816 -4.1849999 -0.59899998 111 77 40
8.8030005 -4.2490001 -0.84600002 68 31 22
8.8140001 -4.27 -0.838 44 27 17
8.8079996 -4.277 -0.81 120 91 75
8.8120003 -4.283 -0.82499999 24 0 0
8.7980003 -4.243 -0.78500003 206 169 151
8.8030005 -4.289 -0.755 30 12 2
8.7989998 -4.2709999 -0.76800001 155 122 87
8.7980003 -4.276 -0.75599998 56 24 1
8.7939997 -4.277 -0.75999999 114 98 83
8.783 -4.243 -0.79299998 59 27 14
8.7889996 -4.2309999 -0.78799999 81 62 58
8.7790003 -4.2329998 -0.81099999 66 23 4
8.7810001 -4.2480001 -0.78899997 64 40 16
8.7910004 -4.224 -0.79500002 97 81 68
8.7959995 -4.2129998 -0.792 113 94 88
8.8409996 -4.21 -0.84399998 56 34 13
8.8369999 -4.211 -0.83099997 43 21 7
8.8479996 -4.2280002 -0.81999999 139 118 99
8.835 -4.21 -0.81300002 114 92 78
8.8219995 -4.171 -0.64999998 76 47 17
8.8240004 -4.1729999 -0.64700001 73 43 15
8.8299999 -4.158 -0.60100001 137 89 49
8.8120003 -4.171 -0.64899999 92 49 17
8.8149996 -4.1700001 -0.64600003 51 19 8
8.8140001 -4.171 -0.67699999 62 33 25
8.8870001 -4.277 -0.667 80 38 26
8.8760004 -4.2810001 -0.671 50 24 11
8.8870001 -4.277 -0.67500001 53 17 1
8.868 -4.2880001 -0.67299998 65 36 18
8.8640003 -4.2620001 -0.66799998 38 18 17
8.8190002 -4.1680002 -0.59600002 161 131 103
8.823 -4.1719999 -0.63800001 116 86 62
8.8710003 -4.2509999 -0.69099998 97 52 21
8.8690004 -4.2540002 -0.69800001 61 45 20
8.8409996 -4.2859998 -0.65600002 66 34 19
8.8450003 -4.283 -0.65700001 91 60 39
8.8380003 -4.276 -0.64899999 49 13 0
8.8179998 -4.1939998 -0.66399997 51 5 0
8.8149996 -4.197 -0.67199999 63 38 16
8.8070002 -4.1880002 -0.66799998 37 16 0
8.8030005 -4.2090001 -0.713 29 18 16
8.8240004 -4.1880002 -0.68099999 73 39 14
8.8260002 -4.2379999 -0.68300003 26 13 4
8.8269997 -4.2389998 -0.68800002 15 4 0
8.8129997 -4.2319999 -0.87699997 34 3 0
8.8000002 -4.2119999 -0.81099999 35 15 4
8.8059998 -4.2080002 -0.792 64 28 12
8.8059998 -4.2729998 -0.85000002 63 48 41
8.7919998 -4.2620001 -0.83499998 45 25 16
8.7969999 -4.2420001 -0.83200002 43 21 8
8.8100004 -4.2259998 -0.87 24 0 0
8.8070002 -4.2140002 -0.86900002 34 4 0
8.8290005 -4.2080002 -0.86199999 25 0 0
8.8269997 -4.2160001 -0.86400002 62 36 21
8.8439999 -4.2449999 -0.84799999 31 14 7
8.8400002 -4.1890001 -0.73900002 52 29 13
8.8339996 -4.1820002 -0.73199999 39 16 0
8.8310003 -4.1849999 -0.736 44 17 6
8.8299999 -4.1999998 -0.74000001 137 50 59
8.8400002 -4.2220001 -0.77100003 124 44 53
8.8360004 -4.2220001 -0.76800001 39 6 0
8.8199997 -4.2309999 -0.70099998 64 20 7
8.8179998 -4.2360001 -0.70300001 40 17 3
8.8260002 -4.2350001 -0.704 21 7 6
8.8730001 -4.2750001 -0.72500002 33 3 0
8.8699999 -4.276 -0.73199999 21 6 0
8.8620005 -4.29 -0.71600002 101 73 51
8.8310003 -4.2319999 -0.78200001 76 36 10
8.8249998 -4.211 -0.75300002 43 22 3
8.8190002 -4.2199998 -0.73199999 40 18 5
8.8269997 -4.2280002 -0.74000001 23 3 0
8.8290005 -4.1999998 -0.72600001 174 163 159
8.8050003 -4.191 -0.736 51 28 14
8.7989998 -4.2010002 -0.72500002 28 11 1
8.7980003 -4.2329998 -0.78100002 59 35 11
8.7980003 -4.2329998 -0.77600002 99 73 50
8.7860003 -4.2719998 -0.80299997 22 10 12
8.8360004 -4.29 -0.72899997 155 124 103
8.8319998 -4.2329998 -0.71600002 43 25 13
8.8439999 -4.244 -0.80199999 65 46 39
8.8380003 -4.2340002 -0.79799998 22 5 0
8.8299999 -4.27 -0.76999998 48 26 12
8.8470001 -4.2839999 -0.74299997 24 9 4
8.8500004 -4.2800002 -0.74800003 15 4 2
8.8290005 -4.2360001 -0.66299999 138 117 88
8.8269997 -4.2340002 -0.65799999 149 123 98
8.8249998 -4.2340002 -0.676 42 22 15
8.8620005 -4.283 -0.667 98 66 51
8.8009996 -4.2309999 -0.583 255 206 137
8.8000002 -4.1960001 -0.61799997 192 170 146
8.823 -4.1919999 -0.66000003 49 17 6
8.8400002 -4.23 -0.64300001 122 79 37
8.8330002 -4.2290001 -0.625 133 98 56
8.8520002 -4.2420001 -0.63499999 118 80 35
8.8199997 -4.1999998 -0.67299998 51 14 0
8.8199997 -4.1989999 -0.68199998 40 11 0
8.7880001 -4.2789998 -0.76899999 81 52 34
8.8190002 -4.177 -0.68699998 28 10 0
8.809 -4.184 -0.75999999 45 26 11
8.8290005 -4.2080002 -0.78500003 14 0 0
8.809 -4.2030001 -0.77399999 115 96 81
8.8240004 -4.2030001 -0.84899998 41 8 1
8.8009996 -4.1729999 -0.625 94 57 30
8.835 -4.2360001 -0.861 35 13 0
8.835 -4.2350001 -0.866 36 13 0
8.8400002 -4.2350001 -0.85100001 17 4 0
8.8409996 -4.2389998 -0.85500002 5 0 0
8.8149996 -4.244 -0.87699997 45 12 3
8.8140001 -4.2379999 -0.88300002 97 59 46
8.8170004 -4.25 -0.87800002 38 11 2
8.8249998 -4.2249999 -0.62699997 110 72 33
8.8310003 -4.2309999 -0.61699998 99 68 37
8.8199997 -4.2389998 -0.65600002 45 21 9
8.8260002 -4.2319999 -0.653 111 81 55
8.823 -4.2540002 -0.639 44 15 1
8.8500004 -4.2470002 -0.65200001 61 31 21
8.8439999 -4.25 -0.65700001 126 96 85
8.8050003 -4.2249999 -0.84500003 33 13 4
8.8900003 -4.276 -0.68199998 57 24 7
8.8319998 -4.2449999 -0.815 42 29 21
8.8219995 -4.243 -0.82499999 19 0 0
8.8249998 -4.2399998 -0.82499999 85 63 50
8.7779999 -4.2399998 -0.81099999 46 20 5
8.7959995 -4.283 -0.74199998 17 0 0
8.7849998 -4.2399998 -0.81900001 28 4 0
8.8450003 -4.2140002 -0.82499999 68 47 26
8.8000002 -4.2189999 -0.79000002 113 99 88
8.8149996 -4.1690001 -0.65200001 69 38 7
8.8030005 -4.177 -0.676 95 50 21
8.8120003 -4.1700001 -0.65799999 51 22 14
8.8870001 -4.2620001 -0.68800002 78 54 42
8.8830004 -4.27 -0.68800002 92 68 56
8.8479996 -4.2800002 -0.66399997 102 73 57
8.8579998 -4.2810001 -0.676 57 29 15
8.8129997 -4.177 -0.597 122 88 60
8.8109999 -4.1690001 -0.59899998 248 228 193
8.8179998 -4.1560001 -0.65899998 171 140 94
8.8210001 -4.1490002 -0.61400002 129 81 41
8.8540001 -4.257 -0.63999999 71 35 13
8.849 -4.244 -0.63499999 141 103 56
8.8190002 -4.2490001 -0.671 39 17 6
8.8240004 -4.2490001 -0.676 34 10 0
8.8330002 -4.2690001 -0.67299998 51 29 16
8.8369999 -4.276 -0.67000002 102 74 60
8.8079996 -4.2010002 -0.67799997 44 12 0
8.809 -4.177 -0.653 47 25 4
8.8100004 -4.1849999 -0.66000003 75 49 26
8.8369999 -4.2329998 -0.68400002 142 125 99
8.8529997 -4.243 -0.69300002 94 78 55
8.8380003 -4.1799998 -0.72399998 115 86 44
8.8369999 -4.1900001 -0.73000002 54 28 11
8.8249998 -4.1890001 -0.773 48 20 0
8.8249998 -4.2480001 -0.69300002 18 6 8
8.7910004 -4.224 -0.801 106 90 77
8.7969999 -4.2160001 -0.80199999 35 13 2
8.8050003 -4.2779999 -0.84600002 41 16 11
8.8000002 -4.2600002 -0.85699999 21 3 0
8.8109999 -4.2750001 -0.85000002 27 0 0
8.8009996 -4.2540002 -0.84299999 47 26 9
8.8070002 -4.27 -0.84899998 65 34 16
8.8389997 -4.2490001 -0.84399998 31 4 0
8.809 -4.2080002 -0.86900002 59 28 10
8.8140001 -4.2090001 -0.84600002 95 58 32
8.8290005 -4.1859999 -0.75 70 27 0
8.835 -4.1999998 -0.76499999 59 11 0
8.7910004 -4.277 -0.759 39 24 21
8.7980003 -4.2659998 -0.77100003 96 66 28
8.8290005 -4.198 -0.75 47 21 8
8.8389997 -4.1919999 -0.73500001 44 17 6
8.8360004 -4.2059999 -0.764 105 71 46
8.8240004 -4.2140002 -0.76700002 43 28 23
8.816 -4.2210002 -0.75 43 26 16
8.8179998 -4.2140002 -0.72299999 78 57 38
8.8199997 -4.2210002 -0.72899997 54 33 16
8.8120003 -4.2210002 -0.73199999 96 77 70
8.8109999 -4.2140002 -0.72600001 121 93 72
8.8710003 -4.2659998 -0.722 13 2 0
8.8730001 -4.2680001 -0.71799999 14 5 0
8.8710003 -4.2740002 -0.72600001 31 12 6
8.8710003 -4.2659998 -0.71399999 12 3 0
8.868 -4.2579999 -0.72000003 26 9 1
8.8430004 -4.2529998 -0.81 41 14 3
8.8039999 -4.2329998 -0.77399999 88 67 46
8.8179998 -4.2220001 -0.745 32 18 17
8.8249998 -4.1999998 -0.73799998 101 74 47
8.8129997 -4.2129998 -0.72399998 48 29 22
8.8199997 -4.184 -0.75800002 53 31 10
8.8199997 -4.184 -0.75 54 29 7
8.8179998 -4.1820002 -0.745 66 41 11
8.8109999 -4.1880002 -0.74400002 42 25 7
8.7880001 -4.276 -0.78299999 129 112 96
8.7959995 -4.283 -0.77899998 20 5 2
8.7889996 -4.27 -0.78899997 133 114 99
8.8100004 -4.2789998 -0.80199999 118 67 36
8.8039999 -4.2779999 -0.792 62 47 42
8.8030005 -4.2779999 -0.77999997 31 14 0
8.8039999 -4.2639999 -0.74900001 32 15 8
8.8149996 -4.2329998 -0.74400002 41 28 22
8.8140001 -4.2210002 -0.741 51 32 15
8.8140001 -4.2309999 -0.736 33 20 14
8.823 -4.23 -0.73100001 78 52 37
8.8219995 -4.2340002 -0.73199999 28 14 3
8.8199997 -4.2470002 -0.70999998 24 3 2
8.8149996 -4.25 -0.713 48 20 6
8.8210001 -4.2480001 -0.71600002 28 7 4
8.8179998 -4.2709999 -0.76599997 33 4 0
8.8400002 -4.244 -0.81599998 56 39 32
8.8030005 -4.1929998 -0.60600001 153 126 107
8.8170004 -4.1890001 -0.65799999 92 61 41
8.8039999 -4.1890001 -0.625 175 154 125
8.8219995 -4.1960001 -0.67699999 67 34 15
8.8280001 -4.1820002 -0.70599997 255 239 206
8.8240004 -4.178 -0.69999999 199 178 151
8.8299999 -4.1789999 -0.71799999 97 69 29
8.8249998 -4.1830001 -0.73900002 67 40 19
8.8030005 -4.184 -0.71799999 51 33 21
8.823 -4.178 -0.713 82 58 22
8.8140001 -4.2140002 -0.79699999 42 9 4
8.8109999 -4.2140002 -0.79799998 97 84 75
8.8310003 -4.2049999 -0.78100002 33 13 4
8.8240004 -4.2020001 -0.78500003 35 21 18
8.8120003 -4.1919999 -0.77399999 57 40 33
8.8039999 -4.2140002 -0.77899998 90 80 70
8.8190002 -4.2249999 -0.57300001 253 236 192
8.8070002 -4.1960001 -0.61400002 131 96 66
8.8149996 -4.197 -0.616 119 101 91
8.8369999 -4.2249999 -0.57599998 52 26 9
8.8190002 -4.2490001 -0.65100002 44 20 8
8.8280001 -4.2519999 -0.63700002 72 30 16
8.8470001 -4.2639999 -0.63800001 113 83 55
8.8439999 -4.243 -0.653 137 123 114
8.7939997 -4.2249999 -0.81900001 114 97 87
8.7950001 -4.2420001 -0.82700002 44 26 22
8.8120003 -4.2259998 -0.85100001 98 81 65
8.8240004 -4.2659998 -0.82700002 67 24 5
8.8240004 -4.2610002 -0.83399999 42 26 26
8.8210001 -4.257 -0.83099997 41 11 1
8.8210001 -4.2709999 -0.81599998 117 83 56
8.8249998 -4.2639999 -0.80599999 69 29 4
8.8190002 -4.2719998 -0.80800003 73 41 16
8.8310003 -4.2649999 -0.84600002 45 8 0
8.7869997 -4.2290001 -0.80800003 32 8 0
8.8129997 -4.2210002 -0.77499998 49 16 1
8.8199997 -4.2259998 -0.77499998 47 30 12
8.8140001 -4.2129998 -0.75999999 81 65 50
8.8310003 -4.2059999 -0.83200002 56 37 22
8.823 -4.2069998 -0.82599998 81 66 61
8.8269997 -4.2020001 -0.83499998 58 41 25
8.8249998 -4.2049999 -0.83499998 40 20 9
8.8030005 -4.2280002 -0.78299999 95 75 64
8.8079996 -4.2150002 -0.81199998 59 38 21
8.8050003 -4.1729999 -0.67199999 130 118 106
8.8050003 -4.1789999 -0.67199999 115 103 91
8.8109999 -4.171 -0.65600002 65 19 0
8.882 -4.2659998 -0.699 94 74 47
8.875 -4.2670002 -0.699 59 35 23
8.8570004 -4.2909999 -0.71600002 238 208 180
8.8430004 -4.289 -0.722 81 48 31
8.8719997 -4.2849998 -0.67799997 92 49 14
8.8739996 -4.2859998 -0.68699998 76 25 0
8.8260002 -4.1609998 -0.61299998 92 67 36
8.8199997 -4.178 -0.60500002 62 24 3
8.8219995 -4.1690001 -0.60600001 76 46 22
8.816 -4.1719999 -0.61699998 91 47 8
8.8219995 -4.165 -0.611 67 40 11
8.8310003 -4.164 -0.59799999 76 33 0
8.8129997 -4.1630001 -0.62699997 88 52 28
8.8100004 -4.177 -0.62699997 160 80 27
8.8140001 -4.1760001 -0.639 109 83 68
8.8009996 -4.178 -0.625 154 128 103
8.875 -4.283 -0.69499999 79 28 0
8.868 -4.2579999 -0.70700002 22 9 0
8.8690004 -4.2540002 -0.68599999 99 73 38
8.8590002 -4.2589998 -0.67900002 122 106 93
8.8540001 -4.257 -0.64899999 76 41 19
8.8529997 -4.2480001 -0.63999999 111 70 24
8.8380003 -4.2750001 -0.68800002 52 18 6
8.8549995 -4.2789998 -0.67900002 100 70 46
8.8599997 -4.2820001 -0.72299999 60 24 0
8.8629999 -4.2800002 -0.71899998 123 95 74
8.8009996 -4.1919999 -0.699 22 3 0
8.7989998 -4.1999998 -0.704 21 2 0
8.8030005 -4.1989999 -0.69999999 35 7 0
8.8039999 -4.1999998 -0.70200002 48 22 9
8.8070002 -4.1849999 -0.67199999 131 119 107
8.8299999 -4.2379999 -0.69800001 17 1 2
8.8310003 -4.237 -0.69099998 19 0 0
8.8249998 -4.2490001 -0.67799997 20 6 6
8.8170004 -4.2080002 -0.704 62 42 33
8.8170004 -4.2069998 -0.71100003 165 76 82
8.8149996 -4.2049999 -0.70300001 25 8 1
8.8070002 -4.21 -0.71700001 61 34 17
8.816 -4.2030001 -0.69599998 133 47 50
8.8120003 -4.1989999 -0.69300002 178 104 65
8.8140001 -4.1989999 -0.69 28 9 3
8.8249998 -4.1900001 -0.69 55 24 6
8.8240004 -4.2020001 -0.70200002 53 37 24
8.8280001 -4.197 -0.70899999 42 23 6
8.8219995 -4.204 -0.69199997 47 25 12
8.8030005 -4.1960001 -0.67900002 63 24 7
8.8079996 -4.1950002 -0.68400002 58 25 10
8.8079996 -4.1950002 -0.69300002 30 15 10
8.8059998 -4.1929998 -0.68599999 89 52 23
8.8000002 -4.2150002 -0.80199999 43 25 11
8.809 -4.237 -0.84500003 58 38 31
8.835 -4.257 -0.86400002 12 1 0
8.8330002 -4.263 -0.85100001 29 5 3
8.8360004 -4.2350001 -0.85600001 55 33 19
8.8149996 -4.2189999 -0.80500001 36 16 9
8.8269997 -4.1859999 -0.75199997 197 174 143
8.8290005 -4.198 -0.76700002 61 29 14
8.8039999 -4.2059999 -0.72600001 43 11 0
8.8079996 -4.2059999 -0.74199998 50 7 0
8.8190002 -4.2309999 -0.73400003 56 34 21
8.8219995 -4.217 -0.727 43 28 31
8.8570004 -4.2719998 -0.75700003 36 6 0
8.8520002 -4.2649999 -0.77200001 30 9 4
8.8500004 -4.256 -0.76200002 21 6 1
8.8540001 -4.2659998 -0.75599998 26 6 0
8.8389997 -4.257 -0.77899998 66 47 33
8.8500004 -4.256 -0.75800002 19 1 0
8.8439999 -4.25 -0.75099999 27 9 0
8.8299999 -4.23 -0.72100002 24 5 1
8.8330002 -4.2449999 -0.76499999 19 6 0
8.8330002 -4.2459998 -0.76999998 24 9 2
8.8310003 -4.243 -0.773 19 5 0
8.8170004 -4.2389998 -0.736 24 8 8
8.8140001 -4.2589998 -0.73699999 28 3 0
8.8129997 -4.2589998 -0.72299999 89 62 53
8.8070002 -4.2620001 -0.74299997 23 0 0
8.8140001 -4.2119999 -0.72100002 42 24 10
8.8039999 -4.244 -0.77999997 68 41 11
8.8109999 -4.2389998 -0.77899998 120 92 81
8.8009996 -4.2199998 -0.78899997 21 0 0
8.7869997 -4.2670002 -0.79400003 27 10 3
8.802 -4.2849998 -0.79799998 31 14 7
8.8219995 -4.2800002 -0.75300002 62 39 23
8.8380003 -4.2519999 -0.80599999 98 62 40
8.8380003 -4.2389998 -0.83700001 16 5 3
8.8339996 -4.2579999 -0.83899999 29 4 0
8.8310003 -4.2449999 -0.83999997 82 50 25
8.8149996 -4.237 -0.63999999 44 30 27
8.8179998 -4.2459998 -0.64399999 72 50 37
8.7969999 -4.184 -0.625 119 84 56
8.8109999 -4.1890001 -0.597 131 98 65
8.8000002 -4.184 -0.69999999 112 99 93
8.8140001 -4.178 -0.69400001 57 31 14
8.8109999 -4.1799998 -0.69400001 58 33 13
8.816 -4.1799998 -0.699 74 52 28
8.8000002 -4.1869998 -0.71700001 42 17 10
8.8030005 -4.184 -0.70599997 35 16 1
8.8140001 -4.1830001 -0.71600002 69 48 43
8.8059998 -4.1859999 -0.72299999 52 29 15
8.8179998 -4.1830001 -0.73699999 162 135 105
8.8219995 -4.1820002 -0.73100001 98 72 57
8.8219995 -4.1820002 -0.72799999 129 85 48
8.8120003 -4.184 -0.71700001 53 12 0
8.835 -4.211 -0.77999997 22 5 0
8.8190002 -4.2030001 -0.78600001 25 6 0
8.8050003 -4.2090001 -0.755 121 70 39
8.8079996 -4.2090001 -0.77499998 59 24 5
8.8299999 -4.2010002 -0.84299999 43 11 0
8.8210001 -4.2020001 -0.84200001 73 51 40
8.8280001 -4.2540002 -0.58600003 132 88 49
8.809 -4.223 -0.57599998 92 42 9
8.8120003 -4.2199998 -0.579 178 129 86
8.8070002 -4.2189999 -0.58399999 147 94 52
8.8299999 -4.2150002 -0.574 116 75 43
8.8280001 -4.2189999 -0.57800001 112 72 37
8.8190002 -4.2199998 -0.57599998 131 98 45
8.8299999 -4.23 -0.63300002 114 72 32
8.8310003 -4.2309999 -0.63700002 102 63 24
8.8210001 -4.2350001 -0.63300002 34 15 11
8.8190002 -4.2389998 -0.639 100 78 64
8.8120003 -4.1869998 -0.602 137 100 48
8.8330002 -4.2319999 -0.579 82 69 60
8.8269997 -4.2220001 -0.58200002 123 83 48
8.8109999 -4.237 -0.59600002 214 176 113
8.8210001 -4.2350001 -0.59500003 219 195 171
8.8179998 -4.2399998 -0.59799999 115 86 70
8.8290005 -4.2350001 -0.60500002 78 57 38
8.8199997 -4.2519999 -0.64399999 22 1 0
8.8310003 -4.257 -0.639 49 17 4
8.849 -4.244 -0.65100002 132 90 50
8.849 -4.2389998 -0.64200002 150 107 64
8.7869997 -4.2179999 -0.81800002 94 81 72
8.7939997 -4.277 -0.79000002 139 122 106
8.8240004 -4.2670002 -0.81199998 109 82 65
8.8219995 -4.2649999 -0.792 65 17 0
8.7910004 -4.2290001 -0.79699999 77 55 41
8.7869997 -4.276 -0.75300002 130 114 101
8.7869997 -4.2779999 -0.75300002 43 24 18
8.79 -4.2740002 -0.74800003 37 22 19
8.7939997 -4.2729998 -0.74800003 24 0 0
8.8000002 -4.2779999 -0.73900002 49 19 9
8.7790003 -4.244 -0.82499999 33 5 2
8.823 -4.171 -0.66600001 61 26 6
8.8190002 -4.1680002 -0.653 57 28 0
8.8800001 -4.2639999 -0.69400001 82 59 27
8.8100004 -4.1589999 -0.62099999 93 54 21
8.8149996 -4.1599998 -0.61900002 104 77 50
8.816 -4.1789999 -0.64700001 134 112 101
8.8129997 -4.2519999 -0.70899999 18 0 0
8.8500004 -4.29 -0.713 79 47 34
8.8599997 -4.2719998 -0.72899997 13 0 0
8.8109999 -4.197 -0.68699998 91 63 52
8.8219995 -4.2529998 -0.69 18 0 0
8.809 -4.2069998 -0.71200001 33 21 21
8.823 -4.191 -0.68599999 111 106 102
8.8070002 -4.1830001 -0.66799998 33 13 6
8.8100004 -4.2550001 -0.86500001 33 13 4
8.8009996 -4.2389998 -0.83099997 82 45 19
8.7889996 -4.2519999 -0.824 43 21 10
8.8240004 -4.2150002 -0.79500002 27 12 7
8.8240004 -4.1880002 -0.75599998 29 6 0
8.8330002 -4.1989999 -0.75700003 20 0 0
8.8330002 -4.2449999 -0.778 32 6 0
8.8310003 -4.2550001 -0.79000002 28 0 0
8.8280001 -4.257 -0.80400002 51 32 18
8.8319998 -4.2280002 -0.72399998 69 48 29
8.8439999 -4.2540002 -0.75700003 26 9 0
8.835 -4.2410002 -0.74400002 48 29 15
8.8319998 -4.2649999 -0.77399999 74 27 1
8.8190002 -4.2490001 -0.72399998 22 3 0
8.809 -4.1900001 -0.74699998 95 65 54
8.8120003 -4.2740002 -0.80000001 99 69 45
8.8459997 -4.2870002 -0.722 54 17 0
8.816 -4.2199998 -0.73799998 36 19 11
8.8050003 -4.2610002 -0.76899999 42 27 22
8.8179998 -4.2490001 -0.63999999 43 16 7
8.8249998 -4.2379999 -0.62800002 62 29 10
8.8280001 -4.2290001 -0.62400001 115 82 47
8.8219995 -4.2399998 -0.63700002 43 15 3
8.8109999 -4.1830001 -0.62199998 71 40 20
8.8199997 -4.178 -0.69099998 28 4 0
8.8339996 -4.1880002 -0.72500002 77 52 22
8.8319998 -4.1810002 -0.727 40 15 0
8.8319998 -4.1799998 -0.72299999 116 90 53
8.8179998 -4.1820002 -0.708 35 19 0
8.8190002 -4.1830001 -0.74199998 103 76 46
8.8249998 -4.1799998 -0.72799999 128 99 81
8.7989998 -4.1890001 -0.72000003 41 18 10
8.8100004 -4.211 -0.77399999 40 23 5
8.823 -4.204 -0.83899999 55 35 24
8.8199997 -4.2119999 -0.833 30 1 0
8.8310003 -4.237 -0.602 53 30 12
8.8310003 -4.2319999 -0.597 86 59 40
8.823 -4.2589998 -0.59600002 85 59 62
8.8260002 -4.2189999 -0.57499999 63 36 19
8.802 -4.2309999 -0.58899999 253 210 142
8.8219995 -4.2379999 -0.62199998 83 30 0
8.8339996 -4.243 -0.63200003 59 30 16
8.8219995 -4.2360001 -0.62400001 32 13 7
8.8210001 -4.2270002 -0.62699997 65 30 2
8.8179998 -4.2350001 -0.63999999 40 2 0
8.8129997 -4.1849999 -0.61299998 128 85 34
8.8240004 -4.224 -0.58399999 138 107 89
8.8249998 -4.2259998 -0.58499998 53 21 0
8.8219995 -4.2270002 -0.58700001 99 76 60
8.8199997 -4.2210002 -0.58099997 135 95 46
8.8179998 -4.223 -0.58200002 57 29 5
8.8170004 -4.2259998 -0.58499998 128 98 72
8.8369999 -4.2270002 -0.58399999 80 46 18
8.8330002 -4.2319999 -0.583 121 69 22
8.8430004 -4.2550001 -0.63499999 70 41 11
8.8439999 -4.2319999 -0.64999998 44 1 0
8.8470001 -4.2410002 -0.64899999 134 105 87
8.8269997 -4.2329998 -0.64899999 76 44 21
8.8409996 -4.2329998 -0.64200002 51 8 1
8.7950001 -4.2189999 -0.82499999 102 88 75
8.8109999 -4.2449999 -0.85900003 15 0 0
8.7880001 -4.2729998 -0.80000001 38 21 14
8.7980003 -4.2779999 -0.78899997 26 1 0
8.8310003 -4.2550001 -0.81199998 51 22 8
8.8219995 -4.276 -0.81199998 44 14 4
8.8249998 -4.2490001 -0.815 25 12 4
8.8269997 -4.2639999 -0.84100002 30 5 0
8.7989998 -4.2709999 -0.74699998 131 97 62
8.8000002 -4.2750001 -0.73900002 55 33 19
8.8149996 -4.2610002 -0.73000002 45 22 14
8.8030005 -4.2750001 -0.74000001 175 140 82
8.8109999 -4.2870002 -0.74000001 54 21 6
8.79 -4.2839999 -0.74900001 86 41 8
8.816 -4.2150002 -0.84100002 139 117 96
8.8179998 -4.2150002 -0.83700001 47 15 2
8.8179998 -4.2160001 -0.82999998 76 30 7
8.8640003 -4.2839999 -0.676 40 12 0
8.8400002 -4.277 -0.66100001 77 48 30
8.8400002 -4.277 -0.65600002 88 59 43
8.8140001 -4.177 -0.61199999 57 31 8
8.8120003 -4.158 -0.62099999 175 149 126
8.8000002 -4.1810002 -0.62599999 117 73 48
8.8190002 -4.1760001 -0.64499998 132 77 46
8.8179998 -4.257 -0.708 47 15 0
8.8380003 -4.2849998 -0.71899998 51 32 26
8.8249998 -4.283 -0.73100001 75 38 12
8.8559999 -4.2680001 -0.73199999 22 5 0
8.8050003 -4.1880002 -0.68699998 51 24 15
8.8380003 -4.25 -0.69999999 8 0 0
8.8339996 -4.25 -0.71399999 52 25 8
8.8590002 -4.2509999 -0.70099998 41 21 12
8.8520002 -4.2820001 -0.69199997 42 18 8
8.8269997 -4.2449999 -0.71399999 20 6 3
8.8640003 -4.277 -0.70700002 47 14 9
8.8299999 -4.2550001 -0.68099999 30 9 4
8.8299999 -4.184 -0.71100003 255 236 196
8.8249998 -4.2160001 -0.81699997 33 11 0
8.8459997 -4.2690001 -0.76499999 132 115 105
8.8310003 -4.2420001 -0.77999997 72 55 48
8.8360004 -4.243 -0.73199999 99 73 56
8.8479996 -4.256 -0.71899998 32 17 10
8.816 -4.2509999 -0.71700001 30 12 8
8.816 -4.2579999 -0.727 47 31 31
8.8199997 -4.1789999 -0.69599998 59 33 16
8.8240004 -4.178 -0.69599998 51 25 10
8.8170004 -4.1810002 -0.704 68 48 21
8.8140001 -4.2319999 -0.86799997 43 26 19
8.835 -4.2399998 -0.61799997 94 39 8
8.8179998 -4.2480001 -0.59899998 44 17 0
8.823 -4.2540002 -0.59299999 114 88 65
8.8240004 -4.2529998 -0.58999997 112 75 48
8.8280001 -4.243 -0.58099997 74 45 49
8.8219995 -4.223 -0.57300001 255 232 187
8.8100004 -4.2399998 -0.59399998 75 45 19
8.8129997 -4.1849999 -0.60600001 121 70 27
8.809 -4.2249999 -0.58399999 188 131 76
8.8210001 -4.23 -0.59100002 149 118 98
8.8299999 -4.2210002 -0.57800001 91 64 47
8.8290005 -4.2290001 -0.588 111 73 37
8.8009996 -4.2140002 -0.815 192 171 150
8.8100004 -4.2210002 -0.82099998 56 18 0
8.8000002 -4.2210002 -0.82300001 95 77 65
8.7880001 -4.2719998 -0.79900002 95 70 50
8.8369999 -4.244 -0.81599998 34 12 1
8.7930002 -4.2199998 -0.80699998 36 9 2
8.7989998 -4.2719998 -0.74299997 122 86 38
8.8219995 -4.2719998 -0.72399998 94 76 64
8.8210001 -4.2659998 -0.72500002 36 12 8
8.8219995 -4.2719998 -0.72600001 31 17 14
8.809 -4.2880001 -0.741 20 5 2
8.8369999 -4.2789998 -0.74400002 30 12 10
8.8190002 -4.217 -0.82499999 29 12 4
8.8299999 -4.2709999 -0.65200001 113 81 66
8.8299999 -4.2719998 -0.70999998 32 7 2
8.849 -4.257 -0.73299998 41 24 16
8.8509998 -4.283 -0.73299998 49 11 0
8.802 -4.191 -0.69499999 21 0 0
8.8549995 -4.2470002 -0.70700002 51 31 24
8.835 -4.2579999 -0.69300002 30 9 4
8.842 -4.2740002 -0.69499999 27 8 1
8.8479996 -4.2880001 -0.71100003 31 11 4
8.8269997 -4.2449999 -0.722 35 18 10
8.8290005 -4.2550001 -0.68699998 22 10 12
8.8319998 -4.256 -0.68300003 29 8 5
8.8330002 -4.1939998 -0.71399999 31 19 7
8.8249998 -4.1789999 -0.69300002 29 4 0
8.8240004 -4.2490001 -0.83700001 36 18 8
8.823 -4.2189999 -0.80000001 41 22 15
8.8149996 -4.2160001 -0.77200001 113 96 76
8.8450003 -4.2659998 -0.773 49 29 20
8.8360004 -4.2649999 -0.77200001 37 20 13
8.8190002 -4.2529998 -0.76499999 28 11 4
8.8310003 -4.2449999 -0.78299999 154 126 104
8.8360004 -4.2550001 -0.77200001 25 6 0
8.8319998 -4.244 -0.75999999 16 3 0
8.8269997 -4.2329998 -0.77399999 155 137 117
8.8199997 -4.2329998 -0.773 17 0 0
8.8210001 -4.2290001 -0.74400002 39 25 16
8.8190002 -4.2519999 -0.74400002 127 110 102
8.7950001 -4.2789998 -0.801 30 4 3
8.8210001 -4.2340002 -0.64700001 39 0 0
8.8260002 -4.2319999 -0.64099997 78 38 12
8.8100004 -4.1830001 -0.70099998 45 23 10
8.8310003 -4.237 -0.61000001 84 62 41
8.8310003 -4.2319999 -0.59299999 55 23 0
8.8529997 -4.2480001 -0.64399999 145 104 60
8.8100004 -4.2199998 -0.83399999 111 98 82
8.8199997 -4.2810001 -0.74599999 52 6 0
8.8030005 -4.27 -0.74199998 25 0 0
8.8210001 -4.2779999 -0.73199999 71 57 56
8.8579998 -4.2820001 -0.68099999 89 62 45
8.8590002 -4.2820001 -0.69400001 27 7 0
8.8660002 -4.2820001 -0.68800002 50 22 11
8.8470001 -4.2470002 -0.69999999 57 37 30
8.8290005 -4.2789998 -0.72500002 47 30 20
8.8310003 -4.2579999 -0.70499998 29 6 0
8.8579998 -4.2589998 -0.722 32 13 7
8.8509998 -4.263 -0.73400003 49 30 15
8.8369999 -4.2490001 -0.73299998 83 62 45
8.8509998 -4.2800002 -0.69800001 34 9 4
8.849 -4.2810001 -0.70700002 35 15 6
8.8430004 -4.277 -0.70599997 27 13 12
8.8730001 -4.289 -0.68800002 46 20 3
8.8570004 -4.2859998 -0.70099998 35 13 0
8.8179998 -4.2360001 -0.76899999 24 5 0
8.8260002 -4.2509999 -0.75999999 28 12 12
8.8260002 -4.2449999 -0.74900001 43 25 21
8.8170004 -4.2529998 -0.74900001 101 84 77
8.842 -4.257 -0.76700002 45 17 3
8.8260002 -4.2379999 -0.74599999 40 22 12
8.8319998 -4.244 -0.75599998 26 11 6
8.8319998 -4.2740002 -0.755 94 76 62
8.8430004 -4.2680001 -0.75599998 106 91 86
8.8280001 -4.2389998 -0.611 90 33 3
8.8030005 -4.237 -0.58999997 110 86 74
8.8109999 -4.2329998 -0.58999997 61 31 5
8.8079996 -4.2259998 -0.82800001 103 89 76
8.8299999 -4.2740002 -0.72000003 28 9 3
8.8599997 -4.256 -0.71200001 39 18 13
8.849 -4.2680001 -0.74199998 35 16 10
8.8140001 -4.2350001 -0.74599999 35 20 17
8.8240004 -4.25 -0.75 27 12 7
8.8039999 -4.1849999 -0.71399999 34 16 2
8.8610001 -4.2670002 -0.72399998 11 0 0
0 0 0 1 0 0 0 1 0 0 0 1 0 0 0 0 0 994 1 0 0
