ply
format ascii 1.0
comment PCL generated
element vertex 278
property float x
property float y
property float z
property uchar red
property uchar green
property uchar blue
element camera 1
property float view_px
property float view_py
property float view_pz
property float x_axisx
property float x_axisy
property float x_axisz
property float y_axisx
property float y_axisy
property float y_axisz
property float z_axisx
property float z_axisy
property float z_axisz
property float focal
property float scalex
property float scaley
property float centerx
property float centery
property int viewportx
property int viewporty
property float k1
property float k2
end_header
5.9679999 6.8470001 -0.046 153 105 56
5.9749999 6.8400002 -0.050000001 128 69 25
5.9780002 6.8309999 -0.041000001 161 94 42
5.9899998 6.8369999 -0.064000003 167 117 66
5.9879999 6.823 -0.048 103 75 61
5.9660001 6.8540001 -0.055 95 61 36
5.9640002 6.8569999 -0.052000001 160 115 84
6.0650001 6.882 -0.048 100 73 52
6.0739999 6.8979998 -0.035 98 62 38
6.0739999 6.8969998 -0.041999999 113 79 54
6.072 6.8790002 -0.056000002 188 155 114
5.9990001 6.809 -0.034000002 168 144 120
6.0050001 6.8080001 -0.041999999 104 79 57
6.0489998 6.875 -0.028999999 146 78 17
6.052 6.862 -0.022 136 98 61
6.0539999 6.875 -0.037 74 47 26
6.0440001 6.8639998 -0.017000001 78 41 14
6.0209999 6.8299999 -0.064000003 237 186 133
6.0159998 6.8239999 -0.059999999 241 177 131
6.0079999 6.8309999 -0.057 118 81 62
5.9840002 6.8249998 -0.044 146 99 69
5.987 6.8239999 -0.035999998 150 104 70
5.9910002 6.8260002 -0.050000001 96 60 36
5.9759998 6.8340001 -0.037 123 41 0
5.9689999 6.8460002 -0.023 109 77 36
5.9679999 6.8470001 -0.028000001 137 89 40
5.9889998 6.8130002 -0.026000001 119 62 17
5.9780002 6.7989998 -0.022 125 99 74
5.9770002 6.7979999 -0.027000001 164 101 48
5.9679999 6.848 -0.044 80 43 34
5.9720001 6.868 -0.029999999 94 58 36
6.0549998 6.895 -0.035 121 80 52
6.0710001 6.875 -0.057999998 100 66 31
6.0640001 6.8790002 -0.056000002 141 110 105
6.0599999 6.8839998 -0.050999999 107 77 75
6.0380001 6.8270001 -0.056000002 226 161 97
6.0349998 6.8299999 -0.061000001 179 123 62
6.0170002 6.8130002 -0.059999999 151 74 30
6.0609999 6.8319998 -0.052000001 94 78 55
6.0560002 6.8249998 -0.046999998 207 166 120
5.993 6.816 -0.033 107 88 71
6.0029998 6.8109999 -0.022 133 102 84
6.0009999 6.8179998 -0.015 98 39 0
5.9920001 6.8119998 -0.027000001 100 65 43
6.0549998 6.8969998 -0.023 112 72 46
6.0679998 6.9050002 -0.023 102 66 42
6.0120001 6.8200002 -0.059 188 106 50
5.9770002 6.8449998 -0.026000001 61 45 45
5.9689999 6.8520002 -0.041999999 62 36 35
5.9920001 6.835 -0.057 145 83 34
6.0679998 6.8969998 -0.041999999 107 67 42
6.0440001 6.8600001 -0.02 156 121 89
6.0149999 6.881 0.0049999999 141 80 26
6.0089998 6.868 0.0089999996 81 53 29
6.0209999 6.869 -0.003 100 74 51
6.0489998 6.822 -0.046 103 85 63
6.0599999 6.8639998 -0.057999998 98 56 31
6.0599999 6.8670001 -0.064000003 127 70 27
6.0219998 6.842 -0.064999998 92 59 40
6.0419998 6.849 -0.064000003 54 19 0
6.0419998 6.8670001 -0.07 114 73 43
6.0599999 6.8299999 -0.045000002 78 32 6
6.059 6.829 -0.046999998 144 116 104
6.0050001 6.8119998 -0.018999999 92 64 50
6.0159998 6.8099999 -0.052000001 137 111 88
6.0089998 6.8070002 -0.048 99 73 58
6.0139999 6.8010001 -0.041999999 96 60 36
6.006 6.7989998 -0.027000001 78 43 21
6.0040002 6.8049998 -0.032000002 109 86 72
6.0089998 6.8200002 -0.057 180 135 94
6.0029998 6.8179998 -0.041999999 123 104 87
5.9850001 6.8000002 -0.026000001 173 109 45
6.0549998 6.895 -0.028999999 142 101 73
6.0489998 6.8920002 -0.028999999 159 117 92
6.026 6.842 -0.061999999 65 48 32
6.0320001 6.8249998 -0.054000001 135 108 97
5.9790001 6.8470001 -0.056000002 255 200 133
5.9660001 6.8590002 -0.059 98 44 0
5.9790001 6.8520002 -0.055 83 55 33
6.0050001 6.8319998 0.0060000001 73 39 27
6.006 6.8280001 0.0040000002 126 57 0
5.9970002 6.8299999 0.0049999999 153 86 34
6.0029998 6.842 0.0049999999 123 115 96
6.0110002 6.842 0.012 182 135 81
5.9710002 6.875 -0.052999999 116 99 79
5.9809999 6.8759999 -0.055 136 110 111
5.9759998 6.8730001 -0.055 126 93 76
6.0570002 6.8779998 -0.061999999 104 73 42
6.0430002 6.8800001 -0.025 87 60 39
6.0419998 6.8909998 -0.022 116 76 51
6.0409999 6.862 0.0099999998 219 172 118
6.0359998 6.8569999 0.012 148 101 45
6.0409999 6.8569999 0.016000001 101 49 10
6.0609999 6.9050002 -0.023 104 67 41
6.0110002 6.8800001 0.003 83 52 34
5.9759998 6.875 -0.046999998 154 122 84
5.9689999 6.8730001 -0.041000001 101 86 57
5.9770002 6.8740001 -0.037999999 98 61 42
6.0040002 6.8499999 0.0040000002 136 75 28
5.9749999 6.8730001 -0.034000002 117 87 51
6.053 6.8299999 -0.041000001 154 102 44
6.02 6.8169999 -0.057 147 109 88
6.026 6.8179998 -0.048 174 116 70
6.0310001 6.8130002 -0.039999999 148 121 110
6.0440001 6.8179998 -0.034000002 81 69 47
6.046 6.8299999 -0.030999999 100 59 13
6.0050001 6.823 -0.0080000004 134 70 24
6.0170002 6.8130002 -0.014 168 87 31
6.0310001 6.8590002 -0.064999998 103 65 44
6.0599999 6.8460002 -0.057 160 111 70
6.0469999 6.848 -0.061000001 76 52 42
6.053 6.8610001 -0.063000001 82 54 42
6.0619998 6.8400002 -0.057 130 87 45
6.0009999 6.8309999 -0.054000001 101 68 35
6.007 6.8239999 0.003 93 66 49
5.994 6.8260002 -0.0049999999 213 153 99
5.994 6.8210001 -0.037 121 43 0
5.9899998 6.8210001 -0.032000002 127 55 5
5.9959998 6.8239999 -0.046 63 50 44
6.0679998 6.9039998 -0.028999999 113 73 47
6.0079999 6.8330002 0.0070000002 154 91 38
6.02 6.8270001 0.0099999998 100 75 45
5.9860001 6.836 -0.026000001 121 72 16
5.9720001 6.8660002 -0.048999999 166 138 137
6.027 6.8369999 -0.0040000002 145 86 44
6.0430002 6.8379998 -0.016000001 123 76 22
6.027 6.8429999 -0.0049999999 61 41 30
6.046 6.8390002 -0.027000001 196 156 97
6.046 6.8340001 -0.024 68 51 33
6.0370002 6.8889999 -0.035 97 60 34
6.0489998 6.8909998 -0.041000001 130 93 67
6.0419998 6.8870001 -0.041000001 111 75 51
6.0570002 6.8759999 -0.045000002 215 172 127
6.006 6.855 0.0070000002 132 97 59
6.0009999 6.8670001 0.0040000002 79 48 43
5.9990001 6.8559999 0.0020000001 115 86 72
6.0009999 6.8530002 0.0020000001 104 67 48
6.0190001 6.8429999 0.012 158 114 69
6.0209999 6.8330002 0.0089999996 72 47 27
6.027 6.8280001 0.0089999996 63 37 14
6.0419998 6.8649998 -0.015 95 41 3
6.0110002 6.8839998 -0.003 78 43 21
6.0170002 6.8860002 -0.003 119 83 61
6.0170002 6.8829999 -0.0099999998 134 97 70
6.0110002 6.8860002 -0.0099999998 78 43 15
6.0500002 6.881 -0.046 142 72 20
5.9860001 6.8709998 -0.037 82 63 48
5.9990001 6.849 0.001 91 67 43
5.9920001 6.8559999 -0.003 81 50 47
6 6.8410001 -0.0080000004 138 76 25
6.0110002 6.8709998 -0.034000002 81 48 29
6.0219998 6.869 -0.043000001 133 68 14
6.0149999 6.8709998 -0.034000002 108 86 62
6.0489998 6.829 -0.052000001 176 152 140
6.0419998 6.8169999 -0.039999999 100 85 64
6.039 6.8099999 -0.035 90 61 47
6.0570002 6.895 -0.043000001 84 63 60
6.0500002 6.8530002 -0.059999999 132 94 55
6.0619998 6.8559999 -0.046 202 167 113
6.0679998 6.901 -0.035 117 75 50
6.0320001 6.8509998 -0.059999999 180 143 116
6.0409999 6.8429999 -0.059 134 109 89
6.0110002 6.8270001 0.0060000001 90 56 44
5.9840002 6.842 -0.017999999 73 43 41
5.9720001 6.8590002 -0.029999999 125 108 64
6.0289998 6.8280001 -0.001 65 39 16
6.0250001 6.8270001 0.001 64 42 21
6.0440001 6.8579998 -0.028000001 113 57 22
6.0549998 6.8790002 -0.055 79 47 34
6.0279999 6.8730001 -0.059999999 122 58 10
6.0339999 6.8790002 -0.059999999 112 81 50
6.0370002 6.8829999 -0.041000001 106 71 49
6.0419998 6.8920002 -0.028999999 104 62 37
6.0250001 6.8530002 0.0080000004 91 65 42
6.0110002 6.8530002 0.0049999999 147 110 66
5.9899998 6.8639998 -0.0060000001 94 59 37
6.0120001 6.8379998 0.0089999996 36 11 0
5.9850001 6.8530002 -0.015 95 59 37
6.0549998 6.8330002 -0.052000001 154 136 136
6.04 6.8179998 -0.043000001 103 77 64
6.013 6.8010001 -0.029999999 80 47 30
6.0240002 6.8639998 -0.059999999 133 74 30
6.0320001 6.8639998 -0.061999999 120 104 89
6.0359998 6.8639998 -0.064000003 114 57 14
6.0450001 6.8530002 -0.035999998 117 79 43
6.059 6.8540001 -0.052999999 109 93 70
6.0609999 6.8429999 -0.056000002 176 121 64
6.0300002 6.8179998 -0.0089999996 85 47 0
5.9899998 6.835 -0.022 98 57 13
5.9980001 6.8340001 -0.0080000004 166 100 50
6.0100002 6.8099999 -0.022 90 51 18
6.0089998 6.8099999 -0.022 96 65 45
6.0549998 6.895 -0.041000001 118 78 53
6.0609999 6.9070001 -0.028999999 113 72 44
5.9959998 6.8499999 -0.066 156 109 63
5.9809999 6.8600001 -0.054000001 105 80 83
6.0139999 6.8270001 0.0060000001 117 62 8
6 6.8369999 -0.003 72 50 29
5.9790001 6.8610001 -0.025 73 35 26
5.9840002 6.8699999 -0.022 201 165 141
5.9720001 6.8639998 -0.037999999 150 105 82
6.0469999 6.835 -0.017999999 139 96 45
6.0300002 6.8369999 -0.0099999998 103 61 19
6.0170002 6.8649998 -0.050000001 142 76 24
6.013 6.8600001 -0.052000001 90 74 59
5.994 6.8660002 -0.043000001 120 81 38
6.007 6.8610001 -0.043000001 254 216 177
6.0110002 6.862 -0.041999999 114 73 51
6.0240002 6.8720002 -0.034000002 92 57 35
6.026 6.8709998 -0.050000001 92 70 72
6.0310001 6.8730001 -0.050000001 145 76 21
6.033 6.8530002 -0.0080000004 160 107 53
6.027 6.848 -0.0049999999 161 144 128
6.0240002 6.881 -0.0099999998 113 79 54
6.0240002 6.8759999 -0.022 144 108 84
6.0050001 6.875 -0.0070000002 101 69 44
5.9809999 6.8600001 -0.022 100 65 25
6 6.8639998 0.0020000001 197 160 141
5.9809999 6.8660002 -0.055 106 73 56
6.0349998 6.8179998 -0.023 55 38 18
6.0310001 6.8270001 -0.011 88 62 45
6.0300002 6.8200002 -0.011 142 87 31
6.0279999 6.8150001 -0.017000001 125 81 34
6.0079999 6.8010001 -0.025 60 33 16
6.0370002 6.8699999 -0.063000001 62 38 28
6.04 6.8730001 -0.063000001 61 33 21
6.04 6.8740001 -0.061999999 114 86 75
6.0570002 6.8660002 -0.052000001 42 25 18
6.0419998 6.8499999 -0.032000002 87 38 6
6.0599999 6.8390002 -0.052000001 126 109 91
6.0310001 6.8270001 -0.0080000004 107 84 68
6.0139999 6.8759999 -0.028999999 123 55 6
6.0110002 6.8730001 -0.022 107 71 45
6.0110002 6.8720002 -0.028000001 94 59 37
5.9970002 6.823 -0.014 102 74 60
5.9970002 6.8239999 -0.014 137 52 0
6.0609999 6.9029999 -0.035 94 53 25
5.9920001 6.8639998 -0.059 170 85 18
5.9860001 6.8699999 -0.048 65 47 33
6.0139999 6.8210001 -0.001 96 64 53
6.0009999 6.8439999 -0.057 114 76 55
6.02 6.8460002 -0.061000001 199 141 78
5.9770002 6.8569999 -0.027000001 104 74 72
5.9980001 6.8779998 -0.012 121 59 10
5.9899998 6.8709998 -0.022 102 74 35
6.0300002 6.8280001 -0.0070000002 69 44 22
5.9920001 6.8660002 -0.035999998 129 76 24
6.006 6.869 -0.033 72 51 30
6.0229998 6.8569999 -0.059 203 119 55
6.0079999 6.8530002 -0.052999999 67 40 33
6.026 6.8699999 -0.057 92 62 28
6.0310001 6.875 -0.034000002 88 52 28
6.0310001 6.8730001 -0.041000001 176 101 43
6.0250001 6.8449998 -0.0020000001 71 52 37
5.9970002 6.8660002 -0.0070000002 78 45 26
6.0279999 6.8070002 -0.026000001 93 56 37
6.0229998 6.8060002 -0.030999999 119 87 72
6.0479999 6.8390002 -0.055 110 97 89
6.0440001 6.8390002 -0.057 178 131 85
6.0380001 6.8600001 -0.064000003 132 82 45
6.0560002 6.8629999 -0.046 243 210 159
6.046 6.8779998 -0.061000001 89 64 67
6.0110002 6.8839998 -0.016000001 134 97 70
6.0609999 6.9000001 -0.041999999 118 78 53
5.9980001 6.8610001 -0.046999998 109 80 46
5.994 6.8649998 -0.054000001 110 71 28
6 6.8509998 -0.057999998 104 56 16
5.9970002 6.8569999 -0.056000002 196 133 79
5.9959998 6.8709998 -0.022 100 65 43
6.026 6.8319998 -0.001 118 94 68
6.033 6.875 -0.055 88 66 69
6.033 6.8790002 -0.030999999 123 87 65
6.0510001 6.8400002 -0.045000002 106 57 25
6.0219998 6.8080001 -0.034000002 101 73 61
6.02 6.8049998 -0.028000001 105 72 57
6.0489998 6.848 -0.046999998 61 46 43
6.0180001 6.8049998 -0.035999998 88 60 48
6.02 6.8080001 -0.035999998 110 82 71
0 0 0 1 0 0 0 1 0 0 0 1 0 0 0 0 0 278 1 0 0
