ply
format ascii 1.0
comment PCL generated
element vertex 1220
property float x
property float y
property float z
property uchar red
property uchar green
property uchar blue
element camera 0
property float view_px
property float view_py
property float view_pz
property float x_axisx
property float x_axisy
property float x_axisz
property float y_axisx
property float y_axisy
property float y_axisz
property float z_axisx
property float z_axisy
property float z_axisz
property float focal
property float scalex
property float scaley
property float centerx
property float centery
property int viewportx
property int viewporty
property float k1
property float k2
end_header
7.4029999 -3.5680001 -0.78200001 101 39 0
7.401 -3.5669999 -0.78200001 87 50 24
7.3860002 -3.5699999 -0.801 142 81 37
7.401 -3.579 -0.81 127 108 102
7.4200001 -3.582 -0.80000001 111 95 79
7.4089999 -3.585 -0.80800003 32 5 0
7.381 -3.6210001 -0.76099998 60 13 0
7.3740001 -3.589 -0.74299997 117 61 26
7.3660002 -3.5510001 -0.71499997 96 51 30
7.3720002 -3.5599999 -0.71799999 93 52 24
7.3600001 -3.543 -0.70099998 146 101 62
7.3509998 -3.5420001 -0.69700003 30 14 14
7.4029999 -3.5869999 -0.76700002 25 7 5
7.414 -3.575 -0.77899998 129 102 81
7.4099998 -3.5309999 -0.86199999 113 89 77
7.4120002 -3.536 -0.86400002 41 14 5
7.441 -3.5439999 -0.85600001 39 15 11
7.4320002 -3.5369999 -0.84899998 105 45 8
7.4390001 -3.55 -0.86000001 22 5 0
7.3779998 -3.533 -0.85600001 69 27 2
7.4289999 -3.5840001 -0.75300002 53 26 9
7.4460001 -3.5799999 -0.75800002 70 52 50
7.4429998 -3.576 -0.75999999 47 21 4
7.4970002 -3.579 -0.77399999 77 51 34
7.4990001 -3.5829999 -0.75099999 60 28 5
7.4970002 -3.589 -0.76300001 35 17 17
7.5029998 -3.5639999 -0.76599997 71 43 22
7.3850002 -3.5250001 -0.85399997 154 115 82
7.3930001 -3.526 -0.84600002 115 92 76
7.3969998 -3.5239999 -0.84600002 108 84 72
7.3969998 -3.523 -0.85600001 29 0 0
7.3829999 -3.556 -0.76499999 55 29 14
7.3790002 -3.569 -0.75800002 61 14 0
7.382 -3.55 -0.75199997 34 8 0
7.3839998 -3.552 -0.74299997 85 25 0
7.3790002 -3.569 -0.75300002 97 47 22
7.421 -3.556 -0.77200001 130 115 108
7.4229999 -3.556 -0.76700002 111 97 94
7.4239998 -3.566 -0.77999997 34 8 0
7.4219999 -3.5639999 -0.78299999 37 10 0
7.4489999 -3.586 -0.75700003 216 153 100
7.4390001 -3.5969999 -0.76300001 35 15 8
7.4699998 -3.5320001 -0.76599997 132 104 83
7.473 -3.527 -0.764 72 34 11
7.4359999 -3.5339999 -0.72100002 36 16 17
7.4299998 -3.529 -0.71799999 138 105 88
7.4359999 -3.527 -0.79799998 100 78 54
7.4439998 -3.5150001 -0.78100002 89 71 61
7.4299998 -3.536 -0.79699999 84 29 8
7.4439998 -3.507 -0.79699999 171 111 74
7.4489999 -3.4979999 -0.79100001 34 4 0
7.4489999 -3.513 -0.77999997 43 18 0
7.4780002 -3.4909999 -0.79299998 115 61 25
7.4710002 -3.4920001 -0.796 97 46 15
7.4549999 -3.5280001 -0.852 72 56 56
7.4569998 -3.5469999 -0.86199999 84 25 0
7.474 -3.4920001 -0.78899997 46 22 12
7.4749999 -3.493 -0.78500003 64 40 30
7.447 -3.5190001 -0.796 116 89 70
7.4460001 -3.5409999 -0.79100001 136 127 130
7.4850001 -3.5439999 -0.78399998 62 35 14
7.4710002 -3.5550001 -0.79299998 83 57 30
7.4720001 -3.5409999 -0.79299998 38 16 5
7.4840002 -3.533 -0.787 60 41 35
7.4460001 -3.579 -0.76499999 101 74 53
7.441 -3.5739999 -0.76899999 54 23 3
7.3930001 -3.543 -0.76700002 35 13 2
7.3889999 -3.5510001 -0.76700002 46 24 13
7.4359999 -3.526 -0.80500001 123 101 88
7.4359999 -3.523 -0.80400002 121 103 99
7.4229999 -3.533 -0.81300002 141 78 43
7.3870001 -3.536 -0.81900001 64 39 32
7.3889999 -3.529 -0.84100002 56 34 23
7.4039998 -3.529 -0.82300001 77 42 14
7.395 -3.5250001 -0.84299999 128 106 93
7.3969998 -3.5250001 -0.84299999 68 48 41
7.4130001 -3.5380001 -0.80599999 77 15 0
7.3829999 -3.52 -0.70899999 35 8 1
7.4250002 -3.51 -0.704 160 125 83
7.5 -3.526 -0.76599997 86 54 41
7.4980001 -3.5409999 -0.764 64 37 20
7.5489998 -3.5569999 -0.76099998 126 68 30
7.5110002 -3.533 -0.76800001 25 3 0
7.507 -3.513 -0.76999998 88 51 32
7.5110002 -3.5150001 -0.773 16 0 0
7.507 -3.5050001 -0.778 86 42 13
7.5009999 -3.5039999 -0.77399999 97 58 27
7.507 -3.5009999 -0.77899998 96 52 17
7.539 -3.55 -0.78200001 140 108 83
7.539 -3.546 -0.77700001 131 104 83
7.5419998 -3.5550001 -0.76700002 111 53 16
7.506 -3.5780001 -0.78899997 73 49 39
7.4699998 -3.546 -0.79900002 62 39 23
7.4720001 -3.5510001 -0.796 58 33 13
7.5120001 -3.5669999 -0.75599998 70 28 12
7.5019999 -3.556 -0.759 16 2 0
7.5009999 -3.552 -0.75599998 103 70 51
7.4499998 -3.553 -0.861 29 2 0
7.4070001 -3.53 -0.87099999 114 105 106
7.395 -3.5380001 -0.59399998 102 50 0
7.3860002 -3.5439999 -0.583 125 62 29
7.3850002 -3.546 -0.58200002 170 106 34
7.4860001 -3.628 -0.63800001 183 126 81
7.4029999 -3.5639999 -0.57700002 76 30 4
7.4000001 -3.569 -0.57700002 163 105 57
7.4029999 -3.572 -0.57999998 163 132 112
7.4980001 -3.6919999 -0.73799998 100 77 59
7.5089998 -3.6860001 -0.72299999 43 22 17
7.5079999 -3.6819999 -0.71499997 45 18 7
7.5599999 -3.589 -0.73799998 189 148 96
7.3600001 -3.6140001 -0.73500001 72 26 13
7.3709998 -3.618 -0.727 32 2 0
7.3790002 -3.665 -0.75999999 26 5 2
7.4120002 -3.6289999 -0.73100001 81 37 8
7.388 -3.6140001 -0.72600001 57 30 11
7.3889999 -3.6240001 -0.72899997 59 18 0
7.5 -3.645 -0.722 101 70 52
7.5009999 -3.6919999 -0.72100002 47 4 0
7.4000001 -3.5220001 -0.88800001 23 8 1
7.4169998 -3.497 -0.68400002 220 193 112
7.4029999 -3.4960001 -0.66500002 105 44 0
7.349 -3.5439999 -0.70999998 80 48 25
7.3379998 -3.5350001 -0.69499999 64 41 47
7.4650002 -3.4879999 -0.79000002 69 22 0
7.473 -3.4949999 -0.77999997 82 45 18
7.4580002 -3.5179999 -0.76700002 55 29 12
7.4819999 -3.5209999 -0.76700002 122 71 40
7.3930001 -3.573 -0.62099999 53 33 35
7.3920002 -3.572 -0.61000001 131 92 75
7.3909998 -3.556 -0.63800001 37 8 0
7.3940001 -3.5580001 -0.64200002 108 42 7
7.382 -3.5480001 -0.59500003 218 138 75
7.3559999 -3.5339999 -0.66900003 102 62 26
7.4260001 -3.5480001 -0.59200001 115 80 52
7.4169998 -3.5650001 -0.58899999 110 60 37
7.4190001 -3.553 -0.58200002 144 88 29
7.4770002 -3.612 -0.64700001 107 51 24
7.4289999 -3.5539999 -0.66000003 144 100 61
7.4239998 -3.55 -0.65399998 102 65 38
7.4970002 -3.602 -0.66000003 49 18 0
7.5250001 -3.6170001 -0.67299998 87 58 26
7.5240002 -3.6159999 -0.67400002 63 37 10
7.427 -3.506 -0.68000001 51 10 0
7.5040002 -3.6140001 -0.63999999 28 3 0
7.5029998 -3.612 -0.64700001 41 17 7
7.4959998 -3.6170001 -0.63599998 46 19 10
7.5040002 -3.6300001 -0.63200003 188 134 96
7.5079999 -3.6329999 -0.634 102 33 0
7.5050001 -3.6429999 -0.63499999 174 123 78
7.5050001 -3.638 -0.63499999 115 63 15
7.546 -3.5799999 -0.73000002 73 32 2
7.5219998 -3.631 -0.64399999 171 125 92
7.513 -3.6340001 -0.63800001 180 119 74
7.506 -3.6400001 -0.66299999 155 123 110
7.5139999 -3.622 -0.65499997 96 70 55
7.5159998 -3.6619999 -0.67299998 163 127 111
7.5079999 -3.632 -0.69400001 63 45 35
7.5089998 -3.6289999 -0.69 120 97 89
7.5050001 -3.6329999 -0.70099998 44 21 3
7.4840002 -3.6489999 -0.662 69 35 10
7.4920001 -3.6570001 -0.671 78 53 33
7.5209999 -3.6199999 -0.68900001 37 23 10
7.506 -3.6159999 -0.69999999 90 68 45
7.5409999 -3.589 -0.73299998 202 159 116
7.507 -3.622 -0.63499999 73 29 2
7.5170002 -3.6129999 -0.68300003 30 16 7
7.5310001 -3.6229999 -0.67299998 88 60 23
7.5229998 -3.6199999 -0.67000002 88 56 17
7.527 -3.6170001 -0.67799997 46 20 0
7.4130001 -3.5739999 -0.62400001 99 79 72
7.414 -3.566 -0.62699997 72 31 11
7.4109998 -3.5799999 -0.66799998 57 26 5
7.4039998 -3.5840001 -0.667 99 62 44
7.4089999 -3.5880001 -0.68199998 74 51 35
7.4180002 -3.579 -0.67400002 101 59 37
7.4229999 -3.5810001 -0.685 73 51 28
7.4359999 -3.5539999 -0.671 85 28 8
7.4359999 -3.5639999 -0.67199999 89 34 3
7.434 -3.5309999 -0.70999998 50 32 32
7.4419999 -3.5339999 -0.708 58 41 31
7.4310002 -3.5350001 -0.71200001 107 94 41
7.4369998 -3.5280001 -0.71399999 72 45 24
7.4369998 -3.5320001 -0.71899998 106 90 77
7.427 -3.5120001 -0.71399999 116 74 49
7.4219999 -3.513 -0.713 71 27 2
7.4380002 -3.5250001 -0.704 231 205 131
7.4330001 -3.549 -0.70999998 24 8 8
7.4190001 -3.562 -0.69700003 105 63 39
7.4200001 -3.549 -0.69800001 24 4 0
7.4619999 -3.6140001 -0.74299997 48 5 0
7.4590001 -3.619 -0.74400002 67 45 32
7.454 -3.6159999 -0.73100001 45 28 20
7.4489999 -3.6040001 -0.727 144 93 62
7.4640002 -3.631 -0.75599998 116 85 65
7.4759998 -3.632 -0.755 145 88 17
7.3720002 -3.5510001 -0.72799999 29 2 0
7.5380001 -3.579 -0.76300001 143 108 86
7.5409999 -3.5810001 -0.74900001 139 115 105
7.5380001 -3.592 -0.75 217 173 146
7.527 -3.592 -0.75300002 49 28 11
7.5190001 -3.592 -0.73400003 120 86 58
7.527 -3.595 -0.73699999 125 58 15
7.4980001 -3.596 -0.74900001 131 71 35
7.4980001 -3.602 -0.74900001 115 84 55
7.4549999 -3.6900001 -0.86199999 34 5 0
7.4530001 -3.681 -0.866 172 144 123
7.4549999 -3.6889999 -0.84299999 156 128 107
7.4679999 -3.688 -0.86400002 29 8 3
7.3779998 -3.569 -0.88599998 35 6 0
7.3839998 -3.5610001 -0.89399999 22 6 6
7.3649998 -3.543 -0.87400001 92 50 25
7.5120001 -3.523 -0.76499999 159 123 75
7.4899998 -3.507 -0.773 100 63 34
7.494 -3.5039999 -0.77499998 94 71 63
7.473 -3.5409999 -0.85299999 113 107 111
7.487 -3.516 -0.79799998 97 77 68
7.4920001 -3.517 -0.796 76 58 46
7.4910002 -3.533 -0.78799999 68 34 9
7.4860001 -3.5239999 -0.79500002 40 18 7
7.3990002 -3.49 -0.66799998 208 154 118
7.4200001 -3.5120001 -0.66100001 141 99 51
7.415 -3.5020001 -0.66799998 72 29 0
7.4180002 -3.5120001 -0.66000003 252 205 151
7.408 -3.4990001 -0.66299999 161 141 134
7.4050002 -3.527 -0.60900003 112 59 19
7.4109998 -3.533 -0.60699999 153 104 63
7.421 -3.5469999 -0.64999998 117 86 68
7.4180002 -3.5539999 -0.64399999 90 45 12
7.4200001 -3.529 -0.67199999 132 106 91
7.415 -3.5610001 -0.63499999 20 0 0
7.4190001 -3.553 -0.653 34 5 0
7.4239998 -3.5610001 -0.66399997 47 26 9
7.5029998 -3.6059999 -0.80299997 52 19 2
7.4910002 -3.595 -0.76800001 53 17 3
7.4559999 -3.6300001 -0.74199998 40 23 13
7.4359999 -3.6300001 -0.741 161 109 69
7.4759998 -3.612 -0.67400002 82 53 21
7.4710002 -3.622 -0.68800002 77 47 23
7.5159998 -3.612 -0.68099999 30 13 5
7.4840002 -3.651 -0.76499999 148 124 112
7.4650002 -3.648 -0.74800003 35 15 4
7.4330001 -3.6429999 -0.74599999 72 32 6
7.5040002 -3.619 -0.70599997 86 59 30
7.5170002 -3.5829999 -0.73100001 43 31 31
7.5149999 -3.609 -0.764 90 53 37
7.5079999 -3.6159999 -0.778 34 14 3
7.4959998 -3.6359999 -0.74900001 74 31 0
7.4949999 -3.6489999 -0.745 61 38 20
7.5029998 -3.6340001 -0.73299998 28 1 0
7.5040002 -3.6359999 -0.73199999 43 21 7
7.5029998 -3.625 -0.71899998 45 20 0
7.4910002 -3.609 -0.78600001 42 14 0
7.5040002 -3.645 -0.79400003 90 73 65
7.4970002 -3.6400001 -0.77200001 81 36 7
7.5149999 -3.608 -0.77600002 25 0 0
7.5 -3.5969999 -0.74000001 76 16 0
7.5359998 -3.6659999 -0.65200001 174 99 44
7.539 -3.671 -0.68800002 62 36 23
7.5320001 -3.6670001 -0.68699998 24 4 0
7.5440001 -3.6689999 -0.64899999 130 69 24
7.3709998 -3.529 -0.89099997 47 20 11
7.3390002 -3.527 -0.70499998 86 50 28
7.3790002 -3.5450001 -0.82999998 91 34 4
7.3850002 -3.552 -0.83999997 71 17 0
7.382 -3.55 -0.84500003 20 6 3
7.414 -3.575 -0.611 57 31 14
7.4159999 -3.572 -0.60699999 128 106 108
7.5279999 -3.6989999 -0.662 92 41 10
7.382 -3.6559999 -0.75199997 83 48 6
7.3740001 -3.6440001 -0.74699998 84 51 10
7.3779998 -3.6659999 -0.77100003 128 92 66
7.3709998 -3.6500001 -0.75400001 146 94 57
7.3660002 -3.641 -0.75400001 163 114 58
7.5100002 -3.687 -0.69700003 69 17 3
7.5079999 -3.6830001 -0.70099998 70 10 0
7.5079999 -3.6849999 -0.67799997 55 23 0
7.5149999 -3.6889999 -0.671 91 61 35
7.5 -3.6760001 -0.70899999 44 18 3
7.5170002 -3.687 -0.66000003 52 26 11
7.3509998 -3.5420001 -0.67199999 20 1 0
7.349 -3.54 -0.68099999 45 22 6
7.3470001 -3.5320001 -0.67400002 98 58 32
7.336 -3.5309999 -0.68300003 34 16 4
7.336 -3.526 -0.67699999 56 13 0
7.3319998 -3.5179999 -0.68900001 129 99 65
7.3270001 -3.5239999 -0.69099998 81 40 18
7.3499999 -3.546 -0.67900002 85 62 44
7.3470001 -3.5369999 -0.69 53 24 6
7.3779998 -3.572 -0.71899998 97 45 21
7.3889999 -3.566 -0.66100001 50 11 0
7.369 -3.6070001 -0.72000003 90 42 2
7.4359999 -3.6110001 -0.73400003 70 29 9
7.4169998 -3.6010001 -0.71700001 57 35 22
7.4120002 -3.609 -0.71600002 87 45 7
7.4070001 -3.609 -0.72100002 59 28 0
7.3990002 -3.6010001 -0.71799999 36 8 0
7.3940001 -3.5969999 -0.71499997 102 83 69
7.4159999 -3.5899999 -0.722 65 38 27
7.4159999 -3.5769999 -0.72899997 56 32 22
7.4180002 -3.582 -0.70700002 84 40 15
7.415 -3.582 -0.69700003 55 26 18
7.421 -3.5480001 -0.68099999 72 13 0
7.388 -3.572 -0.69599998 61 23 10
7.382 -3.563 -0.67299998 44 24 15
7.3959999 -3.582 -0.76700002 66 47 41
7.4770002 -3.6489999 -0.67900002 127 92 54
7.4689999 -3.631 -0.69800001 36 10 0
7.3839998 -3.513 -0.67699999 181 105 47
7.369 -3.526 -0.67199999 74 28 4
7.388 -3.543 -0.64099997 41 21 23
7.3909998 -3.5510001 -0.64099997 244 237 219
7.3899999 -3.5510001 -0.634 80 47 30
7.4070001 -3.5610001 -0.65200001 122 105 98
7.3330002 -3.5320001 -0.69499999 60 31 15
7.3340001 -3.5309999 -0.69099998 60 38 27
7.3460002 -3.5320001 -0.67900002 87 65 44
7.3330002 -3.53 -0.68800002 43 22 5
7.3759999 -3.573 -0.75700003 60 14 0
7.388 -3.609 -0.75800002 61 32 14
7.3920002 -3.6040001 -0.75599998 159 130 112
7.4349999 -3.6300001 -0.745 135 86 43
7.4109998 -3.652 -0.75400001 132 74 37
7.4629998 -3.648 -0.73000002 42 17 10
7.4520001 -3.6140001 -0.72799999 71 56 59
7.5170002 -3.688 -0.653 88 69 65
7.4130001 -3.582 -0.73900002 71 45 20
7.3979998 -3.563 -0.88700002 27 0 0
7.4099998 -3.598 -0.82099998 41 12 4
7.414 -3.596 -0.81800002 46 21 14
7.4180002 -3.5999999 -0.81800002 26 1 0
7.4200001 -3.605 -0.81900001 76 44 29
7.4250002 -3.608 -0.824 71 51 44
7.4850001 -3.6059999 -0.79900002 125 106 100
7.4720001 -3.612 -0.79799998 43 22 1
7.4819999 -3.598 -0.78799999 140 102 79
7.408 -3.5880001 -0.80900002 36 9 0
7.4380002 -3.6559999 -0.88599998 59 31 17
7.4400001 -3.6440001 -0.87599999 137 110 93
7.4419999 -3.638 -0.86799997 112 78 68
7.4260001 -3.5899999 -0.852 11 1 0
7.4120002 -3.589 -0.84399998 144 82 43
7.4109998 -3.5929999 -0.83999997 48 21 10
7.4819999 -3.6229999 -0.89200002 30 10 0
7.4860001 -3.6300001 -0.89600003 18 0 0
7.4910002 -3.628 -0.889 16 1 0
7.48 -3.553 -0.85299999 92 86 90
7.4749999 -3.5439999 -0.85000002 95 91 92
7.473 -3.5450001 -0.847 100 95 99
7.5100002 -3.5880001 -0.80800003 51 6 0
7.513 -3.592 -0.80500001 177 140 122
7.4390001 -3.5669999 -0.84600002 49 16 0
7.408 -3.655 -0.76999998 70 39 18
7.4099998 -3.628 -0.76300001 114 83 54
7.3990002 -3.632 -0.76599997 115 93 82
7.3990002 -3.618 -0.76499999 139 75 37
7.4619999 -3.6719999 -0.824 129 98 80
7.461 -3.6789999 -0.82599998 181 156 136
7.4569998 -3.677 -0.83200002 54 22 1
7.454 -3.6570001 -0.82499999 158 131 112
7.4559999 -3.655 -0.81999999 147 116 96
7.447 -3.6440001 -0.82200003 110 92 80
7.4619999 -3.6470001 -0.81900001 136 109 92
7.4759998 -3.648 -0.796 41 8 3
7.4780002 -3.6570001 -0.787 28 0 0
7.4699998 -3.648 -0.787 46 18 7
7.4699998 -3.6429999 -0.80000001 42 9 0
7.48 -3.668 -0.78200001 87 60 49
7.5 -3.675 -0.76499999 32 11 6
7.493 -3.652 -0.80199999 111 84 67
7.5 -3.6559999 -0.81 177 144 111
7.4879999 -3.654 -0.80900002 78 49 31
7.4679999 -3.5599999 -0.861 24 6 6
7.4450002 -3.5699999 -0.866 79 56 38
7.4689999 -3.5539999 -0.85100001 67 44 36
7.4450002 -3.575 -0.866 114 103 99
7.4400001 -3.592 -0.85699999 46 29 21
7.461 -3.6689999 -0.87800002 150 117 82
7.4450002 -3.6659999 -0.87699997 81 51 27
7.4359999 -3.6559999 -0.88099998 105 88 81
7.4369998 -3.6440001 -0.87 69 51 49
7.4359999 -3.6400001 -0.86199999 48 26 15
7.4980001 -3.5910001 -0.79799998 102 74 60
7.4949999 -3.628 -0.78299999 60 38 27
7.4710002 -3.6429999 -0.787 65 37 23
7.4720001 -3.648 -0.77899998 106 81 61
7.4710002 -3.638 -0.79100001 130 74 39
7.3850002 -3.5680001 -0.80599999 71 19 5
7.3899999 -3.5769999 -0.82800001 88 41 25
7.402 -3.586 -0.82700002 124 100 88
7.3720002 -3.5339999 -0.84600002 141 97 62
7.3629999 -3.6429999 -0.76700002 134 100 75
7.3759999 -3.586 -0.898 72 37 17
7.3759999 -3.586 -0.90600002 97 60 41
7.3769999 -3.589 -0.90200001 48 13 0
7.4369998 -3.6440001 -0.88 22 3 0
7.4400001 -3.6470001 -0.88200003 119 105 96
7.4369998 -3.6210001 -0.85799998 130 83 55
7.447 -3.6240001 -0.866 51 26 6
7.4260001 -3.5810001 -0.80000001 130 111 105
7.4320002 -3.563 -0.81400001 97 79 65
7.4229999 -3.562 -0.80699998 74 48 33
7.4250002 -3.572 -0.77499998 43 20 4
7.4190001 -3.5799999 -0.77499998 34 13 8
7.4320002 -3.5699999 -0.77700001 56 12 0
7.3969998 -3.5710001 -0.80299997 119 91 77
7.375 -3.6040001 -0.755 119 79 43
7.3909998 -3.6159999 -0.764 103 57 33
7.3639998 -3.533 -0.71100003 53 27 14
7.408 -3.53 -0.85799998 60 37 21
7.4039998 -3.526 -0.86299998 116 104 104
7.4070001 -3.5320001 -0.85399997 43 17 4
7.3920002 -3.5769999 -0.86299998 32 8 0
7.3860002 -3.5710001 -0.88499999 27 4 0
7.3889999 -3.5680001 -0.85000002 128 100 79
7.3850002 -3.562 -0.86299998 70 46 42
7.4489999 -3.5420001 -0.85399997 25 7 7
7.4429998 -3.5650001 -0.86000001 102 75 48
7.375 -3.5350001 -0.85100001 82 25 0
7.402 -3.536 -0.87099999 116 110 112
7.395 -3.536 -0.88200003 86 39 0
7.3990002 -3.5439999 -0.87099999 126 121 125
7.4070001 -3.5409999 -0.86799997 51 28 20
7.4109998 -3.55 -0.75300002 94 60 33
7.4219999 -3.5650001 -0.755 118 63 22
7.4250002 -3.569 -0.76099998 132 69 18
7.4239998 -3.5580001 -0.76800001 51 31 22
7.4260001 -3.566 -0.764 53 27 10
7.5040002 -3.586 -0.75800002 38 3 0
7.4860001 -3.592 -0.77600002 81 41 6
7.381 -3.5409999 -0.82700002 124 69 30
7.3779998 -3.5409999 -0.82099998 115 108 92
7.4089999 -3.552 -0.778 36 17 3
7.4099998 -3.553 -0.78200001 56 37 23
7.4229999 -3.5569999 -0.76999998 113 103 101
7.3969998 -3.529 -0.80199999 96 81 74
7.4000001 -3.5380001 -0.79299998 34 6 0
7.3899999 -3.5309999 -0.80000001 49 22 3
7.3940001 -3.5420001 -0.78200001 67 47 38
7.3759999 -3.5739999 -0.76700002 54 30 20
7.3899999 -3.5650001 -0.787 31 5 0
7.4320002 -3.585 -0.76499999 54 27 8
7.4619999 -3.53 -0.76599997 55 20 0
7.4369998 -3.5220001 -0.71700001 75 41 16
7.4039998 -3.539 -0.792 88 60 39
7.447 -3.5039999 -0.80299997 91 80 88
7.3969998 -3.516 -0.88499999 142 112 86
7.3979998 -3.523 -0.88499999 41 24 17
7.4390001 -3.52 -0.81699997 74 32 7
7.4549999 -3.51 -0.81199998 109 105 106
7.4640002 -3.503 -0.80000001 119 102 95
7.4619999 -3.497 -0.79799998 60 8 0
7.4580002 -3.497 -0.79799998 90 70 45
7.4689999 -3.5009999 -0.79500002 213 150 115
7.4439998 -3.5469999 -0.79000002 116 110 114
7.4349999 -3.5439999 -0.79799998 127 76 49
7.4400001 -3.552 -0.80800003 119 108 104
7.4260001 -3.5439999 -0.80400002 43 17 0
7.4200001 -3.5450001 -0.801 37 17 8
7.447 -3.5380001 -0.792 131 125 129
7.4510002 -3.585 -0.75800002 75 48 29
7.4109998 -3.533 -0.72399998 152 126 103
7.4120002 -3.526 -0.71899998 53 29 5
7.434 -3.516 -0.80800003 111 51 1
7.434 -3.5239999 -0.81599998 157 105 66
7.4239998 -3.54 -0.80400002 35 15 6
7.4159999 -3.543 -0.79699999 113 92 71
7.3899999 -3.5369999 -0.82499999 61 26 7
7.3979998 -3.536 -0.81699997 161 135 120
7.395 -3.503 -0.70200002 184 153 132
7.4039998 -3.5150001 -0.71499997 48 25 7
7.3959999 -3.576 -0.69800001 49 12 0
7.4990001 -3.553 -0.759 49 44 41
7.5419998 -3.5569999 -0.75999999 176 114 73
7.5339999 -3.556 -0.76200002 73 43 32
7.539 -3.5699999 -0.755 87 54 37
7.54 -3.5639999 -0.759 137 109 97
7.5419998 -3.563 -0.76800001 73 48 28
7.526 -3.5510001 -0.76099998 41 15 0
7.5100002 -3.517 -0.76700002 103 56 28
7.493 -3.497 -0.77399999 152 103 62
7.54 -3.549 -0.778 112 72 37
7.5419998 -3.5569999 -0.77899998 115 77 38
7.46 -3.5450001 -0.79299998 92 88 89
7.448 -3.5580001 -0.81 112 108 107
7.4359999 -3.5569999 -0.81300002 51 31 22
7.5170002 -3.566 -0.75300002 172 131 113
7.5050001 -3.5480001 -0.75599998 65 52 36
7.526 -3.5769999 -0.73900002 116 118 113
7.4419999 -3.5650001 -0.86500001 46 28 16
7.395 -3.5380001 -0.588 252 199 107
7.3930001 -3.552 -0.57599998 182 120 37
7.4780002 -3.6270001 -0.64300001 183 103 42
7.3979998 -3.569 -0.57800001 27 9 5
7.507 -3.6930001 -0.72399998 84 30 0
7.4889998 -3.6889999 -0.73900002 36 8 0
7.408 -3.5969999 -0.71899998 48 25 11
7.3709998 -3.615 -0.72600001 155 89 54
7.362 -3.632 -0.73500001 177 111 59
7.3740001 -3.642 -0.74599999 159 115 76
7.4000001 -3.612 -0.72399998 96 61 29
7.5 -3.6760001 -0.71600002 107 87 76
7.4910002 -3.658 -0.72399998 163 134 92
7.4959998 -3.654 -0.72899997 141 118 100
7.4840002 -3.652 -0.72000003 255 226 186
7.4159999 -3.4949999 -0.67000002 159 109 72
7.3839998 -3.5239999 -0.667 96 76 67
7.4109998 -3.5039999 -0.69999999 122 90 79
7.3969998 -3.4979999 -0.69700003 209 178 150
7.401 -3.497 -0.66500002 101 37 0
7.4109998 -3.49 -0.67699999 255 216 137
7.3870001 -3.5 -0.685 166 109 54
7.388 -3.517 -0.87599999 77 50 33
7.3829999 -3.5639999 -0.66600001 60 18 2
7.382 -3.5580001 -0.667 52 14 5
7.3839998 -3.5480001 -0.60399997 91 27 0
7.3540001 -3.5350001 -0.671 59 28 0
7.4039998 -3.5250001 -0.61699998 84 43 11
7.4260001 -3.553 -0.588 166 108 58
7.3909998 -3.536 -0.60500002 112 45 3
7.3889999 -3.54 -0.60500002 144 69 27
7.4980001 -3.6210001 -0.63300002 55 18 0
7.5 -3.6300001 -0.634 91 51 15
7.5450001 -3.5780001 -0.73299998 143 98 69
7.5050001 -3.642 -0.64200002 63 44 46
7.4949999 -3.6489999 -0.65899998 124 104 93
7.507 -3.6140001 -0.64999998 37 13 3
7.4970002 -3.6429999 -0.65499997 100 45 6
7.5 -3.638 -0.634 141 106 68
7.4759998 -3.642 -0.69499999 56 34 20
7.4840002 -3.6459999 -0.68900001 146 84 47
7.48 -3.6400001 -0.699 39 10 0
7.4850001 -3.6389999 -0.69999999 56 26 18
7.4780002 -3.6470001 -0.67000002 164 144 137
7.5120001 -3.6129999 -0.68599999 59 29 3
7.526 -3.6199999 -0.68400002 28 8 0
7.5019999 -3.6170001 -0.66600001 163 92 48
7.4959998 -3.6129999 -0.671 60 11 0
7.493 -3.6059999 -0.67500001 130 103 73
7.5100002 -3.619 -0.63700002 65 30 8
7.5100002 -3.619 -0.63999999 38 9 0
7.5300002 -3.622 -0.67199999 116 86 52
7.5219998 -3.6170001 -0.671 129 99 63
7.4000001 -3.5699999 -0.662 108 92 69
7.4070001 -3.562 -0.65799999 94 68 55
7.4359999 -3.556 -0.667 120 58 7
7.493 -3.5969999 -0.66000003 62 30 7
7.421 -3.5420001 -0.69 53 18 0
7.4190001 -3.526 -0.69999999 150 120 96
7.428 -3.5120001 -0.704 78 47 0
7.428 -3.5139999 -0.70999998 148 108 73
7.4349999 -3.543 -0.71600002 16 0 0
7.4400001 -3.5480001 -0.71600002 61 42 27
7.4310002 -3.549 -0.71100003 34 14 15
7.4250002 -3.5710001 -0.70700002 67 36 15
7.48 -3.5999999 -0.77999997 72 28 0
7.4819999 -3.5999999 -0.78399998 67 40 23
7.474 -3.628 -0.75599998 57 20 4
7.4759998 -3.642 -0.77499998 132 114 104
7.3509998 -3.546 -0.71499997 70 34 18
7.5450001 -3.579 -0.74299997 142 91 62
7.5180001 -3.599 -0.75700003 85 45 19
7.5139999 -3.5999999 -0.755 69 40 22
7.5100002 -3.6010001 -0.75199997 86 48 25
7.5229998 -3.595 -0.741 96 31 0
7.5419998 -3.5899999 -0.75099999 88 68 57
7.5349998 -3.5810001 -0.77700001 150 120 109
7.4450002 -3.6070001 -0.72799999 41 18 0
7.4419999 -3.615 -0.72799999 49 23 6
7.454 -3.6860001 -0.85299999 31 7 5
7.454 -3.6860001 -0.84899998 39 11 7
7.4569998 -3.6900001 -0.84899998 79 40 23
7.4650002 -3.688 -0.84200001 211 144 91
7.375 -3.5569999 -0.88499999 56 31 24
7.3670001 -3.546 -0.88300002 44 12 0
7.5120001 -3.5599999 -0.78399998 49 27 13
7.474 -3.543 -0.84899998 94 88 92
7.4959998 -3.529 -0.78799999 35 13 2
7.4699998 -3.5480001 -0.85900003 105 68 49
7.4050002 -3.53 -0.63800001 57 3 0
7.4120002 -3.527 -0.62800002 95 61 34
7.414 -3.526 -0.61299998 194 128 78
7.4260001 -3.5350001 -0.611 76 29 0
7.4190001 -3.5439999 -0.62900001 157 93 45
7.4229999 -3.533 -0.62699997 116 73 38
7.4229999 -3.533 -0.62400001 131 82 41
7.421 -3.552 -0.63200003 52 27 33
7.4970002 -3.6129999 -0.80900002 67 30 4
7.5139999 -3.596 -0.80900002 81 40 18
7.513 -3.6040001 -0.80400002 106 60 27
7.4720001 -3.6129999 -0.67799997 120 100 91
7.4759998 -3.612 -0.68000001 78 48 24
7.474 -3.6110001 -0.68599999 117 91 58
7.5149999 -3.5780001 -0.73500001 168 110 72
7.5040002 -3.618 -0.70300001 87 61 36
7.4990001 -3.619 -0.713 50 23 4
7.5 -3.6199999 -0.708 104 77 56
7.4809999 -3.609 -0.68000001 65 38 21
7.4889998 -3.609 -0.67699999 98 63 23
7.4689999 -3.618 -0.68900001 56 21 0
7.5380001 -3.5840001 -0.72799999 173 122 91
7.5079999 -3.6059999 -0.75300002 117 97 99
7.5050001 -3.605 -0.75800002 63 36 17
7.4910002 -3.622 -0.73400003 53 25 1
7.4970002 -3.6470001 -0.73900002 114 91 73
7.4959998 -3.6259999 -0.72899997 42 15 4
7.5019999 -3.628 -0.72299999 42 19 3
7.5029998 -3.6210001 -0.70899999 100 73 52
7.4879999 -3.6159999 -0.73299998 105 73 48
7.4970002 -3.6470001 -0.72100002 74 41 26
7.5100002 -3.6370001 -0.80400002 99 71 47
7.5149999 -3.6170001 -0.801 109 84 77
7.5120001 -3.6300001 -0.80800003 87 62 42
7.5120001 -3.6099999 -0.78100002 27 3 0
7.513 -3.609 -0.79799998 67 25 1
7.5149999 -3.596 -0.80500001 96 58 37
7.513 -3.592 -0.80900002 110 69 47
7.5019999 -3.5569999 -0.76499999 80 61 54
7.5469999 -3.6689999 -0.653 93 54 21
7.5370002 -3.6730001 -0.69 42 18 6
7.539 -3.6760001 -0.68900001 46 23 15
7.5359998 -3.678 -0.68599999 98 68 44
7.5209999 -3.6730001 -0.69199997 134 85 52
7.5409999 -3.675 -0.65399998 222 142 81
7.3769999 -3.5409999 -0.83399999 179 117 78
7.335 -3.529 -0.69800001 82 26 0
7.349 -3.5250001 -0.70599997 70 47 29
7.3280001 -3.5190001 -0.69099998 120 92 53
7.3909998 -3.556 -0.82099998 31 10 5
7.395 -3.5599999 -0.81800002 33 6 0
7.3860002 -3.5510001 -0.82599998 21 6 0
7.395 -3.53 -0.838 137 122 117
7.3959999 -3.5320001 -0.833 116 96 89
7.3969998 -3.5320001 -0.83399999 42 19 11
7.4200001 -3.5699999 -0.60299999 73 46 27
7.5209999 -3.697 -0.66000003 73 46 29
7.3920002 -3.6570001 -0.74900001 139 109 83
7.434 -3.6589999 -0.85100001 197 152 110
7.4359999 -3.6459999 -0.84899998 20 0 0
7.5100002 -3.691 -0.69800001 48 21 2
7.494 -3.661 -0.68400002 89 59 48
7.4980001 -3.6489999 -0.67500001 122 75 55
7.4720001 -3.6229999 -0.67299998 113 69 42
7.4229999 -3.529 -0.708 57 16 0
7.427 -3.526 -0.70700002 65 29 5
7.3649998 -3.5480001 -0.69499999 97 67 41
7.3559999 -3.5539999 -0.68099999 46 0 0
7.3990002 -3.533 -0.72100002 135 98 56
7.401 -3.5280001 -0.71399999 25 0 0
7.3920002 -3.5369999 -0.73000002 42 24 12
7.3899999 -3.5539999 -0.62900001 90 44 31
7.3899999 -3.552 -0.63 106 71 49
7.3559999 -3.5409999 -0.66799998 76 48 26
7.3639998 -3.55 -0.67199999 148 111 66
7.3909998 -3.556 -0.634 39 11 0
7.349 -3.549 -0.67699999 103 81 60
7.3800001 -3.5710001 -0.727 47 10 2
7.3930001 -3.566 -0.67000002 114 85 67
7.4759998 -3.6489999 -0.68800002 88 55 24
7.4679999 -3.632 -0.70099998 131 95 83
7.4200001 -3.54 -0.64499998 97 75 54
7.3959999 -3.5350001 -0.63999999 50 2 0
7.3899999 -3.5320001 -0.66100001 71 41 13
7.3899999 -3.543 -0.65499997 167 143 115
7.461 -3.6359999 -0.74800003 36 10 0
7.4029999 -3.6500001 -0.74599999 103 73 45
7.4130001 -3.572 -0.74000001 101 89 89
7.4219999 -3.5810001 -0.755 50 26 16
7.4720001 -3.628 -0.71100003 61 18 2
7.4759998 -3.6210001 -0.69999999 106 74 33
7.4580002 -3.6240001 -0.71899998 94 76 76
7.474 -3.628 -0.72399998 59 13 0
7.4660001 -3.6400001 -0.71899998 38 14 2
7.467 -3.652 -0.73500001 24 0 0
7.4219999 -3.598 -0.73799998 33 0 0
7.4109998 -3.539 -0.86699998 137 91 41
7.4489999 -3.605 -0.83700001 145 101 72
7.4369998 -3.6159999 -0.83600003 103 84 80
7.4390001 -3.598 -0.82800001 72 40 19
7.4549999 -3.609 -0.838 59 28 8
7.441 -3.6159999 -0.84200001 152 130 107
7.4549999 -3.612 -0.86299998 94 87 79
7.461 -3.6259999 -0.87599999 14 0 0
7.4580002 -3.609 -0.86500001 117 92 62
7.4450002 -3.5940001 -0.84799999 116 97 90
7.4510002 -3.6070001 -0.85000002 26 11 8
7.4289999 -3.5810001 -0.85000002 30 3 0
7.4109998 -3.5999999 -0.833 57 38 23
7.4679999 -3.5580001 -0.801 46 24 13
7.493 -3.654 -0.875 72 49 33
7.4970002 -3.6600001 -0.86199999 142 70 22
7.494 -3.6589999 -0.88200003 31 7 5
7.493 -3.6619999 -0.87800002 109 58 31
7.4959998 -3.651 -0.861 21 2 0
7.4970002 -3.6470001 -0.85600001 83 44 13
7.467 -3.641 -0.89700001 85 74 68
7.4749999 -3.6329999 -0.88800001 28 0 0
7.4819999 -3.651 -0.88999999 128 74 90
7.4759998 -3.6429999 -0.89399999 93 67 44
7.4819999 -3.6559999 -0.87900001 18 0 0
7.4809999 -3.619 -0.83099997 117 108 109
7.46 -3.625 -0.84100002 82 70 70
7.4790001 -3.6210001 -0.84600002 162 124 85
7.4369998 -3.6240001 -0.82999998 82 41 13
7.454 -3.632 -0.83099997 89 44 25
7.4520001 -3.6300001 -0.83899999 128 96 58
7.4549999 -3.6730001 -0.83600003 36 9 0
7.4549999 -3.6789999 -0.83999997 97 74 60
7.4559999 -3.677 -0.83600003 33 4 0
7.4450002 -3.6489999 -0.824 110 96 85
7.4429998 -3.6500001 -0.82800001 71 43 29
7.4699998 -3.641 -0.79799998 35 9 0
7.5009999 -3.6559999 -0.81599998 72 36 12
7.4720001 -3.6440001 -0.80199999 165 130 108
7.4689999 -3.6429999 -0.81099999 88 68 59
7.4710002 -3.6559999 -0.82300001 25 0 0
7.4749999 -3.671 -0.81999999 101 63 42
7.4770002 -3.6600001 -0.77600002 138 113 106
7.4860001 -3.6630001 -0.77899998 28 5 0
7.4899998 -3.652 -0.78600001 20 2 2
7.4829998 -3.6489999 -0.80500001 124 109 106
7.4829998 -3.6500001 -0.80900002 128 115 109
7.4460001 -3.576 -0.866 101 74 45
7.4569998 -3.6860001 -0.86299998 43 16 9
7.4590001 -3.6359999 -0.87699997 26 1 0
7.4629998 -3.6270001 -0.88499999 73 68 64
7.4590001 -3.6670001 -0.88499999 125 108 100
7.4569998 -3.6860001 -0.83600003 98 63 33
7.4320002 -3.6110001 -0.81999999 106 87 83
7.4320002 -3.6029999 -0.82200003 24 5 0
7.4310002 -3.6210001 -0.82999998 38 15 9
7.4359999 -3.589 -0.81900001 83 65 55
7.4289999 -3.5929999 -0.81999999 33 10 0
7.4359999 -3.585 -0.82700002 90 33 4
7.5019999 -3.619 -0.787 95 63 48
7.5009999 -3.6359999 -0.79900002 106 91 88
7.4920001 -3.638 -0.78299999 106 92 81
7.3870001 -3.533 -0.80699998 97 74 68
7.3800001 -3.5450001 -0.80000001 29 5 0
7.3870001 -3.5610001 -0.84799999 93 73 64
7.3930001 -3.566 -0.83399999 39 17 6
7.402 -3.5810001 -0.815 55 30 23
7.4419999 -3.6199999 -0.86000001 17 2 0
7.4310002 -3.6210001 -0.85100001 53 31 18
7.4330001 -3.631 -0.84100002 36 11 4
7.434 -3.6229999 -0.84299999 101 68 53
7.4380002 -3.642 -0.84500003 29 1 0
7.4380002 -3.6300001 -0.83899999 90 48 26
7.428 -3.562 -0.81199998 65 44 25
7.421 -3.5840001 -0.79900002 103 86 76
7.3959999 -3.5680001 -0.80900002 127 80 52
7.4250002 -3.579 -0.80400002 98 75 67
7.4070001 -3.53 -0.82700002 87 52 22
7.381 -3.5810001 -0.88599998 31 13 11
7.3940001 -3.5680001 -0.847 31 9 0
7.402 -3.5710001 -0.85299999 36 18 6
7.441 -3.562 -0.84399998 115 78 52
7.4060001 -3.5469999 -0.866 24 9 6
7.4000001 -3.53 -0.84399998 18 0 0
7.447 -3.543 -0.85500002 51 20 0
7.4549999 -3.5580001 -0.85399997 29 10 6
7.3979998 -3.533 -0.88800001 128 105 97
7.4099998 -3.55 -0.75599998 94 58 32
7.421 -3.5569999 -0.75300002 128 105 99
7.4229999 -3.5599999 -0.76300001 58 33 13
7.4089999 -3.5510001 -0.78600001 73 54 40
7.3899999 -3.5239999 -0.86000001 151 115 81
7.4180002 -3.5639999 -0.79299998 48 28 21
7.415 -3.559 -0.78799999 101 83 71
7.3790002 -3.5510001 -0.79799998 52 28 16
7.3930001 -3.5420001 -0.773 104 89 82
7.382 -3.563 -0.79799998 80 52 30
7.3889999 -3.566 -0.79500002 76 21 1
7.414 -3.618 -0.75999999 26 1 0
7.4260001 -3.575 -0.76999998 43 23 22
7.4369998 -3.5910001 -0.76300001 49 20 6
7.4640002 -3.526 -0.76300001 104 53 8
7.4569998 -3.5309999 -0.76200002 76 31 2
7.4400001 -3.506 -0.80699998 104 70 42
7.4710002 -3.5250001 -0.81 58 26 1
7.4640002 -3.5090001 -0.76499999 107 87 76
7.4590001 -3.4890001 -0.79299998 138 94 65
7.3979998 -3.5179999 -0.88800001 119 104 97
7.4460001 -3.523 -0.81199998 97 78 74
7.4400001 -3.5380001 -0.82300001 35 10 3
7.46 -3.5050001 -0.801 55 30 10
7.4330001 -3.54 -0.79799998 103 53 26
7.408 -3.5320001 -0.72299999 148 121 92
7.4029999 -3.5350001 -0.80599999 95 78 70
7.3969998 -3.549 -0.74000001 56 24 1
7.3839998 -3.5510001 -0.74299997 32 14 12
7.4039998 -3.579 -0.699 77 41 17
7.5009999 -3.533 -0.764 62 36 19
7.5100002 -3.5280001 -0.773 77 54 40
7.4970002 -3.5450001 -0.759 76 38 15
7.5180001 -3.5469999 -0.76499999 87 32 1
7.4879999 -3.4949999 -0.78299999 104 46 6
7.5409999 -3.5539999 -0.78299999 135 96 57
7.4590001 -3.539 -0.79299998 107 103 102
7.454 -3.5439999 -0.79299998 102 73 55
7.46 -3.546 -0.81999999 55 25 14
7.4549999 -3.5580001 -0.829 30 3 0
7.434 -3.5320001 -0.81900001 81 50 32
7.4349999 -3.5369999 -0.84399998 40 12 0
7.4429998 -3.5380001 -0.83999997 21 2 0
7.4720001 -3.54 -0.85299999 111 107 108
7.4590001 -3.533 -0.84899998 115 101 100
7.4699998 -3.5480001 -0.84500003 93 89 90
7.4679999 -3.55 -0.84299999 106 102 103
7.4699998 -3.553 -0.84200001 102 98 99
7.3930001 -3.553 -0.574 153 93 31
7.5019999 -3.6849999 -0.74199998 117 98 84
7.5229998 -3.6930001 -0.68900001 44 26 24
7.5190001 -3.694 -0.685 43 16 0
7.3670001 -3.632 -0.73699999 81 76 73
7.381 -3.6170001 -0.75700003 174 127 99
7.382 -3.631 -0.73299998 138 101 57
7.5050001 -3.674 -0.71200001 30 4 0
7.4949999 -3.675 -0.73699999 169 121 83
7.3769999 -3.529 -0.66600001 78 37 9
7.3769999 -3.5209999 -0.67000002 38 22 32
7.3930001 -3.5179999 -0.88099998 124 105 98
7.3660002 -3.5599999 -0.676 61 34 17
7.3889999 -3.5550001 -0.60799998 169 125 98
7.3930001 -3.5669999 -0.61299998 22 1 0
7.3850002 -3.556 -0.60000002 55 2 0
7.3839998 -3.5580001 -0.597 123 101 103
7.402 -3.526 -0.61500001 73 33 0
7.4060001 -3.523 -0.61500001 95 44 1
7.5289998 -3.6830001 -0.66799998 97 67 41
7.5089998 -3.622 -0.63599998 75 30 1
7.5279999 -3.6240001 -0.67000002 121 88 55
7.5209999 -3.615 -0.67299998 57 33 5
7.526 -3.6159999 -0.67699999 51 23 1
7.5250001 -3.619 -0.68400002 31 9 0
7.4200001 -3.5710001 -0.66600001 58 17 0
7.4320002 -3.573 -0.67699999 50 21 3
7.4109998 -3.5910001 -0.68800002 72 44 30
7.4089999 -3.5810001 -0.67299998 69 32 13
7.3990002 -3.5799999 -0.68099999 83 63 30
7.4050002 -3.5840001 -0.67400002 168 147 128
7.4089999 -3.5739999 -0.66900003 59 21 8
7.3969998 -3.5680001 -0.662 170 135 113
7.3969998 -3.5680001 -0.66299999 76 28 6
7.4250002 -3.5450001 -0.67400002 103 68 40
7.4239998 -3.5209999 -0.71700001 64 26 15
7.4349999 -3.5190001 -0.71100003 121 63 17
7.4200001 -3.5769999 -0.71600002 28 9 2
7.421 -3.5739999 -0.708 62 19 3
7.4200001 -3.5599999 -0.71499997 103 77 62
7.395 -3.608 -0.76200002 94 74 63
7.388 -3.5369999 -0.72600001 25 9 9
7.5240002 -3.596 -0.75599998 70 37 20
7.4569998 -3.6900001 -0.85399997 35 0 0
7.467 -3.688 -0.84399998 33 15 11
7.3839998 -3.5669999 -0.88200003 68 40 26
7.3790002 -3.5550001 -0.89099997 107 84 70
7.3790002 -3.5539999 -0.88 36 11 4
7.3639998 -3.5539999 -0.86000001 38 6 0
7.4689999 -3.5090001 -0.801 105 78 61
7.467 -3.5139999 -0.80599999 103 89 88
7.4619999 -3.523 -0.81099999 86 77 80
7.4689999 -3.5120001 -0.80199999 132 101 80
7.473 -3.527 -0.80000001 41 22 16
7.494 -3.5309999 -0.78399998 45 13 0
7.4130001 -3.5109999 -0.66100001 141 84 29
7.415 -3.5139999 -0.66100001 165 113 63
7.4130001 -3.516 -0.66100001 97 45 5
7.4109998 -3.5109999 -0.66100001 129 73 24
7.4089999 -3.5120001 -0.66100001 116 58 10
7.4050002 -3.53 -0.63599998 108 50 10
7.4169998 -3.5280001 -0.61400002 102 43 1
7.4239998 -3.5350001 -0.61500001 114 64 27
7.4200001 -3.5320001 -0.61799997 91 35 0
7.415 -3.5280001 -0.66299999 70 35 7
7.5009999 -3.618 -0.81099999 80 53 44
7.5050001 -3.5929999 -0.80500001 73 28 7
7.5079999 -3.579 -0.73799998 114 53 24
7.507 -3.5780001 -0.73400003 158 97 52
7.4879999 -3.612 -0.68199998 155 109 76
7.4829998 -3.612 -0.68199998 161 112 80
7.4970002 -3.6400001 -0.74199998 60 15 0
7.5 -3.6440001 -0.73299998 128 106 93
7.5050001 -3.6240001 -0.70499998 51 24 5
7.5040002 -3.645 -0.80000001 106 95 91
7.5009999 -3.6500001 -0.80900002 33 8 3
7.5040002 -3.619 -0.79500002 57 32 12
7.5149999 -3.5999999 -0.80500001 63 21 0
7.5029998 -3.6340001 -0.70300001 44 25 10
7.4910002 -3.641 -0.69 46 9 0
7.4970002 -3.598 -0.75599998 76 34 18
7.5419998 -3.6659999 -0.65100002 81 25 0
7.546 -3.668 -0.65200001 80 33 3
7.4980001 -3.6670001 -0.68099999 56 20 4
7.382 -3.55 -0.82800001 17 0 0
7.3759999 -3.5420001 -0.84399998 119 69 36
7.3410001 -3.5220001 -0.704 63 28 8
7.3270001 -3.5179999 -0.69300002 102 81 50
7.3979998 -3.5339999 -0.829 44 20 10
7.4369998 -3.6500001 -0.85299999 21 3 1
7.3759999 -3.6459999 -0.76700002 122 81 51
7.3870001 -3.652 -0.77100003 61 24 5
7.3920002 -3.6719999 -0.77600002 24 6 0
7.4070001 -3.648 -0.76700002 74 46 32
7.4050002 -3.6470001 -0.76599997 111 80 62
7.513 -3.691 -0.69300002 102 59 27
7.5079999 -3.671 -0.66000003 147 101 68
7.507 -3.6700001 -0.66100001 168 137 108
7.506 -3.668 -0.662 156 133 127
7.5120001 -3.675 -0.671 91 49 24
7.381 -3.5480001 -0.72899997 37 1 0
7.3660002 -3.5550001 -0.70599997 63 36 27
7.375 -3.5480001 -0.72500002 25 9 9
7.3390002 -3.5320001 -0.68599999 44 16 2
7.3590002 -3.5369999 -0.66799998 151 109 67
7.3629999 -3.54 -0.67000002 70 28 0
7.3740001 -3.5369999 -0.66799998 148 88 52
7.3720002 -3.569 -0.69499999 90 62 50
7.3969998 -3.5680001 -0.66799998 57 21 5
7.3829999 -3.556 -0.77200001 116 65 34
7.454 -3.6199999 -0.71899998 79 34 15
7.3850002 -3.5250001 -0.70300001 163 118 85
7.421 -3.5439999 -0.64899999 75 40 18
7.3930001 -3.536 -0.63499999 45 0 0
7.3979998 -3.5339999 -0.64200002 77 40 31
7.3979998 -3.523 -0.66299999 39 16 8
7.3959999 -3.539 -0.64399999 67 19 0
7.4169998 -3.5569999 -0.74699998 43 23 12
7.473 -3.641 -0.70700002 69 47 34
7.4749999 -3.6559999 -0.73699999 165 129 95
7.4460001 -3.6689999 -0.85900003 88 41 0
7.4489999 -3.6659999 -0.85000002 11 0 0
7.4559999 -3.677 -0.84899998 19 0 0
7.4000001 -3.563 -0.88300002 31 6 2
7.3990002 -3.5599999 -0.87300003 39 24 19
7.4400001 -3.595 -0.83399999 154 107 79
7.4369998 -3.5840001 -0.83099997 50 24 7
7.441 -3.6059999 -0.85699999 75 60 55
7.4619999 -3.6170001 -0.85900003 15 0 0
7.4590001 -3.546 -0.80400002 142 138 135
7.4959998 -3.655 -0.85399997 45 12 0
7.4959998 -3.651 -0.85699999 16 0 0
7.4829998 -3.6370001 -0.89499998 25 5 0
7.4860001 -3.635 -0.889 17 3 2
7.4879999 -3.6270001 -0.88 22 5 0
7.4770002 -3.618 -0.87800002 55 17 0
7.487 -3.6270001 -0.87099999 71 53 33
7.4850001 -3.618 -0.81 83 46 27
7.4429998 -3.642 -0.824 112 99 93
7.4380002 -3.6659999 -0.84299999 164 100 52
7.4530001 -3.6689999 -0.83700001 85 35 8
7.454 -3.6600001 -0.83099997 98 69 51
7.4520001 -3.632 -0.83399999 30 10 1
7.4569998 -3.6730001 -0.83200002 70 38 23
7.4590001 -3.6760001 -0.82999998 129 102 81
7.46 -3.6689999 -0.82800001 83 52 32
7.4780002 -3.654 -0.81800002 118 102 102
7.474 -3.6470001 -0.81099999 98 83 78
7.4629998 -3.675 -0.82599998 111 78 37
7.4889998 -3.652 -0.79900002 38 5 0
7.454 -3.6860001 -0.85699999 32 8 6
7.4710002 -3.6919999 -0.85600001 34 11 3
7.4450002 -3.648 -0.88099998 22 0 0
7.454 -3.6329999 -0.86699998 144 93 64
7.4619999 -3.6289999 -0.81900001 123 111 111
7.4640002 -3.628 -0.81699997 123 115 113
7.473 -3.631 -0.83200002 94 84 83
7.4310002 -3.5999999 -0.76300001 28 9 5
7.4720001 -3.632 -0.78299999 85 37 0
7.428 -3.5380001 -0.81999999 118 72 36
7.4089999 -3.5339999 -0.82700002 96 60 28
7.421 -3.5420001 -0.82499999 116 74 36
7.4120002 -3.539 -0.83899999 23 8 3
7.3920002 -3.5580001 -0.82800001 16 0 0
7.3899999 -3.556 -0.83200002 29 11 7
7.3670001 -3.6500001 -0.76499999 102 58 29
7.4369998 -3.6170001 -0.85399997 95 48 18
7.4489999 -3.6229999 -0.86000001 78 52 39
7.4169998 -3.599 -0.76700002 100 73 54
7.4200001 -3.595 -0.81699997 99 62 46
7.3790002 -3.6259999 -0.75999999 179 151 130
7.4239998 -3.5420001 -0.83399999 72 47 25
7.4330001 -3.5420001 -0.83200002 59 40 26
7.415 -3.54 -0.83099997 127 91 59
7.4310002 -3.536 -0.81999999 97 59 23
7.4050002 -3.5710001 -0.83700001 41 15 2
7.4029999 -3.523 -0.86799997 31 7 0
7.3940001 -3.5190001 -0.87900001 67 43 33
7.3790002 -3.5309999 -0.87199998 59 14 0
7.3740001 -3.533 -0.87300003 20 1 0
7.3779998 -3.5280001 -0.87599999 31 18 25
7.4089999 -3.5380001 -0.86799997 108 52 15
7.3979998 -3.5320001 -0.87800002 35 11 0
7.408 -3.549 -0.75999999 56 26 2
7.4169998 -3.552 -0.76099998 113 96 68
7.4190001 -3.553 -0.76200002 123 100 86
7.414 -3.556 -0.78899997 100 82 72
7.4130001 -3.5539999 -0.79100001 118 98 87
7.4070001 -3.55 -0.78600001 110 63 33
7.4089999 -3.552 -0.78299999 65 47 33
7.4050002 -3.5469999 -0.77100003 255 238 212
7.4200001 -3.5680001 -0.79100001 71 29 5
7.4689999 -3.5220001 -0.764 89 76 60
7.4239998 -3.562 -0.759 37 10 0
7.4429998 -3.5079999 -0.80900002 84 57 40
7.454 -3.5179999 -0.80900002 65 47 35
7.448 -3.54 -0.81800002 125 117 115
7.4660001 -3.5420001 -0.84299999 91 89 90
7.395 -3.516 -0.889 110 94 81
7.3930001 -3.5179999 -0.88599998 95 81 72
7.4520001 -3.506 -0.80400002 157 102 63
7.4429998 -3.5380001 -0.79400003 113 69 40
7.4289999 -3.5369999 -0.80599999 60 0 0
7.408 -3.55 -0.75 52 23 7
7.5120001 -3.527 -0.773 106 77 63
7.507 -3.5320001 -0.76200002 90 31 0
7.5240002 -3.553 -0.76099998 39 30 23
7.5489998 -3.5539999 -0.76999998 130 105 85
7.4429998 -3.566 -0.82300001 39 10 2
7.4549999 -3.5569999 -0.83700001 58 35 27
7.4689999 -3.539 -0.81 114 84 56
7.467 -3.5380001 -0.792 24 1 0
7.4359999 -3.539 -0.82499999 114 80 53
7.4320002 -3.5339999 -0.81900001 109 73 47
7.4510002 -3.53 -0.847 84 68 68
7.4660001 -3.5469999 -0.84299999 102 98 99
7.5240002 -3.6919999 -0.69199997 68 25 6
7.3660002 -3.6099999 -0.72799999 125 87 84
7.5009999 -3.688 -0.73400003 44 6 0
7.4959998 -3.684 -0.72899997 127 79 33
7.3909998 -3.5179999 -0.87699997 83 57 44
7.5079999 -3.6159999 -0.64899999 29 5 0
7.5110002 -3.612 -0.68000001 181 116 50
7.5029998 -3.615 -0.67900002 114 94 87
7.4910002 -3.6140001 -0.65100002 189 119 67
7.5289998 -3.6240001 -0.671 119 89 55
7.4250002 -3.5710001 -0.68099999 99 63 39
7.4060001 -3.5829999 -0.671 60 19 1
7.4260001 -3.523 -0.70300001 135 107 85
7.4239998 -3.5710001 -0.71600002 33 7 0
7.4310002 -3.582 -0.759 124 59 17
7.395 -3.5899999 -0.76499999 83 59 47
7.4949999 -3.6489999 -0.78100002 19 0 2
7.3709998 -3.5539999 -0.88800001 173 137 115
7.3720002 -3.55 -0.85600001 88 38 13
7.3730001 -3.549 -0.85900003 110 69 47
7.4089999 -3.503 -0.66299999 63 26 0
7.4109998 -3.5250001 -0.66100001 178 133 100
7.4109998 -3.533 -0.63999999 35 8 0
7.4050002 -3.536 -0.64700001 42 13 0
7.415 -3.527 -0.61500001 126 65 18
7.415 -3.527 -0.61799997 106 52 6
7.4109998 -3.5220001 -0.62099999 180 113 61
7.4190001 -3.5309999 -0.62 121 69 30
7.4070001 -3.5179999 -0.66000003 114 65 22
7.4050002 -3.5139999 -0.66100001 123 61 14
7.4920001 -3.622 -0.81199998 77 40 22
7.4850001 -3.6240001 -0.83499998 144 116 105
7.4980001 -3.6259999 -0.72100002 69 44 24
7.4899998 -3.6240001 -0.72600001 83 56 29
7.473 -3.6240001 -0.74000001 60 41 24
7.4780002 -3.625 -0.70499998 80 50 16
7.48 -3.625 -0.708 38 13 0
7.4980001 -3.638 -0.796 115 105 103
7.4990001 -3.6359999 -0.68199998 45 17 3
7.533 -3.6849999 -0.68300003 94 67 56
7.5100002 -3.684 -0.685 140 121 115
7.388 -3.536 -0.83399999 21 2 0
7.388 -3.5539999 -0.83700001 42 29 21
7.5229998 -3.7 -0.66100001 76 50 33
7.52 -3.691 -0.67299998 67 49 47
7.3930001 -3.648 -0.76999998 118 94 82
7.395 -3.6659999 -0.76999998 51 20 17
7.5120001 -3.678 -0.671 92 65 46
7.5019999 -3.665 -0.66000003 66 25 7
7.4190001 -3.5090001 -0.70200002 255 191 130
7.4320002 -3.5150001 -0.69300002 248 204 141
7.3579998 -3.55 -0.67299998 72 52 43
7.3889999 -3.569 -0.77100003 170 105 63
7.3889999 -3.5450001 -0.77700001 35 5 3
7.388 -3.552 -0.773 70 32 9
7.4000001 -3.5150001 -0.70300001 71 46 15
7.3930001 -3.5209999 -0.66600001 168 102 52
7.3940001 -3.5409999 -0.62699997 66 48 28
7.4169998 -3.6140001 -0.74900001 105 68 42
7.428 -3.6240001 -0.74900001 24 0 0
7.4770002 -3.6229999 -0.72000003 42 14 0
7.4699998 -3.651 -0.72899997 61 36 14
7.4629998 -3.5599999 -0.84500003 40 18 7
7.4650002 -3.619 -0.86799997 21 4 0
7.4679999 -3.622 -0.87599999 39 12 3
7.408 -3.576 -0.85699999 25 0 0
7.4250002 -3.585 -0.85100001 150 113 97
7.4809999 -3.622 -0.88200003 20 0 0
7.4759998 -3.618 -0.86500001 98 61 35
7.4850001 -3.618 -0.85299999 86 45 15
7.4679999 -3.6140001 -0.86199999 92 72 63
7.4710002 -3.6229999 -0.88599998 20 5 2
7.3909998 -3.655 -0.76999998 25 0 0
7.434 -3.6270001 -0.829 102 53 23
7.4380002 -3.6489999 -0.84100002 76 34 0
7.4530001 -3.6570001 -0.83099997 23 0 0
7.4629998 -3.6819999 -0.83399999 129 85 50
7.487 -3.6600001 -0.81699997 113 82 53
7.5019999 -3.651 -0.81199998 108 82 67
7.5019999 -3.6500001 -0.81800002 26 1 0
7.4850001 -3.6589999 -0.81800002 30 7 0
7.4699998 -3.6800001 -0.83099997 112 77 45
7.4710002 -3.6789999 -0.83399999 13 2 0
7.473 -3.6849999 -0.86900002 133 95 59
7.4530001 -3.6429999 -0.85000002 93 49 22
7.4439998 -3.6459999 -0.87699997 116 97 91
7.461 -3.635 -0.87900001 20 6 3
7.4640002 -3.6289999 -0.80800003 118 107 105
7.434 -3.596 -0.76300001 75 43 20
7.4850001 -3.618 -0.83999997 103 60 28
7.4889998 -3.632 -0.83600003 131 122 123
7.494 -3.6359999 -0.833 104 98 102
7.4860001 -3.628 -0.84299999 50 23 12
7.4949999 -3.6370001 -0.84799999 78 53 31
7.494 -3.6370001 -0.829 255 249 251
7.4970002 -3.641 -0.82800001 97 91 91
7.4970002 -3.648 -0.82800001 54 28 5
7.493 -3.6530001 -0.829 117 112 109
7.4970002 -3.625 -0.79299998 68 17 0
7.4790001 -3.6240001 -0.79299998 117 103 100
7.4829998 -3.6140001 -0.801 29 5 1
7.4819999 -3.628 -0.77600002 118 100 86
7.4660001 -3.6289999 -0.81699997 41 13 9
7.4109998 -3.5799999 -0.838 100 82 78
7.4089999 -3.55 -0.86000001 172 136 110
7.395 -3.5309999 -0.80699998 114 51 8
7.381 -3.5569999 -0.85600001 61 37 33
7.3730001 -3.553 -0.85900003 152 116 90
7.3740001 -3.549 -0.86299998 56 19 3
7.3909998 -3.5580001 -0.83399999 12 7 3
7.408 -3.6010001 -0.76099998 63 42 37
7.4229999 -3.6010001 -0.76099998 194 127 75
7.3969998 -3.572 -0.83099997 143 117 104
7.3990002 -3.5280001 -0.88200003 89 63 50
7.4060001 -3.5480001 -0.75999999 163 115 79
7.4219999 -3.5580001 -0.755 107 54 14
7.408 -3.54 -0.79400003 123 96 79
7.3860002 -3.5280001 -0.86199999 34 14 7
7.3940001 -3.523 -0.866 37 10 3
7.448 -3.507 -0.80699998 164 114 77
7.4460001 -3.5409999 -0.81999999 144 133 129
7.4549999 -3.543 -0.824 97 91 93
7.448 -3.5439999 -0.82599998 132 123 118
7.4699998 -3.5439999 -0.84600002 91 89 92
7.4689999 -3.5280001 -0.81199998 160 138 114
7.473 -3.54 -0.85100001 99 97 98
7.4619999 -3.552 -0.833 99 90 95
7.4590001 -3.5469999 -0.82700002 87 81 85
7.4369998 -3.536 -0.79500002 164 118 92
7.4070001 -3.539 -0.796 139 110 96
7.5149999 -3.5510001 -0.76300001 72 52 41
7.526 -3.5580001 -0.75999999 66 40 27
7.5279999 -3.5580001 -0.759 72 41 23
7.4689999 -3.5339999 -0.778 103 58 27
7.454 -3.5409999 -0.83999997 104 98 98
7.4569998 -3.539 -0.84500003 81 77 78
7.4510002 -3.5409999 -0.83899999 98 92 94
7.454 -3.5420001 -0.838 94 85 86
7.3850002 -3.5439999 -0.60399997 151 79 39
7.3860002 -3.552 -0.60399997 65 14 0
7.4850001 -3.618 -0.65799999 144 71 28
7.3850002 -3.612 -0.72500002 69 43 26
7.3940001 -3.615 -0.72600001 112 86 69
7.5019999 -3.6819999 -0.73900002 105 64 32
7.3920002 -3.5039999 -0.68800002 90 68 47
7.395 -3.5480001 -0.61900002 171 104 52
7.507 -3.6140001 -0.68800002 80 50 24
7.493 -3.612 -0.69199997 112 69 50
7.4759998 -3.6210001 -0.69499999 97 63 25
7.4829998 -3.625 -0.69800001 237 209 170
7.4089999 -3.5739999 -0.63800001 70 34 12
7.4029999 -3.5829999 -0.66900003 178 123 82
7.4289999 -3.5190001 -0.71700001 156 123 106
7.4299998 -3.5150001 -0.69999999 252 230 155
7.4299998 -3.5120001 -0.69400001 225 193 120
7.421 -3.5209999 -0.662 157 112 70
7.4109998 -3.5369999 -0.64399999 42 14 2
7.4180002 -3.529 -0.625 124 81 46
7.3829999 -3.543 -0.667 38 1 0
7.402 -3.5250001 -0.662 80 45 13
7.4099998 -3.5190001 -0.66100001 103 51 11
7.5139999 -3.5999999 -0.796 36 15 0
7.4899998 -3.6240001 -0.69599998 69 40 10
7.4749999 -3.6210001 -0.69700003 255 226 179
7.4650002 -3.619 -0.74299997 73 25 2
7.4840002 -3.6429999 -0.71100003 31 4 0
7.5050001 -3.622 -0.79699999 41 14 0
7.5079999 -3.6140001 -0.80400002 174 128 76
7.5 -3.6440001 -0.67500001 84 38 15
7.3800001 -3.5239999 -0.88 33 10 2
7.3839998 -3.5369999 -0.838 70 52 38
7.3860002 -3.6270001 -0.76700002 89 50 21
7.3699999 -3.5450001 -0.671 144 108 76
7.3899999 -3.5220001 -0.70999998 67 33 23
7.401 -3.5039999 -0.66299999 150 130 121
7.3909998 -3.5510001 -0.65700001 61 18 1
7.3930001 -3.55 -0.64499998 86 52 40
7.415 -3.5669999 -0.73000002 69 34 15
7.4380002 -3.5910001 -0.84100002 46 18 6
7.4530001 -3.608 -0.84500003 19 1 0
7.4530001 -3.619 -0.84899998 103 71 46
7.4640002 -3.6129999 -0.861 15 0 0
7.4650002 -3.6240001 -0.88200003 91 76 69
7.4809999 -3.6630001 -0.85600001 87 59 38
7.4699998 -3.678 -0.852 96 84 84
7.4790001 -3.6819999 -0.866 86 31 0
7.4699998 -3.665 -0.847 9 1 0
7.4850001 -3.6570001 -0.83499998 121 111 109
7.4770002 -3.6559999 -0.847 24 4 3
7.4640002 -3.6689999 -0.87199998 100 70 34
7.4310002 -3.628 -0.83499998 48 21 12
7.4759998 -3.665 -0.82599998 89 58 30
7.4689999 -3.687 -0.85100001 22 4 2
7.4699998 -3.651 -0.88300002 40 20 13
7.4520001 -3.6359999 -0.86500001 118 100 80
