ply
format ascii 1.0
comment PCL generated
element vertex 72
property float x
property float y
property float z
property uchar red
property uchar green
property uchar blue
element camera 1
property float view_px
property float view_py
property float view_pz
property float x_axisx
property float x_axisy
property float x_axisz
property float y_axisx
property float y_axisy
property float y_axisz
property float z_axisx
property float z_axisy
property float z_axisz
property float focal
property float scalex
property float scaley
property float centerx
property float centery
property int viewportx
property int viewporty
property float k1
property float k2
end_header
-2.0799999 17.142 -0.85399997 55 22 7
-2.0769999 17.153 -0.85900003 140 88 49
-2.0910001 17.139999 -0.87400001 124 73 30
-2.085 17.141001 -0.87099999 156 107 74
-2.0769999 17.136 -0.935 80 30 5
-2.072 17.139999 -0.93000001 145 82 64
-2.073 17.129 -0.92500001 127 58 19
-2.072 17.152 -0.85500002 135 87 41
-2.075 17.143 -0.852 75 42 27
-2.0869999 17.135 -0.86900002 121 47 2
-2.085 17.122 -0.88499999 165 118 88
-2.0799999 17.125 -0.88499999 162 108 74
-2.079 17.118 -0.88499999 151 86 32
-2.0710001 17.097 -0.88300002 98 44 10
-2.056 17.091999 -0.89200002 101 42 2
-2.072 17.103001 -0.88999999 163 80 26
-2.0539999 17.094 -0.884 157 96 41
-2.0580001 17.098 -0.88499999 194 121 70
-2.0699999 17.106001 -0.87800002 100 48 8
-2.0799999 17.145 -0.88 139 86 44
-2.0780001 17.145 -0.89499998 130 68 29
-2.0739999 17.143 -0.88300002 116 71 48
-2.082 17.143999 -0.87900001 153 71 15
-2.062 17.125999 -0.89899999 185 95 43
-2.0769999 17.146999 -0.90100002 101 59 35
-2.0769999 17.136 -0.88200003 184 94 32
-2.0799999 17.136999 -0.87599999 128 68 32
-2.082 17.145 -0.89999998 180 90 37
-2.0699999 17.128 -0.93000001 70 38 17
-2.079 17.124001 -0.91500002 136 49 0
-2.063 17.117001 -0.90899998 138 70 21
-2.062 17.125 -0.91600001 141 54 11
-2.073 17.134001 -0.93400002 49 20 2
-2.0710001 17.132 -0.93099999 79 32 2
-2.0669999 17.132999 -0.94599998 53 16 0
-2.0799999 17.135 -0.86400002 145 80 24
-2.0639999 17.108 -0.88099998 178 89 31
-2.0769999 17.132999 -0.90200001 159 104 73
-2.0650001 17.125999 -0.91900003 171 85 36
-2.0739999 17.148001 -0.86900002 89 57 34
-2.073 17.121 -0.91500002 97 56 38
-2.0699999 17.135 -0.94599998 90 59 38
-2.0710001 17.138 -0.95099998 73 28 0
-2.069 17.128 -0.93099999 55 13 0
-2.0639999 17.125999 -0.92199999 133 84 44
-2.085 17.134001 -0.86000001 173 121 74
-2.0739999 17.143 -0.85299999 148 94 60
-2.0580001 17.108 -0.88099998 101 57 32
-2.0769999 17.136999 -0.898 109 63 40
-2.085 17.135 -0.90100002 96 54 29
-2.079 17.146 -0.90200001 125 72 30
-2.072 17.113001 -0.89399999 109 46 15
-2.0710001 17.149 -0.86500001 93 28 0
-2.069 17.142 -0.86000001 114 70 31
-2.075 17.141001 -0.86900002 160 106 70
-2.0699999 17.128 -0.92799997 117 72 31
-2.0699999 17.121 -0.91500002 79 43 21
-2.0710001 17.139 -0.85500002 179 90 30
-2.056 17.107 -0.88999999 143 65 16
-2.0669999 17.112 -0.898 223 133 81
-2.062 17.117001 -0.898 180 110 59
-2.0699999 17.112 -0.89200002 103 54 13
-2.0710001 17.107 -0.88599998 209 124 69
-2.079 17.143 -0.87 108 70 51
-2.0580001 17.113001 -0.88499999 167 104 53
-2.0680001 17.114 -0.912 131 69 30
-2.0699999 17.142 -0.85600001 143 97 61
-2.066 17.101999 -0.88300002 101 58 39
-2.0739999 17.143999 -0.86799997 116 75 53
-2.072 17.120001 -0.912 51 23 2
-2.076 17.115999 -0.89899999 101 58 39
-2.069 17.114 -0.89899999 145 104 76
0 0 0 1 0 0 0 1 0 0 0 1 0 0 0 0 0 72 1 0 0
