ply
format ascii 1.0
comment PCL generated
element vertex 75
property float x
property float y
property float z
property uchar red
property uchar green
property uchar blue
element camera 1
property float view_px
property float view_py
property float view_pz
property float x_axisx
property float x_axisy
property float x_axisz
property float y_axisx
property float y_axisy
property float y_axisz
property float z_axisx
property float z_axisy
property float z_axisz
property float focal
property float scalex
property float scaley
property float centerx
property float centery
property int viewportx
property int viewporty
property float k1
property float k2
end_header
-15.463 3.9319999 -0.99800003 97 51 0
-15.466 3.911 -1.007 179 128 81
-15.467 3.9360001 -1.003 181 131 82
-15.46 3.9230001 -0.99900001 208 131 61
-15.461 3.9319999 -0.995 118 58 22
-15.456 3.9319999 -0.99400002 200 137 83
-15.422 3.9159999 -0.98100001 200 128 69
-15.422 3.925 -0.97899997 183 110 57
-15.42 3.925 -0.98100001 150 70 17
-15.421 3.9219999 -0.98699999 145 66 23
-15.465 3.9030001 -1.039 209 163 104
-15.462 3.9030001 -1.029 155 103 45
-15.463 3.8959999 -1.039 120 44 0
-15.451 3.9130001 -1.001 194 131 64
-15.439 3.931 -1.007 130 77 23
-15.443 3.911 -1.007 194 134 71
-15.45 3.9089999 -1.013 175 119 60
-15.436 3.908 -1.013 145 89 30
-15.438 3.925 -1.001 189 123 75
-15.425 3.928 -0.98100001 156 83 28
-15.435 3.9219999 -0.97600001 216 141 86
-15.432 3.924 -0.98000002 188 127 80
-15.432 3.925 -0.99900001 199 133 83
-15.438 3.9189999 -0.98000002 139 95 46
-15.459 3.9349999 -1.008 168 108 58
-15.43 3.8940001 -1.016 148 81 29
-15.44 3.8940001 -1.006 183 113 61
-15.431 3.901 -1.003 139 84 28
-15.44 3.891 -1.017 178 96 46
-15.425 3.8929999 -1.027 138 71 18
-15.433 3.891 -1.03 164 112 75
-15.44 3.931 -1 135 78 23
-15.452 3.9260001 -0.991 190 114 52
-15.43 3.905 -1.003 138 102 66
-15.428 3.9030001 -1.017 151 103 67
-15.421 3.911 -0.99599999 76 52 16
-15.436 3.927 -0.98299998 211 142 83
-15.426 3.927 -0.98299998 191 137 77
-15.424 3.925 -0.98799998 186 116 64
-15.458 3.9100001 -1.0039999 208 147 90
-15.449 3.908 -1.001 149 102 58
-15.459 3.9360001 -1.006 103 37 2
-15.459 3.9330001 -1.005 125 57 12
-15.432 3.9000001 -0.995 168 86 26
-15.447 3.895 -1.002 185 129 72
-15.439 3.8970001 -1 188 113 55
-15.439 3.8929999 -1.026 179 135 96
-15.43 3.895 -1.028 179 89 39
-15.438 3.9070001 -1.018 153 83 31
-15.462 3.8989999 -1.039 237 169 98
-15.455 3.9100001 -1.023 219 119 43
-15.458 3.902 -1.023 149 70 13
-15.445 3.9030001 -1.027 185 116 75
-15.443 3.9170001 -0.99199998 161 106 49
-15.42 3.918 -1 163 114 82
-15.44 3.924 -0.98500001 171 117 57
-15.44 3.915 -0.991 194 133 78
-15.446 3.904 -1 211 147 76
-15.454 3.9059999 -1.006 177 106 52
-15.459 3.914 -1.0039999 186 115 73
-15.435 3.8970001 -1.027 150 80 28
-15.428 3.8989999 -1.018 160 109 46
-15.436 3.901 -1.026 138 89 30
-15.44 3.895 -1.027 200 152 90
-15.454 3.9030001 -1.026 160 97 53
-15.442 3.9089999 -1.02 203 133 81
-15.426 3.915 -0.98900002 211 139 81
-15.428 3.915 -0.99000001 152 98 60
-15.432 3.905 -0.99299997 183 110 55
-15.447 3.9070001 -1.021 178 129 86
-15.451 3.8959999 -1.024 213 156 101
-15.431 3.9159999 -0.99900001 214 143 89
-15.426 3.9119999 -0.99400002 152 72 23
-15.452 3.8970001 -1.0140001 192 135 80
-15.433 3.924 -0.98799998 159 93 41
0 0 0 1 0 0 0 1 0 0 0 1 0 0 0 0 0 75 1 0 0
