ply
format ascii 1.0
comment PCL generated
element vertex 127
property float x
property float y
property float z
property uchar red
property uchar green
property uchar blue
element camera 1
property float view_px
property float view_py
property float view_pz
property float x_axisx
property float x_axisy
property float x_axisz
property float y_axisx
property float y_axisy
property float y_axisz
property float z_axisx
property float z_axisy
property float z_axisz
property float focal
property float scalex
property float scaley
property float centerx
property float centery
property int viewportx
property int viewporty
property float k1
property float k2
end_header
-5.4689999 1.86 -0.89300001 111 49 0
-5.4629998 1.858 -0.87800002 134 80 46
-5.4660001 1.858 -0.87400001 160 122 99
-5.4590001 1.87 -0.87099999 116 67 37
-5.4619999 1.873 -0.87099999 103 52 25
-5.4650002 1.864 -0.87400001 60 16 0
-5.4790001 1.875 -0.88200003 29 9 0
-5.4640002 1.874 -0.87400001 92 47 26
-5.473 1.885 -0.89200002 136 77 33
-5.4679999 1.885 -0.89499998 130 74 47
-5.4699998 1.8890001 -0.89499998 37 13 1
-5.48 1.875 -0.898 113 60 18
-5.4829998 1.872 -0.89300001 193 129 91
-5.3930001 1.881 -0.93599999 232 143 53
-5.3930001 1.882 -0.93599999 217 140 50
-5.3959999 1.885 -0.94499999 242 189 121
-5.3870001 1.881 -0.92199999 242 177 113
-5.414 1.873 -0.92000002 225 163 102
-5.3979998 1.877 -0.90499997 255 179 95
-5.4050002 1.874 -0.92299998 222 143 68
-5.474 1.8660001 -0.88700002 108 72 50
-5.48 1.869 -0.89399999 135 73 24
-5.4640002 1.8660001 -0.90799999 133 81 44
-5.4699998 1.872 -0.90399998 148 94 56
-5.4660001 1.881 -0.903 165 108 79
-5.4029999 1.878 -0.90600002 252 202 139
-5.4000001 1.8789999 -0.90399998 253 204 146
-5.414 1.874 -0.91399997 219 158 95
-5.421 1.873 -0.91399997 202 137 69
-5.4770002 1.869 -0.889 166 103 60
-5.4699998 1.875 -0.88700002 184 131 87
-5.461 1.8660001 -0.88099998 191 106 25
-5.46 1.863 -0.89300001 142 110 95
-5.4580002 1.873 -0.89600003 183 114 59
-5.3870001 1.883 -0.91500002 255 210 140
-5.3850002 1.882 -0.91799998 249 191 128
-5.3839998 1.883 -0.90899998 140 92 46
-5.3870001 1.882 -0.90799999 165 112 60
-5.3979998 1.885 -0.90700001 150 124 111
-5.4650002 1.859 -0.884 88 36 0
-5.4629998 1.86 -0.90100002 129 91 68
-5.467 1.86 -0.90499997 169 123 97
-5.4109998 1.875 -0.94099998 246 195 104
-5.408 1.877 -0.954 250 228 143
-5.4089999 1.875 -0.94 204 140 68
-5.4720001 1.8660001 -0.903 167 113 77
-5.474 1.867 -0.89999998 143 92 49
-5.3920002 1.881 -0.903 255 207 149
-5.3969998 1.877 -0.90799999 229 149 60
-5.3899999 1.8789999 -0.91900003 254 186 111
-5.3940001 1.878 -0.91500002 239 172 91
-5.388 1.88 -0.91000003 222 163 105
-5.3979998 1.877 -0.91000003 247 167 70
-5.3979998 1.877 -0.91399997 243 159 73
-5.4549999 1.877 -0.903 141 117 105
-5.4590001 1.873 -0.89999998 178 109 50
-5.4660001 1.859 -0.875 50 8 0
-5.461 1.8660001 -0.87800002 198 117 38
-5.461 1.8710001 -0.88599998 139 107 94
-5.395 1.882 -0.93400002 228 160 77
-5.395 1.881 -0.921 237 165 91
-5.3860002 1.881 -0.917 223 166 97
-5.4720001 1.875 -0.89999998 140 83 38
-5.474 1.865 -0.89399999 132 82 45
-5.3930001 1.88 -0.90399998 255 202 135
-5.3940001 1.881 -0.91299999 224 158 74
-5.4109998 1.875 -0.912 230 170 107
-5.4590001 1.868 -0.90899998 189 129 69
-5.4120002 1.874 -0.92400002 255 159 72
-5.4130001 1.874 -0.92699999 211 128 48
-5.4130001 1.874 -0.92400002 231 140 57
-5.4099998 1.874 -0.92199999 238 142 55
-5.4809999 1.873 -0.89099997 139 76 41
-5.4679999 1.87 -0.88 74 17 0
-5.4640002 1.862 -0.87599999 203 127 51
-5.401 1.876 -0.93599999 219 158 104
-5.4050002 1.8789999 -0.954 252 214 117
-5.3979998 1.876 -0.93199998 207 134 66
-5.4060001 1.878 -0.95499998 242 211 121
-5.388 1.88 -0.91799998 246 186 123
-5.3979998 1.876 -0.92900002 240 162 90
-5.4029999 1.875 -0.92000002 235 141 54
-5.4000001 1.877 -0.91799998 233 135 48
-5.473 1.865 -0.89499998 173 115 77
-5.4130001 1.874 -0.917 216 155 92
-5.4050002 1.875 -0.921 245 151 61
-5.3899999 1.881 -0.90399998 153 105 57
-5.3899999 1.88 -0.90499997 240 180 120
-5.3990002 1.877 -0.91100001 255 179 87
-5.4169998 1.875 -0.92500001 222 166 109
-5.4130001 1.874 -0.93300003 228 162 66
-5.4120002 1.875 -0.93699998 253 192 99
-5.4180002 1.8890001 -0.93000001 143 128 123
-5.4710002 1.878 -0.88999999 177 119 73
-5.4650002 1.859 -0.87900001 147 98 58
-5.3959999 1.878 -0.92199999 243 153 77
-5.473 1.864 -0.89300001 157 105 66
-5.3959999 1.878 -0.90600002 243 172 92
-5.4029999 1.875 -0.92500001 221 132 50
-5.3969998 1.878 -0.91900003 233 146 66
-5.4050002 1.877 -0.90899998 255 205 139
-5.4070001 1.877 -0.91100001 241 186 121
-5.4180002 1.8789999 -0.91900003 131 118 112
-5.4099998 1.874 -0.93000001 249 174 106
-5.4720001 1.87 -0.884 129 84 51
-5.467 1.875 -0.88999999 171 115 80
-5.4000001 1.882 -0.93699998 255 194 114
-5.4089999 1.8789999 -0.93599999 220 159 66
-5.4050002 1.881 -0.93800002 254 200 112
-5.4089999 1.874 -0.92500001 221 132 50
-5.4050002 1.875 -0.92900002 232 150 76
-5.3940001 1.881 -0.93300003 200 123 33
-5.3969998 1.88 -0.92500001 225 149 61
-5.474 1.865 -0.89300001 148 103 74
-5.3940001 1.8789999 -0.90600002 255 190 110
-5.4109998 1.887 -0.92199999 144 119 112
-5.4180002 1.88 -0.92299998 172 157 152
-5.4000001 1.88 -0.93199998 166 100 14
-5.402 1.882 -0.94499999 255 204 112
-5.408 1.875 -0.93599999 208 142 81
-5.414 1.89 -0.92299998 133 114 107
-5.4629998 1.874 -0.89399999 90 36 2
-5.4109998 1.874 -0.93300003 216 144 68
-5.414 1.892 -0.93099999 132 113 106
-5.4120002 1.876 -0.935 237 178 74
-5.4780002 1.868 -0.89399999 136 71 15
-5.4120002 1.877 -0.93400002 255 198 98
0 0 0 1 0 0 0 1 0 0 0 1 0 0 0 0 0 127 1 0 0
