ply
format ascii 1.0
comment PCL generated
element vertex 55
property float x
property float y
property float z
property uchar red
property uchar green
property uchar blue
element camera 1
property float view_px
property float view_py
property float view_pz
property float x_axisx
property float x_axisy
property float x_axisz
property float y_axisx
property float y_axisy
property float y_axisz
property float z_axisx
property float z_axisy
property float z_axisz
property float focal
property float scalex
property float scaley
property float centerx
property float centery
property int viewportx
property int viewporty
property float k1
property float k2
end_header
-3.033 16.986 -0.926 196 91 26
-3.046 16.966 -0.92699999 62 41 12
-3.0420001 16.968 -0.912 197 89 27
-3.0420001 16.99 -0.97000003 81 34 42
-3.0420001 16.989 -0.94999999 92 43 49
-3.0510001 16.992001 -0.972 33 14 0
-3.0350001 17.006001 -0.95999998 72 40 25
-3.0420001 16.971001 -0.96200001 122 39 5
-3.046 16.987 -0.97600001 108 51 21
-3.0309999 16.981001 -0.91799998 217 136 83
-3.0339999 16.962999 -0.91500002 132 87 64
-3.039 16.966999 -0.921 128 82 46
-3.04 16.971001 -0.93000001 107 67 41
-3.0350001 16.979 -0.93199998 150 100 75
-3.03 16.995001 -0.94199997 118 75 43
-3.0280001 17.003 -0.95599997 172 91 48
-3.027 17 -0.94400001 169 82 28
-3.0309999 17.02 -0.96200001 103 59 32
-3.0339999 17.025 -0.96799999 95 48 22
-3.0380001 17.016001 -0.96600002 135 57 18
-3.0280001 17.025999 -0.96700001 131 57 20
-3.0179999 17.01 -0.95599997 158 74 28
-3.0190001 17.01 -0.963 56 23 16
-3.03 17.007999 -0.97000003 81 34 44
-3.0420001 16.974001 -0.95899999 78 46 33
-3.0469999 16.965 -0.95999998 148 93 62
-3.0339999 16.962 -0.91600001 167 92 50
-3.0409999 16.965 -0.91799998 101 51 24
-3.0450001 16.962 -0.92699999 160 96 60
-3.0250001 16.969 -0.92799997 181 92 50
-3.033 16.966 -0.92199999 236 166 117
-3.0339999 16.959999 -0.92799997 142 60 13
-3.026 16.985001 -0.93800002 161 116 85
-3.026 16.979 -0.94300002 99 31 0
-3.03 16.979 -0.92299998 111 67 32
-3.033 16.999001 -0.94700003 103 53 26
-3.0409999 16.961 -0.93199998 89 57 46
-3.04 16.969999 -0.93599999 82 46 30
-3.0380001 16.969 -0.94099998 134 50 3
-3.0320001 16.966999 -0.94 185 118 73
-3.0320001 17.004 -0.97299999 54 36 22
-3.0190001 17.006001 -0.95700002 73 41 30
-3.0450001 16.983 -0.95099998 162 66 16
-3.0380001 16.969 -0.95300001 153 76 30
-3.0409999 16.962 -0.92400002 191 79 16
-3.03 16.971001 -0.926 126 73 29
-3.0320001 17.004 -0.95099998 64 44 20
-3.0280001 16.973 -0.93699998 82 49 40
-3.0320001 17.009001 -0.96899998 122 53 24
-3.04 16.985001 -0.95499998 95 58 32
-3.0409999 16.968 -0.95499998 82 50 39
-3.0339999 16.975 -0.92799997 110 59 66
-3.0280001 17.003 -0.94999999 91 41 50
-3.0309999 16.974001 -0.94099998 147 106 78
-3.0309999 17.018 -0.96100003 59 41 37
0 0 0 1 0 0 0 1 0 0 0 1 0 0 0 0 0 55 1 0 0
