ply
format ascii 1.0
comment PCL generated
element vertex 620
property float x
property float y
property float z
property uchar red
property uchar green
property uchar blue
element camera 1
property float view_px
property float view_py
property float view_pz
property float x_axisx
property float x_axisy
property float x_axisz
property float y_axisx
property float y_axisy
property float y_axisz
property float z_axisx
property float z_axisy
property float z_axisz
property float focal
property float scalex
property float scaley
property float centerx
property float centery
property int viewportx
property int viewporty
property float k1
property float k2
end_header
2.263 14.903 -0.53100002 137 92 63
2.2550001 14.904 -0.52600002 211 127 65
2.2579999 14.907 -0.51499999 197 110 39
2.345 14.78 -0.89399999 178 84 14
2.345 14.782 -0.89600003 165 94 30
2.3440001 14.778 -0.90100002 204 112 35
2.26 14.9 -0.51300001 69 22 0
2.2639999 14.896 -0.53299999 152 131 128
2.286 14.901 -0.542 68 41 12
2.2690001 14.897 -0.542 153 95 49
2.253 14.893 -0.53500003 65 34 6
2.25 14.899 -0.53399998 74 43 15
2.2449999 14.886 -0.52899998 230 162 79
2.2490001 14.893 -0.52899998 135 90 51
2.346 14.739 -0.51800001 168 79 21
2.346 14.737 -0.509 204 112 47
2.336 14.728 -0.51300001 153 109 82
2.316 14.809 -0.88599998 136 121 118
2.3169999 14.815 -0.88099998 82 16 0
2.323 14.814 -0.88300002 119 63 26
2.322 14.795 -0.87 149 73 37
2.348 14.84 -0.49900001 171 121 70
2.346 14.833 -0.493 221 132 66
2.3380001 14.851 -0.48699999 177 94 26
2.2880001 14.9 -0.54299998 197 137 87
2.29 14.895 -0.54100001 127 83 46
2.2920001 14.838 -0.71600002 116 67 35
2.2920001 14.84 -0.70499998 81 41 16
2.2969999 14.845 -0.71100003 108 63 34
2.2539999 14.895 -0.51499999 96 52 27
2.2520001 14.901 -0.52100003 141 98 64
2.2590001 14.892 -0.51200002 161 121 85
2.25 14.886 -0.514 180 108 70
2.2620001 14.896 -0.54500002 186 115 49
2.2720001 14.885 -0.54500002 127 48 5
2.2650001 14.891 -0.542 61 41 14
2.391 14.843 -0.57999998 116 86 76
2.401 14.844 -0.58700001 191 140 95
2.3840001 14.831 -0.588 122 45 3
2.3940001 14.84 -0.58899999 153 82 36
2.3599999 14.806 -0.83600003 121 69 30
2.3570001 14.806 -0.82800001 171 136 108
2.365 14.804 -0.83099997 162 71 18
2.3559999 14.807 -0.83700001 97 85 89
2.3559999 14.799 -0.838 175 87 37
2.358 14.804 -0.82599998 115 49 14
2.3599999 14.834 -0.68000001 73 28 5
2.339 14.836 -0.68800002 165 85 34
2.348 14.84 -0.69999999 96 81 78
2.345 14.797 -0.815 113 72 44
2.339 14.799 -0.82099998 137 54 22
2.395 14.861 -0.60100001 158 121 103
2.4059999 14.854 -0.58999997 127 55 17
2.4070001 14.849 -0.59500003 201 106 40
2.402 14.837 -0.60100001 157 90 35
2.368 14.771 -0.54799998 201 139 92
2.3670001 14.767 -0.55299997 175 96 40
2.368 14.77 -0.56199998 237 148 88
2.339 14.852 -0.493 115 69 45
2.3410001 14.845 -0.50300002 227 181 157
2.339 14.864 -0.50199997 62 33 15
2.266 14.891 -0.51899999 105 61 26
2.2969999 14.844 -0.71200001 174 115 97
2.335 14.737 -0.495 215 125 49
2.3410001 14.752 -0.48800001 191 103 32
2.3469999 14.744 -0.49599999 214 123 50
2.339 14.74 -0.498 166 73 14
2.247 14.897 -0.523 81 52 22
2.3789999 14.833 -0.63499999 189 106 54
2.375 14.828 -0.62599999 120 62 22
2.382 14.835 -0.62900001 125 71 27
2.3929999 14.852 -0.58099997 143 108 88
2.4000001 14.848 -0.57999998 181 111 62
2.3840001 14.851 -0.57999998 117 50 5
2.405 14.848 -0.588 125 80 59
2.3340001 14.731 -0.52600002 161 104 49
2.335 14.731 -0.51800001 169 84 29
2.3180001 14.734 -0.52700001 255 197 134
2.3239999 14.82 -0.77600002 117 56 12
2.316 14.824 -0.773 139 87 48
2.3210001 14.819 -0.78600001 119 67 27
2.3570001 14.805 -0.80000001 133 107 92
2.3499999 14.784 -0.80800003 134 100 75
2.3570001 14.804 -0.79699999 189 108 55
2.3529999 14.834 -0.70599997 87 55 34
2.3499999 14.834 -0.70999998 122 58 30
2.3199999 14.782 -0.89300001 95 27 0
2.313 14.78 -0.89499998 103 79 69
2.3169999 14.78 -0.90100002 131 70 23
2.349 14.792 -0.81699997 116 68 30
2.3870001 14.837 -0.58700001 146 79 27
2.3970001 14.854 -0.59299999 127 82 49
2.3859999 14.836 -0.59899998 156 83 42
2.3610001 14.838 -0.62 145 88 43
2.381 14.846 -0.60699999 116 63 19
2.3659999 14.834 -0.62099999 76 42 32
2.3759999 14.853 -0.61299998 65 35 33
2.3570001 14.854 -0.59799999 93 51 26
2.358 14.852 -0.597 123 74 33
2.3770001 14.849 -0.59899998 181 132 91
2.342 14.769 -0.60500002 103 49 2
2.3410001 14.781 -0.58399999 108 67 37
2.339 14.768 -0.60399997 161 107 71
2.3269999 14.736 -0.51700002 105 58 28
2.2820001 14.827 -0.74900001 135 57 8
2.279 14.828 -0.75199997 166 84 26
2.276 14.827 -0.745 133 48 0
2.335 14.732 -0.50099999 121 74 44
2.345 14.74 -0.50300002 183 96 25
2.3469999 14.745 -0.50199997 191 103 39
2.3369999 14.735 -0.50099999 222 126 52
2.3369999 14.749 -0.49700001 108 62 36
2.2709999 14.886 -0.514 170 85 18
2.2880001 14.886 -0.51700002 125 90 70
2.28 14.883 -0.51200002 179 112 57
2.27 14.869 -0.54699999 143 102 70
2.257 14.875 -0.54000002 101 56 25
2.2690001 14.865 -0.54500002 211 156 100
2.3169999 14.865 -0.50400001 167 105 58
2.3199999 14.868 -0.5 117 60 17
2.316 14.867 -0.49399999 218 159 103
2.323 14.85 -0.51499999 212 150 99
2.326 14.855 -0.514 141 59 9
2.326 14.847 -0.52100003 162 126 100
2.2620001 14.884 -0.51300001 139 62 18
2.2639999 14.886 -0.51200002 217 163 129
2.289 14.884 -0.51300001 204 137 85
2.2820001 14.878 -0.50800002 109 58 1
2.2620001 14.885 -0.53899997 147 113 85
2.329 14.83 -0.65899998 126 54 14
2.336 14.835 -0.66299999 109 63 37
2.3269999 14.826 -0.67199999 183 97 40
2.3369999 14.826 -0.676 98 35 0
2.3380001 14.831 -0.67299998 90 36 0
2.339 14.841 -0.61000001 113 53 19
2.332 14.825 -0.676 118 75 43
2.247 14.88 -0.52499998 145 88 43
2.378 14.844 -0.57800001 133 49 3
2.3670001 14.773 -0.53600001 143 103 78
2.3640001 14.787 -0.55599999 36 20 21
2.3540001 14.775 -0.537 255 213 164
2.352 14.786 -0.55000001 91 51 25
2.3610001 14.779 -0.546 134 63 11
2.3540001 14.761 -0.54500002 126 70 19
2.398 14.843 -0.588 165 98 53
2.3269999 14.737 -0.528 135 47 1
2.342 14.767 -0.61000001 123 49 10
2.29 14.822 -0.76999998 170 117 73
2.286 14.82 -0.77399999 122 46 0
2.322 14.794 -0.81199998 140 65 26
2.3280001 14.806 -0.82599998 84 37 11
2.323 14.802 -0.80900002 84 37 11
2.3099999 14.801 -0.79900002 100 38 0
2.322 14.793 -0.80299997 109 34 3
2.3269999 14.823 -0.76300001 129 70 30
2.3039999 14.83 -0.755 78 46 25
2.3310001 14.807 -0.80900002 127 79 41
2.3310001 14.806 -0.83099997 112 71 43
2.3429999 14.829 -0.68300003 112 78 66
2.348 14.829 -0.685 82 36 3
2.346 14.827 -0.69199997 109 43 8
2.336 14.799 -0.82800001 112 50 13
2.329 14.795 -0.87099999 104 46 6
2.3310001 14.787 -0.87400001 94 45 15
2.3280001 14.782 -0.87699997 125 47 1
2.336 14.78 -0.87699997 162 75 21
2.349 14.784 -0.82300001 144 114 90
2.3429999 14.778 -0.80800003 115 62 18
2.3369999 14.776 -0.57700002 108 68 42
2.335 14.769 -0.56300002 104 64 38
2.3340001 14.765 -0.56999999 114 70 41
2.368 14.8 -0.57499999 155 77 31
2.3670001 14.795 -0.57700002 113 67 31
2.369 14.802 -0.57800001 137 78 36
2.3670001 14.771 -0.55599999 177 113 69
2.365 14.774 -0.54900002 162 124 101
2.365 14.775 -0.55299997 136 92 67
2.3889999 14.841 -0.611 152 69 19
2.381 14.846 -0.611 168 83 29
2.3829999 14.849 -0.61000001 139 89 52
2.385 14.858 -0.611 111 84 73
2.3610001 14.833 -0.62199998 108 67 37
2.3640001 14.841 -0.62699997 173 92 39
2.349 14.803 -0.77999997 178 106 58
2.3399999 14.8 -0.77100003 133 64 23
2.352 14.806 -0.77700001 82 37 14
2.3139999 14.785 -0.79699999 89 47 22
2.312 14.777 -0.79900002 122 116 116
2.339 14.768 -0.579 114 56 16
2.2809999 14.799 -0.745 112 47 9
2.293 14.807 -0.755 121 57 21
2.3 14.802 -0.755 109 49 23
2.289 14.798 -0.76200002 107 44 11
2.2679999 14.809 -0.74599999 136 76 42
2.2809999 14.806 -0.74000001 68 34 9
2.2620001 14.808 -0.74000001 145 87 37
2.339 14.83 -0.50199997 190 102 38
2.3280001 14.85 -0.51499999 163 122 100
2.3280001 14.837 -0.51300001 191 106 52
2.352 14.776 -0.53899997 201 139 90
2.3329999 14.767 -0.498 189 143 117
2.28 14.873 -0.542 163 101 44
2.286 14.875 -0.53299999 81 51 27
2.2920001 14.879 -0.53299999 99 50 9
2.2920001 14.874 -0.523 153 87 29
2.2880001 14.872 -0.52399999 180 91 33
2.3340001 14.861 -0.50400001 172 93 37
2.3239999 14.863 -0.509 148 95 53
2.3340001 14.832 -0.65499997 149 96 54
2.352 14.805 -0.66799998 99 44 13
2.3559999 14.804 -0.67500001 89 50 21
2.348 14.804 -0.67400002 140 85 46
2.3610001 14.787 -0.67500001 141 78 37
2.352 14.787 -0.67500001 105 53 13
2.3429999 14.766 -0.53500003 103 74 60
2.355 14.767 -0.54100001 117 76 54
2.339 14.759 -0.53899997 134 83 26
2.3380001 14.75 -0.528 204 138 90
2.342 14.768 -0.54100001 116 33 0
2.3340001 14.753 -0.52100003 211 163 115
2.3310001 14.76 -0.54699999 116 61 7
2.342 14.785 -0.55299997 125 102 88
2.2620001 14.879 -0.514 107 63 38
2.2709999 14.876 -0.51200002 142 102 66
2.3099999 14.853 -0.491 192 144 82
2.329 14.851 -0.486 148 72 14
2.3169999 14.862 -0.493 133 52 9
2.319 14.848 -0.48899999 99 65 30
2.323 14.829 -0.51099998 255 218 160
2.323 14.85 -0.51099998 139 54 13
2.3239999 14.759 -0.495 98 54 15
2.3199999 14.766 -0.49599999 132 73 29
2.3150001 14.758 -0.5 185 107 32
2.2579999 14.872 -0.53600001 160 85 43
2.266 14.87 -0.54000002 137 79 41
2.267 14.875 -0.528 119 72 44
2.326 14.829 -0.49599999 90 62 41
2.326 14.825 -0.73900002 112 44 9
2.3329999 14.827 -0.741 156 83 40
2.336 14.824 -0.73400003 98 50 27
2.339 14.837 -0.69599998 93 51 27
2.365 14.858 -0.59600002 132 58 21
2.346 14.842 -0.509 207 157 108
2.339 14.84 -0.51099998 172 119 75
2.3770001 14.842 -0.588 137 53 7
2.378 14.85 -0.59200001 87 38 5
2.3599999 14.815 -0.588 97 52 19
2.3499999 14.818 -0.59799999 182 144 108
2.3510001 14.811 -0.58600003 181 99 51
2.359 14.773 -0.53899997 222 160 111
2.335 14.825 -0.50199997 203 116 62
2.365 14.769 -0.56199998 212 137 97
2.3629999 14.767 -0.55199999 113 77 53
2.359 14.768 -0.56199998 160 75 20
2.3559999 14.787 -0.60600001 103 51 11
2.3429999 14.771 -0.61400002 114 41 0
2.339 14.767 -0.61199999 157 105 68
2.336 14.769 -0.64499998 92 51 19
2.329 14.766 -0.65200001 161 98 57
2.3429999 14.767 -0.64300001 126 45 2
2.339 14.752 -0.51999998 171 116 62
2.325 14.749 -0.52600002 226 170 123
2.3150001 14.752 -0.52200001 107 78 62
2.3210001 14.757 -0.51999998 207 150 95
2.322 14.736 -0.51300001 196 149 121
2.3150001 14.742 -0.495 196 130 70
2.303 14.809 -0.75099999 78 18 0
2.3050001 14.821 -0.755 158 93 53
2.3199999 14.819 -0.764 176 128 82
2.325 14.822 -0.755 117 52 14
2.3 14.826 -0.75999999 158 114 87
2.325 14.786 -0.81199998 117 108 109
2.3080001 14.804 -0.79699999 103 59 32
2.303 14.804 -0.79100001 97 44 2
2.306 14.808 -0.792 81 35 12
2.2909999 14.815 -0.77499998 161 100 53
2.3280001 14.807 -0.81199998 98 48 13
2.3510001 14.829 -0.70999998 60 36 8
2.3469999 14.827 -0.71200001 132 62 37
2.3599999 14.837 -0.671 151 69 22
2.3710001 14.832 -0.65100002 159 72 19
2.3599999 14.827 -0.64899999 101 57 28
2.3629999 14.841 -0.66399997 98 57 27
2.3629999 14.84 -0.67400002 110 56 12
2.3770001 14.84 -0.63599998 110 69 39
2.3629999 14.835 -0.63499999 187 102 48
2.3770001 14.842 -0.64999998 121 80 52
2.3789999 14.835 -0.65200001 170 84 35
2.3529999 14.813 -0.63300002 113 90 82
2.3699999 14.829 -0.62599999 190 107 53
2.3629999 14.829 -0.63099998 109 57 20
2.3699999 14.829 -0.634 152 66 7
2.3469999 14.795 -0.829 112 32 0
2.3380001 14.79 -0.82800001 99 20 0
2.3440001 14.785 -0.82099998 36 14 0
2.3340001 14.798 -0.84500003 137 81 44
2.362 14.782 -0.57099998 167 78 20
2.3510001 14.778 -0.58499998 80 34 8
2.3369999 14.841 -0.60299999 114 72 50
2.335 14.842 -0.61000001 181 125 98
2.3659999 14.781 -0.56300002 136 101 81
2.352 14.802 -0.61699998 126 65 20
2.3559999 14.798 -0.60600001 121 47 0
2.346 14.794 -0.60699999 95 49 15
2.3670001 14.772 -0.542 155 78 32
2.355 14.764 -0.54699999 95 56 27
2.3800001 14.856 -0.60900003 123 82 54
2.402 14.844 -0.60000002 143 75 36
2.3770001 14.835 -0.62 158 110 72
2.395 14.856 -0.60699999 143 97 63
2.2739999 14.887 -0.53200001 131 98 67
2.3399999 14.79 -0.73000002 94 33 14
2.342 14.788 -0.722 125 62 21
2.342 14.774 -0.72000003 139 77 38
2.3340001 14.776 -0.72799999 100 39 8
2.3559999 14.804 -0.72399998 63 36 29
2.3399999 14.761 -0.57499999 67 56 28
2.3399999 14.77 -0.57099998 120 64 27
2.339 14.774 -0.65200001 134 83 38
2.3369999 14.775 -0.65899998 83 42 10
2.3440001 14.774 -0.65200001 123 44 5
2.3110001 14.78 -0.79299998 103 33 0
2.2880001 14.806 -0.73100001 158 112 79
2.2869999 14.801 -0.76099998 152 89 46
2.2720001 14.798 -0.736 108 48 14
2.2620001 14.798 -0.74199998 152 86 36
2.3340001 14.752 -0.48800001 131 40 0
2.3269999 14.732 -0.495 201 133 68
2.3280001 14.742 -0.495 192 102 26
2.346 14.742 -0.51200002 182 103 37
2.3529999 14.789 -0.56300002 94 48 14
2.345 14.786 -0.55599999 124 50 13
2.358 14.796 -0.56699997 160 79 26
2.335 14.841 -0.51099998 156 77 21
2.2780001 14.87 -0.53100002 220 148 90
2.319 14.864 -0.49700001 132 88 49
2.2969999 14.881 -0.52100003 161 98 55
2.286 14.884 -0.52600002 149 108 76
2.2709999 14.883 -0.51200002 106 45 0
2.358 14.832 -0.64700001 82 36 12
2.346 14.817 -0.63700002 116 59 14
2.3610001 14.824 -0.64200002 150 65 10
2.362 14.834 -0.63499999 116 75 43
2.3110001 14.862 -0.49900001 176 115 52
2.3310001 14.77 -0.48899999 207 114 47
2.2539999 14.88 -0.523 182 122 72
2.336 14.862 -0.49900001 87 63 63
2.335 14.831 -0.49700001 96 63 56
2.3410001 14.836 -0.49399999 211 122 56
2.3199999 14.829 -0.50300002 204 148 89
2.336 14.845 -0.48899999 111 73 37
2.336 14.765 -0.54799998 150 107 75
2.342 14.782 -0.55599999 123 71 34
2.342 14.775 -0.55699998 41 29 5
2.3310001 14.759 -0.55599999 121 77 50
2.3410001 14.765 -0.56800002 97 57 31
2.3570001 14.767 -0.56300002 154 97 52
2.329 14.827 -0.74199998 153 106 64
2.332 14.83 -0.74599999 155 96 56
2.342 14.833 -0.69999999 129 76 44
2.3340001 14.806 -0.67400002 123 55 18
2.3310001 14.801 -0.667 176 101 44
2.3280001 14.819 -0.67699999 125 88 59
2.3559999 14.787 -0.67900002 72 25 5
2.3310001 14.817 -0.704 94 53 25
2.346 14.827 -0.704 122 86 62
2.3299999 14.803 -0.71100003 57 23 11
2.332 14.804 -0.69499999 146 68 19
2.3510001 14.822 -0.70599997 129 56 13
2.348 14.828 -0.70099998 98 53 22
2.349 14.809 -0.72600001 85 54 33
2.3800001 14.833 -0.57999998 162 104 58
2.3659999 14.811 -0.59200001 198 135 91
2.323 14.74 -0.52899998 118 77 49
2.3069999 14.742 -0.52100003 196 122 51
2.3329999 14.739 -0.53200001 140 95 72
2.3269999 14.741 -0.52899998 169 124 95
2.3399999 14.773 -0.64499998 108 57 36
2.3269999 14.774 -0.64899999 127 72 41
2.349 14.805 -0.62400001 98 56 18
2.335 14.769 -0.60900003 87 46 16
2.336 14.753 -0.51899999 152 106 82
2.3239999 14.755 -0.509 46 28 28
2.3039999 14.749 -0.509 164 113 48
2.3069999 14.761 -0.51099998 192 124 79
2.257 14.875 -0.52999997 138 94 67
2.263 14.879 -0.51999998 118 79 50
2.3210001 14.758 -0.50700003 140 92 54
2.2920001 14.809 -0.76700002 152 94 57
2.332 14.808 -0.792 138 94 59
2.3280001 14.804 -0.80000001 168 136 115
2.3440001 14.787 -0.80199999 46 28 4
2.345 14.783 -0.81099999 142 54 14
2.322 14.796 -0.79500002 99 25 0
2.312 14.803 -0.79799998 97 43 7
2.335 14.82 -0.741 97 51 28
2.365 14.839 -0.66399997 76 30 6
2.3599999 14.834 -0.63099998 82 36 13
2.332 14.796 -0.86400002 124 68 33
2.329 14.788 -0.86900002 115 35 0
2.3280001 14.803 -0.84100002 159 127 102
2.349 14.788 -0.81900001 112 98 98
2.3559999 14.786 -0.59799999 148 87 43
2.3510001 14.795 -0.60399997 111 62 29
2.355 14.781 -0.57099998 119 80 49
2.342 14.794 -0.574 165 83 36
2.365 14.775 -0.56400001 144 97 67
2.3610001 14.818 -0.59899998 67 34 25
2.3510001 14.8 -0.602 99 54 15
2.3540001 14.789 -0.60500002 110 69 41
2.398 14.849 -0.60299999 213 127 70
2.3900001 14.839 -0.59899998 158 110 87
2.375 14.84 -0.62900001 64 35 29
2.276 14.888 -0.52600002 137 57 4
2.3110001 14.807 -0.74699998 114 88 75
2.339 14.805 -0.78600001 84 31 0
2.3429999 14.778 -0.57499999 83 47 15
2.3329999 14.775 -0.67699999 124 48 14
2.3380001 14.787 -0.68800002 105 42 7
2.3380001 14.777 -0.67299998 90 49 19
2.3440001 14.772 -0.67699999 134 64 30
2.3380001 14.775 -0.68199998 131 79 42
2.346 14.794 -0.676 107 62 33
2.3299999 14.808 -0.69 127 69 31
2.3329999 14.775 -0.65600002 179 89 36
2.2739999 14.816 -0.73000002 157 77 18
2.3099999 14.813 -0.74299997 133 92 70
2.3169999 14.81 -0.74699998 92 33 0
2.296 14.837 -0.70899999 107 49 12
2.3099999 14.804 -0.74699998 87 35 21
2.2650001 14.803 -0.74699998 132 82 47
2.2909999 14.799 -0.76599997 103 68 48
2.28 14.798 -0.73699999 127 64 31
2.3340001 14.755 -0.48800001 173 82 12
2.3559999 14.794 -0.57599998 102 52 19
2.3380001 14.838 -0.493 251 154 86
2.339 14.845 -0.51300001 45 27 27
2.3280001 14.852 -0.51200002 187 130 85
2.335 14.772 -0.49599999 220 127 49
2.3069999 14.77 -0.50700003 114 74 38
2.3180001 14.823 -0.50700003 243 197 135
2.313 14.768 -0.51300001 171 98 45
2.277 14.87 -0.537 216 131 77
2.2850001 14.881 -0.54000002 130 89 59
2.256 14.886 -0.53799999 102 68 31
2.2720001 14.873 -0.523 164 99 43
2.323 14.848 -0.50300002 197 112 58
2.3180001 14.849 -0.498 181 126 69
2.322 14.844 -0.49700001 141 100 68
2.316 14.86 -0.50400001 148 66 16
2.313 14.855 -0.495 149 87 38
2.2920001 14.878 -0.51899999 82 26 0
2.3280001 14.859 -0.49700001 100 56 21
2.336 14.759 -0.551 75 35 9
2.3369999 14.761 -0.55299997 121 77 52
2.3429999 14.77 -0.551 121 38 0
2.325 14.804 -0.71100003 69 28 8
2.3269999 14.797 -0.708 54 30 4
2.325 14.8 -0.72600001 70 39 21
2.336 14.781 -0.71899998 93 28 8
2.3340001 14.776 -0.72000003 121 58 23
2.3310001 14.772 -0.727 91 39 0
2.323 14.778 -0.73900002 89 32 23
2.335 14.78 -0.71200001 116 51 19
2.3239999 14.825 -0.75 118 75 43
2.3299999 14.83 -0.75199997 140 79 32
2.345 14.835 -0.69599998 147 80 35
2.3280001 14.806 -0.671 51 24 0
2.3199999 14.815 -0.70599997 118 54 19
2.329 14.812 -0.69 55 29 4
2.3399999 14.791 -0.69700003 93 29 1
2.3440001 14.781 -0.69099998 104 45 11
2.339 14.787 -0.70200002 88 49 20
2.339 14.789 -0.70499998 100 35 5
2.3369999 14.792 -0.727 71 33 14
2.3469999 14.804 -0.72299999 80 35 6
2.335 14.802 -0.73100001 93 30 21
2.3870001 14.853 -0.588 127 81 45
2.3540001 14.786 -0.55699998 155 82 29
2.365 14.776 -0.55900002 151 97 51
2.3269999 14.743 -0.52899998 166 122 97
2.3369999 14.737 -0.52499998 192 109 55
2.3210001 14.746 -0.495 199 108 38
2.313 14.741 -0.51700002 145 57 17
2.309 14.742 -0.514 123 79 40
2.3 14.803 -0.759 103 61 37
2.3280001 14.804 -0.80299997 36 27 10
2.3510001 14.803 -0.796 134 69 31
2.346 14.788 -0.80299997 164 76 30
2.303 14.806 -0.77700001 143 119 107
2.325 14.777 -0.745 87 40 12
2.319 14.784 -0.745 68 22 0
2.325 14.791 -0.81599998 93 43 6
2.3299999 14.793 -0.81999999 137 57 20
2.342 14.796 -0.81 90 45 16
2.3239999 14.803 -0.79299998 79 33 9
2.3710001 14.837 -0.65399998 137 90 48
2.352 14.818 -0.634 106 47 5
2.325 14.782 -0.87099999 138 119 115
2.3310001 14.796 -0.85399997 102 25 0
2.3269999 14.805 -0.85799998 104 59 28
2.3800001 14.857 -0.59500003 101 61 36
2.345 14.782 -0.583 123 67 18
2.3369999 14.772 -0.56599998 131 73 25
2.3529999 14.8 -0.57200003 70 35 7
2.352 14.805 -0.61799997 97 44 13
2.339 14.808 -0.76300001 97 39 0
2.3280001 14.819 -0.76800001 90 34 0
2.3399999 14.802 -0.755 107 44 9
2.3299999 14.794 -0.76999998 96 25 0
2.3210001 14.82 -0.76599997 104 61 29
2.332 14.802 -0.78799999 113 40 0
2.3469999 14.807 -0.78399998 45 23 0
2.3410001 14.806 -0.77999997 175 101 52
2.3280001 14.815 -0.78299999 71 42 28
2.3340001 14.776 -0.68699998 119 50 17
2.3380001 14.779 -0.68699998 103 62 34
2.335 14.77 -0.65200001 124 49 10
2.348 14.776 -0.67900002 97 63 51
2.28 14.808 -0.72600001 121 79 55
2.335 14.799 -0.74900001 105 47 10
2.2920001 14.805 -0.76899999 139 59 10
2.2650001 14.804 -0.73699999 119 63 30
2.3329999 14.738 -0.495 151 104 48
2.325 14.733 -0.49700001 110 63 33
2.3199999 14.737 -0.50800002 223 164 98
2.319 14.764 -0.50199997 74 27 0
2.336 14.745 -0.51300001 76 44 31
2.3629999 14.797 -0.57300001 123 74 41
2.3540001 14.775 -0.56400001 130 80 47
2.3340001 14.832 -0.49700001 115 72 38
2.322 14.774 -0.49900001 154 69 14
2.325 14.795 -0.49700001 115 86 78
2.3150001 14.756 -0.51999998 107 61 37
2.28 14.872 -0.51999998 172 111 54
2.3139999 14.852 -0.493 113 74 15
2.3340001 14.756 -0.55299997 211 155 120
2.342 14.766 -0.56099999 126 51 12
2.329 14.821 -0.70499998 254 177 125
2.3239999 14.815 -0.70999998 93 38 7
2.329 14.807 -0.69800001 80 19 0
2.339 14.785 -0.71499997 82 43 14
2.3329999 14.799 -0.72799999 77 41 15
2.3789999 14.851 -0.58099997 130 94 72
2.3659999 14.773 -0.55800003 147 113 86
2.313 14.749 -0.50400001 122 83 50
2.3150001 14.751 -0.50199997 142 97 64
2.3139999 14.74 -0.51099998 166 97 40
2.3169999 14.741 -0.50700003 172 86 27
2.322 14.737 -0.51599997 248 209 178
2.299 14.802 -0.77499998 94 50 25
2.3210001 14.815 -0.78100002 87 31 0
2.335 14.801 -0.764 90 41 8
2.3410001 14.797 -0.81300002 159 133 118
2.3269999 14.802 -0.78200001 67 23 0
2.326 14.804 -0.77200001 95 42 10
2.326 14.791 -0.79799998 97 44 10
2.326 14.788 -0.83600003 128 110 106
2.326 14.792 -0.83399999 131 79 39
2.326 14.795 -0.861 155 134 133
2.3269999 14.802 -0.84899998 159 140 136
2.3310001 14.796 -0.84500003 112 33 0
2.3759999 14.857 -0.60299999 136 83 41
2.3789999 14.854 -0.59100002 38 18 7
2.3469999 14.795 -0.57999998 147 103 68
2.3529999 14.807 -0.58600003 94 20 0
2.345 14.793 -0.57700002 131 62 20
2.348 14.794 -0.57200003 38 22 22
2.355 14.812 -0.59799999 121 64 21
2.358 14.811 -0.59200001 112 72 46
2.3280001 14.82 -0.74900001 104 48 13
2.3340001 14.81 -0.76599997 89 48 18
2.325 14.811 -0.72799999 78 44 19
2.3410001 14.806 -0.78899997 157 77 24
2.348 14.786 -0.67199999 98 35 0
2.2880001 14.805 -0.72799999 140 85 46
2.273 14.813 -0.72500002 127 64 13
2.3329999 14.809 -0.74699998 103 43 9
2.3329999 14.811 -0.73900002 217 157 123
2.329 14.805 -0.72899997 51 19 8
2.2650001 14.802 -0.73900002 103 64 35
2.3559999 14.808 -0.58700001 128 66 15
2.3280001 14.8 -0.49599999 155 103 45
2.3329999 14.797 -0.49000001 119 39 0
2.325 14.799 -0.486 100 52 3
2.312 14.754 -0.51800001 144 60 16
2.2820001 14.887 -0.54500002 130 63 10
2.325 14.846 -0.491 135 87 23
2.342 14.841 -0.493 130 44 0
2.3410001 14.765 -0.56099999 129 73 22
2.332 14.834 -0.69199997 116 52 16
2.3659999 14.774 -0.56099999 149 93 44
2.3039999 14.804 -0.76800001 90 67 53
2.3139999 14.82 -0.77100003 97 43 0
2.3399999 14.805 -0.764 98 32 0
2.3269999 14.798 -0.82700002 158 126 101
2.329 14.788 -0.83600003 126 48 10
2.3310001 14.796 -0.86199999 93 16 0
2.326 14.789 -0.86799997 151 119 96
2.3299999 14.797 -0.85299999 142 88 44
2.3239999 14.799 -0.861 80 35 2
2.329 14.81 -0.72799999 50 26 0
2.2679999 14.81 -0.727 88 53 25
2.3329999 14.809 -0.75599998 86 25 0
2.3369999 14.811 -0.73900002 98 30 0
2.2739999 14.804 -0.745 151 87 49
2.332 14.797 -0.491 113 61 37
2.313 14.756 -0.51800001 108 65 33
2.3199999 14.846 -0.491 105 61 34
2.326 14.736 -0.51099998 243 161 88
2.329 14.736 -0.509 255 155 85
2.326 14.802 -0.76899999 56 30 15
2.3269999 14.801 -0.76499999 67 45 21
2.3239999 14.802 -0.75999999 80 38 16
2.3399999 14.792 -0.79900002 113 90 76
2.3269999 14.799 -0.85500002 160 128 103
2.348 14.787 -0.56999999 106 62 33
2.2720001 14.812 -0.73100001 120 69 38
2.266 14.806 -0.72899997 75 19 0
2.312 14.759 -0.50400001 111 63 14
0 0 0 1 0 0 0 1 0 0 0 1 0 0 0 0 0 620 1 0 0
