ply
format ascii 1.0
comment PCL generated
element vertex 238
property float x
property float y
property float z
property uchar red
property uchar green
property uchar blue
element camera 1
property float view_px
property float view_py
property float view_pz
property float x_axisx
property float x_axisy
property float x_axisz
property float y_axisx
property float y_axisy
property float y_axisz
property float z_axisx
property float z_axisy
property float z_axisz
property float focal
property float scalex
property float scaley
property float centerx
property float centery
property int viewportx
property int viewporty
property float k1
property float k2
end_header
-5.513 -7.1269999 -1.0089999 134 107 88
-5.513 -7.1170001 -1.008 65 37 16
-5.5120001 -7.1129999 -1.003 153 116 97
-5.4970002 -7.1009998 -0.986 134 84 59
-5.5089998 -7.1129999 -0.98799998 138 100 61
-5.5089998 -7.1139998 -0.977 144 106 67
-5.5079999 -7.1230001 -0.995 94 49 20
-5.4619999 -7.1069999 -0.97399998 115 75 39
-5.448 -7.112 -0.995 116 78 55
-5.4629998 -7.1170001 -0.98100001 127 84 50
-5.4980001 -7.1220002 -0.97500002 162 96 48
-5.4889998 -7.1290002 -0.963 137 74 20
-5.4889998 -7.131 -0.96200001 135 65 13
-5.4590001 -7.1020002 -0.98000002 144 108 86
-5.513 -7.1360002 -1.038 153 124 108
-5.5029998 -7.1389999 -1.044 34 3 0
-5.513 -7.1350002 -1.043 48 18 8
-5.507 -7.1269999 -0.99800003 252 191 124
-5.507 -7.1300001 -0.99199998 250 191 121
-5.4499998 -7.0819998 -0.99400002 63 39 13
-5.4460001 -7.079 -1.0039999 75 34 6
-5.448 -7.073 -0.99699998 111 70 42
-5.4400001 -7.0949998 -1.011 66 20 0
-5.454 -7.072 -0.995 141 96 63
-5.4640002 -7.085 -0.97899997 104 69 47
-5.467 -7.0819998 -0.98299998 90 60 32
-5.4689999 -7.0840001 -0.97899997 132 91 61
-5.4809999 -7.1079998 -1.0420001 26 8 0
-5.4829998 -7.1100001 -1.048 82 52 44
-5.4850001 -7.1040001 -1.045 30 6 0
-5.4759998 -7.1040001 -1.012 98 52 19
-5.4640002 -7.0939999 -1.002 75 50 28
-5.4749999 -7.1040001 -1.013 47 25 4
-5.46 -7.1069999 -1.029 128 100 86
-5.454 -7.1059999 -1.015 81 54 35
-5.4580002 -7.112 -1.0319999 95 49 25
-5.4809999 -7.1079998 -1.035 43 24 10
-5.4549999 -7.086 -1.012 89 40 8
-5.4400001 -7.1129999 -1.01 103 64 35
-5.4369998 -7.1090002 -1.006 96 56 21
-5.4439998 -7.1069999 -1.0089999 85 47 24
-5.4699998 -7.1370001 -1.039 37 8 4
-5.461 -7.132 -1.0369999 61 25 13
-5.4679999 -7.1479998 -1.018 67 31 7
-5.467 -7.138 -1.0319999 33 0 0
-5.4650002 -7.1290002 -0.97100002 155 107 93
-5.4640002 -7.1290002 -0.98299998 120 40 5
-5.48 -7.098 -0.96499997 136 97 64
-5.48 -7.099 -0.95999998 178 108 48
-5.4759998 -7.1030002 -0.96100003 147 102 73
-5.4949999 -7.1139998 -0.97000003 96 56 48
-5.5 -7.1409998 -0.99599999 154 107 65
-5.4889998 -7.151 -0.98299998 187 92 38
-5.494 -7.1479998 -0.96600002 156 121 79
-5.4920001 -7.1620002 -0.98199999 142 106 74
-5.4889998 -7.1539998 -0.97600001 149 61 15
-5.4889998 -7.1529999 -0.97500002 180 85 29
-5.4879999 -7.1560001 -0.97299999 112 32 0
-5.4679999 -7.145 -0.96399999 161 76 12
-5.4689999 -7.1459999 -0.96200001 161 72 12
-5.473 -7.1560001 -0.96600002 108 92 79
-5.4629998 -7.138 -0.96399999 157 89 40
-5.4629998 -7.131 -0.96399999 128 61 19
-5.4650002 -7.131 -0.958 128 61 9
-5.4899998 -7.1469998 -1.01 120 93 72
-5.4959998 -7.1469998 -1.012 55 5 0
-5.4879999 -7.145 -0.99900001 160 77 33
-5.5029998 -7.1079998 -1.0089999 51 12 0
-5.5040002 -7.1129999 -1.002 79 48 28
-5.4640002 -7.0999999 -0.97299999 115 78 49
-5.474 -7.1079998 -0.96799999 148 104 75
-5.4489999 -7.079 -0.99699998 59 9 0
-5.461 -7.1170001 -0.98900002 149 109 74
-5.46 -7.1110001 -1.031 142 118 92
-5.4650002 -7.1329999 -0.97600001 100 25 0
-5.461 -7.1279998 -0.99199998 108 41 0
-5.4520001 -7.1170001 -0.99699998 53 27 0
-5.4510002 -7.0929999 -1.01 48 25 9
-5.4689999 -7.1459999 -0.96399999 176 84 21
-5.4710002 -7.1469998 -0.96200001 248 169 103
-5.5040002 -7.1090002 -0.98100001 184 118 70
-5.4660001 -7.1199999 -0.96499997 77 26 0
-5.48 -7.1230001 -0.96100003 135 68 15
-5.4850001 -7.1160002 -0.96499997 154 113 95
-5.4699998 -7.1350002 -1.034 72 29 10
-5.494 -7.1409998 -0.99800003 106 75 46
-5.4889998 -7.145 -0.99599999 182 90 41
-5.5040002 -7.1300001 -0.99299997 162 101 57
-5.4889998 -7.1409998 -0.97799999 78 54 20
-5.4660001 -7.1430001 -0.96700001 184 109 54
-5.4699998 -7.1440001 -0.95999998 163 124 93
-5.4879999 -7.152 -0.96600002 139 97 59
-5.5120001 -7.1329999 -1.04 39 15 3
-5.5159998 -7.1339998 -1.029 72 46 31
-5.4860001 -7.119 -1.034 137 115 92
-5.48 -7.1170001 -1.035 63 17 4
-5.5 -7.112 -0.995 57 25 0
-5.493 -7.1059999 -0.99599999 147 62 0
-5.5040002 -7.1100001 -1.0190001 102 57 34
-5.4749999 -7.0970001 -0.97799999 85 51 24
-5.487 -7.1100001 -1.046 61 35 20
-5.4790001 -7.1100001 -1.035 88 37 10
-5.4569998 -7.0840001 -0.99599999 105 78 57
-5.4660001 -7.0960002 -0.99400002 75 50 30
-5.4460001 -7.0900002 -1.013 109 72 45
-5.4419999 -7.0970001 -1.0089999 90 53 26
-5.4699998 -7.1360002 -1.028 163 132 111
-5.4780002 -7.1440001 -1.013 31 3 0
-5.473 -7.1279998 -1.02 38 2 0
-5.4980001 -7.131 -1.0420001 37 6 3
-5.4879999 -7.1529999 -0.98500001 117 39 0
-5.487 -7.1550002 -0.97899997 101 33 0
-5.4920001 -7.1279998 -0.98199999 205 133 74
-5.4650002 -7.1399999 -0.96899998 141 63 14
-5.467 -7.1440001 -0.96600002 185 105 42
-5.48 -7.1269999 -0.96100003 69 45 17
-5.4650002 -7.1329999 -0.97399998 129 49 12
-5.4809999 -7.1170001 -0.96499997 100 73 52
-5.4710002 -7.118 -0.96700001 110 74 52
-5.4990001 -7.125 -0.97899997 130 103 82
-5.493 -7.1300001 -0.972 123 52 20
-5.5019999 -7.119 -0.98100001 99 41 4
-5.4759998 -7.1459999 -1.013 12 0 0
-5.5079999 -7.1220002 -0.99199998 131 78 36
-5.46 -7.1020002 -1.003 59 34 14
-5.4829998 -7.0999999 -0.977 78 47 18
-5.4889998 -7.1110001 -1.045 74 36 13
-5.4780002 -7.1129999 -1.036 123 84 53
-5.4499998 -7.085 -1.008 107 69 46
-5.4879999 -7.1560001 -0.97600001 119 41 2
-5.4860001 -7.1420002 -0.96899998 174 104 52
-5.4899998 -7.1290002 -0.96600002 216 146 86
-5.4790001 -7.1420002 -1.013 89 43 28
-5.4899998 -7.1409998 -1.013 59 11 1
-5.5029998 -7.1389999 -1.034 83 50 31
-5.5 -7.1399999 -1.012 127 50 4
-5.5009999 -7.138 -1.006 70 15 0
-5.4889998 -7.1459999 -0.98799998 187 91 31
-5.4889998 -7.1469998 -0.98900002 174 78 20
-5.4819999 -7.125 -0.96200001 61 28 0
-5.4650002 -7.1399999 -0.97100002 122 46 0
-5.4920001 -7.1090002 -1 147 60 7
-5.4899998 -7.1079998 -0.99900001 78 51 24
-5.4920001 -7.105 -0.99400002 73 56 28
-5.4860001 -7.1090002 -0.995 67 48 54
-5.4660001 -7.138 -1.006 174 108 76
-5.4720001 -7.1420002 -1.003 111 46 4
-5.4629998 -7.1370001 -1.006 66 3 0
-5.4640002 -7.1430001 -1.012 93 68 46
-5.4720001 -7.1440001 -0.99199998 127 93 56
-5.4619999 -7.1360002 -1.008 83 25 3
-5.46 -7.1300001 -1.002 108 63 24
-5.4910002 -7.1199999 -1.04 14 0 3
-5.4829998 -7.1129999 -1.043 71 24 8
-5.454 -7.1100001 -0.995 163 122 94
-5.4489999 -7.1139998 -0.99699998 54 26 12
-5.487 -7.1069999 -1.036 29 0 0
-5.487 -7.1059999 -1.041 43 4 0
-5.506 -7.1199999 -1.039 48 25 9
-5.467 -7.1389999 -0.98199999 137 59 21
-5.4790001 -7.1160002 -1.038 56 18 0
-5.4850001 -7.151 -0.986 107 39 0
-5.473 -7.1059999 -0.99699998 86 46 21
-5.448 -7.1149998 -1.003 61 31 7
-5.494 -7.1110001 -1.0089999 93 65 41
-5.4809999 -7.1079998 -1.028 33 15 5
-5.4889998 -7.1329999 -0.96700001 124 92 71
-5.4879999 -7.1420002 -0.96899998 171 102 45
-5.5019999 -7.1399999 -1.0089999 80 24 11
-5.5019999 -7.1370001 -1.01 54 5 0
-5.48 -7.151 -0.99599999 94 29 0
-5.4879999 -7.1500001 -0.99000001 125 43 3
-5.4860001 -7.1490002 -0.99299997 111 39 0
-5.4689999 -7.145 -0.96899998 148 57 2
-5.4619999 -7.1300001 -0.99699998 58 30 6
-5.4629998 -7.1329999 -0.99599999 122 86 52
-5.4679999 -7.1360002 -0.99400002 125 46 13
-5.493 -7.1290002 -0.97100002 94 20 0
-5.4619999 -7.132 -1.031 49 13 0
-5.467 -7.138 -1.025 38 0 0
-5.4510002 -7.1139998 -1.022 74 24 1
-5.447 -7.1199999 -1.021 137 97 62
-5.4720001 -7.145 -1.012 77 13 0
-5.4660001 -7.1360002 -1.003 118 41 0
-5.46 -7.0999999 -0.99199998 52 37 8
-5.5 -7.1199999 -1.04 63 44 48
-5.4660001 -7.1440001 -1.018 92 51 31
-5.4819999 -7.112 -1.044 64 29 10
-5.48 -7.1469998 -0.98000002 104 29 0
-5.4790001 -7.145 -0.98299998 83 10 0
-5.4640002 -7.138 -0.97600001 140 70 21
-5.4699998 -7.1440001 -0.977 123 45 7
-5.4650002 -7.1399999 -0.97500002 182 115 63
-5.4850001 -7.151 -0.98299998 120 52 13
-5.473 -7.1479998 -0.972 116 76 40
-5.4619999 -7.119 -1.025 61 15 0
-5.46 -7.1269999 -1.026 71 33 10
-5.4889998 -7.1059999 -1.018 127 95 84
-5.5019999 -7.1389999 -1.041 56 31 11
-5.4980001 -7.132 -1.0369999 33 5 2
-5.5110002 -7.132 -1.034 83 56 37
-5.4879999 -7.1300001 -1.018 163 111 98
-5.4949999 -7.1269999 -1.022 74 37 11
-5.494 -7.125 -1.0319999 22 3 0
-5.5009999 -7.1370001 -1.013 89 27 2
-5.5019999 -7.1370001 -1.008 40 0 0
-5.4840002 -7.1479998 -0.99800003 98 32 0
-5.4829998 -7.145 -1.0039999 86 26 0
-5.4759998 -7.1469998 -1.011 15 0 0
-5.4679999 -7.1370001 -0.99000001 155 72 38
-5.473 -7.1420002 -0.96399999 224 156 91
-5.4899998 -7.1090002 -0.98000002 121 71 34
-5.4530001 -7.1209998 -1.023 97 48 16
-5.493 -7.1139998 -1.043 41 4 0
-5.4650002 -7.138 -1.018 41 2 0
-5.4629998 -7.131 -1.015 48 18 0
-5.4689999 -7.1409998 -0.98100001 121 39 1
-5.4699998 -7.1409998 -0.98500001 107 34 2
-5.4770002 -7.1440001 -0.98299998 104 35 4
-5.4520001 -7.1269999 -1.0089999 66 24 8
-5.4679999 -7.1440001 -0.97100002 135 49 0
-5.4829998 -7.151 -0.97500002 138 56 9
-5.4790001 -7.099 -0.98400003 131 90 62
-5.4959998 -7.1100001 -1.024 55 26 18
-5.493 -7.1220002 -1.038 19 1 0
-5.4689999 -7.1399999 -0.98699999 119 43 11
-5.4990001 -7.119 -0.97500002 138 97 65
-5.4899998 -7.1269999 -0.96600002 211 140 88
-5.4920001 -7.1279998 -0.97000003 125 88 62
-5.4889998 -7.1100001 -1.043 16 1 0
-5.467 -7.1430001 -0.97000003 177 102 45
-5.4809999 -7.1479998 -0.97799999 119 41 5
-5.4980001 -7.1279998 -1.031 139 110 104
-5.5040002 -7.1290002 -1.018 67 15 0
-5.5009999 -7.1199999 -1.033 51 18 1
-5.5079999 -7.1360002 -1.038 152 124 113
-5.493 -7.112 -1.0369999 34 4 2
-5.507 -7.125 -1.028 34 10 0
0 0 0 1 0 0 0 1 0 0 0 1 0 0 0 0 0 238 1 0 0
