ply
format ascii 1.0
comment PCL generated
element vertex 1295
property float x
property float y
property float z
property uchar red
property uchar green
property uchar blue
element camera 0
property float view_px
property float view_py
property float view_pz
property float x_axisx
property float x_axisy
property float x_axisz
property float y_axisx
property float y_axisy
property float y_axisz
property float z_axisx
property float z_axisy
property float z_axisz
property float focal
property float scalex
property float scaley
property float centerx
property float centery
property int viewportx
property int viewporty
property float k1
property float k2
end_header
-2.7360001 3.5899999 -0.98299998 120 76 37
-2.757 3.5799999 -0.991 66 32 5
-2.9489999 3.4549999 -0.921 113 74 45
-2.9460001 3.4400001 -0.92699999 54 30 4
-2.944 3.4360001 -0.91500002 156 128 88
-2.8610001 3.4070001 -0.97100002 133 79 35
-2.872 3.405 -0.97399998 122 67 37
-2.8610001 3.4030001 -0.963 166 95 39
-2.734 3.362 -0.97299999 95 92 87
-2.72 3.5639999 -0.96100003 56 21 15
-2.7249999 3.5680001 -0.93900001 185 153 140
-2.7249999 3.562 -0.94199997 56 29 18
-2.723 3.5710001 -0.95599997 93 53 28
-2.767 3.5780001 -0.95899999 245 171 74
-2.7709999 3.566 -0.96700001 160 83 29
-2.77 3.576 -0.95499998 101 48 16
-2.767 3.5769999 -0.95999998 112 55 12
-2.862 3.506 -1.002 9 3 3
-2.8670001 3.507 -1.0089999 5 1 0
-2.862 3.506 -1.0089999 2 2 2
-2.852 3.5020001 -0.995 92 64 40
-2.8629999 3.5050001 -0.99900001 6 2 1
-2.852 3.5 -0.98400003 155 92 38
-2.9460001 3.434 -0.89700001 151 119 60
-2.928 3.4219999 -0.89200002 251 212 117
-2.8610001 3.5009999 -1.011 1 0 0
-2.8610001 3.4920001 -1.013 4 0 0
-2.7179999 3.3629999 -0.99199998 170 95 2
-2.717 3.3670001 -1.006 140 67 24
-2.7219999 3.3940001 -1.091 96 32 0
-2.723 3.3840001 -1.084 41 21 20
-2.723 3.3929999 -1.0829999 141 72 15
-2.7060001 3.3929999 -1.013 67 30 11
-2.7179999 3.4030001 -1.013 160 133 114
-2.711 3.405 -1.008 124 80 51
-2.7320001 3.4949999 -1.02 141 119 108
-2.7290001 3.4990001 -1.0140001 136 114 100
-2.7309999 3.5120001 -1.022 43 18 0
-2.7320001 3.4920001 -1.0190001 100 87 68
-2.737 3.5009999 -1.0089999 87 56 36
-2.7360001 3.414 -1.09 145 86 42
-2.7390001 3.398 -1.101 93 37 12
-2.723 3.3940001 -1.098 37 16 13
-2.743 3.418 -1.09 128 69 25
-2.7290001 3.398 -1.0829999 151 85 25
-2.7349999 3.562 -0.991 101 61 35
-2.7379999 3.5739999 -0.99800003 57 34 20
-2.7279999 3.5840001 -0.977 150 105 66
-2.753 3.5899999 -0.97100002 141 75 43
-2.7579999 3.5969999 -0.96399999 94 57 41
-2.891 3.4979999 -0.99000001 5 1 2
-2.902 3.494 -0.97600001 29 0 0
-2.8929999 3.5 -0.995 6 0 2
-2.8640001 3.483 -1.036 25 1 0
-2.8510001 3.4879999 -1.035 132 69 36
-2.743 3.3859999 -0.95099998 54 37 21
-2.7390001 3.3870001 -0.94300002 180 88 23
-2.7420001 3.378 -0.95499998 180 132 86
-2.753 3.381 -0.96200001 168 86 38
-2.75 3.372 -0.96499997 111 50 5
-2.7609999 3.3840001 -0.96600002 71 33 0
-2.8629999 3.4130001 -0.94999999 140 113 96
-2.8710001 3.424 -0.95099998 219 167 91
-2.859 3.4200001 -0.94499999 134 81 39
-2.8199999 3.4089999 -0.98699999 143 90 56
-2.8329999 3.4130001 -0.98299998 114 50 14
-2.8299999 3.4130001 -0.995 108 56 19
-2.8469999 3.4070001 -0.991 25 8 0
-2.9519999 3.4619999 -0.89499998 174 115 45
-2.9519999 3.4449999 -0.884 169 82 3
-2.9519999 3.4449999 -0.898 124 87 61
-2.763 3.3770001 -0.972 128 64 28
-2.743 3.368 -0.98100001 154 65 0
-2.74 3.3610001 -0.96399999 123 64 32
-2.743 3.3670001 -0.963 109 66 34
-2.737 3.3640001 -0.96200001 150 105 74
-2.733 3.369 -0.95700002 128 128 130
-2.76 3.5569999 -0.93900001 134 72 23
-2.7550001 3.5569999 -0.93800002 145 117 93
-2.7509999 3.5780001 -0.94099998 207 185 172
-2.7290001 3.566 -0.94099998 169 133 117
-2.7290001 3.569 -0.94 168 96 48
-2.7320001 3.55 -0.94499999 187 118 49
-2.7420001 3.552 -0.94400001 220 118 33
-2.7249999 3.5550001 -0.95599997 244 210 182
-2.7249999 3.576 -0.96600002 137 123 120
-2.7360001 3.5840001 -0.95700002 122 68 24
-2.7049999 3.385 -0.96700001 191 155 131
-2.7060001 3.382 -0.96799999 145 90 49
-2.7179999 3.3789999 -0.954 148 82 32
-2.7190001 3.3889999 -0.95099998 78 37 19
-2.723 3.401 -0.94199997 163 124 91
-2.7160001 3.395 -0.95599997 113 63 28
-2.7190001 3.3870001 -0.95300001 222 127 45
-2.7379999 3.385 -0.94700003 169 73 12
-2.7219999 3.375 -0.954 101 58 26
-2.7219999 3.372 -0.95499998 94 49 8
-2.727 3.3710001 -0.95099998 137 136 132
-2.8310001 3.48 -1.064 18 4 1
-2.835 3.4790001 -1.064 21 3 0
-2.8310001 3.487 -1.056 93 77 64
-2.829 3.4779999 -1.0829999 75 59 59
-2.826 3.473 -1.0779999 54 15 0
-2.8169999 3.4119999 -1.003 144 106 67
-2.822 3.414 -1.013 21 0 0
-2.8180001 3.464 -1.021 55 20 1
-2.816 3.4579999 -1.013 6 2 1
-2.799 3.4690001 -1.0140001 110 67 48
-2.829 3.4690001 -1.0039999 98 58 50
-2.846 3.4990001 -0.99800003 31 8 0
-2.868 3.506 -1 6 2 1
-2.7720001 3.398 -0.97100002 50 13 0
-2.7550001 3.3940001 -0.954 158 84 23
-2.7349999 3.398 -0.94099998 242 167 110
-2.7449999 3.402 -1.099 63 39 35
-2.846 3.4879999 -0.98500001 127 93 65
-2.8510001 3.4960001 -0.98400003 135 102 69
-2.9119999 3.5090001 -0.95899999 12 6 6
-2.9300001 3.5109999 -0.954 10 1 4
-2.9300001 3.5120001 -0.95300001 18 12 14
-2.947 3.4400001 -0.88999999 222 144 62
-2.947 3.4430001 -0.88300002 180 100 47
-2.95 3.4389999 -0.89300001 245 172 69
-2.9319999 3.4400001 -0.88 156 115 59
-2.931 3.4289999 -0.88999999 176 126 37
-2.9219999 3.4400001 -0.88499999 220 179 125
-2.8659999 3.4909999 -1.01 22 0 0
-2.8729999 3.4990001 -1.006 65 28 2
-2.71 3.369 -0.99800003 131 73 27
-2.7290001 3.3859999 -1.079 94 41 7
-2.737 3.589 -0.97399998 205 109 25
-2.74 3.5840001 -0.98699999 157 96 49
-2.7320001 3.3940001 -1.0930001 102 40 3
-2.7539999 3.4630001 -1.068 59 36 28
-2.756 3.4790001 -1.062 73 47 30
-2.7579999 3.4690001 -1.076 63 40 34
-2.7479999 3.5780001 -0.99699998 63 32 11
-2.727 3.5439999 -0.98100001 76 41 39
-2.8610001 3.484 -1.035 41 20 15
-2.9360001 3.4890001 -0.949 127 58 0
-2.9319999 3.493 -0.95899999 126 96 62
-2.938 3.4949999 -0.949 92 57 35
-2.948 3.4530001 -0.92299998 234 154 83
-2.9489999 3.448 -0.91399997 205 146 44
-2.8900001 3.497 -0.97600001 86 27 0
-2.908 3.51 -0.96600002 14 10 7
-2.9059999 3.497 -0.97000003 65 23 11
-2.9449999 3.438 -0.921 81 55 22
-2.872 3.4170001 -0.98500001 100 66 28
-2.8859999 3.421 -0.97299999 168 132 110
-2.8789999 3.414 -0.963 82 39 7
-2.9159999 3.4449999 -0.884 156 84 25
-2.875 3.4230001 -0.95300001 211 167 96
-2.8499999 3.4130001 -0.98000002 118 43 4
-2.8559999 3.4130001 -0.972 125 66 32
-2.8180001 3.427 -0.97899997 127 90 48
-2.8139999 3.4260001 -0.96700001 68 14 2
-2.8269999 3.4230001 -0.963 158 96 57
-2.816 3.424 -0.95200002 79 46 11
-2.862 3.411 -0.95300001 248 182 124
-2.941 3.4630001 -0.88700002 5 1 0
-2.9489999 3.4630001 -0.89099997 174 115 49
-2.9319999 3.4749999 -0.89899999 3 0 0
-2.9449999 3.4630001 -0.912 220 151 74
-2.9460001 3.4649999 -0.90399998 14 9 5
-2.9489999 3.451 -0.90100002 122 85 4
-2.95 3.457 -0.90399998 19 11 8
-2.95 3.451 -0.90700001 255 196 94
-2.7409999 3.3629999 -0.98799998 255 200 97
-2.7449999 3.3670001 -0.99800003 148 84 40
-2.756 3.378 -0.97100002 120 46 9
-2.7249999 3.5420001 -0.96899998 116 49 0
-2.7249999 3.55 -0.97100002 104 53 10
-2.7260001 3.5450001 -0.95999998 67 25 3
-2.727 3.5480001 -0.95700002 153 127 104
-2.734 3.5829999 -0.96600002 196 147 89
-2.756 3.576 -0.95099998 112 64 0
-2.7509999 3.582 -0.96399999 240 189 123
-2.75 3.5599999 -0.94199997 81 45 21
-2.7539999 3.553 -0.94 139 104 72
-2.711 3.368 -0.97100002 134 127 108
-2.7049999 3.3729999 -0.97799999 194 166 142
-2.711 3.359 -0.97500002 141 141 141
-2.7449999 3.503 -1.031 36 3 0
-2.7590001 3.5769999 -0.97000003 146 108 72
-2.76 3.5710001 -0.977 175 126 83
-2.763 3.5799999 -0.96399999 225 146 53
-2.809 3.441 -1.091 72 53 49
-2.803 3.4389999 -1.097 53 34 30
-2.809 3.4419999 -1.098 53 32 29
-2.875 3.4990001 -0.991 188 117 53
-2.8080001 3.428 -0.95999998 188 127 83
-2.8050001 3.4170001 -0.97600001 91 31 0
-2.7820001 3.418 -1.086 44 20 18
-2.7650001 3.4130001 -1.085 111 75 49
-2.766 3.4159999 -1.085 157 95 44
-2.74 3.395 -1.098 99 74 70
-2.734 3.392 -1.097 51 26 22
-2.744 3.405 -1.094 32 6 5
-2.891 3.497 -0.95999998 239 155 83
-2.882 3.4960001 -0.98100001 28 22 22
-2.8740001 3.4879999 -0.97000003 122 99 91
-2.888 3.4979999 -0.97799999 146 85 56
-2.9170001 3.5020001 -0.93900001 118 67 14
-2.9159999 3.503 -0.94300002 138 67 5
-2.9159999 3.4949999 -0.963 145 97 74
-2.7309999 3.3929999 -0.94099998 208 127 72
-2.9230001 3.4619999 -0.87699997 136 78 32
-2.723 3.385 -0.94700003 233 147 64
-2.7249999 3.392 -0.94300002 163 124 91
-2.944 3.448 -0.92900002 61 39 16
-2.8640001 3.4979999 -0.986 138 76 27
-2.8629999 3.4849999 -1.036 25 1 0
-2.872 3.4860001 -1.007 93 69 43
-2.8629999 3.483 -1.035 29 8 3
-2.8599999 3.503 -1.0089999 107 67 57
-2.727 3.3610001 -0.98299998 103 63 38
-2.727 3.4059999 -1.01 80 37 28
-2.73 3.4070001 -0.99599999 93 52 46
-2.7490001 3.3859999 -0.95700002 162 87 47
-2.727 3.388 -1.081 126 78 42
-2.7290001 3.388 -1.0779999 137 87 52
-2.7290001 3.572 -0.98199999 127 76 47
-2.74 3.5780001 -0.99000001 88 47 17
-2.7260001 3.5799999 -0.97299999 150 101 61
-2.7279999 3.3929999 -1.097 31 10 7
-2.7409999 3.5639999 -0.99199998 67 33 5
-2.747 3.5650001 -0.99299997 178 146 125
-2.7449999 3.559 -0.99199998 85 55 27
-2.7379999 3.572 -0.99400002 45 19 4
-2.7390001 3.527 -1.029 69 41 30
-2.7390001 3.5280001 -1.028 124 88 62
-2.744 3.5320001 -1.03 165 119 86
-2.7449999 3.5840001 -0.96499997 59 28 7
-2.8670001 3.4749999 -1.046 120 102 98
-2.8659999 3.4690001 -1.04 34 1 0
-2.8629999 3.4579999 -1.027 90 69 64
-2.842 3.4519999 -1.023 55 26 8
-2.859 3.4579999 -1.0190001 22 12 13
-2.859 3.4530001 -1.011 20 11 12
-2.8440001 3.45 -1.011 73 39 12
-2.8740001 3.4549999 -1.0190001 49 7 0
-2.8929999 3.48 -0.99299997 69 25 0
-2.8940001 3.4809999 -0.991 139 87 47
-2.8940001 3.4790001 -0.98900002 185 127 77
-2.8829999 3.4909999 -0.977 104 47 20
-2.8889999 3.4890001 -0.95300001 198 120 58
-2.8800001 3.4760001 -0.95200002 86 54 39
-2.848 3.484 -1.048 17 4 0
-2.9219999 3.4779999 -0.958 70 25 6
-2.9300001 3.4760001 -0.94999999 58 8 0
-2.947 3.461 -0.91500002 214 144 75
-2.947 3.457 -0.92000002 101 54 26
-2.9059999 3.494 -0.97100002 79 47 26
-2.9030001 3.493 -0.97500002 107 74 55
-2.836 3.418 -0.99699998 81 32 2
-2.858 3.415 -0.99199998 146 124 113
-2.8340001 3.428 -1.005 95 40 9
-2.8629999 3.414 -0.98699999 48 26 13
-2.8670001 3.4100001 -0.98299998 47 31 16
-2.8670001 3.4189999 -0.99000001 114 84 50
-2.8710001 3.4119999 -0.98000002 85 31 3
-2.8789999 3.418 -0.97100002 254 202 142
-2.921 3.4289999 -0.91100001 107 83 55
-2.9159999 3.427 -0.90899998 84 56 32
-2.9289999 3.431 -0.90700001 217 171 122
-2.928 3.428 -0.92199999 165 140 118
-2.8789999 3.4159999 -0.96600002 157 109 61
-2.8840001 3.418 -0.96499997 216 161 104
-2.8840001 3.4159999 -0.96100003 151 94 39
-2.9159999 3.431 -0.90399998 152 118 91
-2.9349999 3.4319999 -0.91100001 156 91 7
-2.9319999 3.427 -0.89399999 177 102 34
-2.8729999 3.414 -0.95999998 205 127 63
-2.868 3.4130001 -0.958 208 141 86
-2.8210001 3.414 -1.015 47 28 24
-2.858 3.4119999 -0.96799999 130 70 20
-2.8050001 3.4170001 -0.98000002 73 16 0
-2.9460001 3.4530001 -0.88800001 115 78 60
-2.944 3.467 -0.89700001 7 3 0
-2.9430001 3.464 -0.90899998 145 123 110
-2.73 3.3629999 -0.96799999 186 101 37
-2.7349999 3.3629999 -0.96799999 112 108 107
-2.7249999 3.3929999 -1.012 86 43 9
-2.7179999 3.375 -1.021 89 36 2
-2.7309999 3.402 -1.017 67 28 0
-2.743 3.368 -0.98500001 222 150 92
-2.7349999 3.5090001 -1.011 78 55 39
-2.7290001 3.5480001 -0.98799998 52 28 42
-2.73 3.556 -0.98799998 73 31 6
-2.786 3.4820001 -1.01 82 24 2
-2.7850001 3.47 -1.015 113 69 40
-2.7679999 3.552 -0.94 144 91 39
-2.7750001 3.5480001 -0.94 171 104 61
-2.773 3.5439999 -0.935 159 112 70
-2.7260001 3.562 -0.949 126 96 68
-2.7579999 3.5650001 -0.94999999 246 178 81
-2.7290001 3.5699999 -0.94499999 158 84 35
-2.7160001 3.401 -0.99599999 49 22 13
-2.7290001 3.4100001 -0.98799998 160 94 44
-2.71 3.395 -0.98400003 120 57 14
-2.7079999 3.3940001 -1.007 133 88 59
-2.7130001 3.398 -0.99599999 53 26 17
-2.7679999 3.5539999 -0.98199999 75 41 13
-2.7709999 3.5610001 -0.972 69 50 8
-2.7679999 3.5680001 -0.99000001 70 34 12
-2.845 3.4349999 -0.94700003 226 190 164
-2.8510001 3.4330001 -0.94199997 223 187 155
-2.7550001 3.5910001 -0.96600002 127 68 36
-2.7639999 3.569 -0.98400003 110 88 51
-2.836 3.464 -1.052 97 54 37
-2.8269999 3.464 -1.058 32 5 0
-2.8340001 3.451 -1.059 51 14 0
-2.8239999 3.47 -1.081 55 39 39
-2.8239999 3.4749999 -1.081 135 121 118
-2.8110001 3.448 -1.067 55 19 5
-2.812 3.4519999 -1.069 51 14 6
-2.819 3.4419999 -1.063 87 72 69
-2.8299999 3.467 -1.0089999 102 91 85
-2.868 3.5050001 -1.0039999 4 0 0
-2.8770001 3.497 -0.986 83 25 1
-2.8670001 3.4749999 -1.012 46 14 1
-2.8900001 3.473 -1.0039999 28 0 0
-2.8759999 3.473 -1.005 37 7 0
-2.7620001 3.382 -0.96899998 71 30 2
-2.7709999 3.3929999 -0.97600001 88 48 12
-2.8139999 3.431 -0.958 119 63 28
-2.813 3.437 -0.96100003 91 58 27
-2.789 3.4170001 -1.0779999 52 4 0
-2.8039999 3.4130001 -1.067 19 5 5
-2.7850001 3.3989999 -1.064 159 131 110
-2.7920001 3.4300001 -1.094 45 26 22
-2.786 3.4360001 -1.09 54 33 30
-2.7920001 3.431 -1.089 46 25 22
-2.7920001 3.427 -1.082 38 17 16
-2.77 3.4260001 -1.082 70 46 42
-2.763 3.4319999 -1.082 158 101 56
-2.8039999 3.4130001 -1.057 43 14 0
-2.7950001 3.4089999 -1.059 198 144 98
-2.793 3.4059999 -1.051 95 52 36
-2.7850001 3.4000001 -1.059 86 55 37
-2.7290001 3.382 -1.0829999 99 79 80
-2.743 3.3940001 -1.08 113 97 97
-2.7479999 3.395 -1.08 127 115 115
-2.7539999 3.4089999 -1.0880001 151 108 74
-2.78 3.46 -1.011 166 113 69
-2.7850001 3.4560001 -1.0089999 118 60 20
-2.914 3.4890001 -0.96899998 34 1 0
-2.911 3.497 -0.96700001 55 13 0
-2.9330001 3.484 -0.94 75 44 24
-2.934 3.4779999 -0.93300003 175 95 34
-2.9300001 3.49 -0.954 91 82 85
-2.9200001 3.4619999 -0.88599998 152 133 126
-2.9159999 3.47 -0.89200002 168 153 150
-2.921 3.4649999 -0.88499999 163 99 63
-2.915 3.477 -0.89499998 64 36 15
-2.921 3.471 -0.89399999 120 88 75
-2.9400001 3.4630001 -0.88700002 13 7 7
-2.9159999 3.47 -0.89899999 119 101 97
-2.7309999 3.381 -0.94800001 251 156 72
-2.9419999 3.457 -0.92299998 119 75 48
-2.944 3.4519999 -0.92500001 134 95 64
-2.937 3.4489999 -0.92799997 234 182 143
-2.915 3.467 -0.95200002 49 30 13
-2.9170001 3.4579999 -0.94099998 67 21 0
-2.918 3.4660001 -0.94499999 5 1 2
-2.8329999 3.4860001 -1.0319999 23 2 0
-2.845 3.4879999 -1.038 127 87 61
-2.846 3.494 -1.011 63 30 0
-2.849 3.487 -1.012 2 0 1
-2.72 3.3599999 -0.97899997 175 86 18
-2.723 3.404 -1.012 152 130 117
-2.7190001 3.401 -0.96600002 92 34 0
-2.733 3.4119999 -0.96799999 199 153 103
-2.7060001 3.391 -0.97799999 81 22 0
-2.7309999 3.54 -0.95499998 48 25 41
-2.7279999 3.54 -0.949 81 36 13
-2.7360001 3.4879999 -1.0190001 73 56 48
-2.7509999 3.483 -1.0089999 31 9 0
-2.7739999 3.4200001 -0.97299999 58 9 0
-2.7739999 3.424 -0.972 28 3 0
-2.7650001 3.411 -0.95499998 188 103 22
-2.7839999 3.4230001 -0.96899998 37 8 0
-2.7490001 3.3940001 -0.95300001 158 79 0
-2.7409999 3.3970001 -0.94999999 150 125 103
-2.7320001 3.368 -1.001 79 53 30
-2.7130001 3.3729999 -1.006 143 80 27
-2.7390001 3.3929999 -1.076 135 81 43
-2.7449999 3.402 -1.076 17 0 0
-2.7379999 3.401 -1.022 80 41 8
-2.7420001 3.3989999 -1.0190001 94 54 44
-2.734 3.385 -1.0140001 56 22 0
-2.743 3.4030001 -1.025 86 46 10
-2.723 3.388 -1.09 51 31 30
-2.7590001 3.4630001 -1.0779999 66 23 7
-2.763 3.473 -1.082 51 27 27
-2.7449999 3.4170001 -1.082 176 110 52
-2.75 3.4119999 -1.079 47 28 22
-2.75 3.4230001 -1.074 122 51 0
-2.7639999 3.461 -1.036 81 44 38
-2.7620001 3.441 -1.0470001 122 95 74
-2.763 3.4560001 -1.033 59 32 11
-2.767 3.4530001 -1.051 64 32 11
-2.7539999 3.5550001 -0.98699999 61 35 18
-2.7520001 3.5439999 -0.991 172 109 65
-2.744 3.556 -0.99199998 47 18 0
-2.7509999 3.559 -0.98799998 55 28 9
-2.7539999 3.573 -0.99299997 103 72 7
-2.756 3.5780001 -1 87 29 5
-2.7379999 3.5239999 -1.029 57 30 11
-2.7850001 3.5090001 -1.056 60 32 21
-2.779 3.516 -1.0319999 27 0 0
-2.773 3.523 -1.0470001 34 5 0
-2.7950001 3.4949999 -1.0650001 28 0 0
-2.79 3.506 -1.0549999 22 7 4
-2.7939999 3.4949999 -1.069 24 0 0
-2.812 3.497 -1.056 39 16 10
-2.7950001 3.4949999 -1.063 38 1 0
-2.846 3.4820001 -1.052 21 2 0
-2.852 3.457 -1.045 172 133 64
-2.842 3.45 -1.038 33 0 0
-2.8570001 3.4660001 -1.038 94 62 47
-2.8380001 3.4430001 -1.061 97 68 54
-2.8800001 3.4560001 -0.98000002 9 8 6
-2.8870001 3.467 -0.98199999 36 7 0
-2.8789999 3.4579999 -0.98000002 173 114 72
-2.888 3.4649999 -0.96600002 66 39 20
-2.904 3.4860001 -0.98100001 49 25 13
-2.9000001 3.4820001 -0.977 66 24 10
-2.892 3.474 -0.98299998 141 92 51
-2.8929999 3.4960001 -0.99400002 13 7 7
-2.892 3.497 -0.99000001 15 9 11
-2.891 3.493 -0.99400002 4 3 1
-2.8770001 3.49 -0.97899997 126 67 37
-2.881 3.484 -0.96700001 23 19 18
-2.8800001 3.4809999 -0.963 200 158 98
-2.852 3.4590001 -0.963 124 82 70
-2.852 3.4619999 -0.97100002 74 39 9
-2.8570001 3.4690001 -0.97600001 157 108 68
-2.8369999 3.4890001 -1.045 114 77 51
-2.904 3.4289999 -0.95700002 156 99 46
-2.9430001 3.4619999 -0.91500002 120 69 48
-2.9400001 3.4349999 -0.92000002 47 26 0
-2.934 3.437 -0.926 62 49 33
-2.9100001 3.4879999 -0.97399998 38 11 0
-2.908 3.506 -0.95999998 11 7 4
-2.885 3.483 -0.95499998 80 39 9
-2.8929999 3.4809999 -0.949 108 65 33
-2.825 3.4219999 -1.005 75 35 10
-2.8729999 3.4170001 -0.97899997 49 30 13
-2.8840001 3.4289999 -0.97899997 113 48 18
-2.8599999 3.4130001 -0.97600001 115 57 19
-2.8469999 3.4159999 -0.96499997 113 86 67
-2.928 3.4319999 -0.91100001 185 119 58
-2.908 3.4519999 -0.89600003 143 91 18
-2.9319999 3.4319999 -0.90600002 242 172 76
-2.927 3.4289999 -0.89399999 255 218 123
-2.8740001 3.415 -0.95999998 165 89 14
-2.822 3.415 -1.012 120 84 60
-2.846 3.4130001 -0.98400003 109 51 13
-2.8410001 3.421 -0.995 92 31 0
-2.8110001 3.4100001 -0.99900001 75 30 7
-2.816 3.4130001 -0.99800003 130 91 50
-2.8039999 3.4100001 -1.0140001 40 8 0
-2.802 3.4100001 -1.0089999 156 105 84
-2.7920001 3.402 -1.0190001 101 67 58
-2.796 3.4089999 -0.99800003 124 72 35
-2.8099999 3.4130001 -0.99199998 88 32 0
-2.7980001 3.4119999 -0.995 92 48 21
-2.7950001 3.4119999 -0.99299997 104 62 22
-2.779 3.3940001 -0.99400002 183 123 63
-2.7720001 3.441 -0.99800003 32 17 10
-2.7950001 3.4400001 -1.003 3 2 0
-2.79 3.431 -1 122 102 95
-2.7880001 3.45 -1.005 52 25 14
-2.9400001 3.46 -0.88700002 3 0 0
-2.9300001 3.4630001 -0.88200003 169 116 64
-2.937 3.45 -0.88300002 160 133 88
-2.9260001 3.4489999 -0.884 207 168 109
-2.951 3.4630001 -0.89899999 7 3 0
-2.9230001 3.467 -0.94099998 177 121 72
-2.9260001 3.4790001 -0.93000001 10 0 0
-2.9200001 3.49 -0.93199998 124 90 55
-2.9089999 3.4849999 -0.93199998 181 132 92
-2.9070001 3.4890001 -0.93800002 132 96 70
-2.9130001 3.493 -0.93900001 124 89 61
-2.924 3.4690001 -0.917 10 0 1
-2.911 3.464 -0.912 88 30 0
-2.911 3.464 -0.91000003 94 32 0
-2.937 3.47 -0.90399998 93 54 37
-2.7179999 3.3710001 -0.963 177 123 77
-2.757 3.378 -0.99699998 89 40 0
-2.756 3.3900001 -0.98000002 124 73 16
-2.747 3.378 -0.98699999 74 41 26
-2.7679999 3.3940001 -0.98500001 88 49 18
-2.7750001 3.3929999 -0.99400002 74 25 0
-2.7479999 3.3789999 -0.96200001 108 29 0
-2.733 3.513 -1.017 75 50 28
-2.7479999 3.536 -0.99900001 58 33 26
-2.74 3.529 -1.02 148 86 47
-2.7509999 3.5309999 -1.024 173 122 93
-2.7969999 3.4549999 -0.995 114 59 18
-2.8 3.4560001 -0.99900001 85 32 0
-2.7709999 3.447 -0.99900001 130 117 109
-2.7449999 3.5639999 -0.94400001 166 95 49
-2.733 3.5739999 -0.94700003 166 88 40
-2.7379999 3.579 -0.95599997 172 83 1
-2.753 3.575 -0.954 148 95 63
-2.7249999 3.5669999 -0.95499998 90 48 24
-2.7160001 3.3989999 -0.99299997 51 31 24
-2.7119999 3.3959999 -0.99900001 134 65 23
-2.7019999 3.388 -0.99699998 116 77 48
-2.6949999 3.381 -0.99199998 67 46 43
-2.707 3.388 -0.99000001 130 87 53
-2.7149999 3.395 -0.96700001 226 171 115
-2.711 3.392 -0.97799999 146 120 97
-2.7409999 3.375 -0.95700002 94 49 18
-2.7590001 3.464 -1.03 107 103 91
-2.7579999 3.4519999 -1.026 130 73 28
-2.8 3.473 -1.023 107 59 36
-2.809 3.4820001 -1.03 94 37 8
-2.803 3.5039999 -1.0089999 63 30 0
-2.8099999 3.4960001 -1.006 135 93 79
-2.8039999 3.507 -1.016 100 66 54
-2.802 3.5039999 -1.01 112 75 56
-2.8080001 3.493 -1.006 57 14 0
-2.8039999 3.494 -1.0039999 85 43 27
-2.8399999 3.487 -0.99599999 33 13 6
-2.8210001 3.451 -0.963 163 104 64
-2.822 3.4400001 -0.958 105 90 83
-2.816 3.441 -0.95999998 136 98 62
-2.822 3.4460001 -0.96100003 169 117 60
-2.8570001 3.4230001 -0.949 54 17 0
-2.855 3.424 -0.95099998 113 55 15
-2.823 3.46 -1.0650001 125 80 59
-2.823 3.47 -1.0779999 34 1 0
-2.819 3.473 -1.081 116 102 101
-2.819 3.4679999 -1.08 51 35 35
-2.8210001 3.4579999 -1.064 41 1 0
-2.8139999 3.4560001 -1.067 74 56 52
-2.8069999 3.4170001 -1.0650001 84 35 2
-2.8150001 3.4219999 -1.0549999 123 87 61
-2.809 3.4200001 -1.064 49 9 0
-2.806 3.414 -1.058 51 19 4
-2.832 3.441 -1.058 118 76 52
-2.8329999 3.4460001 -1.059 67 25 9
-2.813 3.47 -1.03 41 22 7
-2.822 3.427 -1.022 86 26 0
-2.8169999 3.4260001 -1.021 18 0 0
-2.835 3.438 -1.021 77 45 20
-2.7969999 3.4560001 -1.008 129 105 93
-2.8699999 3.5020001 -0.99699998 45 8 0
-2.8640001 3.4779999 -1.013 51 23 19
-2.8740001 3.473 -1.006 75 39 25
-2.881 3.4749999 -1.001 17 0 0
-2.8859999 3.4760001 -0.99699998 50 16 4
-2.7639999 3.3970001 -0.96499997 75 61 50
-2.7609999 3.428 -0.97500002 138 120 108
-2.757 3.418 -0.98100001 37 9 0
-2.766 3.424 -0.98900002 103 57 33
-2.7650001 3.4219999 -0.98699999 45 18 9
-2.7920001 3.4189999 -1.0779999 68 21 1
-2.7720001 3.434 -1.075 99 45 7
-2.7520001 3.4319999 -1.03 104 60 23
-2.7869999 3.418 -1.08 53 29 29
-2.73 3.3859999 -1.085 181 129 72
-2.796 3.4349999 -1.0779999 32 1 0
-2.7639999 3.3900001 -1.024 124 90 62
-2.734 3.391 -1.084 191 134 81
-2.779 3.467 -1.0140001 72 30 8
-2.7679999 3.457 -1.006 97 28 0
-2.806 3.4849999 -1.028 62 30 5
-2.806 3.5 -1.036 112 68 41
-2.826 3.4920001 -1.034 86 45 23
-2.9300001 3.5079999 -0.95099998 12 3 4
-2.928 3.5 -0.94499999 94 85 86
-2.928 3.4920001 -0.93900001 250 177 124
-2.921 3.494 -0.95999998 103 53 28
-2.918 3.49 -0.963 46 4 0
-2.921 3.4960001 -0.95700002 138 84 58
-2.9130001 3.5020001 -0.95300001 105 75 41
-2.924 3.487 -0.95700002 94 38 15
-2.8959999 3.484 -0.94800001 146 99 57
-2.8940001 3.4790001 -0.94599998 128 77 32
-2.921 3.4319999 -0.92799997 188 123 41
-2.849 3.46 -1.034 42 12 2
-2.8410001 3.4400001 -1.03 116 78 55
-2.8859999 3.424 -0.95599997 144 116 104
-2.891 3.474 -0.98900002 52 9 0
-2.8829999 3.474 -0.99599999 29 0 0
-2.8629999 3.4790001 -0.98299998 93 37 2
-2.8529999 3.4849999 -0.98699999 40 17 3
-2.8659999 3.4849999 -0.98400003 60 17 1
-2.8710001 3.483 -0.97899997 91 29 4
-2.848 3.4990001 -1.002 135 98 72
-2.848 3.4820001 -1.031 68 41 32
-2.8469999 3.4849999 -1.013 1 0 0
-2.721 3.3670001 -0.96899998 139 83 36
-2.7260001 3.4030001 -1.0140001 61 30 9
-2.763 3.4719999 -1.0089999 21 7 4
-2.756 3.4630001 -1.017 41 22 15
-2.7590001 3.438 -0.99900001 118 59 15
-2.7520001 3.4100001 -0.95200002 126 72 36
-2.7590001 3.4059999 -0.95700002 186 106 33
-2.74 3.4030001 -0.95499998 165 102 59
-2.734 3.402 -0.95099998 142 70 11
-2.7449999 3.408 -0.95999998 63 32 14
-2.7279999 3.405 -0.98299998 93 65 41
-2.7309999 3.402 -0.95899999 142 100 50
-2.744 3.4979999 -1.01 21 19 7
-2.7460001 3.484 -1.026 25 15 13
-2.767 3.405 -0.96100003 105 38 0
-2.7720001 3.4119999 -0.97399998 253 176 104
-2.7479999 3.381 -1.0039999 124 70 26
-2.7490001 3.3840001 -1.01 148 96 49
-2.7130001 3.378 -1.013 85 35 0
-2.717 3.372 -1.0089999 104 41 0
-2.7249999 3.3710001 -1.005 151 95 46
-2.7349999 3.395 -1.077 168 116 77
-2.7390001 3.3989999 -1.082 46 27 23
-2.733 3.3870001 -1.077 201 145 108
-2.7249999 3.5699999 -0.97000003 160 141 135
-2.786 3.448 -1.072 30 5 1
-2.7939999 3.4530001 -1.076 20 0 0
-2.7920001 3.4549999 -1.074 18 0 0
-2.7639999 3.4489999 -1.072 51 13 0
-2.7590001 3.4389999 -1.08 58 37 34
-2.7550001 3.4619999 -1.063 129 98 80
-2.756 3.4289999 -1.074 145 78 23
-2.7739999 3.4690001 -1.079 39 10 4
-2.7550001 3.4189999 -1.081 77 57 50
-2.75 3.4230001 -1.082 175 109 57
-2.744 3.4100001 -1.09 66 42 38
-2.757 3.5469999 -0.986 50 26 14
-2.757 3.5810001 -0.99599999 155 109 75
-2.756 3.5350001 -1.025 132 82 45
-2.7520001 3.52 -1.033 22 2 3
-2.7460001 3.513 -1.034 78 40 21
-2.773 3.52 -1.0470001 96 67 53
-2.773 3.52 -1.049 69 42 23
-2.743 3.5710001 -0.95899999 103 71 30
-2.7449999 3.5699999 -0.95700002 181 118 64
-2.73 3.5580001 -0.96600002 191 115 66
-2.74 3.5510001 -0.97500002 134 93 65
-2.865 3.4690001 -1.043 126 109 102
-2.8570001 3.471 -1.044 26 3 0
-2.8659999 3.4749999 -1.034 131 93 90
-2.865 3.4779999 -1.039 35 5 0
-2.9000001 3.4579999 -0.94800001 144 118 105
-2.9030001 3.454 -0.93800002 60 11 0
-2.9189999 3.4400001 -0.93800002 124 66 18
-2.8989999 3.4360001 -0.95599997 159 109 72
-2.892 3.49 -0.99400002 3 3 1
-2.891 3.4949999 -0.98199999 6 0 2
-2.865 3.471 -0.97100002 87 57 31
-2.8570001 3.4779999 -1.044 156 117 74
-2.8369999 3.4909999 -1.041 106 52 14
-2.822 3.4960001 -1.043 49 12 3
-2.822 3.4979999 -1.048 63 39 27
-2.918 3.4719999 -0.95200002 150 123 93
-2.914 3.4820001 -0.96499997 83 29 5
-2.908 3.4690001 -0.95499998 61 27 15
-2.905 3.4990001 -0.949 183 110 57
-2.902 3.4960001 -0.95499998 6 2 0
-2.8399999 3.441 -1.027 100 59 39
-2.8399999 3.4400001 -1.0190001 77 42 20
-2.8759999 3.425 -0.98299998 121 46 4
-2.8859999 3.4319999 -0.977 146 109 91
-2.878 3.4349999 -0.98500001 15 5 4
-2.8859999 3.434 -0.97000003 151 124 97
-2.892 3.434 -0.96399999 176 133 99
-2.888 3.431 -0.97000003 166 130 114
-2.819 3.438 -0.95899999 162 96 46
-2.8280001 3.4330001 -0.958 180 106 43
-2.927 3.431 -0.90700001 237 148 66
-2.9349999 3.434 -0.90600002 245 190 74
-2.865 3.4089999 -0.95599997 84 43 13
-2.8239999 3.414 -0.99400002 109 49 12
-2.872 3.4289999 -0.98900002 12 2 3
-2.8699999 3.448 -0.991 249 184 130
-2.8659999 3.4319999 -0.991 13 1 1
-2.8659999 3.4089999 -0.96499997 59 38 11
-2.836 3.424 -0.972 54 19 0
-2.777 3.4030001 -1.007 76 37 8
-2.7850001 3.408 -1.0089999 40 1 0
-2.776 3.401 -1.001 141 110 92
-2.802 3.4219999 -0.97299999 40 7 0
-2.8 3.4200001 -0.97899997 196 145 98
-2.8010001 3.411 -1.001 99 58 14
-2.7980001 3.415 -0.98699999 34 13 12
-2.779 3.405 -0.98900002 92 40 0
-2.7820001 3.411 -0.98799998 174 135 106
-2.7880001 3.4089999 -0.99599999 104 67 38
-2.7839999 3.427 -0.97500002 104 48 15
-2.796 3.4389999 -0.986 115 88 71
-2.7750001 3.4330001 -0.99199998 94 80 77
-2.7690001 3.4319999 -0.99699998 105 60 37
-2.9300001 3.4649999 -0.88999999 163 91 41
-2.941 3.448 -0.88300002 153 75 27
-2.9489999 3.444 -0.91000003 141 85 11
-2.9189999 3.464 -0.94199997 7 1 1
-2.915 3.4849999 -0.93000001 194 148 99
-2.9219999 3.47 -0.92199999 143 95 55
-2.928 3.4690001 -0.90700001 185 146 131
-2.7420001 3.368 -0.96799999 118 60 14
-2.73 3.362 -0.991 122 68 22
-2.7739999 3.388 -0.99599999 114 62 41
-2.7739999 3.3859999 -1.008 71 36 8
-2.734 3.556 -0.94700003 65 25 0
-2.7360001 3.5239999 -0.98699999 15 0 14
-2.7390001 3.513 -0.972 75 38 9
-2.7379999 3.5079999 -0.97299999 71 34 5
-2.7390001 3.517 -0.98100001 56 29 18
-2.744 3.5109999 -0.995 123 110 119
-2.7520001 3.497 -0.99000001 77 21 0
-2.7449999 3.5320001 -0.99400002 57 28 20
-2.743 3.533 -0.99199998 99 70 56
-2.743 3.53 -0.991 79 46 31
-2.743 3.5220001 -1.016 58 47 51
-2.7390001 3.5280001 -1.025 150 105 74
-2.7939999 3.4820001 -1.013 80 32 9
-2.796 3.4879999 -1.013 111 85 70
-2.793 3.5420001 -0.95200002 31 3 0
-2.7880001 3.533 -0.95099998 119 42 0
-2.7909999 3.5409999 -0.96100003 147 94 50
-2.783 3.5369999 -0.95700002 189 115 66
-2.724 3.553 -0.97399998 173 129 92
-2.7409999 3.562 -0.94499999 234 130 41
-2.7479999 3.569 -0.94300002 175 112 59
-2.7320001 3.576 -0.954 162 79 27
-2.721 3.402 -1 165 131 104
-2.704 3.385 -0.99000001 118 81 55
-2.7290001 3.369 -0.96399999 118 49 0
-2.756 3.467 -1.063 103 67 51
-2.7639999 3.444 -1.0549999 119 96 80
-2.7639999 3.457 -1.061 191 164 157
-2.8299999 3.4549999 -0.96700001 162 126 110
-2.8280001 3.4690001 -0.98299998 64 41 27
-2.8169999 3.4690001 -0.977 64 22 0
-2.8169999 3.4660001 -0.98500001 51 10 0
-2.8440001 3.484 -0.99400002 146 94 55
-2.7969999 3.4330001 -0.98100001 78 50 29
-2.7980001 3.4449999 -0.986 16 1 0
-2.7320001 3.55 -0.96200001 255 214 119
-2.743 3.543 -0.963 218 137 92
-2.7550001 3.5599999 -0.95599997 237 183 111
-2.73 3.5550001 -0.96399999 231 196 158
-2.8210001 3.467 -1.0779999 31 0 0
-2.7880001 3.494 -1.0650001 100 58 36
-2.78 3.4860001 -1.071 129 97 74
-2.8080001 3.4300001 -1.073 68 27 7
-2.802 3.4219999 -1.072 70 34 12
-2.8039999 3.421 -1.069 28 0 0
-2.803 3.4430001 -1.072 108 93 88
-2.806 3.418 -1.066 125 81 54
-2.819 3.467 -1.027 2 1 0
-2.829 3.4360001 -1.02 48 21 2
-2.7980001 3.4089999 -1.048 31 6 0
-2.8050001 3.414 -1.057 112 57 18
-2.8069999 3.4159999 -1.057 70 44 27
-2.8010001 3.421 -1.049 48 0 0
-2.8110001 3.421 -1.059 126 75 48
-2.809 3.4219999 -1.063 46 8 0
-2.8710001 3.4579999 -0.99800003 65 26 9
-2.8699999 3.4579999 -1.017 35 1 0
-2.8729999 3.4560001 -1.005 115 54 9
-2.858 3.4430001 -0.99699998 10 1 4
-2.7550001 3.382 -0.96399999 75 38 12
-2.737 3.4100001 -0.97399998 80 30 3
-2.747 3.414 -0.96700001 165 119 85
-2.7509999 3.4159999 -0.97500002 111 78 47
-2.7509999 3.418 -0.96399999 44 29 22
-2.757 3.4189999 -0.97000003 140 111 93
-2.7809999 3.405 -1.0700001 143 121 107
-2.7869999 3.414 -1.071 107 66 38
-2.8010001 3.418 -1.069 50 15 0
-2.7939999 3.421 -1.0779999 97 53 28
-2.777 3.411 -1.031 64 27 1
-2.7850001 3.404 -1.017 39 12 3
-2.7679999 3.398 -1.0319999 67 20 0
-2.7679999 3.398 -1.021 131 85 35
-2.7750001 3.4000001 -1.01 116 88 74
-2.7679999 3.4159999 -1.0829999 147 135 137
-2.806 3.4519999 -1.073 24 0 0
-2.744 3.4100001 -1.084 70 49 44
-2.773 3.46 -1.01 39 24 21
-2.9289999 3.4960001 -0.94400001 131 96 64
-2.928 3.494 -0.94099998 113 104 105
-2.9230001 3.497 -0.94199997 149 84 44
-2.921 3.493 -0.93699998 255 217 172
-2.9300001 3.4890001 -0.94099998 86 51 23
-2.9170001 3.4619999 -0.89200002 163 144 138
-2.7279999 3.381 -0.949 112 56 7
-2.8929999 3.477 -0.935 178 122 71
-2.924 3.4330001 -0.92799997 182 133 66
-2.8889999 3.4260001 -0.963 168 124 87
-2.881 3.448 -0.97600001 6 5 1
-2.881 3.451 -0.96799999 114 58 11
-2.845 3.4579999 -1.043 214 168 91
-2.8410001 3.4679999 -1.045 67 31 9
-2.8399999 3.4649999 -1.046 42 2 0
-2.882 3.448 -0.95599997 182 135 115
-2.8829999 3.434 -0.95700002 208 159 101
-2.8789999 3.4460001 -0.954 226 194 155
-2.8540001 3.4909999 -0.98699999 158 125 84
-2.8640001 3.5020001 -0.995 3 0 0
-2.74 3.3670001 -0.98000002 224 133 63
-2.7290001 3.3929999 -1.013 101 56 17
-2.7720001 3.471 -1.0089999 74 38 14
-2.7550001 3.497 -0.98699999 128 107 90
-2.76 3.4200001 -0.963 122 79 60
-2.7590001 3.4890001 -0.995 53 26 9
-2.7550001 3.4230001 -1.003 35 21 18
-2.7490001 3.408 -0.95200002 130 75 36
-2.7449999 3.4059999 -0.95700002 124 75 42
-2.7190001 3.3989999 -0.99000001 37 12 5
-2.7349999 3.402 -0.95700002 38 19 5
-2.7349999 3.536 -0.96399999 38 11 2
-2.7479999 3.493 -1.012 142 116 99
-2.74 3.49 -1.026 104 94 92
-2.7509999 3.4849999 -1.0369999 170 103 58
-2.7539999 3.48 -1.035 34 24 25
-2.763 3.4749999 -1.036 41 13 0
-2.767 3.477 -1.049 101 47 11
-2.756 3.484 -1.038 102 93 96
-2.7579999 3.4319999 -1.01 20 8 8
-2.7550001 3.4289999 -1.011 22 11 9
-2.7590001 3.4330001 -1.0089999 68 44 42
-2.7320001 3.401 -0.94700003 138 65 12
-2.733 3.3989999 -0.94400001 205 130 73
-2.7620001 3.3889999 -1.018 90 49 27
-2.7379999 3.388 -1.012 152 92 56
-2.743 3.3800001 -1.007 25 6 0
-2.7049999 3.378 -0.97899997 102 69 36
-2.721 3.3959999 -0.98400003 120 65 24
-2.72 3.3740001 -1.018 91 44 14
-2.724 3.3740001 -1.007 123 59 15
-2.721 3.3870001 -1.01 161 112 79
-2.7349999 3.391 -1.077 160 105 66
-2.796 3.4449999 -1.077 30 6 2
-2.7839999 3.4820001 -1.072 29 5 0
-2.7650001 3.4330001 -1.051 129 103 88
-2.7609999 3.434 -1.0420001 77 50 33
-2.7639999 3.4289999 -1.045 124 97 80
-2.7579999 3.438 -1.03 77 66 64
-2.7490001 3.4030001 -1.076 255 183 104
-2.7490001 3.4159999 -1.086 85 65 58
-2.766 3.5369999 -0.99199998 68 35 20
-2.7650001 3.54 -0.98500001 49 27 14
-2.76 3.5350001 -0.99900001 72 35 16
-2.7709999 3.533 -1.003 41 22 8
-2.7479999 3.5220001 -1.0319999 53 34 27
-2.74 3.5250001 -1.029 49 28 23
-2.75 3.526 -1.016 41 8 1
-2.744 3.5120001 -1.03 76 30 15
-2.7539999 3.5090001 -1.041 37 2 0
-2.8180001 3.4949999 -1.054 46 19 10
-2.8210001 3.4990001 -1.052 36 8 4
-2.822 3.4979999 -1.051 62 35 26
-2.812 3.497 -1.053 46 17 13
-2.8150001 3.4979999 -1.048 35 1 0
-2.829 3.471 -1.058 35 12 4
-2.8069999 3.4960001 -1.051 41 2 0
-2.8199999 3.4790001 -1.069 13 4 5
-2.8199999 3.4849999 -1.056 94 81 72
-2.77 3.5209999 -1.02 48 16 5
-2.779 3.5280001 -1.0039999 55 32 18
-2.7709999 3.5179999 -1.03 248 212 178
-2.776 3.533 -0.99299997 102 71 53
-2.7709999 3.5179999 -1.0420001 100 69 48
-2.7609999 3.497 -1.049 133 79 45
-2.7750001 3.5079999 -1.038 78 56 42
-2.763 3.5680001 -0.97799999 84 61 20
-2.7690001 3.566 -0.97100002 152 98 70
-2.7679999 3.5669999 -0.98199999 77 40 13
-2.767 3.5569999 -0.96100003 253 211 153
-2.747 3.566 -0.97500002 103 49 23
-2.756 3.552 -0.97100002 195 102 43
-2.74 3.569 -0.95599997 161 90 48
-2.7409999 3.5569999 -0.94800001 149 106 74
-2.8499999 3.47 -1.043 98 71 64
-2.8570001 3.4809999 -1.027 65 60 66
-2.869 3.4579999 -1.0190001 35 8 1
-2.868 3.4660001 -1.022 67 39 27
-2.898 3.4719999 -0.96600002 105 56 15
-2.9089999 3.46 -0.94099998 121 92 62
-2.892 3.4920001 -0.99400002 1 0 0
-2.878 3.4779999 -1 17 3 2
-2.869 3.4749999 -0.972 4 0 1
-2.868 3.474 -0.97299999 5 1 2
-2.868 3.5 -0.99400002 85 45 33
-2.875 3.4790001 -0.96200001 102 70 55
-2.8570001 3.4630001 -0.97100002 117 98 84
-2.8299999 3.448 -0.95999998 115 63 41
-2.8280001 3.4400001 -0.958 94 57 48
-2.8540001 3.4760001 -1.045 33 9 0
-2.931 3.464 -0.91299999 65 18 0
-2.9400001 3.46 -0.917 67 14 0
-2.931 3.4579999 -0.926 120 71 31
-2.904 3.4460001 -0.92000002 114 82 59
-2.9059999 3.451 -0.926 178 126 68
-2.9389999 3.434 -0.91399997 109 84 44
-2.914 3.487 -0.96899998 45 15 7
-2.902 3.4960001 -0.94999999 127 108 91
-2.911 3.506 -0.958 6 1 0
-2.8559999 3.45 -1.006 22 14 11
-2.881 3.4230001 -0.97600001 115 64 21
-2.8970001 3.434 -0.96100003 117 71 38
-2.8870001 3.425 -0.97399998 97 52 21
-2.813 3.4590001 -1.017 36 18 14
-2.9200001 3.4360001 -0.91900003 246 223 179
-2.8670001 3.4100001 -0.95999998 241 171 86
-2.8310001 3.471 -1.0190001 66 59 67
-2.8329999 3.4749999 -1.017 25 4 3
-2.8440001 3.414 -0.99000001 105 45 8
-2.852 3.4219999 -0.991 94 29 0
-2.858 3.4219999 -0.991 82 37 6
-2.8629999 3.4219999 -0.99000001 66 40 17
-2.869 3.428 -0.99000001 13 3 4
-2.8280001 3.4260001 -0.96899998 156 125 97
-2.8 3.411 -1.003 58 25 10
-2.8099999 3.425 -0.972 141 91 32
-2.77 3.428 -0.99000001 41 16 12
-2.928 3.471 -0.89600003 90 58 37
-2.931 3.4630001 -0.88499999 133 79 33
-2.9389999 3.4630001 -0.889 16 7 8
-2.9460001 3.4560001 -0.92299998 104 62 37
-2.944 3.4560001 -0.92299998 203 149 75
-2.9059999 3.4679999 -0.91900003 118 83 63
-2.905 3.461 -0.92000002 136 72 10
-2.931 3.4690001 -0.90499997 95 59 37
-2.7490001 3.375 -0.99199998 60 20 12
-2.757 3.3900001 -1.0039999 79 67 29
-2.7349999 3.533 -0.96700001 171 130 134
-2.7420001 3.5220001 -0.98799998 50 19 0
-2.7409999 3.5179999 -1.0140001 92 63 45
-2.796 3.493 -0.99400002 138 116 103
-2.793 3.4909999 -0.98799998 130 71 39
-2.7980001 3.497 -1.017 117 81 55
-2.8010001 3.48 -1.026 21 2 0
-2.7820001 3.527 -0.98000002 173 144 130
-2.7809999 3.5220001 -0.98799998 160 99 36
-2.7809999 3.5309999 -0.98500001 89 63 50
-2.7820001 3.5369999 -0.96899998 72 25 0
-2.7750001 3.5369999 -0.98000002 113 108 102
-2.7809999 3.536 -0.94599998 119 59 22
-2.777 3.5439999 -0.94499999 111 55 22
-2.7880001 3.5409999 -0.95200002 238 203 163
-2.7349999 3.404 -1.015 36 7 0
-2.77 3.4860001 -1.067 47 19 7
-2.786 3.5050001 -1.05 48 4 0
-2.7579999 3.487 -1.0420001 95 80 73
-2.757 3.4719999 -1.061 33 0 0
-2.7620001 3.434 -1.074 156 94 43
-2.8429999 3.4519999 -0.96799999 129 105 71
-2.8440001 3.4590001 -0.97399998 164 130 95
-2.819 3.464 -0.97500002 103 73 71
-2.836 3.474 -0.99800003 133 90 81
-2.8410001 3.4809999 -1.008 121 101 94
-2.8410001 3.483 -1.002 19 1 0
-2.8080001 3.4389999 -0.98100001 126 99 88
-2.809 3.4360001 -0.97600001 169 130 91
-2.7869999 3.4260001 -0.97600001 103 49 23
-2.8310001 3.428 -0.96100003 86 43 11
-2.8299999 3.4349999 -0.95700002 183 122 65
-2.7520001 3.563 -0.98699999 62 32 6
-2.8150001 3.4649999 -1.075 29 5 1
-2.8199999 3.48 -1.0779999 127 85 60
-2.813 3.474 -1.082 48 36 36
-2.8080001 3.4630001 -1.076 13 0 0
-2.809 3.4560001 -1.074 11 0 0
-2.806 3.4549999 -1.074 11 0 0
-2.799 3.4530001 -1.075 17 0 0
-2.816 3.4349999 -1.038 34 7 0
-2.822 3.4360001 -1.049 86 58 34
-2.8180001 3.438 -1.058 18 3 0
-2.8199999 3.4419999 -1.061 23 2 0
-2.8150001 3.434 -1.058 16 1 0
-2.825 3.4489999 -1.0599999 52 25 16
-2.8199999 3.431 -1.025 28 9 11
-2.8069999 3.424 -1.029 42 12 4
-2.816 3.4349999 -1.036 29 4 0
-2.832 3.4430001 -1.027 115 77 56
-2.8069999 3.4219999 -1.028 33 0 0
-2.7980001 3.4200001 -1.041 34 4 0
-2.8039999 3.4070001 -1.028 66 45 26
-2.7920001 3.4100001 -1.049 85 48 30
-2.802 3.405 -1.027 255 220 188
-2.835 3.4349999 -1 104 62 40
-2.8399999 3.4449999 -1.015 123 83 58
-2.7590001 3.4030001 -0.95899999 60 6 0
-2.757 3.3889999 -0.963 61 31 0
-2.733 3.4089999 -0.98199999 156 98 50
-2.7939999 3.4159999 -1.072 64 13 0
-2.7490001 3.4189999 -1.022 80 42 33
-2.757 3.4319999 -1.018 91 54 46
-2.7379999 3.411 -1.025 63 28 6
-2.7479999 3.414 -1.013 38 13 0
-2.7809999 3.402 -1.056 58 21 2
-2.763 3.408 -1.069 238 155 87
-2.7709999 3.415 -1.044 85 54 33
-2.763 3.4189999 -1.0369999 138 98 62
-2.7750001 3.414 -1.058 140 91 74
-2.7709999 3.4260001 -1.053 96 77 71
-2.7780001 3.421 -1.0829999 135 116 110
-2.8110001 3.5 -1.04 82 33 1
-2.796 3.5090001 -1.022 177 113 75
-2.767 3.391 -1.023 83 36 6
-2.7390001 3.3970001 -1.0930001 40 14 13
-2.9260001 3.497 -0.94300002 15 6 7
-2.9100001 3.4990001 -0.94300002 116 57 15
-2.9119999 3.4630001 -0.90600002 90 36 0
-2.9449999 3.4460001 -0.92900002 75 45 19
-2.8970001 3.487 -0.949 178 142 94
-2.902 3.451 -0.917 62 21 0
-2.925 3.438 -0.93300003 162 120 72
-2.9230001 3.444 -0.93000001 149 87 26
-2.878 3.438 -0.98299998 215 142 87
-2.7309999 3.3629999 -0.98799998 138 93 51
-2.707 3.368 -0.98500001 231 195 135
-2.733 3.3929999 -1.0140001 143 96 50
-2.7869999 3.49 -0.98500001 131 126 122
-2.7809999 3.5179999 -1.002 154 80 33
-2.7809999 3.52 -0.98900002 126 101 81
-2.783 3.513 -0.98699999 54 21 6
-2.7590001 3.5020001 -0.97899997 170 124 88
-2.786 3.49 -0.97799999 113 63 26
-2.8110001 3.448 -0.96600002 24 13 7
-2.799 3.4519999 -0.98400003 19 0 0
-2.8110001 3.441 -0.963 116 81 51
-2.7539999 3.493 -0.995 15 0 0
-2.76 3.4909999 -0.99000001 47 18 0
-2.776 3.4960001 -0.98500001 103 39 4
-2.763 3.4779999 -1.007 14 0 0
-2.7490001 3.4100001 -0.95899999 145 96 64
-2.7460001 3.4100001 -0.963 18 0 0
-2.744 3.5139999 -0.97899997 124 86 63
-2.74 3.55 -0.94999999 102 43 9
-2.7509999 3.4849999 -1.0140001 104 55 14
-2.7490001 3.493 -1.011 112 77 49
-2.737 3.4890001 -1.021 84 52 27
-2.727 3.3970001 -0.95300001 46 10 0
-2.7579999 3.398 -1.022 99 50 17
-2.7539999 3.4070001 -1.026 53 21 0
-2.76 3.4059999 -1.029 83 63 54
-2.734 3.378 -1.007 93 67 42
-2.7279999 3.378 -1.008 89 41 5
-2.7360001 3.381 -1.01 101 47 9
-2.73 3.395 -1.08 116 65 34
-2.7309999 3.3859999 -1.077 184 131 91
-2.789 3.47 -1.067 24 5 0
-2.7880001 3.4779999 -1.071 51 21 10
-2.744 3.411 -1.031 95 65 41
-2.7590001 3.4119999 -1.071 222 138 74
-2.757 3.424 -1.031 117 62 32
-2.7520001 3.4130001 -1.0779999 95 85 86
-2.7579999 3.415 -1.072 217 139 73
-2.7690001 3.5280001 -1.007 102 71 43
-2.763 3.516 -1.03 100 80 73
-2.747 3.513 -1.035 76 43 28
-2.8150001 3.4909999 -1.054 78 55 41
-2.816 3.484 -1.056 77 46 28
-2.7809999 3.5139999 -1.031 179 138 106
-2.773 3.533 -0.995 48 11 0
-2.7709999 3.5339999 -0.99299997 31 12 6
-2.777 3.5339999 -0.98900002 182 138 103
-2.777 3.516 -1.0319999 25 6 0
-2.786 3.543 -0.95899999 99 70 54
-2.7679999 3.5469999 -0.94700003 216 149 104
-2.7739999 3.5469999 -0.93900001 149 99 64
-2.862 3.483 -1.034 66 20 5
-2.895 3.4630001 -0.96399999 69 31 18
-2.855 3.47 -0.98000002 206 160 124
-2.8529999 3.4690001 -0.98199999 113 70 36
-2.905 3.4649999 -0.92299998 102 56 20
-2.898 3.4719999 -0.93000001 79 30 0
-2.865 3.4560001 -0.95700002 134 98 72
-2.8659999 3.461 -0.95899999 93 59 32
-2.8610001 3.4519999 -0.95700002 62 30 5
-2.868 3.4579999 -0.95499998 100 63 36
-2.855 3.444 -0.954 56 8 0
-2.842 3.4400001 -0.96200001 123 86 60
-2.9360001 3.4619999 -0.91500002 67 33 8
-2.9230001 3.4660001 -0.93800002 113 71 33
-2.925 3.4679999 -0.93599999 211 134 66
-2.918 3.4419999 -0.90499997 153 86 33
-2.9400001 3.4349999 -0.90799999 202 172 120
-2.9089999 3.5 -0.95099998 4 0 0
-2.8340001 3.441 -1.024 190 136 102
-2.858 3.448 -1.003 13 4 5
-2.881 3.448 -0.97899997 10 6 3
-2.8900001 3.428 -0.96399999 162 110 73
-2.8540001 3.421 -0.958 164 126 81
-2.8599999 3.411 -0.95899999 81 59 20
-2.8329999 3.4219999 -0.98000002 48 39 22
-2.8710001 3.4119999 -0.96200001 138 55 1
-2.8340001 3.4749999 -1.0140001 130 102 80
-2.835 3.4790001 -1.0140001 69 47 26
-2.829 3.4809999 -1.028 124 70 44
-2.858 3.4330001 -0.99599999 65 33 22
-2.8670001 3.424 -0.99000001 52 19 2
-2.875 3.4300001 -0.98500001 90 53 27
-2.7939999 3.4349999 -0.98900002 118 104 95
-2.7980001 3.4389999 -0.995 41 17 5
-2.777 3.425 -0.98299998 153 102 75
-2.7750001 3.4260001 -0.98699999 102 53 36
-2.7980001 3.448 -0.98799998 20 0 0
-2.9319999 3.45 -0.88099998 8 0 0
-2.941 3.464 -0.89300001 123 61 4
-2.7349999 3.536 -0.97000003 101 76 69
-2.7390001 3.5369999 -0.98500001 104 84 77
-2.7390001 3.529 -0.98400003 86 41 10
-2.737 3.516 -1.018 62 37 15
-2.7490001 3.52 -0.995 18 0 0
-2.7980001 3.4949999 -0.98799998 118 109 100
-2.79 3.5039999 -1.026 51 28 20
-2.783 3.507 -1.03 25 7 7
-2.7980001 3.5 -1.026 105 76 60
-2.796 3.5079999 -1.021 133 71 30
-2.7639999 3.5610001 -0.95999998 143 105 82
-2.777 3.527 -0.96700001 84 43 23
-2.7880001 3.507 -0.97500002 122 61 16
-2.767 3.4920001 -1.0599999 111 60 41
-2.7579999 3.4760001 -1.0650001 158 103 72
-2.7579999 3.4679999 -1.069 78 54 44
-2.773 3.487 -1.0650001 136 130 134
-2.773 3.477 -1.069 25 5 0
-2.756 3.4979999 -1.041 151 97 69
-2.756 3.5 -1.04 129 71 33
-2.766 3.473 -1.039 95 39 4
-2.8429999 3.461 -0.97899997 39 14 7
-2.848 3.4660001 -0.98400003 75 42 11
-2.848 3.4820001 -0.986 77 36 18
-2.8369999 3.48 -1.002 133 88 59
-2.7939999 3.4219999 -0.98000002 77 29 19
-2.7920001 3.4849999 -1.072 34 4 0
-2.812 3.464 -1.075 26 8 4
-2.799 3.4579999 -1.073 15 4 2
-2.802 3.454 -1.074 15 0 0
-2.7609999 3.4860001 -1.056 121 116 122
-2.763 3.494 -1.052 134 82 61
-2.806 3.4230001 -1.068 26 2 2
-2.8329999 3.4449999 -1.04 63 32 12
-2.8310001 3.4760001 -1.022 62 40 19
-2.802 3.411 -1.0319999 134 74 24
-2.8399999 3.447 -1.017 120 89 71
-2.7739999 3.4070001 -0.98100001 142 127 122
-2.7750001 3.4119999 -0.98100001 152 103 70
-2.7820001 3.4070001 -0.99699998 95 56 27
-2.763 3.4230001 -0.96899998 142 96 72
-2.763 3.4489999 -1.0140001 112 80 57
-2.7309999 3.404 -1.018 125 68 23
-2.767 3.3989999 -1.026 36 7 3
-2.7850001 3.404 -1.0549999 81 35 19
-2.78 3.404 -1.061 108 68 43
-2.7809999 3.4219999 -1.039 94 62 41
-2.806 3.5 -1.039 99 68 50
-2.806 3.5 -1.041 91 71 60
-2.743 3.4000001 -1.086 180 128 80
-2.9260001 3.4860001 -0.93599999 174 106 45
-2.902 3.49 -0.94099998 77 17 0
-2.9159999 3.4400001 -0.89200002 241 174 122
-2.918 3.4579999 -0.89200002 198 154 109
-2.882 3.47 -0.94499999 169 116 64
-2.8759999 3.4660001 -0.949 115 63 16
-2.8629999 3.45 -0.95300001 45 12 3
-2.8629999 3.427 -0.94700003 241 180 117
-2.8559999 3.4319999 -0.949 129 115 114
-2.8659999 3.437 -0.95300001 100 49 22
-2.868 3.427 -0.94999999 111 70 52
-2.7049999 3.3699999 -0.98500001 121 98 92
-2.7060001 3.3729999 -0.991 124 101 95
-2.7820001 3.494 -0.98299998 149 96 52
-2.7739999 3.5039999 -0.98100001 87 37 4
-2.802 3.4630001 -0.98000002 157 129 117
-2.8080001 3.4530001 -0.98799998 63 18 0
-2.8010001 3.4649999 -0.97299999 53 36 28
-2.816 3.4449999 -0.96399999 88 57 37
-2.812 3.447 -0.96899998 49 34 27
-2.812 3.4449999 -0.977 80 57 41
-2.7460001 3.513 -0.96399999 89 52 26
-2.7579999 3.414 -0.95499998 103 52 21
-2.8150001 3.4649999 -0.97000003 144 83 36
-2.809 3.4630001 -0.972 26 11 4
-2.7479999 3.513 -0.98799998 64 11 0
-2.747 3.51 -0.97399998 114 79 49
-2.757 3.5079999 -0.972 138 99 56
-2.74 3.527 -0.963 39 18 33
-2.743 3.5209999 -0.949 126 80 20
-2.763 3.4170001 -0.96700001 25 0 0
-2.7060001 3.3900001 -1.007 109 72 53
-2.707 3.3829999 -1.001 178 120 83
-2.704 3.381 -0.99599999 141 111 77
-2.7030001 3.3829999 -0.99599999 121 69 32
-2.7019999 3.381 -0.98400003 156 77 11
-2.737 3.382 -1.011 40 16 4
-2.7349999 3.3729999 -1.002 125 69 22
-2.7650001 3.4679999 -1.0779999 42 4 1
-2.7379999 3.4089999 -1.028 73 45 21
-2.7590001 3.4349999 -1.034 72 66 68
-2.766 3.414 -1.075 210 144 84
-2.7639999 3.411 -1.073 146 61 0
-2.7679999 3.4119999 -1.066 193 137 110
-2.76 3.4089999 -1.076 174 122 74
-2.753 3.404 -1.0779999 144 86 36
-2.7579999 3.5280001 -1.008 35 5 0
-2.7539999 3.527 -1.017 60 24 2
-2.7750001 3.5220001 -1.011 45 22 14
-2.7739999 3.533 -0.99400002 144 101 69
-2.7780001 3.5320001 -0.98900002 166 137 121
-2.7780001 3.53 -0.99000001 78 50 38
-2.777 3.5439999 -0.963 79 52 41
-2.7390001 3.5380001 -0.991 116 96 85
-2.9000001 3.4690001 -0.96200001 50 10 0
-2.8710001 3.4749999 -0.963 253 190 137
-2.869 3.47 -0.96399999 69 23 0
-2.872 3.471 -0.96100003 105 41 0
-2.868 3.4660001 -0.96100003 73 43 15
-2.8670001 3.464 -0.95999998 8 4 3
-2.8740001 3.467 -0.95599997 89 55 28
-2.859 3.437 -0.95300001 151 83 38
-2.924 3.4820001 -0.95599997 95 35 7
-2.927 3.471 -0.93699998 201 122 56
-2.927 3.454 -0.92900002 53 5 0
-2.9100001 3.4779999 -0.958 61 14 0
-2.855 3.447 -1.0039999 11 3 1
-2.845 3.4460001 -0.99800003 27 19 8
-2.8110001 3.457 -1.0039999 6 4 5
-2.849 3.4200001 -0.96100003 123 89 54
-2.849 3.424 -0.95899999 44 29 6
-2.836 3.4809999 -1.024 64 44 37
-2.9170001 3.451 -0.89200002 214 122 37
-2.7750001 3.392 -1.003 144 115 99
-2.7420001 3.5190001 -0.98699999 65 42 28
-2.737 3.516 -1.024 52 34 10
-2.7409999 3.5109999 -1.025 43 19 15
-2.7909999 3.506 -0.977 134 72 31
-2.783 3.513 -0.98100001 101 69 46
-2.7980001 3.4949999 -0.98100001 176 105 49
-2.7839999 3.5109999 -1.01 153 97 62
-2.7690001 3.546 -0.972 102 58 23
-2.776 3.5309999 -0.95300001 107 51 18
-2.72 3.395 -0.97899997 131 85 36
-2.7690001 3.4949999 -1.058 114 63 32
-2.8510001 3.451 -0.96499997 108 50 10
-2.8429999 3.4430001 -0.96499997 46 7 0
-2.836 3.4549999 -0.97399998 109 76 41
-2.8369999 3.4790001 -1.01 89 69 45
-2.8380001 3.48 -1.0140001 92 60 35
-2.8369999 3.4779999 -1.0039999 97 50 24
-2.7869999 3.4200001 -0.98000002 185 118 65
-2.7880001 3.428 -0.98100001 40 2 0
-2.8429999 3.427 -0.95899999 252 218 183
-2.7639999 3.4849999 -1.051 118 115 122
-2.8110001 3.431 -1.062 33 15 5
-2.8169999 3.431 -1.0549999 84 54 20
-2.806 3.4300001 -1.049 20 2 0
-2.802 3.428 -1.035 31 18 12
-2.8039999 3.408 -1.017 117 67 32
-2.8069999 3.4119999 -1.02 67 26 6
-2.7820001 3.507 -1.0319999 15 0 0
-2.79 3.5 -1.043 88 45 29
-2.7820001 3.516 -0.986 170 113 58
-2.7750001 3.5179999 -0.96700001 136 82 46
-2.773 3.4119999 -1.063 214 161 127
-2.747 3.408 -1.0140001 77 32 3
-2.7420001 3.4000001 -0.99299997 83 39 12
-2.767 3.3989999 -1.031 88 58 32
-2.7950001 3.5020001 -1.046 102 84 80
-2.7650001 3.408 -1.034 31 10 5
-2.9189999 3.4349999 -0.89999998 230 141 49
-2.9159999 3.4449999 -0.90200001 149 86 33
-2.895 3.4719999 -0.935 96 46 0
-2.9030001 3.4530001 -0.93599999 63 42 25
-2.8770001 3.437 -0.95300001 216 161 96
-2.7060001 3.3770001 -0.99699998 195 162 119
-2.777 3.4920001 -1.0089999 14 2 2
-2.7850001 3.5079999 -0.99199998 111 68 34
-2.78 3.516 -0.995 102 71 66
-2.8039999 3.46 -0.97799999 52 32 23
-2.77 3.493 -1.001 150 104 68
-2.776 3.4979999 -0.99299997 127 113 112
-2.7720001 3.4960001 -1 11 0 0
-2.75 3.4189999 -1.003 95 74 71
-2.7539999 3.415 -0.99800003 139 98 70
-2.747 3.517 -0.94599998 115 63 3
-2.7550001 3.5150001 -0.94300002 196 132 86
-2.7620001 3.5090001 -0.96499997 114 37 0
-2.76 3.4159999 -0.95899999 189 143 117
-2.8080001 3.457 -0.96899998 106 32 0
-2.756 3.552 -0.958 132 62 0
-2.76 3.4219999 -0.96799999 127 85 60
-2.7030001 3.3859999 -0.99400002 87 51 29
-2.7679999 3.4949999 -1.043 122 119 126
-2.77 3.4649999 -1.053 65 26 0
