ply
format ascii 1.0
comment PCL generated
element vertex 1239
property float x
property float y
property float z
property uchar red
property uchar green
property uchar blue
element camera 0
property float view_px
property float view_py
property float view_pz
property float x_axisx
property float x_axisy
property float x_axisz
property float y_axisx
property float y_axisy
property float y_axisz
property float z_axisx
property float z_axisy
property float z_axisz
property float focal
property float scalex
property float scaley
property float centerx
property float centery
property int viewportx
property int viewporty
property float k1
property float k2
end_header
5.0159998 5.4640002 -0.375 136 70 22
5.0120001 5.4660001 -0.38299999 152 80 30
5.0279999 5.4679999 -0.37900001 150 105 74
5.0300002 5.4959998 -0.486 36 18 16
5.027 5.4990001 -0.48899999 49 28 23
5.0289998 5.5019999 -0.47999999 104 63 31
5.0320001 5.4920001 -0.52700001 61 40 37
5.033 5.4970002 -0.53799999 88 61 54
5.027 5.4889998 -0.53799999 29 11 11
5.0310001 5.4920001 -0.528 52 31 26
5.0250001 5.4990001 -0.50400001 19 3 6
5.0120001 5.5019999 -0.58399999 22 10 10
5.0149999 5.5029998 -0.56199998 45 30 25
5.026 5.4959998 -0.57200003 17 0 0
5.0139999 5.5 -0.57499999 66 43 35
5.0209999 5.4959998 -0.56900001 80 56 46
5.0079999 5.4970002 -0.56900001 35 11 1
5.0170002 5.5079999 -0.63200003 23 11 11
5.0159998 5.52 -0.62300003 101 78 64
5.0250001 5.5 -0.62099999 93 64 48
4.947 5.4000001 -0.72399998 46 22 22
4.9390001 5.4089999 -0.72299999 99 76 60
4.941 5.4109998 -0.72000003 71 52 46
4.9419999 5.4089999 -0.71899998 33 18 15
5.0370002 5.4629998 -0.38699999 167 123 88
4.9520001 5.4650002 -0.70200002 61 41 34
4.9549999 5.474 -0.70200002 108 105 112
4.9460001 5.4699998 -0.71200001 69 50 43
4.993 5.4710002 -0.65600002 32 12 3
5.0040002 5.4660001 -0.65700001 65 34 14
4.9959998 5.4689999 -0.64899999 74 76 65
4.9990001 5.473 -0.56999999 100 77 63
4.9980001 5.487 -0.62800002 82 36 13
4.994 5.4949999 -0.63 225 198 187
5.0180001 5.5679998 -0.583 34 22 22
5.0149999 5.5679998 -0.59200001 83 46 17
5.0300002 5.5650001 -0.59799999 39 27 27
5.0469999 5.599 -0.48800001 72 41 21
5.0510001 5.599 -0.49200001 126 78 42
4.9990001 5.605 -0.49200001 121 87 62
5.007 5.6069999 -0.49200001 53 30 22
4.9759998 5.5960002 -0.48800001 178 152 125
5.0339999 5.5149999 -0.361 90 58 43
5.0289998 5.4959998 -0.361 35 10 3
5.0500002 5.526 -0.373 153 116 98
5.0500002 5.5219998 -0.37200001 121 79 63
5.052 5.5250001 -0.37599999 115 77 58
5.006 5.5229998 -0.36399999 38 18 9
5.0139999 5.5240002 -0.36399999 46 19 12
5.0029998 5.4920001 -0.39399999 102 49 15
5.0419998 5.4959998 -0.37 112 77 55
5.0079999 5.493 -0.36000001 230 138 65
5.0100002 5.5009999 -0.36300001 141 93 44
5 5.5 -0.361 217 191 132
5.0450001 5.5320001 -0.37799999 57 31 16
5.027 5.533 -0.36700001 37 15 4
5.0300002 5.5289998 -0.368 186 149 122
4.9829998 5.3899999 -0.74900001 119 96 88
4.9920001 5.3940001 -0.75300002 46 20 7
4.9590001 5.5009999 -0.78600001 11 0 1
4.9510002 5.4980001 -0.78899997 20 10 9
4.9200001 5.4720001 -0.81999999 36 22 21
4.928 5.4710002 -0.81699997 9 3 5
4.9460001 5.4899998 -0.78500003 76 62 62
4.9520001 5.493 -0.792 18 6 8
5.0809999 5.4850001 -0.77700001 116 113 122
5.0970001 5.494 -0.778 55 35 26
5.0830002 5.4819999 -0.76899999 33 19 18
5.0580001 5.5159998 -0.98100001 68 22 6
5.0560002 5.5170002 -0.98900002 57 14 5
5.0999999 5.5 -0.77999997 52 22 11
5.1030002 5.5029998 -0.77499998 28 8 1
5.1069999 5.5050001 -0.77600002 12 6 10
5.0949998 5.5 -0.78299999 73 66 74
4.9349999 5.4720001 -0.815 8 4 5
4.9310002 5.4720001 -0.81800002 95 81 80
4.9349999 5.4749999 -0.81900001 134 103 82
5.0370002 5.5359998 -0.83700001 78 49 35
5.033 5.5370002 -0.82800001 64 46 36
5.0370002 5.5279999 -0.833 18 9 12
5.0830002 5.526 -0.81999999 46 25 20
5.0349998 5.5289998 -0.83099997 71 53 43
5.0549998 5.4330001 -0.847 101 92 93
5.0510001 5.4369998 -0.86400002 11 2 5
5.0539999 5.4330001 -0.85699999 54 32 19
4.9559999 5.5450001 -0.92199999 49 32 25
4.9549999 5.5440001 -0.921 46 21 16
4.9510002 5.526 -0.92000002 57 12 0
4.9510002 5.5209999 -0.921 127 93 81
4.987 5.461 -0.95599997 51 12 0
5.046 5.5229998 -0.96899998 37 20 10
5.0279999 5.4879999 -0.97500002 48 35 29
5.027 5.4910002 -0.96899998 107 65 43
5.0279999 5.4970002 -0.97500002 63 44 37
5.033 5.5009999 -0.97100002 30 5 0
5.0380001 5.5050001 -0.97000003 111 62 32
5.0359998 5.5079999 -0.97000003 54 36 26
5.0279999 5.4970002 -0.96700001 44 25 18
4.9990001 5.4200001 -0.85900003 23 12 10
4.9889998 5.4330001 -0.86000001 98 68 57
5.0799999 5.5689998 -0.72100002 36 8 0
5.0760002 5.572 -0.72000003 68 39 31
5.0830002 5.5689998 -0.713 66 43 37
5.04 5.4590001 -0.74199998 100 80 73
5.0560002 5.4689999 -0.74900001 82 68 67
5.0640001 5.4559999 -0.74900001 97 88 93
5.0430002 5.559 -0.63200003 78 40 17
5.0240002 5.493 -0.58999997 183 156 139
5.026 5.4899998 -0.588 127 99 87
5.0240002 5.474 -0.57700002 76 46 38
5.0469999 5.5679998 -0.62800002 64 44 35
5.0780001 5.5809999 -0.66600001 76 51 46
5.073 5.5780001 -0.66399997 55 26 18
5.0799999 5.579 -0.66900003 139 112 105
5.0570002 5.6079998 -0.58499998 15 0 0
5.0560002 5.6090002 -0.58200002 23 5 5
5.027 5.487 -0.58899999 61 32 24
5.131 5.5149999 -0.704 153 127 102
5.1129999 5.513 -0.69800001 60 41 27
5.1259999 5.5219998 -0.70200002 200 151 119
5.132 5.52 -0.70599997 204 156 116
5.0359998 5.4310002 -0.70300001 63 36 43
5.0339999 5.4489999 -0.69599998 96 61 31
5.027 5.4099998 -0.70499998 90 73 65
5.0149999 5.408 -0.69499999 134 106 92
5.0440001 5.5949998 -0.62699997 18 0 0
5.0489998 5.5929999 -0.62800002 30 11 7
5.0370002 5.592 -0.64600003 74 40 30
5.0489998 5.6040001 -0.61400002 29 11 7
5.0739999 5.5819998 -0.66299999 39 12 3
5.0650001 5.5739999 -0.65100002 73 46 27
5.0539999 5.6550002 -0.5 79 43 19
5.0469999 5.6529999 -0.479 105 76 68
4.9829998 5.4000001 -0.74299997 110 90 81
4.9920001 5.402 -0.74800003 28 13 8
5.0479999 5.5159998 -0.37099999 218 155 122
5.0489998 5.5209999 -0.38499999 76 43 28
5.0570002 5.5240002 -0.37799999 84 52 37
5.0370002 5.4720001 -0.37099999 101 55 19
5.0409999 5.4910002 -0.377 58 25 8
5.119 5.5 -0.727 71 57 56
5.1110001 5.4970002 -0.72899997 74 39 20
5.1129999 5.4860001 -0.72399998 59 42 24
5.118 5.493 -0.722 255 222 191
5.1259999 5.494 -0.72000003 141 111 83
5.0970001 5.4850001 -0.77700001 139 104 84
5.0879998 5.474 -0.778 101 65 43
5.0830002 5.4569998 -0.77399999 125 113 113
5.0780001 5.4559999 -0.778 75 54 51
5.072 5.447 -0.77399999 244 221 207
5.085 5.4640002 -0.78100002 86 65 48
5.053 5.4390001 -0.76499999 127 100 79
5.0549998 5.441 -0.76800001 123 94 78
5.0640001 5.434 -0.76599997 104 82 69
5.0409999 5.4349999 -0.72500002 49 38 16
5.04 5.448 -0.70700002 52 32 7
5.0409999 5.4310002 -0.71100003 35 16 9
5.0320001 5.402 -0.84799999 91 62 54
5.0279999 5.4790001 -0.39500001 55 25 14
4.9889998 5.5209999 -0.37 130 71 37
5.02 5.4790001 -0.36199999 195 146 90
4.9840002 5.5679998 -0.49000001 132 69 25
5.0079999 5.5710001 -0.493 116 72 43
5.0100002 5.5760002 -0.48300001 88 40 4
5.0240002 5.5830002 -0.49399999 117 75 50
4.9959998 5.5910001 -0.47299999 145 103 79
4.9879999 5.5910001 -0.47299999 152 95 50
5.0669999 5.6149998 -0.479 90 45 14
5.079 5.6420002 -0.484 119 63 26
5.0749998 5.6399999 -0.479 67 20 2
5.0830002 5.6529999 -0.49200001 159 122 103
5.086 5.6399999 -0.49000001 104 46 6
5.0819998 5.6440001 -0.48899999 159 108 65
5.0770001 5.658 -0.48500001 58 23 4
5.085 5.6500001 -0.49399999 164 119 100
4.9860001 5.5689998 -0.47600001 234 139 59
4.9860001 5.5679998 -0.477 191 105 46
5.0170002 5.5100002 -0.46599999 15 3 3
5.0100002 5.5300002 -0.48199999 119 69 34
5.0050001 5.493 -0.53899997 44 34 9
5.0040002 5.4990001 -0.53200001 40 17 1
5.007 5.5089998 -0.54900002 63 57 43
5.007 5.4949999 -0.52999997 169 157 133
5.059 5.6069999 -0.48500001 217 171 135
5.0469999 5.6100001 -0.60900003 14 0 2
5.0440001 5.605 -0.611 37 18 11
5.0669999 5.6149998 -0.56199998 8 2 6
5.0469999 5.6009998 -0.56800002 128 92 60
5.1259999 5.5 -0.72399998 75 60 57
5.1230001 5.4899998 -0.71799999 62 42 33
5.132 5.506 -0.708 98 61 34
5.1129999 5.5279999 -0.708 164 135 129
5.1059999 5.52 -0.70099998 100 53 27
5.1170001 5.526 -0.70499998 23 10 4
4.9759998 5.6209998 -0.69099998 46 21 16
4.9879999 5.6139998 -0.69 114 81 62
4.9759998 5.6209998 -0.68699998 29 2 0
4.9749999 5.6220002 -0.68800002 104 77 70
4.9749999 5.6199999 -0.68699998 63 33 25
5.0840001 5.6469998 -0.52700001 26 10 10
5.0180001 5.4060001 -0.86000001 126 126 136
5.006 5.4089999 -0.85900003 71 56 53
5.0149999 5.408 -0.86000001 87 70 63
4.9530001 5.4310002 -0.81099999 13 4 9
4.9629998 5.4369998 -0.83099997 86 67 61
4.9419999 5.4400001 -0.81800002 41 30 28
4.9699998 5.4310002 -0.83200002 29 23 27
4.9720001 5.4239998 -0.81900001 20 0 0
4.9190001 5.4650002 -0.81999999 24 9 12
4.9330001 5.4549999 -0.80900002 17 3 2
4.928 5.4679999 -0.81300002 18 3 0
4.9720001 5.4419999 -0.85699999 5 1 0
4.994 5.428 -0.85299999 28 5 0
4.9819999 5.4260001 -0.84600002 30 14 15
4.9920001 5.4439998 -0.87699997 56 42 33
5.0900002 5.4720001 -0.787 47 19 7
4.9359999 5.4710002 -0.79100001 24 9 6
4.9400001 5.4829998 -0.77600002 126 124 138
4.9910002 5.4590001 -0.96399999 36 17 10
4.9910002 5.4580002 -0.954 51 23 11
4.9860001 5.461 -0.94700003 43 6 0
4.9860001 5.461 -0.93900001 35 5 0
5.0279999 5.4229999 -0.86400002 119 101 87
5.0349998 5.4289999 -0.86500001 30 26 14
5.0170002 5.4159999 -0.87199998 101 101 111
4.9429998 5.46 -0.83700001 54 37 30
4.9390001 5.4619999 -0.83600003 45 26 19
4.9310002 5.4689999 -0.83499998 16 4 4
4.9260001 5.4720001 -0.83099997 15 3 3
4.928 5.4679999 -0.83399999 16 4 6
5.013 5.5830002 -0.47299999 65 18 0
4.993 5.5359998 -0.38499999 116 47 16
5.0019999 5.533 -0.38600001 91 56 37
4.9860001 5.5440001 -0.38699999 143 124 120
4.9819999 5.5370002 -0.38499999 97 64 33
4.9749999 5.5229998 -0.384 121 98 92
4.9770002 5.5180001 -0.384 104 81 73
4.973 5.527 -0.389 68 46 5
4.9949999 5.507 -0.36199999 84 49 21
5.0159998 5.5349998 -0.36700001 215 218 223
5.046 5.6459999 -0.48100001 195 123 64
5.04 5.6420002 -0.49399999 196 124 66
5.0479999 5.6500001 -0.48500001 177 153 151
5.0739999 5.645 -0.479 156 107 77
5.0500002 5.619 -0.47 83 39 10
5.053 5.6110001 -0.477 75 30 0
5.0580001 5.6220002 -0.47099999 235 155 92
5.0689998 5.632 -0.47299999 50 28 17
5.0570002 5.6300001 -0.46599999 104 68 34
4.9429998 5.5289998 -0.92000002 43 24 18
4.9679999 5.46 -0.88999999 145 127 107
4.9720001 5.4619999 -0.89099997 139 111 99
5.0079999 5.4980001 -0.54299998 17 7 8
5.0029998 5.4889998 -0.57599998 56 42 41
5.0310001 5.4180002 -0.70499998 62 30 45
5.0009999 5.427 -0.708 109 85 75
5.0139999 5.4229999 -0.70200002 77 41 53
5.0110002 5.4369998 -0.69300002 121 83 64
5.0149999 5.4159999 -0.69499999 40 16 12
5.0209999 5.4310002 -0.69199997 31 14 6
5.0310001 5.5089998 -0.44600001 125 97 94
5.0279999 5.5089998 -0.44299999 151 130 125
5.026 5.5050001 -0.43700001 13 0 0
5.027 5.507 -0.442 21 7 4
5.026 5.506 -0.449 17 6 2
5.0419998 5.4720001 -0.39399999 76 54 43
5.0190001 5.467 -0.38800001 137 80 37
5.026 5.4749999 -0.391 136 84 44
5.0240002 5.5050001 -0.442 35 24 22
5.0219998 5.5050001 -0.477 28 8 7
5.027 5.4990001 -0.48100001 90 71 64
5.0209999 5.4959998 -0.479 56 40 40
5.0250001 5.4980001 -0.484 62 42 35
5.0250001 5.4990001 -0.50199997 17 1 2
5.0219998 5.4910002 -0.55000001 26 8 4
5.0310001 5.4819999 -0.55900002 23 5 3
5.0219998 5.4949999 -0.54900002 35 19 19
5.02 5.494 -0.55500001 38 20 20
5.027 5.4959998 -0.51999998 45 24 23
5.0250001 5.4970002 -0.51700002 24 2 4
5.02 5.4990001 -0.51999998 20 0 0
4.9840002 5.5669999 -0.49700001 156 106 71
4.98 5.5549998 -0.49399999 74 40 15
4.987 5.5949998 -0.50599998 22 12 13
4.9949999 5.6009998 -0.50800002 21 10 6
5.0139999 5.598 -0.50700003 100 68 47
5.007 5.592 -0.52100003 86 58 36
5.0040002 5.4959998 -0.55299997 59 49 47
5.0149999 5.4959998 -0.58999997 40 15 8
5.02 5.494 -0.58999997 68 39 25
5.0100002 5.5019999 -0.58999997 35 11 9
5.02 5.494 -0.588 111 79 64
5.0100002 5.4990001 -0.58099997 46 25 22
5.0110002 5.4990001 -0.56599998 69 42 31
5 5.506 -0.61699998 77 29 6
5.006 5.5 -0.61699998 54 36 34
5.0100002 5.5040002 -0.62199998 44 28 28
5.007 5.5840001 -0.54299998 49 33 33
5.0050001 5.5830002 -0.542 22 4 2
4.9759998 5.4640002 -0.89600003 32 4 1
4.9780002 5.4720001 -0.89200002 22 3 0
4.9809999 5.4710002 -0.89700001 23 6 0
4.9840002 5.4619999 -0.90499997 28 3 0
5.0190001 5.5489998 -0.833 248 238 229
5.0180001 5.5430002 -0.82599998 133 131 145
5.0009999 5.4790001 -0.62400001 38 10 0
4.9510002 5.4050002 -0.71799999 83 53 43
4.9499998 5.421 -0.71499997 23 9 0
4.9439998 5.415 -0.72000003 217 213 214
4.9520001 5.4749999 -0.70999998 18 18 26
4.954 5.48 -0.71399999 14 0 0
4.9530001 5.4759998 -0.70899999 37 17 10
4.9510002 5.4949999 -0.72299999 98 61 43
4.954 5.4770002 -0.70899999 42 23 16
4.9569998 5.4790001 -0.70300001 23 5 1
4.9569998 5.4390001 -0.70700002 58 42 42
4.9720001 5.4380002 -0.70599997 15 0 0
4.9660001 5.427 -0.708 99 64 45
4.9510002 5.4419999 -0.70700002 27 9 9
5.0040002 5.4910002 -0.54799998 49 42 16
5.0019999 5.4899998 -0.55699998 41 33 14
5.0209999 5.5700002 -0.55699998 14 0 0
5.026 5.5700002 -0.55500001 25 7 7
5.027 5.5710001 -0.55299997 66 34 19
5.0190001 5.5749998 -0.63200003 18 0 0
5.0159998 5.5830002 -0.63200003 35 20 15
5.0219998 5.5749998 -0.63700002 21 7 7
5.0359998 5.6059999 -0.59799999 43 21 0
5.013 5.5869999 -0.58600003 58 34 8
5.0089998 5.5830002 -0.58600003 25 9 10
5.007 5.5809999 -0.57200003 45 27 25
5.0149999 5.5879998 -0.59200001 42 28 0
5.0100002 5.5700002 -0.583 33 15 15
5.0089998 5.5320001 -0.68300003 34 19 16
5.0110002 5.533 -0.68800002 34 11 0
5.0209999 5.5229998 -0.68199998 43 28 25
5.0159998 5.52 -0.63200003 11 0 0
5.0120001 5.5190001 -0.63 66 23 6
5.02 5.5970001 -0.60000002 40 27 21
5.0170002 5.5910001 -0.61699998 31 25 29
5.0110002 5.585 -0.61000001 42 19 1
4.9850001 5.6110001 -0.69099998 33 8 3
5.006 5.4840002 -0.579 38 11 0
5.0310001 5.6040001 -0.486 76 54 41
5.0240002 5.612 -0.49900001 44 32 16
5.0190001 5.5970001 -0.505 137 77 41
5.0310001 5.585 -0.50099999 126 85 53
5.0139999 5.5830002 -0.50800002 148 94 60
5.0320001 5.5830002 -0.50199997 124 80 55
5.0229998 5.5819998 -0.49700001 139 89 52
5.0190001 5.6079998 -0.50400001 84 35 2
5.0430002 5.5999999 -0.48699999 97 58 27
5.033 5.598 -0.47999999 156 136 137
5.0300002 5.5830002 -0.49900001 123 90 71
5.0320001 5.612 -0.48199999 232 173 129
5.0349998 5.6279998 -0.48800001 115 57 17
4.9889998 5.6020002 -0.49700001 26 6 5
5.013 5.6090002 -0.49399999 95 73 62
4.987 5.5840001 -0.47400001 243 199 154
5.0570002 5.5320001 -0.39300001 48 25 17
5.0560002 5.533 -0.396 36 15 10
5.0549998 5.5310001 -0.396 39 20 14
5.0009999 5.526 -0.36399999 180 140 114
4.9889998 5.5159998 -0.37 122 75 29
4.9840002 5.5240002 -0.38499999 93 58 26
5.0289998 5.5110002 -0.44600001 81 49 50
5.0250001 5.5139999 -0.44600001 73 43 45
5.0419998 5.4829998 -0.377 36 11 4
5.0149999 5.5029998 -0.361 159 88 42
5.007 5.5120001 -0.36300001 121 86 54
5.0289998 5.5170002 -0.36300001 68 43 23
5.026 5.5250001 -0.366 95 67 55
5.0310001 5.5009999 -0.36000001 106 75 57
5.0009999 5.4860001 -0.36199999 137 101 65
5.0050001 5.4840002 -0.368 82 48 13
5.0159998 5.474 -0.368 166 106 52
4.993 5.5029998 -0.37400001 155 113 73
4.987 5.506 -0.38800001 96 66 58
5.0469999 5.5370002 -0.38499999 126 100 87
5.0440001 5.527 -0.37099999 126 82 57
5.0409999 5.5349998 -0.382 61 24 15
5.0149999 5.4510002 -0.68699998 24 10 9
4.9720001 5.3889999 -0.73699999 67 39 27
4.9699998 5.3969998 -0.74299997 43 28 23
4.9679999 5.4130001 -0.72799999 107 79 68
4.967 5.3759999 -0.74800003 104 76 62
4.974 5.381 -0.74000001 73 47 34
5.007 5.3790002 -0.81400001 11 0 0
5.0040002 5.3779998 -0.81099999 17 8 9
5.0029998 5.375 -0.82200003 54 40 39
4.9770002 5.3779998 -0.755 11 0 0
4.974 5.3790002 -0.75700003 33 24 25
4.9400001 5.4050002 -0.72500002 188 151 133
4.994 5.5310001 -0.82200003 160 158 172
4.9959998 5.5370002 -0.82700002 152 150 164
5.0029998 5.5370002 -0.82099998 157 155 169
4.993 5.5310001 -0.82499999 168 166 180
4.987 5.526 -0.83600003 141 108 77
4.9990001 5.5349998 -0.83200002 146 145 159
4.9879999 5.5229998 -0.83399999 118 117 131
4.9359999 5.5229998 -0.90700001 74 28 4
4.9419999 5.5209999 -0.912 151 145 147
4.921 5.4699998 -0.81800002 122 112 120
4.9530001 5.493 -0.773 35 22 16
5.0650001 5.4640002 -0.75300002 65 45 34
5.0679998 5.4710002 -0.75400001 102 84 74
5.092 5.5089998 -0.815 133 108 101
5.0900002 5.5159998 -0.81599998 41 32 35
5.0799999 5.4780002 -0.80500001 46 18 4
5.0869999 5.4860001 -0.80299997 75 56 42
5.0949998 5.4959998 -0.79799998 83 66 56
5.0939999 5.4980001 -0.79900002 70 49 30
5.0929999 5.5050001 -0.81 57 53 26
5.0949998 5.5 -0.78799999 33 23 31
4.9390001 5.4749999 -0.815 119 116 107
4.973 5.4980001 -0.79000002 12 6 6
4.9710002 5.4990001 -0.78799999 14 0 0
4.9530001 5.4780002 -0.71499997 16 2 0
4.9530001 5.4780002 -0.71700001 21 10 4
4.9380002 5.4180002 -0.72600001 78 48 37
4.9330001 5.414 -0.73000002 76 48 45
4.9380002 5.4159999 -0.72600001 52 22 14
5.0050001 5.5349998 -0.83700001 190 138 98
4.9980001 5.526 -0.838 40 20 9
4.9889998 5.473 -0.89499998 20 7 1
4.9850001 5.4699998 -0.89700001 26 7 1
4.993 5.4699998 -0.91100001 53 28 21
5.0170002 5.5219998 -0.88999999 25 16 19
5.02 5.526 -0.89300001 21 3 1
5.0139999 5.5279999 -0.89099997 72 56 56
5.027 5.4520001 -0.88 63 49 46
5.0240002 5.454 -0.89099997 20 14 16
5.0310001 5.4660001 -0.89399999 32 18 9
5.0320001 5.4400001 -0.87599999 23 22 17
5.053 5.4250002 -0.852 52 42 43
5.0500002 5.4289999 -0.84399998 52 41 45
5.007 5.48 -0.96600002 41 4 0
5.0050001 5.4809999 -0.958 62 26 12
5.0219998 5.493 -0.97600001 96 49 21
4.9920001 5.4699998 -0.94300002 33 16 9
4.9970002 5.473 -0.94499999 45 22 14
4.993 5.4590001 -0.94300002 25 8 0
4.994 5.46 -0.92199999 23 6 0
4.9920001 5.4590001 -0.92199999 28 10 0
4.9980001 5.4720001 -0.95499998 27 12 5
4.9450002 5.5149999 -0.92299998 45 9 0
5.0450001 5.5120001 -0.97000003 129 79 52
5.0500002 5.5240002 -0.98299998 40 20 9
5.0479999 5.5229998 -0.97799999 23 6 0
5.0240002 5.4580002 -0.89399999 27 17 18
5.02 5.4949999 -0.98000002 30 7 1
5.0440001 5.5190001 -0.97299999 79 51 40
5.033 5.507 -0.96100003 106 61 40
5.027 5.5040002 -0.963 67 31 15
5.0279999 5.494 -0.96899998 40 23 15
5.0710001 5.5710001 -0.727 41 22 16
5.0700002 5.5679998 -0.73000002 32 17 12
5.0289998 5.5580001 -0.84399998 143 117 94
5.033 5.553 -0.84500003 68 39 31
5.0139999 5.553 -0.84399998 217 179 143
5.033 5.4429998 -0.722 31 8 0
5.0819998 5.4809999 -0.70700002 123 87 73
5.0819998 5.4829998 -0.70599997 102 80 67
5.0939999 5.4860001 -0.713 84 58 45
5.0900002 5.4840002 -0.70999998 156 109 67
5.0929999 5.494 -0.70700002 49 26 20
5.0560002 5.5539999 -0.64899999 39 14 7
5.0900002 5.4790001 -0.70700002 170 148 135
5.0209999 5.4180002 -0.69599998 53 21 32
5.0229998 5.4980001 -0.546 40 25 20
5.0149999 5.5089998 -0.54400003 50 27 13
5.0180001 5.513 -0.54000002 17 8 9
5.059 5.6139998 -0.57999998 35 20 17
5.0570002 5.6100001 -0.58399999 25 7 5
5.0029998 5.493 -0.59899998 11 0 0
4.9959998 5.5019999 -0.61799997 24 5 1
5.0019999 5.4879999 -0.60799998 20 6 6
4.9949999 5.4780002 -0.61400002 95 77 75
5.02 5.4920001 -0.59500003 72 49 43
5.027 5.4910002 -0.57499999 76 48 36
5.027 5.4829998 -0.565 32 8 6
5.0229998 5.48 -0.57200003 155 78 26
5.1069999 5.507 -0.69700003 90 80 78
5.1009998 5.5139999 -0.69499999 90 48 24
5.0170002 5.4770002 -0.58600003 60 38 27
5.0089998 5.4780002 -0.58399999 74 41 24
5.0209999 5.4910002 -0.59399998 69 55 55
5.0100002 5.487 -0.60799998 15 7 4
5.0100002 5.4879999 -0.602 48 32 32
5.0209999 5.4910002 -0.62 123 105 101
5.0310001 5.428 -0.70099998 30 11 4
5.0370002 5.4460001 -0.69999999 100 74 47
5.0380001 5.4559999 -0.69400001 160 117 82
5.027 5.408 -0.71100003 105 76 58
5.0250001 5.3979998 -0.71600002 204 151 111
5.0409999 5.6100001 -0.60399997 134 96 59
5.0349998 5.6030002 -0.60399997 36 19 9
5.0349998 5.6009998 -0.61000001 96 91 97
5.0419998 5.6030002 -0.61199999 39 23 23
5.0380001 5.5949998 -0.63099998 49 21 18
5.0440001 5.6030002 -0.61400002 27 7 0
5.0450001 5.598 -0.62 29 8 5
5.0489998 5.5970001 -0.61400002 46 25 22
5.0419998 5.5929999 -0.60299999 60 28 13
5.0599999 5.5749998 -0.639 110 83 76
5.0479999 5.586 -0.639 69 40 22
5.0409999 5.5890002 -0.64300001 41 17 13
5.0430002 5.5900002 -0.63300002 39 12 3
5.0079999 5.579 -0.61799997 102 93 94
5.0279999 5.6020002 -0.60299999 102 93 96
5.026 5.586 -0.63800001 47 24 18
5.0229998 5.5879998 -0.634 32 11 8
5.0749998 5.631 -0.50700003 131 100 72
5.0770001 5.6329999 -0.5 168 144 134
5.072 5.6220002 -0.51099998 128 74 30
4.9619999 5.4899998 -0.708 121 111 112
4.9559999 5.48 -0.71100003 26 7 3
5.0650001 5.448 -0.77899998 123 95 83
5.0700002 5.4530001 -0.77700001 121 124 139
4.9640002 5.493 -0.78899997 9 1 0
4.9660001 5.4899998 -0.78899997 10 0 0
4.967 5.48 -0.80199999 144 144 156
4.9809999 5.5 -0.80299997 93 61 48
4.9749999 5.4860001 -0.815 74 47 36
4.9679999 5.4829998 -0.79299998 53 14 0
4.9980001 5.4180002 -0.74199998 50 24 11
5.0009999 5.4200001 -0.73299998 19 9 8
4.9840002 5.408 -0.74299997 16 2 0
4.9920001 5.4200001 -0.722 21 7 6
5.0139999 5.4530001 -0.68900001 47 19 18
5.0339999 5.5029998 -0.36399999 112 52 28
5.039 5.5100002 -0.391 54 25 11
5.0469999 5.5089998 -0.368 168 100 65
5.0419998 5.4920001 -0.38 49 16 0
5.0370002 5.4970002 -0.391 80 51 37
5.046 5.4899998 -0.39199999 84 48 32
5.1090002 5.4980001 -0.76800001 120 91 73
5.0819998 5.46 -0.78100002 50 36 36
5.0840001 5.4679999 -0.77700001 88 67 50
5.0469999 5.4380002 -0.759 92 80 84
5.0640001 5.4419999 -0.759 94 69 64
5.0380001 5.4429998 -0.704 69 49 38
5.0320001 5.3979998 -0.84299999 88 60 56
5.0370002 5.4089999 -0.83499998 37 18 14
5.0300002 5.4050002 -0.83700001 89 64 59
5.0159998 5.3969998 -0.824 49 34 31
5.0139999 5.3990002 -0.82800001 132 101 70
5.0009999 5.3889999 -0.82999998 26 7 9
5.0190001 5.4029999 -0.81900001 115 91 81
5.0300002 5.4190001 -0.81900001 85 55 45
5.0100002 5.3930001 -0.81900001 52 25 16
5.0430002 5.4109998 -0.85000002 56 47 50
4.9819999 5.5209999 -0.37799999 32 20 24
5.0190001 5.4759998 -0.36300001 121 70 23
5.0180001 5.4759998 -0.36500001 163 104 60
5.013 5.4860001 -0.36000001 137 77 25
4.9840002 5.5679998 -0.48899999 163 78 24
5 5.5630002 -0.49399999 117 72 33
4.9949999 5.5650001 -0.505 48 20 9
4.9980001 5.5599999 -0.491 156 98 52
5.0770001 5.632 -0.49700001 61 45 45
5.0669999 5.6220002 -0.47799999 24 4 0
5.0799999 5.6550002 -0.493 193 157 135
5.0780001 5.6560001 -0.49200001 107 62 41
5.073 5.6589999 -0.495 43 19 7
5.085 5.6500001 -0.495 186 130 103
4.9749999 5.592 -0.491 140 112 88
4.974 5.5900002 -0.495 87 51 15
5.0110002 5.5139999 -0.44800001 20 2 2
5.0149999 5.5139999 -0.44499999 39 18 0
5.0110002 5.513 -0.45100001 16 0 0
5.0139999 5.5190001 -0.46599999 65 15 0
5.0120001 5.5149999 -0.46200001 26 10 11
5.0149999 5.5139999 -0.479 20 6 5
5.0100002 5.5279999 -0.47600001 127 109 95
5.007 5.5050001 -0.53100002 56 41 36
5.0149999 5.5139999 -0.52600002 138 119 102
5.0139999 5.4949999 -0.52600002 53 8 0
5.0079999 5.5 -0.52899998 19 7 7
5.073 5.6160002 -0.49000001 68 39 21
5.0819998 5.6550002 -0.50999999 78 62 62
5.027 5.5890002 -0.63800001 21 0 0
5.0630002 5.598 -0.57200003 23 13 11
5.046 5.6149998 -0.55000001 82 67 64
5.0419998 5.605 -0.56699997 119 114 118
5.0640001 5.6170001 -0.55900002 23 14 19
5.053 5.6160002 -0.57700002 16 1 0
5.052 5.6110001 -0.57800001 34 15 17
5.0359998 5.5949998 -0.58999997 38 27 31
5.1339998 5.5120001 -0.70999998 117 76 46
5.1279998 5.5120001 -0.704 116 82 44
5.1100001 5.4990001 -0.75099999 51 35 35
5.1110001 5.5009999 -0.75300002 72 54 50
5.1139998 5.4949999 -0.76099998 64 47 40
5.1199999 5.5079999 -0.736 29 18 16
5.1170001 5.5139999 -0.741 60 30 6
5.119 5.5279999 -0.71100003 91 53 32
5.1040001 5.5310001 -0.72100002 70 33 14
5.1230001 5.5250001 -0.70700002 253 237 237
5.1220002 5.5219998 -0.70200002 153 106 76
5.0539999 5.6209998 -0.60900003 59 43 43
5.0549998 5.6240001 -0.61299998 51 33 31
5.0479999 5.619 -0.60600001 26 10 10
5.0749998 5.6409998 -0.51099998 144 91 41
5.066 5.6490002 -0.51700002 53 30 16
5.053 5.6479998 -0.514 115 106 111
5.0100002 5.5799999 -0.50700003 83 52 32
5.0009999 5.5669999 -0.50700003 40 25 28
5.0079999 5.5770001 -0.53100002 20 8 8
5.0019999 5.585 -0.51999998 25 6 8
5.013 5.4109998 -0.86400002 43 28 23
5.0339999 5.4219999 -0.829 62 35 26
5.0409999 5.4320002 -0.82099998 140 112 98
4.9489999 5.4320002 -0.80599999 14 5 10
4.9530001 5.4310002 -0.80699998 99 65 55
4.9510002 5.4039998 -0.778 50 35 32
4.948 5.4070001 -0.778 89 74 71
4.9520001 5.3920002 -0.764 84 64 55
4.954 5.4039998 -0.78299999 85 67 63
4.9499998 5.4089999 -0.773 37 18 11
4.9520001 5.4070001 -0.764 68 48 41
4.9330001 5.454 -0.81199998 30 20 21
4.9320002 5.447 -0.81300002 47 16 0
4.9390001 5.4190001 -0.72799999 57 25 12
4.9439998 5.428 -0.72600001 43 16 7
4.9629998 5.4190001 -0.792 48 19 1
4.9559999 5.4130001 -0.78899997 12 6 10
4.9580002 5.4109998 -0.78799999 11 2 5
4.9710002 5.4250002 -0.81099999 26 2 0
4.974 5.4190001 -0.79299998 53 32 29
4.9860001 5.4109998 -0.801 68 43 38
4.9780002 5.4260001 -0.82700002 21 12 17
4.9780002 5.4439998 -0.86299998 6 0 4
4.9790001 5.4450002 -0.86400002 8 2 4
4.9780002 5.4250002 -0.83700001 15 5 6
5.0050001 5.4109998 -0.84500003 76 53 47
5.006 5.3979998 -0.83200002 37 26 8
4.9780002 5.4359999 -0.85299999 109 94 99
4.98 5.4310002 -0.84600002 17 9 7
5.0209999 5.4450002 -0.88200003 47 30 23
5.105 5.5240002 -0.72299999 33 4 0
5.1030002 5.513 -0.722 62 42 31
5.0780001 5.4650002 -0.792 78 49 35
5.0679998 5.4780002 -0.80900002 109 90 76
5.0370002 5.4489999 -0.87 26 11 8
5.0489998 5.4380002 -0.85799998 60 43 36
5.0359998 5.4380002 -0.861 16 7 8
5.0349998 5.454 -0.86799997 9 3 3
5.033 5.448 -0.87199998 90 66 54
5.059 5.4439998 -0.85399997 34 22 26
4.9559999 5.5440001 -0.72399998 21 0 0
4.9559999 5.546 -0.72299999 27 7 0
4.9559999 5.5450001 -0.72100002 36 12 10
4.9559999 5.5419998 -0.722 57 36 33
4.9569998 5.54 -0.73699999 41 19 8
4.9559999 5.5320001 -0.72399998 30 16 15
4.9429998 5.4809999 -0.78399998 125 123 137
4.9450002 5.4239998 -0.73699999 27 15 17
5.0250001 5.4349999 -0.87300003 8 0 2
5.0440001 5.4289999 -0.86299998 8 2 4
5.0370002 5.4369998 -0.85500002 42 4 0
4.9400001 5.4580002 -0.83200002 32 17 12
4.9369998 5.4689999 -0.833 23 0 0
5.0149999 5.5960002 -0.47 167 130 122
5.0120001 5.5900002 -0.477 231 131 45
5.0139999 5.585 -0.48100001 133 91 49
4.9860001 5.546 -0.384 128 54 17
5.0190001 5.5370002 -0.384 45 26 22
5.0180001 5.5370002 -0.38499999 33 15 15
5.0149999 5.5339999 -0.37799999 43 21 10
5.0739999 5.6550002 -0.484 47 23 11
5.0760002 5.6500001 -0.48500001 124 76 40
5.0549998 5.6529999 -0.48500001 103 93 92
5.0549998 5.6490002 -0.47400001 103 83 74
5.0650001 5.6409998 -0.47299999 93 55 36
5.0500002 5.651 -0.47400001 93 56 27
5.0679998 5.6360002 -0.47299999 29 6 0
5.0349998 5.605 -0.47799999 148 130 130
5.0320001 5.6040001 -0.47999999 120 97 83
5.0380001 5.6329999 -0.48300001 161 132 124
5.0359998 5.631 -0.491 86 47 14
5.0320001 5.6350002 -0.49700001 117 103 100
4.941 5.5250001 -0.92199999 70 33 17
5.0120001 5.4990001 -0.52600002 30 18 18
5.013 5.4889998 -0.54000002 76 53 37
5.0079999 5.4990001 -0.54000002 15 5 6
5.0089998 5.507 -0.55000001 37 23 23
5.0229998 5.4809999 -0.56199998 106 73 54
5.0029998 5.4910002 -0.57800001 35 21 20
5.02 5.4219999 -0.69499999 17 6 4
5.0209999 5.4910002 -0.67799997 60 37 31
5.0320001 5.4850001 -0.68699998 45 27 23
5.027 5.493 -0.68400002 58 40 36
5.0219998 5.4819999 -0.68000001 149 114 94
5.027 5.507 -0.44499999 21 8 2
5.04 5.5029998 -0.40900001 39 23 23
5.0279999 5.4679999 -0.382 254 203 156
5.0180001 5.4759998 -0.38800001 137 81 46
5.0209999 5.4959998 -0.47499999 50 34 34
5.0050001 5.5 -0.479 58 31 12
5.0079999 5.4959998 -0.48300001 128 124 115
5.0209999 5.5040002 -0.48699999 24 5 0
5.0100002 5.5089998 -0.47499999 34 23 21
5.0089998 5.507 -0.477 34 18 18
5.0250001 5.4990001 -0.5 24 8 8
5.0240002 5.5 -0.49700001 23 5 5
5.0229998 5.4990001 -0.509 24 6 6
5.0149999 5.5180001 -0.484 58 55 40
5.0190001 5.506 -0.484 27 8 2
5.0120001 5.5240002 -0.486 118 71 45
5.0110002 5.526 -0.491 90 45 24
5.0170002 5.4949999 -0.52700001 14 4 3
5.026 5.4910002 -0.528 27 17 18
5.0300002 5.4970002 -0.53500003 55 30 23
5.0289998 5.5 -0.537 35 6 2
4.9910002 5.5630002 -0.49900001 91 50 20
5.0229998 5.4920001 -0.565 66 44 46
5.0240002 5.4920001 -0.56699997 56 32 32
5.0219998 5.4879999 -0.55900002 18 0 0
5.0289998 5.494 -0.523 55 34 33
5.0219998 5.5170002 -0.53399998 100 94 96
5 5.585 -0.52200001 19 5 5
5.0029998 5.5819998 -0.53799999 19 5 4
5 5.5830002 -0.52399999 39 27 27
4.9780002 5.5900002 -0.50199997 45 25 18
4.9980001 5.586 -0.51499999 20 8 8
4.9899998 5.5910001 -0.50599998 63 38 34
5.02 5.4959998 -0.58099997 27 9 5
5.007 5.4959998 -0.57800001 28 10 0
5.0079999 5.5009999 -0.56199998 33 6 0
5.0029998 5.506 -0.55900002 24 10 10
5.0110002 5.5819998 -0.574 57 42 39
5.0100002 5.579 -0.57200003 45 27 25
5.0029998 5.5770001 -0.56800002 43 29 26
5.006 5.5819998 -0.54500002 19 1 1
4.993 5.5679998 -0.50599998 63 33 22
4.9889998 5.5710001 -0.50199997 49 17 2
4.973 5.4819999 -0.92000002 41 16 9
4.9720001 5.4910002 -0.91900003 32 3 0
4.9780002 5.487 -0.92199999 47 32 25
5.0139999 5.4990001 -0.63300002 49 25 23
5.0149999 5.487 -0.62900001 33 9 7
4.9530001 5.4109998 -0.71799999 24 9 6
4.9569998 5.408 -0.72100002 34 4 0
4.954 5.4699998 -0.70300001 33 14 7
4.9590001 5.4699998 -0.699 44 23 18
4.9590001 5.4650002 -0.699 41 20 15
4.9549999 5.4770002 -0.70700002 37 13 3
4.9689999 5.4499998 -0.708 49 35 32
4.98 5.434 -0.708 15 4 0
4.9850001 5.4530001 -0.69999999 97 63 36
4.9949999 5.4439998 -0.70599997 26 16 15
4.9450002 5.4310002 -0.72000003 54 32 21
4.9489999 5.448 -0.71200001 73 41 26
4.9460001 5.4619999 -0.72500002 11 0 0
5.007 5.566 -0.62300003 18 0 0
5.0029998 5.5689998 -0.61799997 20 2 2
5.006 5.5760002 -0.62099999 25 7 5
5.0040002 5.566 -0.61900002 30 14 14
5.0159998 5.5710001 -0.61500001 44 24 13
5.0079999 5.5669999 -0.62300003 36 16 15
5.0310001 5.5710001 -0.60000002 22 10 10
5.0300002 5.5689998 -0.60699999 25 15 16
5.0469999 5.6009998 -0.60100001 74 55 49
5.0500002 5.6149998 -0.57499999 17 3 2
5.0510001 5.6170001 -0.57300001 12 0 0
5.0089998 5.5819998 -0.57499999 49 29 28
5.0240002 5.5910001 -0.58999997 105 38 0
4.9710002 5.5450001 -0.71200001 37 22 19
5.006 5.5910001 -0.66900003 96 60 38
5 5.599 -0.66799998 22 6 6
5.0050001 5.5830002 -0.667 60 14 0
5.0139999 5.5879998 -0.59799999 117 95 72
5.0009999 5.5710001 -0.616 73 59 48
4.9920001 5.5869999 -0.67900002 41 13 9
4.9840002 5.6139998 -0.69199997 51 22 18
4.9959998 5.6020002 -0.49000001 54 31 25
4.9910002 5.599 -0.48199999 237 220 194
4.9770002 5.5999999 -0.48800001 202 165 139
5.006 5.6059999 -0.49700001 127 110 94
5.0489998 5.5320001 -0.39399999 40 21 15
5.053 5.5300002 -0.396 38 19 13
4.9980001 5.526 -0.36300001 73 41 20
4.994 5.5170002 -0.36300001 248 217 196
5.0089998 5.533 -0.38 27 14 8
4.9959998 5.5289998 -0.38699999 66 33 26
4.9910002 5.5149999 -0.38800001 130 110 103
5.0409999 5.5219998 -0.40099999 40 28 32
5.0339999 5.5240002 -0.396 44 16 4
5.04 5.5320001 -0.39300001 126 85 63
5.0370002 5.507 -0.41100001 56 37 33
5.0380001 5.5040002 -0.41299999 41 26 23
5.0019999 5.5180001 -0.36399999 226 212 201
5.0209999 5.5250001 -0.366 35 11 0
5.0300002 5.526 -0.36700001 52 28 0
5.006 5.5149999 -0.396 93 59 32
5.0029998 5.5050001 -0.40000001 55 33 22
4.9949999 5.5100002 -0.389 91 62 56
5.0310001 5.5159998 -0.36199999 135 70 38
5.053 5.52 -0.391 58 25 10
5.0440001 5.5180001 -0.39500001 37 20 26
4.9990001 5.5 -0.39300001 162 108 74
5.0110002 5.5139999 -0.44 30 10 12
5.013 5.5120001 -0.36399999 172 120 80
5.0100002 5.4879999 -0.35600001 137 83 36
4.9889998 5.5100002 -0.373 112 54 0
4.9850001 5.5120001 -0.37900001 91 53 16
4.9920001 5.5019999 -0.384 114 78 44
4.9889998 5.5089998 -0.389 42 24 24
5.0250001 5.5339999 -0.38 145 127 125
5.0250001 5.5370002 -0.38499999 30 8 0
4.9559999 5.3990002 -0.73500001 40 6 0
4.9549999 5.3969998 -0.73100001 22 6 6
4.9790001 5.4109998 -0.74299997 48 30 26
4.9949999 5.4190001 -0.74599999 44 30 19
5.0170002 5.4029999 -0.70899999 35 1 0
5.0190001 5.4060001 -0.70099998 56 29 20
4.961 5.3860002 -0.76200002 117 101 101
4.9530001 5.3860002 -0.745 21 7 6
4.9650002 5.3800001 -0.755 119 98 93
4.96 5.3870001 -0.764 25 7 7
4.9790001 5.388 -0.74699998 81 66 63
4.9629998 5.3790002 -0.74699998 69 41 30
4.9650002 5.3800001 -0.75300002 226 199 192
4.9590001 5.3860002 -0.74299997 23 12 10
4.9569998 5.401 -0.77700001 46 31 26
4.994 5.401 -0.80800003 19 8 6
4.9920001 5.4060001 -0.80299997 45 20 15
4.9899998 5.3969998 -0.81300002 73 41 30
4.9949999 5.3920002 -0.80800003 19 3 3
5.0029998 5.381 -0.82200003 37 13 13
4.9390001 5.408 -0.72799999 56 24 13
4.9390001 5.4089999 -0.73000002 45 21 11
4.9970002 5.5100002 -0.815 59 41 31
4.987 5.5079999 -0.82200003 22 8 7
4.9920001 5.52 -0.81699997 159 142 134
4.947 5.5380001 -0.90399998 29 17 19
4.9889998 5.52 -0.81999999 50 18 5
4.974 5.4959998 -0.82599998 156 133 119
4.9450002 5.5300002 -0.90399998 142 131 125
4.9400001 5.527 -0.90700001 140 138 141
4.948 5.5219998 -0.90899998 18 10 7
4.9190001 5.4710002 -0.81999999 26 16 15
4.934 5.467 -0.78200001 123 99 87
4.934 5.4710002 -0.78799999 21 5 5
5.0250001 5.513 -0.82800001 128 110 98
5.026 5.5240002 -0.83099997 143 125 113
5.0500002 5.4980001 -0.80199999 63 44 30
5.0370002 5.507 -0.801 92 66 49
5.0450001 5.4970002 -0.80199999 63 47 34
5.0489998 5.5 -0.80000001 27 10 16
5.046 5.494 -0.80599999 48 19 3
5.0619998 5.5019999 -0.81099999 160 139 134
5.0300002 5.507 -0.81900001 26 8 4
5.0799999 5.48 -0.81699997 114 117 132
5.086 5.4920001 -0.81900001 23 13 12
5.0780001 5.4899998 -0.82599998 119 109 110
5.0349998 5.513 -0.88599998 80 56 54
5.0310001 5.5180001 -0.88700002 68 47 44
5.0370002 5.513 -0.88200003 32 14 14
5.0359998 5.5029998 -0.87599999 27 8 2
5.0910001 5.5079999 -0.80699998 64 42 28
5.0960002 5.4959998 -0.79400003 45 38 45
5.0689998 5.48 -0.76599997 60 45 42
5.0780001 5.473 -0.76599997 102 97 103
5.079 5.4770002 -0.76800001 100 94 96
5.0739999 5.4850001 -0.77200001 107 93 90
4.9419999 5.4749999 -0.81300002 49 32 25
4.947 5.4770002 -0.81400001 83 60 44
4.948 5.473 -0.80800003 146 127 120
4.9530001 5.4749999 -0.81599998 137 133 132
4.9790001 5.4829998 -0.80400002 15 5 3
4.9499998 5.4749999 -0.72399998 15 5 4
4.9499998 5.4749999 -0.72600001 14 4 5
4.9400001 5.415 -0.72299999 55 53 54
5.0900002 5.5089998 -0.82300001 31 15 15
5.02 5.552 -0.83499998 254 248 236
5.0139999 5.5489998 -0.838 152 150 163
5.0300002 5.5139999 -0.87199998 23 14 17
5.026 5.506 -0.86900002 37 19 15
5.0300002 5.5120001 -0.87300003 25 17 15
5.0310001 5.5 -0.87300003 26 16 17
5.0320001 5.5479999 -0.85900003 47 31 32
5.026 5.5240002 -0.88599998 29 10 6
4.9980001 5.5300002 -0.83399999 149 148 164
4.9990001 5.4850001 -0.89200002 24 14 15
5.0009999 5.4749999 -0.90499997 74 60 34
4.9780002 5.4990001 -0.92299998 125 96 78
4.9819999 5.487 -0.92299998 138 118 109
4.987 5.48 -0.93300003 66 43 29
4.9580002 5.5349998 -0.912 32 3 0
4.9749999 5.4959998 -0.93199998 24 9 2
4.9770002 5.4980001 -0.93300003 106 77 63
4.9759998 5.4980001 -0.93599999 67 33 21
4.9790001 5.4949999 -0.82300001 133 115 103
5.006 5.4580002 -0.90499997 116 98 96
5.0180001 5.4629998 -0.898 18 9 12
5.0510001 5.4250002 -0.847 38 21 14
4.9910002 5.4590001 -0.95300001 28 13 6
4.9920001 5.4590001 -0.94400001 56 33 19
5 5.4899998 -0.94599998 92 44 21
4.9959998 5.4829998 -0.94400001 37 20 13
4.9889998 5.4689999 -0.93900001 45 15 7
4.9949999 5.467 -0.95700002 46 12 0
5.0209999 5.5019999 -0.96700001 109 63 39
4.9520001 5.5250001 -0.91100001 28 18 16
4.9499998 5.52 -0.92000002 46 27 21
5.0419998 5.506 -0.96899998 73 56 46
5.026 5.461 -0.89399999 29 21 19
4.9949999 5.4099998 -0.85299999 72 53 47
4.9889998 5.4159999 -0.83899999 68 41 24
5.0760002 5.5799999 -0.66900003 39 19 12
5.0580001 5.586 -0.66100001 74 49 42
5.04 5.5219998 -0.792 56 38 28
5.0380001 5.5219998 -0.80599999 99 85 84
5.0339999 5.5650001 -0.74800003 60 30 40
5.039 5.5630002 -0.74699998 26 11 14
5.0430002 5.5799999 -0.73400003 95 73 60
5.027 5.5489998 -0.76200002 53 35 31
5.0229998 5.5739999 -0.73699999 95 78 71
5.0289998 5.4980001 -0.68300003 26 16 15
5.0190001 5.487 -0.66399997 119 84 62
5.0939999 5.4920001 -0.704 80 64 31
5.1030002 5.4990001 -0.704 38 14 10
5.1129999 5.4990001 -0.70599997 77 61 38
5.086 5.5149999 -0.70099998 30 9 6
5.0929999 5.52 -0.70099998 49 15 3
5.0700002 5.5650001 -0.66299999 176 158 138
5.0929999 5.4899998 -0.704 129 77 38
5.0320001 5.632 -0.49700001 47 28 21
5.0809999 5.652 -0.528 27 11 11
5.0760002 5.6529999 -0.52200001 16 0 0
5.0500002 5.6259999 -0.60799998 42 27 24
5.0549998 5.6129999 -0.57999998 18 0 0
5.0009999 5.4920001 -0.61500001 30 9 6
5.0029998 5.4910002 -0.602 26 14 14
5.0029998 5.493 -0.59100002 20 6 3
5.0079999 5.4959998 -0.611 20 6 3
5.0149999 5.4959998 -0.61799997 83 59 49
5.007 5.4860001 -0.60699999 17 5 5
5.0289998 5.4829998 -0.56199998 19 1 1
5.0229998 5.4920001 -0.58399999 47 19 8
5.0229998 5.4749999 -0.579 69 39 31
5.0139999 5.4850001 -0.62199998 78 50 29
5.0149999 5.494 -0.616 74 54 47
5.0240002 5.402 -0.70899999 195 149 115
5.0289998 5.414 -0.71899998 133 128 132
5.0250001 5.4039998 -0.71499997 71 41 30
5.0310001 5.4169998 -0.70999998 73 40 51
5.0110002 5.6069999 -0.484 106 61 30
5.007 5.6040001 -0.47799999 161 82 16
5.0190001 5.572 -0.60600001 85 48 21
5.039 5.5960002 -0.62599999 23 2 0
5.0380001 5.5929999 -0.63300002 33 9 7
5.027 5.5910001 -0.63700002 24 3 0
5.0279999 5.5900002 -0.63499999 30 13 6
5.0300002 5.5910001 -0.63700002 24 3 0
5.0229998 5.5879998 -0.63 18 0 0
5.0510001 5.5869999 -0.63300002 38 18 11
5.052 5.5879998 -0.63099998 31 14 7
5.0489998 5.579 -0.62699997 29 12 5
5.04 5.5939999 -0.63 36 8 4
5.04 5.5900002 -0.64600003 47 17 9
5.0180001 5.5710001 -0.61900002 74 37 11
5.0310001 5.599 -0.60900003 42 19 1
5.046 5.6490002 -0.49900001 114 104 105
4.9910002 5.4770002 -0.65700001 43 18 11
4.9920001 5.48 -0.653 64 46 32
4.9879999 5.4879999 -0.66000003 88 86 87
4.9910002 5.4749999 -0.65600002 51 27 23
4.9889998 5.5159998 -0.69999999 44 27 19
4.9970002 5.533 -0.69300002 16 5 1
4.987 5.5149999 -0.68099999 15 0 0
5.0830002 5.4660001 -0.76700002 131 113 103
5.0830002 5.4710002 -0.77200001 114 108 110
5.0830002 5.4749999 -0.71100003 246 210 174
5.0320001 5.4710002 -0.70300001 65 27 4
5.0819998 5.4489999 -0.76499999 61 43 39
5.0830002 5.4499998 -0.76099998 59 44 41
5.0539999 5.448 -0.755 54 36 32
5.0580001 5.4520001 -0.75199997 132 116 116
5.059 5.4429998 -0.759 108 81 60
5.0570002 5.447 -0.75700003 150 120 96
5.0279999 5.4320002 -0.81699997 165 129 105
5.0300002 5.4380002 -0.815 14 6 4
5.0469999 5.4359999 -0.81900001 111 91 84
4.9829998 5.4200001 -0.72299999 14 2 2
4.9699998 5.4200001 -0.74000001 31 7 5
4.993 5.4250002 -0.72500002 32 4 1
4.9980001 5.4260001 -0.73000002 42 18 8
5.0050001 5.408 -0.72500002 76 51 29
4.9970002 5.4000001 -0.75199997 110 92 82
4.9770002 5.4520001 -0.70499998 78 59 52
5.0469999 5.5120001 -0.368 199 131 96
5.0380001 5.4889998 -0.39399999 76 43 26
5.0120001 5.4899998 -0.39500001 99 36 3
5.0370002 5.506 -0.391 30 10 3
5.0999999 5.494 -0.77399999 59 40 26
5.1069999 5.5089998 -0.76499999 21 15 17
5.1079998 5.5019999 -0.76999998 27 21 23
5.1059999 5.4990001 -0.755 30 15 12
5.0710001 5.447 -0.76899999 123 94 86
5.073 5.448 -0.76599997 105 76 70
5.0840001 5.4640002 -0.77899998 60 49 47
5.0349998 5.4289999 -0.75 48 25 17
5.0320001 5.4310002 -0.75300002 29 1 0
5.0380001 5.4310002 -0.74699998 112 87 82
5.026 5.4299998 -0.764 107 85 72
5.0339999 5.4400001 -0.76300001 136 103 98
5.0339999 5.4400001 -0.72299999 37 14 6
5.0370002 5.4289999 -0.71700001 68 41 48
5.0370002 5.421 -0.71799999 92 62 38
5.0300002 5.4169998 -0.72399998 62 37 32
5.0079999 5.382 -0.81800002 44 18 5
5.0050001 5.3860002 -0.815 21 7 6
5.0089998 5.395 -0.82499999 27 8 4
5.0409999 5.408 -0.84399998 97 68 62
5.0250001 5.4159999 -0.86400002 93 83 81
5.0349998 5.4829998 -0.39300001 166 133 118
5.0110002 5.4780002 -0.38999999 174 111 67
4.9809999 5.5180001 -0.38 66 37 29
4.9790001 5.5250001 -0.382 109 82 75
4.987 5.5669999 -0.48199999 206 172 147
4.9829998 5.579 -0.477 193 108 51
5.0739999 5.6300001 -0.495 63 28 0
5.073 5.6290002 -0.48899999 207 160 134
5.0180001 5.5110002 -0.456 86 67 69
5.0100002 5.5279999 -0.495 88 70 58
5.0159998 5.4970002 -0.51999998 45 25 26
5.013 5.5029998 -0.52700001 98 62 40
5.0840001 5.6560001 -0.51499999 13 1 1
5.0570002 5.6040001 -0.56699997 24 12 12
5.0440001 5.6129999 -0.57300001 22 17 24
5.046 5.645 -0.50700003 125 69 34
5.0619998 5.6220002 -0.55000001 23 8 5
5.1259999 5.5079999 -0.73100001 49 24 20
5.085 5.5149999 -0.81 118 106 106
5.0830002 5.5110002 -0.78899997 31 11 2
5.0840001 5.5669999 -0.71399999 36 7 1
5.1230001 5.527 -0.70499998 26 13 7
5.119 5.5190001 -0.72000003 130 100 89
5.1339998 5.5149999 -0.70999998 249 205 166
5.1170001 5.5219998 -0.70300001 159 112 86
5.059 5.6269999 -0.53100002 33 13 12
5.0539999 5.618 -0.52600002 78 37 15
5.0630002 5.618 -0.51700002 84 45 16
5.059 5.6259999 -0.53500003 22 0 0
5.0799999 5.645 -0.52399999 43 23 16
5.0079999 5.5890002 -0.52499998 42 22 21
5.0100002 5.5780001 -0.53399998 16 4 4
5.02 5.52 -0.53799999 15 6 7
5.0050001 5.4120002 -0.86000001 62 50 50
4.9559999 5.4070001 -0.78600001 44 16 5
4.9380002 5.467 -0.79400003 25 11 11
4.9679999 5.4400001 -0.83700001 50 36 27
4.9689999 5.4349999 -0.833 25 6 0
4.9419999 5.4699998 -0.833 41 17 7
4.9569998 5.4650002 -0.84600002 27 12 7
4.9510002 5.474 -0.82999998 80 47 32
4.9380002 5.448 -0.81699997 19 7 9
4.9369998 5.4510002 -0.81800002 8 2 6
4.9400001 5.4450002 -0.81699997 36 22 22
4.9439998 5.4390001 -0.80000001 17 8 11
4.9510002 5.4180002 -0.787 15 10 16
4.9720001 5.4190001 -0.72100002 75 38 20
4.9400001 5.415 -0.73500001 65 41 31
4.948 5.3979998 -0.73900002 45 16 8
4.9590001 5.3889999 -0.75400001 100 80 69
4.9559999 5.4000001 -0.75400001 30 12 8
4.9499998 5.408 -0.75 30 10 9
4.9629998 5.415 -0.72100002 10 0 0
4.993 5.408 -0.75599998 29 17 17
4.9829998 5.421 -0.83700001 9 0 0
5.0100002 5.3990002 -0.83099997 152 143 146
5.0219998 5.402 -0.84500003 136 112 108
5.1209998 5.5120001 -0.741 105 95 94
5.0500002 5.4710002 -0.80299997 143 123 116
5.0609999 5.4699998 -0.824 69 62 43
5.0549998 5.4780002 -0.80500001 19 8 0
5.0570002 5.4770002 -0.79400003 24 7 0
5.0760002 5.4780002 -0.81999999 127 130 145
5.0650001 5.4749999 -0.82200003 110 113 128
5.0630002 5.4679999 -0.83399999 127 129 144
5.053 5.4559999 -0.829 133 130 137
4.9359999 5.4770002 -0.78299999 26 19 27
4.954 5.4899998 -0.792 31 17 16
4.9349999 5.4590001 -0.77899998 36 15 10
4.9349999 5.4640002 -0.77899998 131 104 93
4.9499998 5.4689999 -0.79100001 152 150 164
4.9959998 5.4489999 -0.727 42 13 7
5.0009999 5.4369998 -0.73100001 10 0 0
5.0009999 5.448 -0.73299998 37 9 5
4.9959998 5.4380002 -0.722 32 17 14
4.9619999 5.4699998 -0.838 17 11 11
4.9770002 5.487 -0.83700001 111 93 69
4.967 5.4850001 -0.82999998 16 7 8
4.948 5.4879999 -0.76899999 22 7 2
5.0489998 5.4380002 -0.84500003 53 34 27
4.9439998 5.4569998 -0.833 30 15 10
4.9349999 5.4699998 -0.82800001 21 7 4
4.9460001 5.4619999 -0.84200001 36 19 12
4.9450002 5.4629998 -0.84200001 25 1 0
4.9990001 5.5799999 -0.472 77 32 3
4.994 5.5739999 -0.472 109 82 75
5.0100002 5.5760002 -0.495 117 71 37
5.0040002 5.586 -0.46900001 108 71 45
4.9990001 5.579 -0.472 108 80 76
5.0120001 5.533 -0.36700001 217 221 222
5.0689998 5.6469998 -0.47799999 69 36 21
5.0570002 5.6170001 -0.472 104 67 41
5.0700002 5.631 -0.47799999 74 52 41
5.0419998 5.6399999 -0.48300001 111 100 98
4.9400001 5.5339999 -0.90700001 163 126 100
5.007 5.5079999 -0.55599999 39 23 24
5.04 5.4720001 -0.38299999 211 162 119
5.0209999 5.4809999 -0.39199999 189 124 82
5.0229998 5.4980001 -0.493 20 0 0
5.007 5.5079999 -0.48500001 31 15 16
5.0180001 5.5079999 -0.46900001 17 3 2
5.0159998 5.5040002 -0.47299999 153 132 129
5.0100002 5.5079999 -0.47099999 18 8 9
5.0110002 5.5149999 -0.465 17 2 5
5.0209999 5.4990001 -0.495 31 13 9
5.0120001 5.5019999 -0.498 16 5 9
5.0209999 5.5 -0.50199997 24 9 12
5.0180001 5.5040002 -0.49000001 23 3 2
5.007 5.5240002 -0.48300001 81 63 49
5.0250001 5.4910002 -0.53299999 37 27 28
5.0279999 5.4949999 -0.52899998 64 41 35
4.9920001 5.5570002 -0.48899999 236 149 78
4.993 5.5580001 -0.48800001 106 79 68
4.9910002 5.5570002 -0.48699999 197 143 99
4.9860001 5.5910001 -0.505 87 58 28
5.0079999 5.4770002 -0.56800002 99 78 73
5.0139999 5.4970002 -0.61900002 79 49 39
5.0170002 5.4959998 -0.62699997 97 65 52
4.9980001 5.5019999 -0.625 147 128 114
5.0040002 5.4990001 -0.63499999 70 54 54
5.0139999 5.5209999 -0.63800001 60 41 24
5.0089998 5.5159998 -0.63599998 35 16 10
5.007 5.513 -0.62900001 49 30 24
5.007 5.5240002 -0.65200001 36 18 18
5.007 5.573 -0.53600001 66 34 19
4.9879999 5.579 -0.50400001 55 3 0
4.993 5.579 -0.50700003 39 17 4
4.9879999 5.5830002 -0.50599998 45 18 7
4.9920001 5.5830002 -0.50700003 52 23 15
4.987 5.461 -0.92199999 19 0 0
4.9889998 5.4590001 -0.912 36 16 15
5.033 5.4569998 -0.86500001 145 147 162
5.0349998 5.4580002 -0.87300003 78 60 48
5.033 5.4710002 -0.889 79 38 10
4.9980001 5.473 -0.64499998 105 70 48
5.0110002 5.4860001 -0.64600003 74 46 35
4.993 5.48 -0.64999998 114 116 111
4.9920001 5.4749999 -0.64600003 61 26 0
4.948 5.4169998 -0.71799999 109 98 78
4.9450002 5.4089999 -0.71899998 101 75 62
4.9619999 5.4749999 -0.69999999 23 4 0
4.9780002 5.4289999 -0.71200001 12 4 1
4.954 5.4369998 -0.71100003 37 18 14
4.9980001 5.4920001 -0.63499999 120 92 80
5.0190001 5.573 -0.574 15 1 1
5.0139999 5.585 -0.62300003 37 21 24
5.0139999 5.5760002 -0.62699997 22 7 4
5.0289998 5.586 -0.64499998 115 103 103
5.02 5.552 -0.64099997 30 14 14
5.0250001 5.5580001 -0.65399998 126 116 117
5.04 5.599 -0.597 36 19 12
5.027 5.5679998 -0.59799999 23 13 14
5.0250001 5.5900002 -0.58700001 93 24 0
5.0209999 5.5939999 -0.59799999 37 22 3
5.007 5.579 -0.57499999 18 2 2
5.0149999 5.5780001 -0.59299999 21 11 12
5.0190001 5.572 -0.579 87 50 21
5.0190001 5.5710001 -0.58099997 49 33 34
5.0219998 5.572 -0.58399999 71 37 25
4.9569998 5.5450001 -0.72100002 33 9 5
4.994 5.4910002 -0.64499998 36 13 5
4.9980001 5.4949999 -0.66100001 71 48 34
4.9959998 5.4899998 -0.648 28 3 0
5.0289998 5.5349998 -0.63800001 127 90 61
5.02 5.52 -0.64999998 73 57 42
5.0370002 5.5669999 -0.62300003 36 12 0
5.0339999 5.5549998 -0.63300002 128 110 96
5.0380001 5.572 -0.62300003 34 9 2
5.0159998 5.5879998 -0.66500002 75 38 30
5.0100002 5.5809999 -0.66500002 58 51 45
5.0339999 5.592 -0.64200002 67 38 30
5.0320001 5.5910001 -0.64399999 34 5 0
4.9899998 5.598 -0.68099999 30 14 14
4.9899998 5.598 -0.68300003 21 5 5
4.9889998 5.6059999 -0.69300002 34 16 14
5.0149999 5.5549998 -0.68199998 52 25 8
5.0219998 5.552 -0.68000001 19 7 7
5.0120001 5.5409999 -0.69300002 102 95 85
4.9759998 5.598 -0.49399999 157 119 96
4.9759998 5.5949998 -0.491 110 75 43
4.9990001 5.5180001 -0.36300001 176 140 114
4.9889998 5.5250001 -0.38499999 89 64 57
5.033 5.5110002 -0.382 62 42 41
4.9980001 5.513 -0.361 194 166 103
5.027 5.5289998 -0.38999999 34 16 16
5.0180001 5.526 -0.40000001 35 15 17
5.0310001 5.5100002 -0.359 66 42 30
5.007 5.5159998 -0.43799999 91 64 37
5 5.4419999 -0.70599997 13 4 5
5.0040002 5.434 -0.708 16 0 0
4.9970002 5.4380002 -0.70999998 77 29 9
4.9640002 5.3920002 -0.74000001 71 39 28
4.9959998 5.4229999 -0.74599999 115 95 86
4.993 5.4109998 -0.74800003 86 81 75
4.9489999 5.4130001 -0.77399999 54 31 23
4.948 5.414 -0.76999998 43 23 16
4.96 5.3870001 -0.76899999 41 25 25
5.0029998 5.3829999 -0.81 12 0 0
4.9759998 5.3920002 -0.76300001 14 8 8
5.0019999 5.382 -0.82300001 31 22 17
4.9460001 5.5359998 -0.90399998 9 1 0
4.994 5.5190001 -0.852 128 107 102
5.0040002 5.513 -0.866 21 11 10
4.9970002 5.5079999 -0.86900002 109 92 85
5 5.5219998 -0.87599999 152 145 152
5.0110002 5.5279999 -0.87300003 17 5 5
5.013 5.5289998 -0.88700002 38 24 23
4.9959998 5.5029998 -0.86400002 29 21 18
4.9959998 5.5159998 -0.85100001 21 5 5
4.9759998 5.4980001 -0.83399999 11 0 0
4.9809999 5.493 -0.83899999 19 7 7
4.9879999 5.4949999 -0.84600002 14 0 0
4.928 5.5180001 -0.89999998 253 225 203
4.9860001 5.5180001 -0.833 141 140 154
4.9850001 5.5170002 -0.83600003 172 170 183
4.9349999 5.4679999 -0.787 20 2 0
5.0749998 5.46 -0.78500003 114 87 70
5.073 5.4619999 -0.78500003 27 9 9
5.0450001 5.4569998 -0.74800003 33 14 10
5.0440001 5.4520001 -0.74599999 26 2 0
5.0240002 5.5479999 -0.82200003 144 127 117
