ply
format ascii 1.0
comment PCL generated
element vertex 370
property float x
property float y
property float z
property uchar red
property uchar green
property uchar blue
element camera 1
property float view_px
property float view_py
property float view_pz
property float x_axisx
property float x_axisy
property float x_axisz
property float y_axisx
property float y_axisy
property float y_axisz
property float z_axisx
property float z_axisy
property float z_axisz
property float focal
property float scalex
property float scaley
property float centerx
property float centery
property int viewportx
property int viewporty
property float k1
property float k2
end_header
10.708 4.9879999 -0.83600003 115 109 113
10.708 4.9860001 -0.85500002 80 54 37
10.716 4.9829998 -0.84500003 132 123 126
10.702 5.0159998 -0.889 77 54 38
10.682 5.0240002 -0.89399999 46 13 0
10.684 5.027 -0.89899999 90 59 41
10.705 5.0229998 -0.89700001 34 7 0
10.715 5.0050001 -0.69 101 62 23
10.716 5.0050001 -0.69700003 143 107 71
10.714 4.9980001 -0.69499999 141 87 49
10.708 4.9879999 -0.84200001 101 82 52
10.717 4.9879999 -0.83899999 108 88 77
10.681 5.0310001 -0.88 106 59 29
10.678 5.0149999 -0.87699997 97 62 32
10.67 5.0219998 -0.86199999 173 100 55
10.705 5.052 -0.85000002 83 55 34
10.714 5.052 -0.85500002 21 1 0
10.716 5.0560002 -0.85100001 81 53 42
10.664 5.0139999 -0.75099999 190 108 52
10.671 5.0149999 -0.73900002 69 40 24
10.673 5.0079999 -0.75099999 55 24 0
10.675 5.0159998 -0.85799998 35 7 0
10.667 5.0159998 -0.75599998 52 32 23
10.67 5.0219998 -0.73100001 119 85 48
10.667 5.0289998 -0.73100001 100 79 60
10.662 5.0250001 -0.74599999 66 44 33
10.714 5.006 -0.76099998 72 36 4
10.718 5.007 -0.76899999 145 108 82
10.708 5.0050001 -0.76700002 52 26 9
10.71 5.0040002 -0.77600002 95 73 62
10.718 5.0510001 -0.82599998 86 61 41
10.717 5.0489998 -0.85000002 76 59 51
10.676 5.033 -0.86799997 157 123 85
10.68 5.0320001 -0.87599999 113 71 55
10.677 5.0380001 -0.87199998 34 13 8
10.676 5.027 -0.85000002 48 33 30
10.692 5.0079999 -0.86199999 51 37 28
10.701 4.9949999 -0.85799998 115 84 63
10.707 4.9910002 -0.86500001 56 27 11
10.684 5.0170002 -0.87900001 51 15 1
10.688 5.0190001 -0.88099998 97 62 42
10.695 5.0250001 -0.89600003 58 28 18
10.71 5.052 -0.84399998 52 32 25
10.698 5.0510001 -0.81 102 67 47
10.697 5.0500002 -0.81999999 78 42 20
10.692 5.0310001 -0.80699998 98 66 51
10.706 5.0009999 -0.71100003 152 62 0
10.697 4.9949999 -0.70099998 165 85 26
10.693 4.9970002 -0.70200002 143 95 47
10.691 5.0050001 -0.69700003 119 85 58
10.7 5.0029998 -0.69499999 235 198 154
10.686 5.0149999 -0.69700003 75 46 40
10.69 5.0159998 -0.69 142 104 65
10.691 5.0219998 -0.69499999 152 104 55
10.69 5.0079999 -0.69700003 105 78 71
10.71 5.0100002 -0.69599998 218 127 56
10.718 5.0240002 -0.713 108 72 40
10.706 5.0149999 -0.71100003 108 62 28
10.703 5.0180001 -0.69300002 255 226 173
10.668 5.0229998 -0.73500001 120 73 27
10.717 5.0229998 -0.72000003 80 36 9
10.711 5.0079999 -0.708 165 130 110
10.726 5.0209999 -0.71399999 114 75 46
10.668 5.0159998 -0.74599999 43 21 8
10.698 5.0009999 -0.801 61 35 22
10.699 4.9980001 -0.81599998 94 54 19
10.692 5 -0.80699998 45 22 16
10.709 5.0009999 -0.80199999 35 9 0
10.699 4.9990001 -0.815 80 49 44
10.716 5.006 -0.77899998 37 16 11
10.713 5.006 -0.77999997 101 62 29
10.72 4.9850001 -0.84500003 88 59 41
10.666 5.0219998 -0.76300001 137 93 54
10.669 5.02 -0.76499999 160 83 39
10.708 5.02 -0.89300001 34 2 0
10.722 5.0339999 -0.79299998 91 63 52
10.726 5.0380001 -0.78799999 37 15 2
10.731 5.0219998 -0.78799999 37 21 21
10.683 5.0380001 -0.861 24 6 2
10.684 5.0170002 -0.86299998 118 54 16
10.712 4.993 -0.866 56 33 19
10.719 4.9879999 -0.86500001 85 51 41
10.719 5.007 -0.86900002 94 63 42
10.683 5.0240002 -0.88700002 62 25 6
10.697 5.026 -0.889 41 9 0
10.708 5.0279999 -0.88 182 158 134
10.714 5.0469999 -0.82599998 115 100 95
10.702 5.046 -0.81300002 91 45 12
10.702 5.0380001 -0.82800001 60 36 12
10.704 5.0479999 -0.82099998 73 27 0
10.704 5.0240002 -0.815 69 42 35
10.711 5.0549998 -0.829 59 44 11
10.693 5.0500002 -0.83200002 71 52 45
10.724 5.0219998 -0.722 102 81 76
10.715 5.0190001 -0.73199999 72 36 20
10.684 5.006 -0.741 120 90 66
10.68 5.0110002 -0.73699999 196 114 66
10.706 5.007 -0.75300002 123 92 72
10.699 5.0110002 -0.68300003 107 75 54
10.707 5.007 -0.68900001 137 99 54
10.711 5.0029998 -0.70099998 182 122 52
10.708 5.0009999 -0.708 108 73 51
10.712 5.0089998 -0.69800001 109 71 48
10.696 5.0170002 -0.68800002 186 140 90
10.703 5.013 -0.68900001 194 152 102
10.672 5.0250001 -0.72899997 127 79 31
10.712 5.033 -0.70899999 74 46 35
10.723 5.0500002 -0.72000003 119 97 76
10.723 5.0469999 -0.72100002 122 89 74
10.681 5.0240002 -0.72899997 76 46 36
10.675 5.0339999 -0.73400003 133 85 47
10.663 5.0250001 -0.75599998 63 43 34
10.685 5.0079999 -0.76200002 39 12 0
10.681 5.0219998 -0.84899998 59 34 27
10.685 5.0050001 -0.83700001 65 46 40
10.669 5.02 -0.74199998 98 67 49
10.701 5.027 -0.77499998 36 13 0
10.698 5.027 -0.77499998 88 52 36
10.69 5.0300002 -0.78100002 129 86 51
10.704 5.0310001 -0.76899999 43 11 0
10.718 5.0479999 -0.72899997 127 95 82
10.722 5.027 -0.72799999 71 34 15
10.713 5.0479999 -0.73699999 54 22 9
10.685 5.0180001 -0.77899998 25 8 1
10.677 5.0139999 -0.78299999 101 73 51
10.695 5.0139999 -0.77999997 103 53 16
10.683 5.0180001 -0.78899997 37 22 17
10.687 5.0040002 -0.81199998 107 52 21
10.685 5.0029998 -0.82099998 71 28 0
10.697 5.007 -0.84500003 49 19 9
10.707 4.9899998 -0.83499998 68 39 25
10.714 4.9949999 -0.838 80 52 30
10.708 5.0040002 -0.79400003 163 101 64
10.7 5.0100002 -0.77999997 74 56 52
10.727 5.0120001 -0.79100001 37 17 10
10.723 5.0079999 -0.80500001 103 80 64
10.718 5.006 -0.79699999 51 28 14
10.682 5.0159998 -0.773 55 18 0
10.681 5.0320001 -0.84600002 105 63 41
10.687 5.0380001 -0.85100001 37 19 15
10.687 5.0359998 -0.83899999 51 26 21
10.684 5.0320001 -0.833 57 38 23
10.698 5.0450001 -0.852 90 61 47
10.704 5.0500002 -0.84899998 64 37 28
10.711 5.0359998 -0.84200001 83 46 20
10.702 5.0510001 -0.81300002 52 41 11
10.686 5.0149999 -0.85799998 49 26 20
10.677 5.0170002 -0.86000001 62 49 40
10.709 4.9920001 -0.86500001 63 30 21
10.709 5.0149999 -0.87199998 127 104 96
10.717 5.0139999 -0.87400001 60 28 7
10.706 5.0229998 -0.86900002 79 55 29
10.702 5.0279999 -0.87300003 72 37 17
10.685 5.0289998 -0.89099997 67 24 5
10.695 5.0229998 -0.89200002 81 48 29
10.702 5.0510001 -0.82300001 103 89 88
10.718 5.0240002 -0.73400003 66 39 18
10.721 5.0300002 -0.72399998 71 41 13
10.69 5.0110002 -0.75400001 76 46 38
10.681 5.0110002 -0.75999999 90 59 56
10.707 5.006 -0.69 148 111 67
10.692 5.0310001 -0.72500002 129 80 40
10.69 5.02 -0.69599998 142 95 53
10.689 5.02 -0.70200002 128 74 30
10.71 5.0380001 -0.70899999 102 69 16
10.695 5.027 -0.699 97 72 65
10.705 5.052 -0.73900002 185 153 106
10.674 5.0190001 -0.73500001 106 62 25
10.678 5.0209999 -0.72899997 172 96 36
10.674 5.0409999 -0.74000001 52 21 3
10.672 5.0339999 -0.736 169 119 66
10.669 5.039 -0.74599999 167 98 43
10.666 5.0339999 -0.75099999 207 177 125
10.675 5.0349998 -0.75300002 51 22 14
10.685 5.0359998 -0.75999999 47 16 13
10.664 5.0289998 -0.745 130 87 68
10.697 5.0089998 -0.76999998 46 27 20
10.673 5.0370002 -0.74699998 231 210 191
10.707 5.0180001 -0.73199999 82 24 0
10.701 5.0100002 -0.71899998 208 170 149
10.69 5.0019999 -0.83399999 94 37 7
10.688 5.0190001 -0.83200002 73 36 18
10.684 5.0180001 -0.81199998 43 14 10
10.668 5.0219998 -0.74199998 200 158 110
10.706 5.0310001 -0.74900001 75 43 32
10.713 5.0219998 -0.74699998 86 33 0
10.712 5.04 -0.73699999 60 27 18
10.714 5.0139999 -0.76300001 120 104 88
10.721 5.013 -0.77499998 64 37 16
10.711 5.0190001 -0.77600002 38 9 1
10.711 5.0159998 -0.74400002 55 25 14
10.688 5.0120001 -0.815 64 34 23
10.719 4.9879999 -0.85600001 150 114 100
10.72 5.0029998 -0.81699997 81 58 44
10.69 5.0019999 -0.82099998 112 53 23
10.71 5.02 -0.83200002 101 84 68
10.715 5.0139999 -0.80900002 105 46 12
10.698 5.0300002 -0.81699997 42 17 0
10.702 5.0050001 -0.83200002 71 38 19
10.7 5.007 -0.84100002 54 30 26
10.706 5.006 -0.85100001 30 9 6
10.69 5.0089998 -0.80500001 75 45 37
10.717 5.006 -0.79000002 38 15 1
10.696 5.0110002 -0.79400003 91 30 1
10.724 5.0190001 -0.78500003 30 1 0
10.73 5.0149999 -0.78500003 47 19 7
10.681 5.0240002 -0.77200001 119 80 49
10.686 5.027 -0.76899999 48 20 16
10.68 5.0190001 -0.78600001 78 53 46
10.7 5.0539999 -0.80900002 100 72 50
10.676 5.0159998 -0.79900002 47 25 12
10.724 5.0289998 -0.79100001 105 76 62
10.687 5.0240002 -0.84100002 31 7 0
10.691 5.0419998 -0.83099997 105 51 13
10.696 5.0450001 -0.82700002 82 61 44
10.69 5.0430002 -0.86000001 49 20 6
10.697 5.0430002 -0.85699999 89 65 61
10.693 5.04 -0.847 111 62 32
10.692 5.039 -0.83899999 108 59 26
10.702 5.0149999 -0.84100002 71 47 45
10.71 5.053 -0.80299997 45 25 16
10.684 5.0180001 -0.85600001 55 37 35
10.713 5.0100002 -0.86699998 152 124 113
10.72 5.0159998 -0.87 69 39 15
10.719 5.0159998 -0.86400002 74 42 21
10.709 5.0209999 -0.88300002 42 9 0
10.699 5.0190001 -0.88099998 43 15 4
10.683 5.033 -0.88800001 88 44 17
10.685 5.0430002 -0.875 136 82 44
10.708 5.0320001 -0.79799998 58 30 16
10.713 5.0240002 -0.73900002 60 30 20
10.719 5.0250001 -0.71399999 214 129 62
10.705 5.0170002 -0.72799999 61 34 27
10.695 5.013 -0.71799999 142 93 50
10.691 5.0089998 -0.70899999 61 32 26
10.691 5.0029998 -0.70999998 149 93 56
10.693 5.0089998 -0.75700003 88 71 64
10.708 4.9980001 -0.69599998 100 60 34
10.707 5.0079999 -0.71100003 180 160 149
10.694 5.0079999 -0.69199997 111 83 72
10.711 5.0440001 -0.71399999 162 109 67
10.696 5.0250001 -0.69999999 79 42 36
10.693 5.0229998 -0.704 163 136 125
10.693 5.04 -0.72600001 123 72 27
10.692 5.0339999 -0.76099998 74 16 0
10.688 5.0159998 -0.70599997 70 43 36
10.688 5.013 -0.69999999 126 88 51
10.666 5.0300002 -0.74199998 221 174 122
10.67 5.0300002 -0.75800002 45 15 13
10.694 5.0029998 -0.83899999 104 40 13
10.688 5.0229998 -0.82200003 142 74 39
10.684 5.0170002 -0.80699998 104 63 43
10.708 5.0209999 -0.75599998 54 24 13
10.705 5.0229998 -0.75800002 55 23 0
10.71 5.0100002 -0.75300002 45 22 8
10.702 5.0180001 -0.73900002 159 82 30
10.685 5.0240002 -0.78200001 55 36 29
10.712 5.0500002 -0.727 143 121 110
10.712 5.046 -0.71899998 141 86 47
10.706 5.0450001 -0.74299997 125 102 94
10.69 5.026 -0.787 51 24 15
10.684 5.0209999 -0.79500002 42 25 15
10.695 5.0250001 -0.79500002 70 45 23
10.697 5.0430002 -0.79799998 185 133 94
10.72 5 -0.85399997 121 91 67
10.719 5.0079999 -0.80800003 131 87 50
10.712 5.007 -0.81300002 46 32 21
10.694 4.9990001 -0.82300001 78 44 35
10.7 4.9990001 -0.82700002 67 36 31
10.717 5.0100002 -0.81599998 68 37 32
10.708 5.0139999 -0.85100001 36 16 15
10.716 5.0050001 -0.85399997 145 113 92
10.695 5.033 -0.81800002 147 103 76
10.707 5.0050001 -0.82700002 51 38 21
10.715 5.0019999 -0.85299999 91 59 34
10.704 5.0079999 -0.77399999 153 121 100
10.723 5.0120001 -0.78500003 86 60 43
10.718 5.007 -0.778 91 47 12
10.704 5.006 -0.79500002 65 39 26
10.72 5.0089998 -0.79299998 72 27 0
10.682 5.0209999 -0.77600002 78 20 0
10.678 5.02 -0.79400003 49 24 17
10.679 5.0170002 -0.79900002 29 11 7
10.678 5.0170002 -0.79100001 105 56 16
10.699 5.0419998 -0.84899998 60 35 30
10.702 5.027 -0.84799999 89 57 44
10.709 5.0339999 -0.83399999 153 113 87
10.704 5.053 -0.80599999 158 115 83
10.715 5.0219998 -0.87699997 57 28 10
10.708 5.0209999 -0.86299998 45 12 0
10.699 5.0300002 -0.79100001 57 39 35
10.714 5.0469999 -0.79699999 105 71 44
10.718 5.0279999 -0.73199999 108 86 73
10.718 5.0359998 -0.72000003 128 92 68
10.698 5.0120001 -0.72500002 177 123 97
10.696 5.0110002 -0.72399998 255 180 120
10.681 5.0370002 -0.75099999 45 11 9
10.699 5.026 -0.70999998 96 42 6
10.693 5.0219998 -0.70599997 168 116 76
10.678 5.0229998 -0.76499999 155 123 108
10.674 5.033 -0.755 47 25 14
10.706 5.0180001 -0.73699999 43 16 9
10.696 4.9990001 -0.83200002 74 44 36
10.684 5.02 -0.80699998 101 40 11
10.708 5.0190001 -0.75800002 54 27 20
10.696 5.0180001 -0.741 35 17 7
10.699 5.0170002 -0.73699999 77 51 26
10.707 5.0489998 -0.73199999 67 44 28
10.703 5.046 -0.73100001 76 43 34
10.691 5.0469999 -0.73000002 93 60 45
10.693 5.0440001 -0.73299998 91 69 55
10.708 4.9879999 -0.85699999 92 71 40
10.718 4.9899998 -0.86000001 52 21 3
10.717 5.0139999 -0.85399997 59 27 4
10.698 5.0100002 -0.79500002 69 40 24
10.681 5.013 -0.76499999 139 65 26
10.698 5.0479999 -0.80599999 125 105 98
10.681 5.0209999 -0.79400003 87 59 37
10.726 5.0209999 -0.79299998 35 8 0
10.724 5.0190001 -0.79500002 44 26 26
10.687 5.0359998 -0.847 41 17 13
10.7 5.046 -0.83600003 62 39 23
10.688 5.0419998 -0.87199998 97 48 16
10.687 5.0440001 -0.87300003 63 39 35
10.694 5.0320001 -0.86699998 113 76 58
10.696 5.0339999 -0.86000001 64 46 42
10.7 5.0240002 -0.85699999 74 40 28
10.685 5.0370002 -0.85699999 84 41 22
10.707 5.046 -0.80000001 104 72 59
10.688 5.0180001 -0.70999998 99 58 12
10.69 5.0120001 -0.70700002 120 89 42
10.694 5.0139999 -0.75199997 66 44 23
10.691 5.0029998 -0.70999998 149 93 56
10.681 5.0370002 -0.745 92 31 2
10.706 5.0170002 -0.71799999 171 136 117
10.703 5.0300002 -0.71200001 121 66 27
10.708 5.0359998 -0.713 118 90 68
10.684 5.0320001 -0.76099998 86 59 40
10.682 5.0170002 -0.73500001 113 67 43
10.665 5.0300002 -0.75599998 242 203 186
10.712 5.0339999 -0.78600001 54 28 13
10.701 5.0419998 -0.74400002 49 15 6
10.691 5.0349998 -0.74299997 50 15 11
10.691 5.0289998 -0.82700002 100 65 46
10.708 5.0190001 -0.85699999 51 21 10
10.703 4.9990001 -0.829 82 21 0
10.681 5.0219998 -0.79000002 49 30 23
10.722 5.0100002 -0.80299997 30 7 0
10.719 5.027 -0.79699999 37 18 3
10.705 5.0190001 -0.84299999 66 33 14
10.69 5.0209999 -0.87300003 103 67 45
10.687 5.0440001 -0.86799997 135 80 41
10.707 5.0409999 -0.72000003 46 22 10
10.698 5.0089998 -0.759 54 31 23
10.694 5.0029998 -0.70999998 124 87 43
10.684 5.0359998 -0.74299997 69 43 28
10.705 5.0170002 -0.72000003 82 55 44
10.686 5.0320001 -0.73199999 80 55 35
10.689 5.0110002 -0.80199999 54 25 19
10.711 5.0149999 -0.759 47 32 27
10.702 5.0240002 -0.82300001 37 9 5
10.715 5.0180001 -0.80199999 32 9 1
10.679 5.0209999 -0.79100001 103 42 11
10.715 5.04 -0.72799999 85 53 42
10.701 5.0409999 -0.727 99 75 73
10.704 5.039 -0.72000003 115 64 21
10.702 5.0359998 -0.72100002 164 96 49
10.697 4.9980001 -0.70700002 156 125 120
10.688 5.0419998 -0.86799997 100 71 55
10.7 5.0300002 -0.71899998 39 15 5
0 0 0 1 0 0 0 1 0 0 0 1 0 0 0 0 0 370 1 0 0
