ply
format ascii 1.0
comment PCL generated
element vertex 1050
property float x
property float y
property float z
property uchar red
property uchar green
property uchar blue
element camera 1
property float view_px
property float view_py
property float view_pz
property float x_axisx
property float x_axisy
property float x_axisz
property float y_axisx
property float y_axisy
property float y_axisz
property float z_axisx
property float z_axisy
property float z_axisz
property float focal
property float scalex
property float scaley
property float centerx
property float centery
property int viewportx
property int viewporty
property float k1
property float k2
end_header
-13.354 4.1030002 -1.114 192 142 115
-13.372 4.1040001 -1.11 155 94 37
-13.353 4.1090002 -1.101 197 154 59
-13.307 4.1459999 -1.027 153 88 48
-13.292 4.1440001 -1.017 208 142 92
-13.31 4.1300001 -1.023 196 133 89
-13.303 4.152 -1.0319999 177 84 27
-13.291 4.1529999 -1.013 159 115 68
-13.292 4.1459999 -1.0140001 126 78 32
-13.373 4.1209998 -1.002 161 106 50
-13.375 4.1170001 -0.99199998 110 66 41
-13.383 4.1259999 -0.99000001 157 96 33
-13.382 4.1199999 -0.98400003 205 138 70
-13.309 4.1810002 -0.66600001 168 109 41
-13.321 4.1859999 -0.66399997 47 7 0
-13.314 4.1849999 -0.67799997 182 148 121
-13.365 4.118 -0.99900001 188 108 45
-13.363 4.1149998 -0.99000001 133 79 35
-13.363 4.119 -1.001 105 58 28
-13.33 4.119 -0.74599999 141 99 74
-13.331 4.118 -0.73199999 185 130 74
-13.33 4.1059999 -0.74699998 162 100 51
-13.333 4.1090002 -0.96799999 144 87 44
-13.34 4.1090002 -0.96899998 248 161 84
-13.337 4.0999999 -0.95200002 188 124 52
-13.346 4.1110001 -0.97600001 207 124 58
-13.341 4.112 -0.96100003 223 138 81
-13.339 4.1079998 -0.95999998 241 149 64
-13.352 4.105 -1.1160001 215 157 94
-13.343 4.1220002 -1.11 242 162 89
-13.334 4.1240001 -0.759 140 82 34
-13.334 4.118 -0.75599998 161 97 49
-13.336 4.1110001 -0.75099999 155 98 43
-13.305 4.1789999 -0.67900002 144 112 101
-13.301 4.1680002 -0.676 191 152 111
-13.308 4.1729999 -0.68599999 239 168 112
-13.3 4.1700001 -0.67400002 197 144 92
-13.311 4.145 -0.67199999 137 87 38
-13.309 4.1440001 -0.67199999 128 94 66
-13.311 4.1430001 -0.66799998 155 104 51
-13.318 4.1389999 -0.66299999 128 57 3
-13.318 4.1420002 -1.036 99 36 0
-13.312 4.1739998 -0.85799998 123 69 31
-13.328 4.1750002 -0.86199999 122 77 35
-13.31 4.1729999 -0.84799999 130 78 38
-13.317 4.2069998 -0.96700001 56 27 0
-13.317 4.211 -0.95999998 111 58 16
-13.323 4.2059999 -0.96600002 212 147 91
-13.32 4.1999998 -0.96200001 169 130 101
-13.291 4.2329998 -1.0650001 176 109 41
-13.3 4.2350001 -1.072 252 151 73
-13.296 4.237 -1.075 248 149 47
-13.291 4.2379999 -1.079 206 120 33
-13.324 4.1680002 -0.83600003 103 59 22
-13.318 4.1669998 -0.83399999 115 75 49
-13.326 4.164 -0.83099997 99 50 10
-13.306 4.164 -0.685 49 26 8
-13.373 4.118 -0.99599999 164 97 45
-13.352 4.112 -1.1059999 253 195 96
-13.351 4.1030002 -0.74199998 182 119 65
-13.338 4.1079998 -0.74599999 147 76 20
-13.328 4.1100001 -0.97000003 211 150 103
-13.338 4.1090002 -0.96499997 146 98 58
-13.308 4.1469998 -0.67900002 121 71 36
-13.304 4.158 -0.68400002 166 114 67
-13.319 4.151 -0.68800002 107 58 25
-13.35 4.1220002 -1.123 211 156 100
-13.332 4.132 -1.114 165 104 59
-13.327 4.1329999 -1.11 188 146 121
-13.286 4.2290001 -1.105 185 141 92
-13.295 4.2280002 -1.115 172 104 41
-13.294 4.2449999 -1.104 194 101 40
-13.278 4.2319999 -1.096 157 112 44
-13.297 4.2319999 -1.108 90 35 0
-13.356 4.119 -0.97399998 210 120 34
-13.356 4.1059999 -0.847 219 139 80
-13.362 4.1160002 -0.85100001 122 88 60
-13.368 4.105 -0.84200001 244 160 100
-13.301 4.1459999 -1.02 132 59 4
-13.31 4.1700001 -0.91500002 89 42 16
-13.306 4.1669998 -0.91000003 179 141 102
-13.301 4.1609998 -0.91600001 150 107 75
-13.305 4.164 -0.91399997 84 36 13
-13.31 4.1680002 -0.91600001 137 85 46
-13.336 4.1079998 -0.95599997 255 179 97
-13.307 4.1589999 -0.66799998 123 72 25
-13.302 4.1739998 -0.66799998 131 86 45
-13.302 4.1700001 -0.65399998 224 169 115
-13.369 4.152 -0.77499998 174 87 18
-13.372 4.1620002 -0.77999997 191 114 68
-13.37 4.1609998 -0.78200001 158 106 66
-13.369 4.1539998 -0.77600002 168 63 0
-13.369 4.152 -0.76899999 111 50 21
-13.367 4.164 -0.76800001 164 91 23
-13.336 4.191 -0.75700003 171 135 103
-13.349 4.197 -0.76300001 116 70 34
-13.339 4.1900001 -0.75599998 125 74 21
-13.302 4.1869998 -0.72799999 91 47 8
-13.296 4.1849999 -0.73199999 149 100 59
-13.293 4.1820002 -0.722 189 142 88
-13.308 4.1960001 -0.73900002 142 80 39
-13.336 4.1479998 -0.66799998 143 80 36
-13.325 4.1420002 -0.65499997 127 70 25
-13.334 4.1500001 -0.65799999 198 137 83
-13.352 4.1960001 -1.104 107 39 0
-13.366 4.1890001 -1.104 125 86 57
-13.361 4.1900001 -1.096 117 65 15
-13.354 4.2080002 -1.108 118 44 0
-13.369 4.1680002 -0.764 181 126 72
-13.366 4.112 -1.103 157 80 0
-13.377 4.1069999 -1.1109999 240 175 81
-13.358 4.1149998 -1.098 211 152 84
-13.341 4.1090002 -0.73299998 102 52 15
-13.353 4.1139998 -0.72799999 138 100 61
-13.317 4.1469998 -0.65499997 194 126 65
-13.377 4.1529999 -0.99299997 136 49 0
-13.379 4.1539998 -1.002 143 77 29
-13.382 4.1440001 -0.99199998 143 67 9
-13.29 4.2309999 -1.061 255 156 54
-13.271 4.2270002 -1.064 189 135 63
-13.319 4.2010002 -0.97399998 223 162 107
-13.305 4.197 -0.972 182 113 56
-13.315 4.1950002 -0.97899997 55 19 0
-13.271 4.224 -1.075 112 61 14
-13.27 4.2210002 -1.077 201 140 60
-13.27 4.2270002 -1.0779999 168 119 40
-13.288 4.2340002 -1.091 206 112 38
-13.305 4.1999998 -0.95599997 221 154 99
-13.305 4.1999998 -0.95300001 112 83 43
-13.307 4.1960001 -0.95899999 149 101 63
-13.312 4.1669998 -0.838 137 85 38
-13.31 4.1630001 -0.83700001 147 79 40
-13.318 4.1669998 -0.83600003 75 52 36
-13.32 4.1669998 -0.83600003 154 95 53
-13.298 4.2290001 -1.11 234 142 59
-13.295 4.2280002 -1.105 184 115 50
-13.299 4.2340002 -1.0880001 245 146 61
-13.298 4.2410002 -1.102 192 116 41
-13.336 4.1830001 -0.74699998 242 216 189
-13.314 4.1950002 -0.73500001 113 70 27
-13.318 4.1999998 -0.74199998 126 74 35
-13.312 4.1989999 -0.74000001 93 50 18
-13.313 4.1659999 -0.69400001 154 120 111
-13.295 4.1810002 -0.72600001 69 53 37
-13.296 4.1810002 -0.73100001 223 161 112
-13.362 4.145 -1.021 104 73 55
-13.372 4.1350002 -1.012 166 109 66
-13.377 4.1389999 -1.015 142 92 57
-13.377 4.1279998 -1.0039999 85 33 0
-13.363 4.1170001 -1.1059999 247 199 115
-13.333 4.1059999 -0.96100003 199 111 40
-13.291 4.2259998 -1.099 119 63 28
-13.359 4.132 -1.012 141 71 22
-13.342 4.1139998 -0.96399999 205 125 64
-13.322 4.171 -0.796 97 65 54
-13.326 4.1690001 -0.79799998 108 59 27
-13.338 4.1849999 -0.79100001 67 15 0
-13.295 4.1609998 -0.74400002 91 54 28
-13.296 4.1609998 -0.73000002 132 81 34
-13.297 4.1560001 -0.73199999 179 108 62
-13.295 4.164 -0.74299997 186 115 63
-13.291 4.177 -0.74199998 108 68 32
-13.296 4.1789999 -0.73199999 162 104 58
-13.348 4.1110001 -0.74699998 208 124 60
-13.348 4.1170001 -0.75400001 187 123 75
-13.313 4.1680002 -0.80000001 142 91 48
-13.312 4.171 -0.78100002 102 62 27
-13.315 4.1659999 -0.792 124 71 29
-13.316 4.1599998 -0.78500003 102 49 5
-13.356 4.112 -0.84899998 170 99 43
-13.318 4.112 -0.95700002 136 97 68
-13.315 4.1149998 -0.95300001 164 120 95
-13.313 4.1110001 -0.963 222 134 63
-13.32 4.105 -0.95999998 159 114 83
-13.352 4.1030002 -0.84299999 199 109 46
-13.296 4.1560001 -1.02 135 86 30
-13.298 4.151 -1.02 189 139 90
-13.306 4.1500001 -1.006 165 115 80
-13.313 4.1700001 -0.90700001 179 80 15
-13.327 4.1719999 -0.85699999 148 108 83
-13.338 4.1739998 -0.86500001 184 140 103
-13.351 4.1719999 -0.852 102 55 27
-13.334 4.1700001 -0.86000001 128 72 25
-13.317 4.125 -0.96700001 122 70 30
-13.316 4.138 -0.95599997 179 88 35
-13.318 4.1500001 -0.972 181 136 107
-13.315 4.1199999 -0.96700001 96 45 18
-13.322 4.119 -0.96799999 158 114 79
-13.303 4.1669998 -0.66000003 115 85 57
-13.361 4.1669998 -0.78799999 196 117 51
-13.341 4.1960001 -0.76700002 149 93 58
-13.338 4.1960001 -0.77700001 106 59 13
-13.297 4.1830001 -0.73799998 131 84 32
-13.303 4.184 -0.745 127 93 66
-13.323 4.145 -0.67000002 170 109 55
-13.364 4.2129998 -1.079 144 87 44
-13.354 4.2280002 -1.0930001 255 189 110
-13.356 4.21 -1.075 151 77 32
-13.369 4.152 -1.011 138 75 32
-13.331 4.1399999 -1.105 180 106 31
-13.336 4.1370001 -1.103 229 164 72
-13.335 4.1539998 -0.662 109 46 2
-13.339 4.1560001 -0.67199999 102 60 36
-13.366 4.1830001 -0.76599997 203 143 57
-13.371 4.1789999 -0.76999998 130 91 76
-13.327 4.177 -0.67199999 158 115 64
-13.331 4.165 -0.662 189 105 32
-13.376 4.1069999 -1.114 136 110 93
-13.368 4.1079998 -1.119 226 159 70
-13.324 4.1500001 -0.65799999 148 92 41
-13.349 4.178 -0.87599999 161 108 54
-13.362 4.1739998 -0.86799997 203 153 92
-13.37 4.1789999 -0.79100001 225 152 111
-13.356 4.1919999 -0.77899998 157 120 91
-13.365 4.1999998 -0.778 184 141 109
-13.356 4.1810002 -0.78899997 233 154 87
-13.374 4.1700001 -0.94700003 157 84 33
-13.364 4.1760001 -0.93699998 181 141 115
-13.381 4.1659999 -0.94300002 235 162 83
-13.368 4.1659999 -0.93800002 85 41 14
-13.361 4.1490002 -0.91000003 147 73 24
-13.364 4.151 -0.90499997 159 88 36
-13.359 4.1550002 -0.90799999 142 95 67
-13.378 4.1620002 -0.94300002 254 210 139
-13.366 4.1529999 -0.93800002 195 119 61
-13.335 4.1129999 -0.95300001 143 76 34
-13.327 4.2059999 -0.97100002 231 170 126
-13.319 4.197 -0.97600001 55 19 0
-13.332 4.1389999 -1.04 244 188 131
-13.331 4.1409998 -1.0470001 98 60 24
-13.32 4.1360002 -1.0319999 191 110 57
-13.314 4.1339998 -1.026 160 101 61
-13.314 4.1700001 -0.847 158 108 57
-13.279 4.2280002 -1.077 132 89 55
-13.275 4.224 -1.069 192 133 55
-13.277 4.2309999 -1.091 142 94 18
-13.316 4.198 -0.958 212 141 79
-13.307 4.2010002 -0.95499998 196 143 101
-13.314 4.1849999 -0.97799999 132 88 63
-13.308 4.1919999 -0.97100002 109 74 42
-13.31 4.2030001 -0.95999998 92 62 26
-13.361 4.1929998 -0.77600002 142 83 43
-13.359 4.1859999 -0.778 221 166 127
-13.351 4.1939998 -0.77700001 118 96 75
-13.358 4.1950002 -0.77700001 150 107 73
-13.352 4.1469998 -0.75700003 221 146 79
-13.352 4.1409998 -0.759 238 153 72
-13.302 4.2259998 -1.107 113 76 49
-13.297 4.2379999 -1.103 224 126 29
-13.295 4.237 -1.096 183 129 55
-13.365 4.1929998 -0.76899999 225 205 194
-13.32 4.184 -0.67199999 99 62 36
-13.357 4.1890001 -0.75999999 123 64 22
-13.341 4.1420002 -1.044 126 50 0
-13.345 4.1459999 -1.045 193 158 138
-13.339 4.1440001 -1.0470001 174 119 63
-13.336 4.1389999 -1.0369999 182 141 113
-13.369 4.1199999 -1 157 80 24
-13.358 4.1209998 -0.995 97 70 51
-13.366 4.1149998 -0.98199999 89 82 72
-13.363 4.1279998 -1.108 251 152 58
-13.352 4.1129999 -1.107 196 126 41
-13.349 4.1220002 -1.104 246 152 91
-13.278 4.2270002 -1.0650001 174 110 38
-13.345 4.1149998 -0.97899997 119 74 43
-13.361 4.131 -1.007 108 55 21
-13.342 4.1129999 -0.96899998 179 116 49
-13.338 4.1170001 -0.96100003 229 163 102
-13.321 4.1659999 -0.79699999 122 49 0
-13.299 4.1669998 -0.75 72 67 61
-13.296 4.1750002 -0.745 62 20 4
-13.33 4.1339998 -0.75199997 165 121 94
-13.342 4.132 -0.76700002 157 118 103
-13.322 4.1620002 -0.77499998 114 56 19
-13.325 4.165 -0.78200001 233 169 123
-13.349 4.132 -0.90200001 175 102 47
-13.301 4.177 -0.75099999 94 64 56
-13.298 4.1750002 -0.75 176 126 93
-13.316 4.1789999 -0.778 98 55 20
-13.328 4.1739998 -0.787 200 125 60
-13.339 4.1149998 -0.75199997 179 141 128
-13.341 4.125 -0.76099998 98 53 11
-13.345 4.1079998 -0.741 199 132 61
-13.346 4.1690001 -0.85600001 151 90 46
-13.355 4.1370001 -0.76599997 193 117 59
-13.338 4.1279998 -0.88700002 130 81 48
-13.346 4.131 -0.89999998 144 67 25
-13.354 4.125 -0.87699997 150 84 34
-13.303 4.1469998 -1.022 142 69 18
-13.305 4.1440001 -1.0140001 169 138 120
-13.32 4.1409998 -0.97100002 98 51 0
-13.325 4.1350002 -0.97500002 140 60 7
-13.321 4.1479998 -0.99599999 89 50 7
-13.329 4.138 -0.98000002 150 95 41
-13.308 4.1630001 -0.91000003 157 115 77
-13.305 4.1609998 -0.91399997 134 96 59
-13.31 4.1630001 -0.85900003 195 130 76
-13.337 4.1240001 -0.98100001 149 67 9
-13.337 4.1370001 -0.98199999 122 65 12
-13.346 4.1269999 -0.99800003 92 62 24
-13.365 4.158 -0.76499999 144 90 44
-13.351 4.1560001 -0.77200001 133 80 30
-13.327 4.1890001 -0.773 123 59 23
-13.318 4.1849999 -0.76700002 79 49 39
-13.305 4.1890001 -0.73400003 99 50 7
-13.358 4.119 -0.74199998 156 87 20
-13.323 4.1459999 -0.68000001 171 113 65
-13.304 4.1760001 -0.67199999 190 113 45
-13.366 4.1760001 -1.096 110 55 0
-13.365 4.1900001 -1.082 174 107 52
-13.363 4.1789999 -1.101 105 45 0
-13.367 4.2010002 -1.073 221 158 91
-13.369 4.1939998 -1.0779999 121 46 7
-13.356 4.2259998 -1.0930001 139 90 50
-13.355 4.2220001 -1.104 232 156 80
-13.356 4.2319999 -1.0930001 147 86 39
-13.35 4.2049999 -1.091 134 60 15
-13.347 4.2210002 -1.0930001 235 149 76
-13.339 4.223 -1.0829999 236 175 131
-13.355 4.1900001 -1.11 116 59 16
-13.339 4.1550002 -0.67299998 190 100 40
-13.352 4.1300001 -0.73500001 215 150 66
-13.32 4.1760001 -0.66399997 235 176 108
-13.351 4.177 -0.88099998 138 83 29
-13.365 4.171 -0.86299998 182 139 88
-13.348 4.164 -0.90700001 93 34 0
-13.352 4.1599998 -0.91399997 131 71 21
-13.366 4.1490002 -0.94599998 165 98 46
-13.362 4.1500001 -0.94099998 201 123 59
-13.357 4.1490002 -0.94800001 251 203 118
-13.35 4.1440001 -0.93800002 94 30 0
-13.333 4.1079998 -0.95300001 174 112 39
-13.378 4.1500001 -0.99699998 177 122 68
-13.363 4.1760001 -0.94499999 137 93 66
-13.335 4.2020001 -0.97000003 174 129 88
-13.294 4.2280002 -1.062 186 112 41
-13.288 4.2290001 -1.061 157 109 71
-13.343 4.1430001 -1.006 169 124 85
-13.335 4.1490002 -0.995 175 140 112
-13.335 4.1360002 -1.015 133 69 23
-13.346 4.1300001 -1.006 143 65 17
-13.345 4.1350002 -1.018 104 52 2
-13.32 4.165 -0.83999997 85 39 5
-13.286 4.2319999 -1.0880001 210 153 74
-13.36 4.1719999 -0.75700003 128 60 11
-13.349 4.1950002 -0.773 136 95 63
-13.346 4.1459999 -0.755 177 99 37
-13.326 4.1589999 -0.75599998 206 142 98
-13.342 4.1609998 -0.75999999 137 90 48
-13.302 4.2270002 -1.091 124 85 56
-13.294 4.2309999 -1.069 152 73 7
-13.337 4.2329998 -1.105 209 137 78
-13.35 4.2259998 -1.102 255 201 134
-13.315 4.1820002 -0.67199999 214 180 152
-13.314 4.184 -0.68199998 134 81 31
-13.322 4.1810002 -0.67400002 169 127 87
-13.316 4.1900001 -0.75400001 126 85 57
-13.294 4.177 -0.72299999 120 82 19
-13.308 4.1750002 -0.71600002 183 128 87
-13.305 4.1609998 -0.72899997 204 137 82
-13.307 4.1550002 -0.73299998 188 123 85
-13.366 4.119 -0.97500002 161 120 88
-13.364 4.118 -0.97899997 201 118 50
-13.372 4.1199999 -0.98199999 184 120 56
-13.366 4.1160002 -1.114 152 123 105
-13.352 4.1230001 -1.117 240 183 94
-13.351 4.1300001 -1.122 253 197 146
-13.359 4.1339998 -1.105 184 124 74
-13.328 4.1479998 -1.08 144 91 39
-13.325 4.1490002 -1.074 162 84 22
-13.324 4.1560001 -1.074 158 88 28
-13.329 4.1490002 -1.076 112 57 3
-13.341 4.1279998 -1.114 198 136 97
-13.344 4.1329999 -1.113 217 143 78
-13.293 4.2259998 -1.076 211 145 71
-13.289 4.23 -1.082 171 98 30
-13.29 4.2259998 -1.091 121 66 25
-13.341 4.211 -1.082 161 128 97
-13.33 4.2020001 -1.077 238 164 93
-13.324 4.2059999 -1.0779999 217 157 94
-13.334 4.2010002 -1.079 210 176 113
-13.336 4.2080002 -1.0829999 176 118 78
-13.3 4.164 -1.029 251 179 107
-13.3 4.1570001 -1.023 170 115 61
-13.371 4.158 -0.95200002 224 148 88
-13.352 4.1719999 -0.95200002 137 95 70
-13.33 4.1939998 -0.97899997 200 136 92
-13.277 4.224 -1.073 233 149 77
-13.278 4.2280002 -1.064 145 104 72
-13.334 4.1110001 -0.97000003 113 69 44
-13.353 4.118 -0.98400003 139 58 2
-13.332 4.1459999 -0.98699999 132 83 40
-13.31 4.1760001 -0.75800002 185 104 51
-13.318 4.1620002 -0.764 197 134 81
-13.324 4.1560001 -0.75999999 171 126 87
-13.307 4.1570001 -0.74199998 121 63 23
-13.297 4.171 -0.73199999 171 116 62
-13.309 4.1919999 -0.74400002 198 155 121
-13.317 4.1690001 -0.78399998 137 70 27
-13.356 4.1170001 -0.85100001 187 125 64
-13.347 4.1240001 -0.759 231 158 105
-13.353 4.1240001 -0.76099998 230 165 111
-13.325 4.105 -0.954 108 73 53
-13.305 4.1440001 -1.02 243 183 147
-13.3 4.1490002 -1.013 103 71 20
-13.306 4.1539998 -1.016 117 51 3
-13.307 4.1680002 -1.029 162 114 65
-13.323 4.1830001 -0.99400002 99 62 33
-13.319 4.1750002 -0.995 116 69 41
-13.312 4.1620002 -0.92500001 152 102 67
-13.322 4.1659999 -0.94800001 70 18 0
-13.313 4.1490002 -0.93699998 187 138 98
-13.32 4.1680002 -0.92299998 130 60 26
-13.312 4.1500001 -0.92500001 148 100 62
-13.32 4.1529999 -0.91500002 111 65 39
-13.31 4.1560001 -0.91399997 96 43 3
-13.314 4.1550002 -0.917 92 33 0
-13.311 4.1700001 -0.86000001 150 104 78
-13.31 4.1570001 -0.90600002 122 63 21
-13.32 4.1700001 -0.87699997 194 147 103
-13.331 4.1750002 -0.88499999 88 58 48
-13.319 4.1669998 -0.90100002 147 76 34
-13.331 4.1170001 -0.97399998 181 113 66
-13.347 4.132 -0.98900002 153 76 32
-13.339 4.131 -0.98100001 153 72 16
-13.347 4.1199999 -0.98199999 160 101 59
-13.357 4.1240001 -0.85500002 106 56 21
-13.351 4.1240001 -0.85699999 180 120 68
-13.344 4.1919999 -0.77899998 196 148 112
-13.352 4.1570001 -0.759 218 135 69
-13.351 4.1329999 -0.773 126 63 10
-13.338 4.1599998 -0.76599997 187 124 83
-13.327 4.1849999 -0.76800001 177 143 118
-13.333 4.1880002 -0.778 147 96 53
-13.332 4.1300001 -0.74199998 208 116 53
-13.3 4.1859999 -0.73699999 115 68 26
-13.353 4.1220002 -0.73500001 152 92 20
-13.353 4.1170001 -0.73799998 217 127 64
-13.35 4.112 -0.73500001 167 86 23
-13.316 4.1490002 -0.68400002 147 88 28
-13.318 4.1490002 -0.685 38 12 0
-13.321 4.1479998 -0.68300003 185 104 38
-13.373 4.1789999 -1.079 116 92 80
-13.373 4.1690001 -1.077 208 122 39
-13.365 4.204 -1.0779999 172 134 113
-13.352 4.1989999 -1.067 120 67 25
-13.352 4.1950002 -1.1109999 80 25 0
-13.339 4.2090001 -1.115 186 138 102
-13.344 4.1900001 -1.1 65 28 2
-13.328 4.1960001 -1.115 88 36 0
-13.328 4.197 -1.118 114 56 18
-13.327 4.2090001 -1.107 159 83 34
-13.334 4.2270002 -1.1059999 92 39 0
-13.323 4.1999998 -1.112 112 45 0
-13.323 4.2059999 -1.107 105 49 2
-13.327 4.165 -0.67900002 107 83 35
-13.325 4.1719999 -0.68300003 211 170 148
-13.329 4.1680002 -0.69099998 175 113 62
-13.322 4.1630001 -0.65799999 171 87 27
-13.33 4.1479998 -0.66600001 166 106 46
-13.325 4.1739998 -0.66399997 175 130 97
-13.325 4.177 -0.66500002 187 148 89
-13.37 4.1199999 -0.84100002 158 92 40
-13.378 4.1570001 -0.94800001 244 196 114
-13.321 4.1490002 -0.94599998 179 115 69
-13.32 4.1459999 -0.94300002 100 49 22
-13.36 4.1750002 -0.94300002 190 101 57
-13.349 4.1700001 -0.93900001 148 100 60
-13.339 4.1430001 -1.035 194 159 140
-13.327 4.1479998 -0.99199998 97 47 20
-13.347 4.1350002 -1.018 117 68 38
-13.348 4.1290002 -1.006 133 89 44
-13.347 4.1420002 -1.021 154 85 43
-13.326 4.138 -1.028 129 93 59
-13.328 4.1370001 -1.025 179 146 129
-13.322 4.1329999 -1.022 150 96 60
-13.316 4.1570001 -1.013 130 60 1
-13.353 4.1240001 -1.101 154 134 123
-13.337 4.1479998 -1.062 105 56 0
-13.319 4.1630001 -0.85000002 150 103 57
-13.325 4.1570001 -0.86199999 97 51 25
-13.337 4.1490002 -0.86299998 172 86 35
-13.325 4.1409998 -0.86299998 92 60 39
-13.319 4.1669998 -0.84899998 68 45 29
-13.374 4.1440001 -0.99299997 142 85 40
-13.372 4.1469998 -0.99400002 163 92 40
-13.362 4.1479998 -0.99000001 159 86 31
-13.356 4.1669998 -0.78200001 160 109 54
-13.338 4.1589999 -0.77100003 171 113 65
-13.342 4.1389999 -0.755 160 96 48
-13.35 4.1339998 -0.88200003 142 65 13
-13.36 4.1409998 -0.87 132 83 53
-13.351 4.1350002 -0.898 154 78 28
-13.353 4.145 -0.91000003 147 89 49
-13.293 4.2259998 -1.091 199 136 69
-13.293 4.2280002 -1.074 198 120 45
-13.297 4.2249999 -1.0880001 247 211 137
-13.35 4.2049999 -1.101 108 47 2
-13.351 4.198 -1.096 169 92 38
-13.336 4.2189999 -1.087 220 172 100
-13.346 4.2220001 -1.109 141 55 6
-13.351 4.2140002 -1.105 149 76 25
-13.315 4.1690001 -0.68699998 100 53 23
-13.325 4.178 -0.67299998 181 104 48
-13.304 4.1690001 -0.72100002 175 155 131
-13.342 4.1900001 -1.063 219 149 98
-13.34 4.1849999 -1.0549999 128 75 33
-13.332 4.191 -1.052 246 175 123
-13.345 4.1799998 -1.073 174 95 52
-13.351 4.197 -1.0700001 159 106 74
-13.348 4.1739998 -1.061 117 38 0
-13.368 4.118 -0.99299997 206 126 67
-13.363 4.1529999 -0.954 182 126 43
-13.359 4.1539998 -1.08 189 128 73
-13.359 4.1529999 -1.073 192 151 129
-13.353 4.1490002 -1.08 177 122 55
-13.366 4.1700001 -1.076 145 93 56
-13.35 4.119 -0.755 204 133 69
-13.353 4.1500001 -1.081 214 177 150
-13.334 4.1490002 -1.092 174 111 57
-13.345 4.1240001 -1.114 237 183 123
-13.285 4.2290001 -1.092 198 155 113
-13.333 4.1409998 -1.112 216 143 75
-13.352 4.165 -1.1059999 147 65 17
-13.332 4.1950002 -1.092 112 55 25
-13.336 4.178 -1.092 181 118 77
-13.335 4.1810002 -1.082 183 129 91
-13.329 4.2020001 -1.101 156 90 30
-13.338 4.1830001 -1.046 108 50 10
-13.363 4.1529999 -0.99400002 163 103 49
-13.353 4.1739998 -0.99000001 87 44 10
-13.352 4.152 -0.98400003 101 37 0
-13.37 4.1539998 -0.99400002 171 109 62
-13.354 4.1750002 -0.995 76 33 1
-13.355 4.1300001 -1.005 175 110 44
-13.321 4.1479998 -0.95499998 141 91 56
-13.312 4.1900001 -0.96200001 120 98 59
-13.319 4.1680002 -0.78799999 132 68 33
-13.315 4.1789999 -0.76800001 141 90 35
-13.315 4.1659999 -0.773 200 131 66
-13.311 4.164 -0.764 146 83 50
-13.316 4.1570001 -0.745 223 157 107
-13.308 4.1849999 -0.72399998 104 60 25
-13.313 4.1859999 -0.73199999 122 86 54
-13.354 4.112 -0.84799999 177 96 30
-13.345 4.1220002 -0.86000001 132 82 33
-13.35 4.1199999 -0.85100001 169 97 39
-13.352 4.1110001 -0.84500003 244 171 102
-13.346 4.1129999 -0.833 108 59 19
-13.352 4.1700001 -0.85600001 133 90 55
-13.352 4.1220002 -0.84299999 138 85 51
-13.352 4.1170001 -0.847 183 118 64
-13.353 4.1420002 -0.86199999 201 163 116
-13.352 4.1339998 -0.85100001 127 83 48
-13.349 4.1339998 -0.85600001 156 82 37
-13.341 4.1609998 -0.861 107 49 11
-13.355 4.1329999 -0.76200002 233 130 53
-13.359 4.1090002 -0.83999997 187 131 82
-13.326 4.1420002 -0.88200003 136 84 37
-13.325 4.1469998 -0.86900002 228 130 65
-13.322 4.1409998 -0.88599998 136 77 45
-13.321 4.1539998 -0.87599999 68 37 17
-13.348 4.1100001 -0.82999998 213 134 65
-13.304 4.152 -1.015 161 90 44
-13.296 4.1500001 -1.0140001 154 107 63
-13.32 4.1750002 -0.99199998 195 137 87
-13.318 4.1820002 -0.97799999 214 155 87
-13.304 4.158 -1.023 167 132 104
-13.31 4.1589999 -0.92000002 88 53 21
-13.312 4.1599998 -0.92500001 103 72 44
-13.322 4.1560001 -0.93300003 159 114 75
-13.334 4.1719999 -0.866 82 51 20
-13.312 4.171 -0.85600001 97 73 37
-13.312 4.165 -0.86799997 75 46 38
-13.317 4.1630001 -0.88800001 76 33 0
-13.317 4.1550002 -0.90899998 100 52 12
-13.318 4.164 -0.89300001 94 55 24
-13.348 4.171 -0.88800001 107 63 38
-13.34 4.1739998 -0.88499999 91 58 25
-13.333 4.1700001 -0.90200001 98 57 37
-13.341 4.171 -0.88800001 104 48 13
-13.326 4.125 -0.97000003 137 117 110
-13.345 4.1459999 -0.995 164 117 63
-13.364 4.1680002 -0.79100001 190 110 47
-13.359 4.1690001 -0.792 128 62 14
-13.351 4.1259999 -0.85900003 175 117 80
-13.344 4.1760001 -0.79100001 169 100 45
-13.352 4.1799998 -0.792 108 66 44
-13.356 4.1719999 -0.79799998 98 59 26
-13.343 4.1729999 -0.79100001 125 73 33
-13.347 4.1729999 -0.79100001 129 71 31
-13.349 4.184 -0.79000002 174 104 68
-13.332 4.131 -0.73900002 225 150 85
-13.333 4.1339998 -0.736 177 130 100
-13.332 4.1240001 -0.73000002 162 103 63
-13.334 4.1290002 -0.73000002 197 131 81
-13.337 4.1269999 -0.72399998 220 167 99
-13.347 4.1220002 -0.73000002 201 138 85
-13.348 4.1100001 -0.73400003 222 161 98
-13.317 4.1609998 -0.69199997 127 85 35
-13.315 4.1599998 -0.68800002 165 119 85
-13.306 4.1729999 -0.68000001 125 66 10
-13.312 4.177 -0.66600001 140 86 39
-13.306 4.171 -0.662 97 58 17
-13.361 4.1919999 -1.091 169 90 47
-13.369 4.178 -1.077 68 39 23
-13.364 4.2090001 -1.076 246 208 143
-13.337 4.1550002 -0.68000001 57 15 1
-13.324 4.1789999 -0.73799998 199 156 78
-13.33 4.1680002 -0.73000002 205 137 88
-13.318 4.1669998 -0.69199997 107 80 50
-13.32 4.1680002 -0.66000003 151 113 66
-13.328 4.1469998 -0.67400002 157 97 35
-13.339 4.1739998 -0.88200003 177 134 92
-13.351 4.1719999 -0.88300002 116 61 22
-13.364 4.165 -0.86699998 145 98 56
-13.369 4.118 -0.83700001 183 106 50
-13.35 4.1290002 -0.83099997 179 132 62
-13.349 4.1129999 -0.83099997 137 94 59
-13.364 4.1430001 -0.86000001 208 166 116
-13.377 4.1589999 -0.94700003 160 82 43
-13.365 4.1669998 -0.94599998 125 81 54
-13.363 4.1589999 -0.94999999 253 186 115
-13.324 4.1290002 -0.94999999 124 84 59
-13.329 4.1659999 -0.94599998 146 56 0
-13.332 4.1719999 -0.92199999 110 55 24
-13.338 4.171 -0.926 137 96 74
-13.342 4.1680002 -0.91000003 104 36 0
-13.332 4.1700001 -0.91799998 94 50 23
-13.348 4.171 -0.94700003 125 106 99
-13.329 4.1900001 -0.97100002 184 123 78
-13.361 4.1700001 -1.0700001 89 45 20
-13.327 4.1799998 -1.075 174 134 83
-13.333 4.1729999 -1.075 165 123 81
-13.323 4.1609998 -1.066 162 120 80
-13.327 4.2020001 -1.0779999 251 217 146
-13.317 4.1919999 -1.061 157 92 52
-13.334 4.1939998 -1.079 166 98 49
-13.342 4.1469998 -1.038 152 77 38
-13.362 4.1500001 -1.0190001 148 68 19
-13.357 4.1459999 -1.023 126 55 3
-13.34 4.1339998 -1.101 236 179 89
-13.356 4.1269999 -1.099 255 216 122
-13.352 4.1479998 -1.101 155 131 121
-13.347 4.1350002 -1.1 131 109 96
-13.344 4.1469998 -1.069 245 186 118
-13.347 4.1529999 -1.061 132 74 26
-13.344 4.1500001 -1.054 124 50 11
-13.347 4.1539998 -1.0599999 127 52 12
-13.321 4.164 -0.85100001 111 49 8
-13.33 4.1929998 -0.972 176 136 100
-13.366 4.177 -0.76599997 216 153 74
-13.368 4.1739998 -0.76700002 178 99 43
-13.37 4.1690001 -0.77499998 170 113 60
-13.35 4.1539998 -0.75599998 233 180 88
-13.348 4.1420002 -0.73900002 202 108 34
-13.348 4.1350002 -0.74599999 170 118 78
-13.351 4.1300001 -0.759 118 59 1
-13.347 4.1609998 -0.778 144 94 45
-13.299 4.23 -1.087 226 142 56
-13.299 4.2290001 -1.098 220 130 42
-13.29 4.2319999 -1.074 163 94 25
-13.341 4.2270002 -1.095 146 95 32
-13.335 4.2290001 -1.102 255 178 91
-13.322 4.1729999 -0.68300003 208 152 105
-13.325 4.1729999 -0.67699999 65 39 14
-13.359 4.1939998 -0.76899999 171 125 91
-13.305 4.1680002 -0.722 155 97 51
-13.336 4.1890001 -1.059 199 114 50
-13.347 4.1960001 -1.072 204 120 50
-13.359 4.1269999 -1.003 112 50 11
-13.345 4.1630001 -0.96399999 133 101 54
-13.353 4.145 -0.97899997 132 55 1
-13.351 4.1230001 -0.75400001 216 159 70
-13.346 4.1259999 -1.102 209 132 62
-13.338 4.1479998 -1.064 150 109 79
-13.337 4.1479998 -1.067 146 87 29
-13.331 4.1500001 -1.061 99 47 0
-13.35 4.1479998 -1.077 167 148 141
-13.332 4.1500001 -1.086 144 88 31
-13.354 4.1589999 -1.098 210 113 45
-13.362 4.1500001 -1.1059999 167 101 51
-13.325 4.2059999 -1.079 236 134 49
-13.322 4.1550002 -1.0650001 158 113 72
-13.318 4.1469998 -1.053 83 33 0
-13.319 4.1750002 -1.052 97 57 21
-13.32 4.1810002 -1.058 103 66 37
-13.32 4.191 -1.0549999 125 78 26
-13.322 4.1690001 -1.056 169 73 12
-13.353 4.1729999 -0.99599999 208 149 105
-13.335 4.1900001 -0.97799999 150 98 48
-13.335 4.1890001 -0.98299998 156 122 87
-13.371 4.1529999 -0.99400002 104 40 0
-13.32 4.1900001 -0.96700001 141 107 62
-13.336 4.1279998 -0.95300001 197 132 66
-13.338 4.1279998 -0.96200001 224 144 81
-13.34 4.1399999 -0.93800002 186 115 59
-13.337 4.1350002 -0.949 210 130 59
-13.34 4.151 -0.97399998 115 80 50
-13.339 4.1570001 -0.96799999 123 50 5
-13.323 4.1620002 -0.949 120 85 63
-13.324 4.1680002 -0.79100001 102 63 34
-13.326 4.1690001 -0.787 124 70 32
-13.313 4.178 -0.76300001 149 98 45
-13.322 4.1849999 -0.75599998 156 89 47
-13.336 4.1399999 -0.74000001 165 101 53
-13.335 4.1370001 -0.745 146 83 50
-13.335 4.1370001 -0.74299997 168 112 38
-13.311 4.165 -0.75199997 141 104 95
-13.331 4.125 -0.75 140 78 27
-13.316 4.1739998 -0.72399998 140 95 53
-13.323 4.1669998 -0.727 124 54 5
-13.337 4.1139998 -0.73699999 178 142 128
-13.344 4.1090002 -0.73699999 169 101 40
-13.349 4.1360002 -0.736 170 97 46
-13.348 4.1389999 -0.73500001 192 130 53
-13.352 4.1139998 -0.84299999 161 107 71
-13.357 4.1339998 -0.86500001 183 134 101
-13.359 4.1690001 -0.86299998 164 102 43
-13.356 4.132 -0.86699998 72 38 1
-13.337 4.1240001 -0.87400001 86 76 75
-13.353 4.112 -0.83200002 200 137 94
-13.321 4.138 -1.017 117 77 41
-13.32 4.145 -1.013 122 70 23
-13.302 4.1550002 -1.02 168 98 36
-13.336 4.1700001 -0.87699997 148 98 49
-13.319 4.1669998 -0.87800002 135 66 27
-13.316 4.1680002 -0.86799997 127 80 52
-13.316 4.1560001 -0.898 174 130 93
-13.318 4.1589999 -0.89300001 85 35 8
-13.324 4.1669998 -0.88800001 205 106 39
-13.323 4.1659999 -0.89700001 102 48 10
-13.331 4.1690001 -0.89300001 118 62 27
-13.328 4.1290002 -0.972 159 76 10
-13.354 4.1240001 -0.99800003 160 84 26
-13.358 4.1799998 -0.79500002 112 55 12
-13.354 4.132 -0.83099997 118 74 45
-13.36 4.1269999 -0.83099997 177 112 56
-13.363 4.132 -0.84100002 110 111 97
-13.338 4.1789999 -0.79000002 109 59 32
-13.353 4.1630001 -0.75400001 131 62 20
-13.321 4.1830001 -0.77399999 135 88 44
-13.313 4.1550002 -0.73500001 103 51 14
-13.367 4.1750002 -1.082 123 72 25
-13.35 4.1869998 -1.101 66 32 5
-13.333 4.2220001 -1.097 83 40 0
-13.341 4.2119999 -1.1109999 78 24 0
-13.327 4.1539998 -0.68800002 189 127 78
-13.342 4.1279998 -0.727 164 128 92
-13.346 4.1680002 -0.75099999 118 64 20
-13.326 4.165 -0.73500001 190 134 87
-13.316 4.1570001 -0.72399998 123 56 4
-13.334 4.1420002 -1.0140001 148 90 53
-13.336 4.1500001 -1.006 201 170 149
-13.338 4.1490002 -1.005 138 48 0
-13.314 4.1550002 -0.66000003 118 87 59
-13.322 4.1729999 -0.66299999 255 225 192
-13.345 4.1750002 -0.88300002 136 95 67
-13.362 4.1160002 -0.82999998 238 157 92
-13.367 4.1100001 -0.838 195 143 95
-13.354 4.1209998 -0.83099997 207 129 67
-13.352 4.1300001 -0.847 140 99 71
-13.355 4.164 -0.93099999 114 74 38
-13.332 4.1560001 -0.963 99 55 28
-13.336 4.1589999 -0.96899998 89 47 23
-13.333 4.1659999 -0.95700002 143 48 2
-13.329 4.1659999 -0.92699999 166 73 6
-13.346 4.1659999 -0.89399999 146 86 49
-13.348 4.1550002 -0.89600003 128 66 17
-13.325 4.2059999 -1.0829999 223 184 115
-13.327 4.2069998 -1.0880001 110 73 20
-13.342 4.151 -1.045 131 57 12
-13.346 4.1529999 -1.026 153 87 37
-13.354 4.1479998 -1.022 197 132 68
-13.352 4.1690001 -1.0549999 171 106 52
-13.357 4.152 -1.018 139 75 29
-13.323 4.1630001 -1.0039999 132 52 3
-13.345 4.152 -1.052 138 77 30
-13.344 4.151 -1.059 105 41 3
-13.326 4.1630001 -0.85799998 123 65 19
-13.363 4.165 -0.76099998 178 110 61
-13.336 4.177 -0.75 141 110 90
-13.343 4.1659999 -0.78799999 54 18 6
-13.334 4.1690001 -0.77999997 213 157 110
-13.345 4.1350002 -0.88800001 201 116 59
-13.329 4.1420002 -0.87900001 161 109 62
-13.332 4.1409998 -0.87300003 103 76 57
-13.35 4.1389999 -0.89499998 143 67 18
-13.349 4.1430001 -0.88599998 174 105 50
-13.353 4.158 -0.90899998 157 73 29
-13.301 4.2309999 -1.101 81 28 0
-13.351 4.21 -1.103 69 17 0
-13.336 4.2220001 -1.091 204 120 48
-13.344 4.2249999 -1.092 197 113 41
-13.33 4.2150002 -1.096 76 36 0
-13.349 4.191 -0.76200002 195 141 95
-13.303 4.1680002 -0.72299999 204 155 97
-13.326 4.1849999 -1.05 177 135 85
-13.32 4.1919999 -1.059 177 101 49
-13.379 4.1199999 -0.98500001 195 116 50
-13.356 4.1279998 -0.97100002 117 52 14
-13.346 4.1209998 -0.972 135 74 17
-13.345 4.164 -0.963 118 55 2
-13.341 4.1570001 -0.95899999 130 54 5
-13.339 4.1440001 -1.077 204 129 61
-13.341 4.1459999 -1.1 167 90 22
-13.345 4.1529999 -1.1 177 113 49
-13.346 4.152 -1.118 203 135 72
-13.352 4.1459999 -1.109 146 110 76
-13.338 4.1420002 -1.112 193 153 128
-13.353 4.1409998 -1.107 204 159 118
-13.359 4.1669998 -1.08 175 111 50
-13.319 4.1690001 -1.022 146 71 32
-13.332 4.151 -1.008 160 98 41
-13.321 4.1490002 -1.0599999 135 55 4
-13.308 4.164 -1.0470001 174 114 54
-13.307 4.1729999 -1.039 167 120 66
-13.309 4.164 -1.043 139 100 69
-13.306 4.1700001 -1.0369999 155 103 53
-13.316 4.1620002 -1.0549999 156 77 21
-13.334 4.1680002 -0.94999999 127 93 66
-13.336 4.164 -0.94499999 95 52 20
-13.323 4.1529999 -0.99599999 151 84 31
-13.343 4.1620002 -0.98100001 135 101 55
-13.341 4.1830001 -0.98799998 185 149 113
-13.332 4.131 -0.949 172 112 49
-13.342 4.1220002 -0.97000003 211 149 92
-13.332 4.1230001 -0.97299999 171 89 29
-13.341 4.1399999 -0.73900002 200 140 68
-13.319 4.1630001 -0.759 125 74 45
-13.312 4.177 -0.72399998 114 69 28
-13.31 4.1739998 -0.71899998 120 76 39
-13.352 4.112 -0.84600002 156 98 61
-13.358 4.132 -0.84600002 206 136 66
-13.361 4.1360002 -0.85699999 167 78 18
-13.345 4.1609998 -0.86400002 120 70 35
-13.357 4.1620002 -0.866 245 172 117
-13.361 4.1700001 -0.87 198 140 100
-13.347 4.1259999 -0.861 203 131 59
-13.346 4.1420002 -0.90499997 139 79 45
-13.317 4.1459999 -0.93599999 189 127 88
-13.33 4.145 -0.926 120 67 27
-13.327 4.1490002 -0.92500001 104 43 0
-13.312 4.1329999 -1.02 132 73 29
-13.31 4.1459999 -1.013 180 151 135
-13.319 4.1490002 -0.96499997 191 102 46
-13.33 4.1529999 -0.97299999 166 105 42
-13.315 4.1599998 -0.86799997 105 55 28
-13.317 4.1620002 -0.87099999 126 58 11
-13.313 4.1620002 -0.86699998 128 51 0
-13.315 4.1500001 -0.88800001 178 75 6
-13.318 4.1609998 -0.88599998 119 69 36
-13.319 4.165 -0.88300002 75 31 0
-13.335 4.1469998 -0.86500001 193 94 37
-13.363 4.178 -0.79000002 126 73 41
-13.354 4.131 -0.83700001 166 118 52
-13.329 4.1849999 -0.77499998 143 72 20
-13.314 4.1570001 -0.73500001 216 148 99
-13.331 4.158 -0.68400002 248 222 145
-13.365 4.1849999 -1.077 121 90 72
-13.326 4.164 -0.69199997 114 66 28
-13.346 4.1300001 -0.72899997 189 149 114
-13.342 4.178 -0.75199997 137 56 1
-13.344 4.1750002 -0.75400001 189 126 72
-13.325 4.1630001 -0.75 132 79 45
-13.328 4.1570001 -0.69199997 102 44 0
-13.338 4.1329999 -0.73199999 160 115 82
-13.307 4.1630001 -0.72500002 136 78 41
-13.332 4.151 -0.67799997 134 75 31
-13.331 4.158 -0.67699999 92 46 20
-13.359 4.1129999 -0.83600003 212 147 63
-13.358 4.1220002 -0.83099997 141 92 59
-13.351 4.1220002 -0.85000002 120 73 43
-13.341 4.1680002 -0.92699999 149 88 41
-13.356 4.1700001 -0.94800001 143 101 77
-13.328 4.1690001 -0.92199999 122 71 40
-13.32 4.1690001 -0.90899998 150 60 8
-13.332 4.211 -1.09 243 165 103
-13.346 4.1799998 -1.054 226 160 112
-13.322 4.1659999 -0.99599999 137 82 51
-13.324 4.1620002 -0.99599999 144 94 61
-13.328 4.1719999 -0.98900002 115 64 33
-13.328 4.1869998 -0.98699999 116 63 23
-13.322 4.1799998 -0.97399998 218 160 110
-13.32 4.1620002 -0.85600001 132 62 13
-13.334 4.1900001 -0.977 215 157 111
-13.326 4.165 -0.77899998 174 126 77
-13.335 4.1370001 -0.88 159 84 27
-13.332 4.1360002 -0.88599998 138 84 50
-13.335 4.132 -0.88999999 168 106 49
-13.331 4.138 -0.89499998 145 89 56
-13.334 4.1880002 -1.099 64 29 1
-13.345 4.2220001 -1.092 170 96 49
-13.329 4.2020001 -1.0829999 204 152 115
-13.341 4.1500001 -1.059 101 51 2
-13.336 4.1810002 -1.0470001 148 69 10
-13.351 4.145 -0.94999999 248 166 92
-13.342 4.1370001 -0.954 189 113 51
-13.348 4.164 -0.95599997 173 103 43
-13.33 4.1849999 -0.97299999 142 93 63
-13.349 4.1290002 -1.098 217 153 81
-13.337 4.1550002 -1.0880001 154 72 24
-13.337 4.1420002 -1.102 165 129 107
-13.346 4.152 -1.108 184 123 58
-13.349 4.1570001 -1.101 138 67 25
-13.356 4.151 -1.1059999 215 140 72
-13.339 4.1430001 -1.112 226 174 116
-13.351 4.151 -1.089 209 132 62
-13.341 4.177 -1.091 219 165 119
-13.344 4.1849999 -1.099 103 62 34
-13.351 4.1729999 -1.094 146 99 55
-13.348 4.1680002 -1.089 124 63 16
-13.31 4.1739998 -1.038 135 76 20
-13.309 4.1750002 -1.035 208 160 111
-13.325 4.1669998 -1.003 162 86 34
-13.316 4.151 -1.044 100 44 9
-13.311 4.1550002 -1.038 117 45 0
-13.308 4.158 -1.0420001 140 61 5
-13.311 4.165 -1.0470001 199 132 64
-13.351 4.177 -1.007 145 71 22
-13.36 4.1560001 -1.01 184 122 73
-13.328 4.1539998 -0.977 98 54 19
-13.335 4.1789999 -0.98500001 153 127 104
-13.333 4.1360002 -0.74800003 156 104 56
-13.365 4.1230001 -0.85399997 81 62 47
-13.335 4.1360002 -0.89999998 157 107 72
-13.338 4.1360002 -0.89999998 220 176 137
-13.342 4.1399999 -0.90399998 150 101 60
-13.344 4.1339998 -0.89999998 163 96 44
-13.336 4.1690001 -0.926 75 29 3
-13.305 4.158 -1.023 176 118 72
-13.318 4.1490002 -0.89700001 205 154 109
-13.327 4.1409998 -0.89700001 87 60 41
-13.324 4.152 -0.90899998 159 68 11
-13.328 4.1680002 -0.87199998 88 38 13
-13.319 4.165 -0.87800002 98 53 12
-13.316 4.1599998 -0.86699998 144 88 51
-13.322 4.152 -0.91299999 162 119 84
-13.337 4.1409998 -0.903 140 104 72
-13.364 4.1750002 -0.79299998 161 94 39
-13.356 4.132 -0.84200001 163 114 58
-13.355 4.131 -0.838 146 114 91
-13.318 4.1620002 -0.65899998 167 89 27
-13.322 4.151 -0.68599999 162 82 21
-13.346 4.1820002 -0.75700003 118 47 3
-13.324 4.1680002 -0.741 194 145 112
-13.32 4.1620002 -0.74000001 139 72 29
-13.338 4.1339998 -0.73400003 233 181 124
-13.31 4.1570001 -0.73100001 227 159 78
-13.318 4.171 -0.662 167 134 57
-13.347 4.1550002 -0.92299998 129 62 7
-13.348 4.1529999 -0.91399997 136 63 20
-13.363 4.1719999 -0.94499999 142 61 14
-13.352 4.164 -1.05 114 49 7
-13.341 4.1609998 -1.048 109 50 16
-13.346 4.145 -0.99900001 106 77 33
-13.366 4.1329999 -0.98199999 149 88 33
-13.359 4.1560001 -1.008 118 67 22
-13.339 4.1329999 -0.86900002 172 119 75
-13.335 4.1329999 -0.89700001 155 110 81
-13.352 4.1490002 -0.90100002 157 80 24
-13.349 4.151 -0.89700001 201 111 61
-13.337 4.152 -0.96700001 135 81 45
-13.339 4.1370001 -0.96799999 138 53 0
-13.348 4.1370001 -0.97899997 103 67 33
-13.358 4.119 -0.99000001 143 106 77
-13.342 4.1440001 -1.084 216 144 70
-13.345 4.151 -1.113 79 42 13
-13.354 4.158 -1.094 161 85 33
-13.361 4.1750002 -1.091 180 149 128
-13.313 4.1500001 -1.057 161 115 79
-13.341 4.165 -0.95099998 137 69 24
-13.331 4.1609998 -0.954 74 34 8
-13.323 4.1490002 -0.97500002 137 60 6
-13.334 4.1570001 -0.97399998 77 33 4
-13.348 4.1830001 -0.99000001 175 111 73
-13.334 4.1849999 -0.98199999 177 142 104
-13.327 4.1350002 -0.94599998 215 149 101
-13.321 4.1719999 -0.91500002 138 102 80
-13.332 4.1459999 -0.90700001 103 47 10
-13.352 4.1589999 -0.86699998 76 48 24
-13.346 4.164 -0.87699997 171 109 58
-13.343 4.1420002 -0.90600002 77 52 30
-13.336 4.1500001 -0.92699999 166 99 54
-13.342 4.1539998 -0.91600001 98 54 17
-13.32 4.1680002 -0.86900002 226 133 66
-13.319 4.1620002 -0.87699997 137 70 25
-13.319 4.1630001 -0.87900001 143 91 52
-13.355 4.145 -0.98400003 146 73 28
-13.358 4.1469998 -0.98699999 143 61 1
-13.349 4.1560001 -0.986 208 155 105
-13.352 4.1259999 -0.83899999 191 126 72
-13.327 4.177 -0.78100002 138 92 42
-13.327 4.1560001 -0.69099998 151 84 41
-13.322 4.1550002 -0.69 158 97 52
-13.309 4.1659999 -0.72399998 206 144 93
-13.335 4.1620002 -0.93900001 138 101 75
-13.35 4.164 -1.023 159 94 40
-13.342 4.171 -1.044 217 156 112
-13.334 4.1620002 -1.023 155 101 67
-13.352 4.165 -0.99800003 206 144 93
-13.334 4.1630001 -0.97899997 109 68 38
-13.363 4.1329999 -0.98199999 155 97 51
-13.373 4.1290002 -0.98799998 199 110 28
-13.338 4.165 -1.08 118 71 27
-13.343 4.1440001 -0.94499999 68 42 15
-13.361 4.1729999 -1.084 81 49 34
-13.327 4.1620002 -1.02 136 81 42
-13.327 4.177 -1.0470001 212 152 92
-13.318 4.1739998 -1.041 247 174 105
-13.351 4.1700001 -1.0549999 189 126 82
-13.316 4.1739998 -1.041 94 48 0
-13.322 4.1659999 -1.036 97 51 18
-13.339 4.1869998 -0.99400002 199 136 93
-13.328 4.1409998 -0.94099998 137 93 48
-13.356 4.1630001 -0.87 179 93 34
-13.351 4.1680002 -0.875 123 71 14
-13.35 4.1440001 -0.88 92 67 47
-13.343 4.1500001 -0.88599998 168 102 50
-13.328 4.1490002 -0.92199999 137 70 28
-13.313 4.1609998 -1.025 165 98 45
-13.356 4.1269999 -0.83200002 226 170 93
-13.319 4.1560001 -0.69099998 109 55 11
-13.31 4.1669998 -0.72399998 164 94 45
-13.338 4.1599998 -1.03 120 71 39
-13.331 4.171 -1 86 50 26
-13.328 4.1630001 -1.005 123 72 41
-13.337 4.1599998 -1.0140001 102 55 27
-13.326 4.177 -0.98199999 174 115 73
-13.338 4.1279998 -0.88099998 139 70 15
-13.34 4.1659999 -1.082 86 42 17
-13.345 4.1529999 -1.095 180 116 52
-13.324 4.1630001 -1.018 135 58 6
-13.332 4.1659999 -1.044 93 44 3
-13.325 4.1729999 -1.043 92 44 4
-13.337 4.1560001 -1.041 178 135 103
-13.335 4.1739998 -0.99599999 102 62 36
-13.349 4.1550002 -0.93000001 146 79 37
-13.318 4.171 -1.034 128 88 52
-13.347 4.152 -0.86799997 172 91 38
-13.338 4.152 -0.92400002 78 34 0
-13.347 4.1760001 -1.003 134 97 71
-13.341 4.1609998 -1.02 78 34 0
-13.33 4.1729999 -0.98500001 139 90 57
-13.34 4.171 -1.045 119 60 18
-13.321 4.1700001 -1.039 132 72 18
-13.336 4.1500001 -0.912 126 62 24
-13.34 4.1609998 -1.015 83 40 6
-13.356 4.1599998 -1.013 137 84 44
-13.34 4.145 -0.958 130 95 65
0 0 0 1 0 0 0 1 0 0 0 1 0 0 0 0 0 1050 1 0 0
