ply
format ascii 1.0
comment PCL generated
element vertex 203
property float x
property float y
property float z
property uchar red
property uchar green
property uchar blue
element camera 1
property float view_px
property float view_py
property float view_pz
property float x_axisx
property float x_axisy
property float x_axisz
property float y_axisx
property float y_axisy
property float y_axisz
property float z_axisx
property float z_axisy
property float z_axisz
property float focal
property float scalex
property float scaley
property float centerx
property float centery
property int viewportx
property int viewporty
property float k1
property float k2
end_header
-0.37599999 7.099 -0.68900001 26 2 2
-0.38 7.0890002 -0.68199998 25 0 0
-0.37400001 7.0879998 -0.68300003 28 3 0
-0.345 7.0960002 -0.68099999 40 7 0
-0.36199999 7.0840001 -0.68199998 34 3 0
-0.34299999 7.0960002 -0.68400002 36 3 0
-0.43599999 7.164 -0.69499999 18 3 0
-0.43700001 7.165 -0.69499999 23 8 3
-0.43900001 7.1620002 -0.68900001 18 0 0
-0.43099999 7.1620002 -0.70300001 22 1 0
-0.43099999 7.1669998 -0.69999999 26 8 6
-0.35100001 7.0960002 -0.69099998 22 2 1
-0.347 7.0960002 -0.685 34 4 4
-0.34999999 7.0949998 -0.69 23 2 0
-0.39399999 7.1009998 -0.70700002 29 11 9
-0.38999999 7.1059999 -0.70899999 9 0 0
-0.39500001 7.0939999 -0.71100003 19 0 0
-0.35699999 7.0970001 -0.69 20 6 6
-0.345 7.0960002 -0.68400002 42 9 2
-0.426 7.1659999 -0.70300001 8 0 0
-0.428 7.1609998 -0.70499998 21 3 1
-0.417 7.1669998 -0.68900001 18 0 0
-0.43700001 7.0960002 -0.70099998 45 9 0
-0.44100001 7.0970001 -0.69400001 56 19 0
-0.43700001 7.0949998 -0.699 52 16 0
-0.43700001 7.0970001 -0.699 59 23 1
-0.43000001 7.0910001 -0.708 58 25 6
-0.38299999 7.0570002 -0.68800002 117 73 46
-0.37799999 7.0570002 -0.69099998 237 200 156
-0.38800001 7.0609999 -0.68400002 82 37 31
-0.428 7.085 -0.722 34 13 12
-0.42699999 7.086 -0.72299999 18 0 0
-0.42699999 7.086 -0.72100002 26 2 2
-0.37799999 7.0489998 -0.68000001 22 1 0
-0.37400001 7.0479999 -0.68300003 21 0 0
-0.373 7.052 -0.68599999 25 0 0
-0.37099999 7.0510001 -0.67699999 27 9 5
-0.35100001 7.0970001 -0.68699998 26 1 0
-0.37900001 7.099 -0.68800002 29 3 2
-0.39899999 7.0960002 -0.708 18 0 0
-0.35299999 7.0960002 -0.69099998 15 0 0
-0.41 7.099 -0.69300002 15 0 0
-0.41299999 7.099 -0.70999998 104 61 52
-0.34999999 7.0949998 -0.68800002 28 4 0
-0.37900001 7.1059999 -0.67900002 12 0 0
-0.37 7.1030002 -0.68800002 20 1 0
-0.382 7.1079998 -0.68000001 33 13 12
-0.405 7.1669998 -0.69700003 21 0 0
-0.398 7.1690001 -0.70200002 13 2 0
-0.414 7.164 -0.70999998 55 37 33
-0.39899999 7.1690001 -0.699 33 18 11
-0.426 7.112 -0.68300003 15 0 4
-0.44 7.118 -0.685 12 0 0
-0.41100001 7.1230001 -0.69099998 9 0 0
-0.398 7.125 -0.699 21 0 0
-0.403 7.1100001 -0.69199997 22 1 0
-0.41800001 7.1240001 -0.68699998 14 0 0
-0.414 7.1100001 -0.69099998 10 0 0
-0.421 7.1110001 -0.68599999 16 1 4
-0.42300001 7.1539998 -0.67900002 18 7 5
-0.42300001 7.158 -0.676 18 2 2
-0.43000001 7.1630001 -0.69199997 14 3 1
-0.44499999 7.1269999 -0.73900002 37 10 0
-0.44600001 7.118 -0.74199998 30 2 1
-0.44100001 7.125 -0.74299997 28 0 0
-0.38 7.0560002 -0.68900001 255 220 172
-0.39500001 7.1570001 -0.72000003 8 0 0
-0.39700001 7.1550002 -0.71399999 13 3 4
-0.38999999 7.1560001 -0.722 10 0 0
-0.34799999 7.0970001 -0.68400002 37 4 0
-0.352 7.0970001 -0.68900001 33 9 7
-0.37400001 7.0890002 -0.67400002 29 0 0
-0.38 7.0809999 -0.67500001 28 2 1
-0.37900001 7.092 -0.671 36 8 7
-0.398 7.0879998 -0.66500002 61 19 5
-0.39700001 7.0879998 -0.66299999 34 3 0
-0.398 7.0890002 -0.66000003 33 5 1
-0.39899999 7.0879998 -0.66299999 54 18 6
-0.39399999 7.0869999 -0.67000002 86 43 24
-0.41800001 7.0879998 -0.72000003 62 29 12
-0.419 7.0970001 -0.71200001 233 188 147
-0.391 7.0869999 -0.66900003 34 1 0
-0.377 7.0539999 -0.68300003 24 2 4
-0.38 7.0549998 -0.68199998 74 49 27
-0.36199999 7.0970001 -0.68699998 18 2 2
-0.35800001 7.0960002 -0.68800002 19 1 1
-0.39700001 7.1090002 -0.699 12 0 0
-0.39500001 7.1090002 -0.704 4 0 0
-0.405 7.098 -0.67900002 21 0 0
-0.37799999 7.0999999 -0.68800002 21 0 0
-0.40099999 7.1669998 -0.69999999 21 5 5
-0.40400001 7.1560001 -0.71100003 63 49 48
-0.42300001 7.1599998 -0.708 24 9 4
-0.40000001 7.1550002 -0.71200001 13 0 0
-0.42699999 7.1160002 -0.68300003 8 0 0
-0.428 7.1259999 -0.68199998 14 0 2
-0.42500001 7.1259999 -0.68199998 16 0 0
-0.433 7.1240001 -0.685 15 5 6
-0.43799999 7.1100001 -0.69300002 33 12 7
-0.43099999 7.1160002 -0.69 14 5 8
-0.43200001 7.1090002 -0.69499999 22 0 0
-0.421 7.158 -0.70700002 65 47 43
-0.42399999 7.1620002 -0.69300002 11 2 3
-0.43000001 7.1620002 -0.70200002 21 6 1
-0.41800001 7.1609998 -0.69599998 9 0 0
-0.42199999 7.1570001 -0.67900002 21 5 5
-0.43599999 7.1620002 -0.69199997 14 0 0
-0.42399999 7.165 -0.69599998 11 0 0
-0.419 7.1570001 -0.71600002 16 0 1
-0.417 7.0999999 -0.68699998 21 1 2
-0.43099999 7.1079998 -0.69800001 21 0 0
-0.433 7.1090002 -0.69999999 32 8 0
-0.449 7.1269999 -0.73699999 24 5 1
-0.46000001 7.132 -0.72799999 23 2 0
-0.45100001 7.131 -0.73400003 21 0 0
-0.45500001 7.131 -0.72899997 37 8 0
-0.43799999 7.1490002 -0.727 78 46 31
-0.435 7.1479998 -0.72799999 75 43 28
-0.41299999 7.1550002 -0.72000003 63 47 47
-0.403 7.1609998 -0.71899998 17 3 2
-0.35100001 7.0970001 -0.67799997 30 0 0
-0.34999999 7.0970001 -0.685 31 2 0
-0.366 7.0840001 -0.67900002 28 0 0
-0.36500001 7.085 -0.67699999 39 10 4
-0.37900001 7.0809999 -0.67699999 31 2 0
-0.419 7.0910001 -0.71899998 51 16 0
-0.41499999 7.0999999 -0.71100003 100 55 36
-0.41800001 7.1040001 -0.71100003 21 0 0
-0.42399999 7.092 -0.71399999 58 22 6
-0.41999999 7.0900002 -0.71799999 53 18 0
-0.37900001 7.052 -0.68000001 25 1 1
-0.38 7.0539999 -0.685 249 219 185
-0.40200001 7.1090002 -0.69599998 16 0 0
-0.41499999 7.118 -0.70099998 13 4 7
-0.39500001 7.1069999 -0.70300001 15 3 3
-0.37900001 7.1040001 -0.67799997 14 0 0
-0.37099999 7.099 -0.67400002 14 0 0
-0.428 7.125 -0.68400002 21 7 7
-0.40599999 7.1129999 -0.69300002 9 1 0
-0.40799999 7.1220002 -0.69499999 15 1 0
-0.42300001 7.165 -0.69499999 9 0 0
-0.419 7.1490002 -0.72299999 24 6 4
-0.426 7.0939999 -0.70999998 53 18 0
-0.46000001 7.132 -0.72600001 21 0 0
-0.45300001 7.1329999 -0.72799999 53 19 0
-0.447 7.1469998 -0.72500002 81 43 20
-0.42399999 7.1220002 -0.69499999 21 1 0
-0.41 7.1290002 -0.70099998 20 0 0
-0.45699999 7.1339998 -0.72799999 72 45 36
-0.463 7.131 -0.72600001 56 37 33
-0.405 7.1149998 -0.71200001 10 0 0
-0.398 7.125 -0.71200001 28 0 0
-0.43200001 7.1459999 -0.72899997 76 44 21
-0.41299999 7.1479998 -0.72600001 17 0 0
-0.39700001 7.125 -0.70899999 25 6 2
-0.39700001 7.1589999 -0.72100002 15 0 0
-0.43900001 7.1440001 -0.73100001 73 39 11
-0.405 7.1609998 -0.71499997 19 3 3
-0.40900001 7.1560001 -0.71899998 62 48 39
-0.354 7.0949998 -0.68900001 22 2 1
-0.37900001 7.0560002 -0.68400002 241 221 188
-0.37799999 7.052 -0.68300003 34 4 6
-0.36300001 7.099 -0.68699998 14 0 0
-0.412 7.099 -0.68900001 16 0 0
-0.40900001 7.1020002 -0.68300003 23 5 3
-0.417 7.1090002 -0.68900001 15 0 2
-0.37400001 7.1030002 -0.68400002 18 4 3
-0.43200001 7.125 -0.68599999 21 0 0
-0.414 7.1240001 -0.69199997 16 0 0
-0.414 7.1240001 -0.69300002 17 1 1
-0.417 7.158 -0.70999998 15 1 0
-0.414 7.1490002 -0.72500002 22 6 7
-0.44499999 7.145 -0.727 86 46 20
-0.41800001 7.151 -0.72000003 21 7 6
-0.419 7.1230001 -0.69499999 18 0 0
-0.45300001 7.132 -0.72899997 44 11 0
-0.44600001 7.132 -0.736 75 39 23
-0.45899999 7.131 -0.727 21 0 0
-0.40200001 7.112 -0.70899999 22 11 5
-0.39899999 7.131 -0.71200001 38 1 0
-0.40400001 7.1279998 -0.70200002 16 0 0
-0.38100001 7.0570002 -0.685 246 220 183
-0.366 7.0949998 -0.67299998 19 1 1
-0.35499999 7.098 -0.68800002 18 0 0
-0.35100001 7.0970001 -0.685 38 11 4
-0.35600001 7.0970001 -0.68000001 37 9 6
-0.42399999 7.1230001 -0.68900001 15 3 5
-0.40900001 7.125 -0.69499999 19 3 3
-0.44499999 7.132 -0.73400003 247 213 176
-0.42199999 7.1560001 -0.71200001 15 0 0
-0.39199999 7.1069999 -0.70899999 6 1 0
-0.40900001 7.1160002 -0.70700002 9 0 5
-0.36000001 7.0949998 -0.67199999 32 4 3
-0.366 7.0970001 -0.676 16 0 0
-0.37099999 7.1009998 -0.68800002 24 0 0
-0.42199999 7.1230001 -0.69099998 19 3 3
-0.41499999 7.1550002 -0.71600002 60 40 29
-0.35800001 7.098 -0.67699999 28 2 1
-0.352 7.0949998 -0.68400002 25 0 0
-0.35699999 7.092 -0.67900002 23 3 4
-0.36000001 7.0929999 -0.67199999 30 2 0
-0.37 7.1009998 -0.68300003 15 1 0
-0.35600001 7.092 -0.67699999 29 5 3
0 0 0 1 0 0 0 1 0 0 0 1 0 0 0 0 0 203 1 0 0
