ply
format ascii 1.0
comment PCL generated
element vertex 112
property float x
property float y
property float z
property uchar red
property uchar green
property uchar blue
element camera 1
property float view_px
property float view_py
property float view_pz
property float x_axisx
property float x_axisy
property float x_axisz
property float y_axisx
property float y_axisy
property float y_axisz
property float z_axisx
property float z_axisy
property float z_axisz
property float focal
property float scalex
property float scaley
property float centerx
property float centery
property int viewportx
property int viewporty
property float k1
property float k2
end_header
-2.6989999 17.231001 -0.93800002 194 104 44
-2.7049999 17.23 -0.93400002 142 76 52
-2.7030001 17.226999 -0.94199997 118 80 59
-2.72 17.226 -0.92400002 115 78 52
-2.7320001 17.224001 -0.921 57 24 17
-2.7320001 17.225 -0.91600001 143 63 14
-2.727 17.226 -0.91500002 97 37 3
-2.72 17.224001 -0.926 100 59 41
-2.6960001 17.219 -0.97000003 142 63 20
-2.7060001 17.205999 -0.97899997 54 24 22
-2.704 17.202999 -0.98000002 109 35 0
-2.6960001 17.205 -0.97399998 134 67 15
-2.721 17.225 -0.90399998 193 97 37
-2.6789999 17.252001 -0.91799998 154 72 22
-2.677 17.254999 -0.926 111 72 43
-2.674 17.250999 -0.921 137 68 26
-2.6800001 17.240999 -0.92699999 164 83 20
-2.6700001 17.246 -0.92699999 173 93 34
-2.711 17.200001 -0.93699998 97 53 18
-2.7060001 17.207001 -0.94099998 68 47 44
-2.7049999 17.197001 -0.94499999 40 14 1
-2.7320001 17.216999 -0.92199999 82 57 37
-2.7049999 17.204 -0.96399999 134 63 21
-2.6989999 17.224001 -0.93400002 163 77 26
-2.7309999 17.218 -0.91799998 140 69 25
-2.7060001 17.194 -0.93000001 123 74 34
-2.7119999 17.195 -0.93199998 118 93 71
-2.7160001 17.202999 -0.92900002 177 95 55
-2.6730001 17.238001 -0.92799997 91 50 20
-2.681 17.238001 -0.92799997 169 105 67
-2.6760001 17.219999 -0.93699998 169 94 39
-2.6730001 17.225 -0.93599999 140 78 39
-2.6730001 17.212 -0.94700003 175 112 97
-2.681 17.207001 -0.935 164 79 15
-2.6819999 17.219999 -0.93300003 153 71 21
-2.684 17.214001 -0.93400002 93 36 6
-2.688 17.205999 -0.93099999 165 91 42
-2.7090001 17.216999 -0.93300003 101 32 1
-2.674 17.221001 -0.958 176 100 50
-2.681 17.214001 -0.96799999 122 40 2
-2.6819999 17.209999 -0.96799999 107 32 0
-2.688 17.212 -0.96899998 106 69 43
-2.6760001 17.238001 -0.93900001 109 63 27
-2.677 17.226999 -0.93900001 143 76 34
-2.714 17.188999 -0.95300001 177 97 48
-2.7130001 17.191999 -0.94 72 46 31
-2.714 17.186001 -0.94 115 33 0
-2.7030001 17.200001 -0.95300001 113 76 50
-2.707 17.197001 -0.958 102 39 4
-2.7 17.202 -0.97799999 108 72 48
-2.6830001 17.231001 -0.93099999 210 111 56
-2.7190001 17.221001 -0.91500002 163 67 6
-2.6849999 17.202999 -0.94099998 157 93 57
-2.7049999 17.204 -0.93099999 183 109 64
-2.704 17.195999 -0.93400002 160 99 54
-2.6889999 17.219 -0.96499997 130 59 17
-2.6919999 17.223 -0.96100003 89 57 36
-2.717 17.195 -0.93699998 138 101 75
-2.717 17.209 -0.93199998 146 63 11
-2.675 17.219 -0.954 86 56 32
-2.6719999 17.239 -0.93199998 201 105 57
-2.6789999 17.238001 -0.93800002 174 92 34
-2.6889999 17.216 -0.94800001 147 73 26
-2.7030001 17.197001 -0.96600002 161 86 29
-2.701 17.208 -0.96700001 139 61 23
-2.707 17.218 -0.91399997 189 99 39
-2.7179999 17.222 -0.89899999 113 45 0
-2.7190001 17.219 -0.90499997 171 89 42
-2.6800001 17.202999 -0.94499999 160 78 18
-2.677 17.208 -0.94599998 60 30 22
-2.7019999 17.190001 -0.94 152 61 17
-2.7079999 17.18 -0.94599998 170 105 85
-2.694 17.219 -0.96799999 120 38 0
-2.7049999 17.212999 -0.94300002 127 59 24
-2.7219999 17.214001 -0.926 168 101 84
-2.7190001 17.211 -0.92699999 104 68 32
-2.7149999 17.209 -0.92299998 140 86 40
-2.675 17.221001 -0.958 137 81 48
-2.71 17.188999 -0.95599997 87 46 14
-2.71 17.187 -0.95200002 150 119 91
-2.6919999 17.204 -0.93699998 94 48 14
-2.6919999 17.202 -0.94099998 155 59 11
-2.6789999 17.235001 -0.94300002 158 98 62
-2.7030001 17.204 -0.96799999 98 60 37
-2.698 17.211 -0.96200001 151 81 22
-2.6949999 17.215 -0.94999999 65 28 2
-2.701 17.205 -0.96100003 85 49 23
-2.724 17.219 -0.912 154 83 41
-2.701 17.183001 -0.94700003 94 46 8
-2.7030001 17.216999 -0.94400001 113 78 46
-2.701 17.205 -0.949 139 57 10
-2.677 17.212999 -0.95499998 102 76 75
-2.6800001 17.208 -0.954 163 77 30
-2.681 17.207001 -0.95700002 174 94 41
-2.6830001 17.208 -0.96100003 83 49 24
-2.678 17.195999 -0.94700003 179 110 51
-2.6919999 17.208 -0.96600002 111 66 33
-2.7179999 17.221001 -0.91900003 169 101 56
-2.698 17.212 -0.92500001 167 106 43
-2.7019999 17.188999 -0.95300001 141 58 6
-2.6819999 17.202 -0.94300002 121 86 56
-2.7030001 17.195 -0.95899999 58 29 25
-2.701 17.197001 -0.96799999 137 56 9
-2.6849999 17.205 -0.95899999 68 37 32
-2.7149999 17.209 -0.91299999 99 78 59
-2.6960001 17.198999 -0.95499998 43 23 24
-2.7060001 17.208 -0.921 64 37 18
-2.688 17.202999 -0.95300001 122 82 57
-2.7 17.194 -0.95599997 161 76 21
-2.6889999 17.200001 -0.94800001 76 30 0
-2.7119999 17.208 -0.91299999 162 113 72
-2.7 17.195999 -0.95700002 117 57 21
0 0 0 1 0 0 0 1 0 0 0 1 0 0 0 0 0 112 1 0 0
