ply
format ascii 1.0
comment PCL generated
element vertex 600
property float x
property float y
property float z
property uchar red
property uchar green
property uchar blue
element camera 1
property float view_px
property float view_py
property float view_pz
property float x_axisx
property float x_axisy
property float x_axisz
property float y_axisx
property float y_axisy
property float y_axisz
property float z_axisx
property float z_axisy
property float z_axisz
property float focal
property float scalex
property float scaley
property float centerx
property float centery
property int viewportx
property int viewporty
property float k1
property float k2
end_header
-2.8599999 -3.2969999 -0.92699999 255 226 160
-2.859 -3.302 -0.91100001 57 25 10
-2.8610001 -3.3050001 -0.93300003 86 51 21
-2.823 -3.3510001 -0.94800001 24 7 0
-2.8210001 -3.348 -0.95599997 38 17 12
-2.8329999 -3.3399999 -0.94800001 89 39 6
-2.8410001 -3.2279999 -0.93699998 247 226 181
-2.8429999 -3.24 -0.94499999 107 91 58
-2.849 -3.233 -0.93199998 122 62 0
-2.8469999 -3.2249999 -0.926 255 220 160
-2.8299999 -3.2160001 -0.93099999 126 98 74
-2.7720001 -3.309 -1.02 176 139 112
-2.7690001 -3.3010001 -1.022 85 49 27
-2.767 -3.309 -1.011 20 9 5
-2.7739999 -3.3080001 -1.025 101 79 66
-2.806 -3.3759999 -0.91900003 130 85 43
-2.8 -3.3629999 -0.90399998 67 26 4
-2.8099999 -3.378 -0.917 110 77 46
-2.777 -3.2909999 -1.008 103 85 75
-2.7750001 -3.2969999 -1.003 28 19 20
-2.8410001 -3.369 -0.90700001 167 131 95
-2.8410001 -3.365 -0.91399997 93 26 0
-2.8369999 -3.369 -0.92000002 97 63 28
-2.8369999 -3.3699999 -0.89999998 142 96 60
-2.8380001 -3.3729999 -0.90200001 141 97 60
-2.859 -3.3039999 -0.92299998 168 136 85
-2.8499999 -3.303 -0.90700001 78 35 3
-2.8570001 -3.3039999 -0.91000003 47 14 5
-2.8599999 -3.3 -0.90399998 70 38 27
-2.855 -3.2969999 -0.90499997 91 45 11
-2.806 -3.3310001 -1.012 68 42 27
-2.8110001 -3.322 -1.034 21 0 0
-2.819 -3.3269999 -1.02 39 19 10
-2.822 -3.329 -1.015 66 39 30
-2.823 -3.3150001 -1.036 48 16 5
-2.8150001 -3.3239999 -1.026 41 22 18
-2.8080001 -3.323 -1.023 27 0 0
-2.7969999 -3.346 -0.90799999 61 46 43
-2.799 -3.3510001 -0.898 70 52 50
-2.7939999 -3.3310001 -0.90399998 53 37 37
-2.7980001 -3.3629999 -0.89600003 47 11 0
-2.8010001 -3.346 -0.88800001 113 72 44
-2.803 -3.3599999 -0.89399999 52 14 0
-2.825 -3.233 -0.90200001 173 122 65
-2.842 -3.24 -0.90700001 73 33 0
-2.825 -3.2479999 -0.90700001 143 112 81
-2.8440001 -3.2379999 -0.90799999 145 101 62
-2.8099999 -3.227 -0.921 106 78 74
-2.813 -3.224 -0.91799998 113 98 91
-2.813 -3.217 -0.92699999 117 89 85
-2.799 -3.2360001 -0.93300003 122 99 81
-2.7969999 -3.243 -0.92699999 138 129 134
-2.79 -3.3239999 -0.98900002 86 54 29
-2.793 -3.3329999 -0.991 94 75 68
-2.7920001 -3.332 -0.99599999 56 30 17
-2.8540001 -3.2679999 -0.92900002 148 102 50
-2.846 -3.2690001 -0.94099998 55 40 37
-2.8599999 -3.2869999 -0.93900001 149 87 30
-2.852 -3.2550001 -0.93900001 127 75 36
-2.8380001 -3.368 -0.903 107 54 14
-2.8380001 -3.368 -0.90600002 117 63 27
-2.859 -3.2950001 -0.90799999 75 29 3
-2.858 -3.296 -0.912 111 63 41
-2.8380001 -3.286 -0.90399998 132 104 92
-2.858 -3.299 -0.92000002 146 90 43
-2.8280001 -3.3399999 -0.95499998 33 9 0
-2.812 -3.3759999 -0.917 34 23 21
-2.8380001 -3.299 -0.90200001 127 95 82
-2.842 -3.3 -0.90499997 69 22 0
-2.8599999 -3.2969999 -0.93900001 31 8 0
-2.8469999 -3.256 -0.94199997 193 127 66
-2.8380001 -3.2620001 -0.95099998 192 129 78
-2.8329999 -3.2590001 -0.949 138 89 46
-2.8429999 -3.2650001 -0.94199997 126 89 36
-2.8239999 -3.3299999 -1.008 41 12 8
-2.822 -3.3340001 -0.99800003 39 19 12
-2.8239999 -3.3299999 -1.011 78 49 41
-2.8210001 -3.3180001 -1.029 46 17 11
-2.812 -3.319 -1.0369999 53 24 16
-2.7939999 -3.3299999 -1.002 36 13 5
-2.799 -3.326 -1.0089999 56 30 17
-2.786 -3.322 -1.015 95 86 89
-2.7909999 -3.326 -1.002 44 13 0
-2.826 -3.3299999 -0.98400003 22 1 0
-2.819 -3.3369999 -0.98400003 18 0 0
-2.8099999 -3.322 -1.03 25 4 1
-2.806 -3.3169999 -1.033 0 0 0
-2.7969999 -3.3410001 -0.91100001 85 52 35
-2.7950001 -3.3510001 -0.917 50 14 0
-2.8410001 -3.3469999 -0.903 138 96 72
-2.842 -3.342 -0.89999998 95 51 24
-2.8399999 -3.3410001 -0.89200002 185 141 104
-2.842 -3.336 -0.90200001 158 105 55
-2.848 -3.339 -0.917 77 18 2
-2.8429999 -3.3399999 -0.90899998 163 101 50
-2.8139999 -3.3380001 -0.977 61 35 18
-2.806 -3.3310001 -0.98299998 24 9 6
-2.8080001 -3.3429999 -0.96700001 126 83 49
-2.8 -3.3599999 -0.903 30 16 13
-2.813 -3.221 -0.92799997 41 21 12
-2.813 -3.221 -0.94400001 119 94 37
-2.7920001 -3.2690001 -1.001 53 29 25
-2.783 -3.283 -1.007 23 8 5
-2.7939999 -3.27 -1.017 1 1 3
-2.783 -3.299 -1.02 52 16 4
-2.7839999 -3.2909999 -1.0369999 3 1 2
-2.7820001 -3.2869999 -1.012 55 44 42
-2.789 -3.3039999 -0.97399998 24 13 17
-2.796 -3.313 -0.96600002 20 2 0
-2.7939999 -3.312 -0.95499998 31 13 9
-2.7939999 -3.309 -0.95200002 31 5 4
-2.793 -3.326 -0.98799998 129 94 66
-2.7920001 -3.2739999 -0.96100003 31 11 2
-2.796 -3.256 -0.958 47 18 2
-2.7939999 -3.2709999 -0.95499998 33 14 0
-2.858 -3.2920001 -1.023 103 93 91
-2.8559999 -3.2909999 -1.033 56 36 29
-2.8540001 -3.2869999 -1.035 87 70 63
-2.8540001 -3.29 -1.029 92 78 75
-2.8599999 -3.296 -1.024 66 39 28
-2.859 -3.299 -1.028 39 14 7
-2.8599999 -3.283 -0.926 62 27 7
-2.849 -3.2679999 -0.93300003 34 18 18
-2.849 -3.2739999 -0.93400002 39 16 10
-2.8529999 -3.266 -0.92900002 101 75 50
-2.816 -3.3039999 -1.038 7 0 7
-2.832 -3.3 -1.035 11 5 5
-2.845 -3.3269999 -0.90499997 76 41 19
-2.8 -3.3629999 -0.91100001 80 45 25
-2.8340001 -3.329 -0.89999998 126 87 72
-2.8380001 -3.325 -0.90399998 87 69 55
-2.822 -3.22 -0.92900002 126 88 52
-2.826 -3.22 -0.92299998 152 100 43
-2.8440001 -3.221 -0.92199999 162 126 68
-2.8469999 -3.2460001 -0.92699999 182 145 92
-2.8510001 -3.2360001 -0.91799998 74 34 0
-2.802 -3.3310001 -0.90100002 27 0 0
-2.796 -3.3310001 -0.89899999 60 32 10
-2.7920001 -3.293 -0.96799999 20 3 0
-2.8599999 -3.29 -0.93599999 73 15 0
-2.859 -3.2880001 -0.94 28 10 0
-2.8280001 -3.2550001 -0.95499998 57 31 18
-2.8010001 -3.253 -0.96399999 29 22 16
-2.8010001 -3.247 -0.94700003 27 0 0
-2.812 -3.2490001 -0.95899999 15 6 1
-2.8269999 -3.2479999 -0.94800001 79 58 41
-2.8329999 -3.2460001 -0.94300002 76 41 19
-2.848 -3.243 -0.91399997 168 126 86
-2.8280001 -3.2590001 -0.912 157 128 110
-2.8210001 -3.253 -0.90899998 16 6 5
-2.842 -3.2780001 -0.91399997 129 99 88
-2.835 -3.2820001 -0.912 84 66 56
-2.8280001 -3.279 -0.912 105 64 20
-2.825 -3.3280001 -1.002 48 21 14
-2.802 -3.325 -1.0190001 21 0 0
-2.8 -3.3099999 -1.0369999 3 3 3
-2.836 -3.3429999 -0.94 67 17 0
-2.8340001 -3.3510001 -0.93099999 33 14 7
-2.8440001 -3.355 -0.91900003 119 87 64
-2.8499999 -3.3269999 -0.92699999 66 19 1
-2.852 -3.3199999 -0.93599999 81 45 29
-2.842 -3.322 -0.93099999 138 125 119
-2.8399999 -3.3599999 -0.90899998 101 66 28
-2.816 -3.3329999 -0.88999999 123 70 26
-2.8150001 -3.326 -0.89600003 163 120 86
-2.819 -3.325 -0.88599998 103 64 31
-2.8 -3.3380001 -0.96600002 25 14 10
-2.8039999 -3.3340001 -0.96799999 13 0 0
-2.8 -3.3380001 -0.95899999 148 134 131
-2.802 -3.3369999 -0.963 129 115 112
-2.8099999 -3.3340001 -0.97600001 40 12 0
-2.8069999 -3.3629999 -0.903 54 16 0
-2.8199999 -3.3429999 -0.89099997 170 125 84
-2.812 -3.3469999 -0.89200002 148 105 60
-2.8210001 -3.3670001 -0.90600002 52 5 0
-2.826 -3.3629999 -0.91500002 132 96 72
-2.825 -3.2320001 -0.90499997 122 96 73
-2.823 -3.233 -0.90799999 172 121 64
-2.826 -3.223 -0.921 243 183 120
-2.803 -3.2360001 -0.92699999 38 23 18
-2.8099999 -3.2309999 -0.926 110 83 76
-2.8329999 -3.2260001 -0.94 111 63 40
-2.8169999 -3.2219999 -0.93900001 74 56 36
-2.7969999 -3.247 -0.94499999 63 37 20
-2.8010001 -3.2539999 -0.949 124 105 98
-2.8039999 -3.256 -0.94300002 128 109 103
-2.806 -3.2539999 -0.93599999 112 89 73
-2.7820001 -3.2850001 -1.005 55 42 36
-2.779 -3.2939999 -1.005 126 93 52
-2.789 -3.322 -0.99000001 30 1 0
-2.789 -3.3210001 -0.99199998 39 11 0
-2.79 -3.3139999 -0.98699999 34 19 16
-2.79 -3.3239999 -0.99800003 43 15 3
-2.802 -3.322 -0.977 45 21 11
-2.855 -3.2690001 -0.92299998 121 96 91
-2.848 -3.2650001 -0.92199999 80 41 26
-2.845 -3.247 -0.92000002 111 67 30
-2.8540001 -3.277 -0.93099999 173 127 65
-2.858 -3.296 -0.92299998 60 23 14
-2.8369999 -3.2720001 -0.95899999 130 71 29
-2.846 -3.303 -0.95599997 87 49 30
-2.848 -3.303 -0.95200002 49 11 0
-2.855 -3.3139999 -0.958 60 36 26
-2.823 -3.3050001 -1.036 10 2 0
-2.8280001 -3.3110001 -1.034 55 23 12
-2.855 -3.2909999 -1.022 97 87 86
-2.8429999 -3.283 -0.91399997 76 49 30
-2.8299999 -3.3310001 -0.94 42 3 0
-2.8380001 -3.3310001 -0.90200001 35 18 11
-2.842 -3.256 -0.92199999 72 28 0
-2.799 -3.345 -0.898 149 109 83
-2.8039999 -3.3329999 -0.89999998 58 25 6
-2.812 -3.25 -0.90700001 168 124 85
-2.8199999 -3.2390001 -0.91000003 147 92 35
-2.8110001 -3.2320001 -0.917 37 20 13
-2.8039999 -3.2409999 -0.92299998 61 28 0
-2.8099999 -3.2409999 -0.91900003 110 55 16
-2.8110001 -3.243 -0.91799998 130 82 36
-2.8210001 -3.223 -0.91799998 76 31 0
-2.8069999 -3.2609999 -0.93000001 63 34 16
-2.8069999 -3.2690001 -0.93099999 56 39 32
-2.8 -3.273 -0.92400002 99 66 47
-2.8080001 -3.2679999 -0.93599999 152 102 65
-2.79 -3.293 -0.97100002 29 11 7
-2.7869999 -3.2950001 -0.97500002 10 6 0
-2.7969999 -3.2820001 -0.96200001 39 20 16
-2.796 -3.293 -0.96600002 109 91 87
-2.8570001 -3.283 -0.93400002 109 39 3
-2.8599999 -3.2869999 -0.92799997 66 30 18
-2.8299999 -3.299 -0.90200001 102 56 30
-2.812 -3.2349999 -0.94 17 1 1
-2.8180001 -3.233 -0.94300002 24 4 0
-2.8050001 -3.253 -0.963 16 4 6
-2.8280001 -3.2509999 -0.912 145 111 76
-2.8440001 -3.267 -0.91799998 60 35 5
-2.839 -3.2590001 -0.921 131 67 19
-2.779 -3.312 -1.008 79 42 13
-2.7809999 -3.3099999 -1.008 18 0 0
-2.7780001 -3.312 -1.011 58 29 11
-2.7709999 -3.312 -1.015 127 117 118
-2.8080001 -3.3280001 -0.995 4 0 0
-2.8110001 -3.3280001 -1.011 54 26 12
-2.826 -3.329 -0.98799998 29 8 3
-2.8269999 -3.3269999 -0.99199998 36 9 2
-2.7920001 -3.309 -1.03 3 0 0
-2.7920001 -3.2920001 -1.038 3 0 0
-2.802 -3.3369999 -0.91600001 35 10 6
-2.803 -3.3280001 -0.91299999 42 20 7
-2.812 -3.362 -0.92000002 152 102 65
-2.8469999 -3.348 -0.91500002 91 26 0
-2.855 -3.319 -0.921 128 48 0
-2.8570001 -3.312 -0.93099999 105 49 14
-2.8469999 -3.323 -0.91600001 93 45 5
-2.8410001 -3.3440001 -0.93000001 38 16 5
-2.8369999 -3.355 -0.92400002 56 5 1
-2.8210001 -3.3310001 -0.88700002 132 94 58
-2.835 -3.345 -0.89200002 95 50 8
-2.8210001 -3.3210001 -0.89999998 71 33 10
-2.8069999 -3.3310001 -0.95999998 46 27 21
-2.799 -3.3499999 -0.90899998 152 118 93
-2.839 -3.2320001 -0.921 183 131 71
-2.8010001 -3.273 -1.0369999 132 105 84
-2.79 -3.2780001 -1.033 178 124 88
-2.8010001 -3.2690001 -1.024 8 8 0
-2.822 -3.2609999 -0.99199998 47 33 22
-2.8069999 -3.2690001 -0.99699998 15 1 0
-2.823 -3.2639999 -0.99599999 32 7 2
-2.806 -3.2639999 -0.97500002 95 62 53
-2.819 -3.2309999 -0.94300002 81 55 32
-2.8180001 -3.2409999 -0.94700003 21 6 1
-2.836 -3.263 -0.958 114 97 87
-2.8269999 -3.2550001 -0.95899999 22 7 0
-2.842 -3.2379999 -0.94300002 157 138 96
-2.7909999 -3.279 -1.023 26 9 1
-2.79 -3.283 -1.023 52 6 0
-2.7869999 -3.2969999 -1.023 22 4 4
-2.789 -3.2880001 -1.035 44 16 5
-2.793 -3.2739999 -0.96899998 46 24 11
-2.7969999 -3.273 -0.98100001 76 35 15
-2.7869999 -3.29 -0.98100001 25 12 6
-2.796 -3.319 -0.98000002 43 20 14
-2.7920001 -3.306 -0.99599999 15 0 0
-2.793 -3.299 -0.98400003 99 72 63
-2.826 -3.3150001 -1.031 59 26 11
-2.855 -3.2820001 -0.92199999 119 91 70
-2.8469999 -3.2839999 -1.016 52 34 22
-2.842 -3.2839999 -1.022 91 81 79
-2.8310001 -3.2920001 -1.036 18 0 0
-2.809 -3.296 -1.0369999 9 1 0
-2.8380001 -3.279 -1.0140001 44 27 19
-2.849 -3.2809999 -1 93 66 45
-2.848 -3.283 -1.002 112 92 91
-2.8099999 -3.3429999 -0.95099998 17 0 0
-2.8369999 -3.277 -0.91600001 140 127 121
-2.826 -3.2939999 -0.90700001 39 6 0
-2.825 -3.2460001 -0.95200002 17 0 0
-2.813 -3.243 -0.94499999 19 8 4
-2.8 -3.3429999 -0.89200002 75 29 5
-2.8080001 -3.2479999 -0.91799998 72 57 52
-2.8180001 -3.2290001 -0.91600001 147 107 56
-2.806 -3.313 -0.92799997 83 52 34
-2.8099999 -3.3210001 -0.92299998 111 90 85
-2.8110001 -3.316 -0.91399997 67 36 16
-2.806 -3.266 -0.94400001 50 23 14
-2.8 -3.27 -0.954 15 1 0
-2.7980001 -3.2739999 -1.002 16 6 7
-2.8559999 -3.296 -0.94199997 51 2 0
-2.813 -3.3080001 -0.90499997 51 33 29
-2.813 -3.313 -0.912 33 9 0
-2.8110001 -3.3150001 -0.89999998 24 0 0
-2.8210001 -3.221 -0.935 55 24 3
-2.842 -3.243 -0.93599999 156 113 58
-2.845 -3.2780001 -0.91500002 154 124 114
-2.8150001 -3.3269999 -1.002 51 27 17
-2.835 -3.322 -0.96200001 122 112 111
-2.802 -3.325 -1.015 43 18 11
-2.822 -3.336 -0.97000003 19 6 0
-2.7820001 -3.3050001 -1.027 7 1 0
-2.789 -3.3180001 -1.023 26 5 0
-2.8050001 -3.3599999 -0.91600001 58 20 1
-2.802 -3.3469999 -0.93400002 20 0 0
-2.802 -3.3399999 -0.91600001 39 6 1
-2.8069999 -3.3399999 -0.94999999 26 8 6
-2.809 -3.3429999 -0.94700003 26 6 5
-2.806 -3.3399999 -0.94599998 25 7 5
-2.849 -3.3150001 -0.95700002 44 17 8
-2.849 -3.3150001 -0.95999998 40 12 8
-2.839 -3.3169999 -0.94999999 47 5 0
-2.852 -3.3310001 -0.92199999 98 55 38
-2.8429999 -3.339 -0.92400002 49 24 2
-2.8269999 -3.342 -0.89399999 176 124 67
-2.806 -3.3399999 -0.89499998 52 14 0
-2.7969999 -3.312 -0.95300001 21 0 0
-2.812 -3.302 -0.93900001 47 13 0
-2.809 -3.3099999 -0.93699998 198 119 52
-2.8050001 -3.3499999 -0.89200002 138 92 58
-2.8210001 -3.3659999 -0.89700001 116 78 41
-2.816 -3.349 -0.89399999 149 105 60
-2.8110001 -3.352 -0.89399999 162 111 64
-2.816 -3.3540001 -0.89700001 70 37 6
-2.806 -3.3559999 -0.89499998 195 154 124
-2.8199999 -3.3510001 -0.89600003 194 147 105
-2.8210001 -3.3670001 -0.90200001 99 44 5
-2.8380001 -3.2249999 -0.92299998 167 132 78
-2.7939999 -3.286 -1.0369999 5 6 0
-2.8069999 -3.2679999 -0.98400003 4 0 0
-2.826 -3.2639999 -0.96499997 32 17 12
-2.819 -3.26 -0.96899998 14 0 0
-2.8169999 -3.2650001 -0.98000002 25 16 11
-2.7950001 -3.3169999 -0.98000002 100 64 30
-2.79 -3.3110001 -0.991 15 0 0
-2.8570001 -3.2920001 -1.012 30 7 0
-2.8570001 -3.293 -1.007 63 44 37
-2.822 -3.3080001 -1.036 41 13 1
-2.852 -3.2820001 -0.93599999 83 32 3
-2.846 -3.2550001 -0.92900002 108 72 14
-2.836 -3.2750001 -0.98699999 34 19 16
-2.842 -3.2809999 -1.002 142 124 120
-2.826 -3.267 -1.001 44 14 12
-2.8510001 -3.2920001 -1.0039999 35 19 4
-2.829 -3.2780001 -1.013 42 25 17
-2.8169999 -3.273 -1.013 4 3 1
-2.819 -3.273 -1.0089999 2 1 0
-2.8440001 -3.286 -1.0319999 91 76 71
-2.8299999 -3.289 -1.0319999 30 9 4
-2.8329999 -3.277 -1.007 47 29 19
-2.8399999 -3.3299999 -0.926 79 36 1
-2.8440001 -3.332 -0.90899998 74 43 14
-2.8280001 -3.2609999 -0.91399997 100 47 7
-2.8280001 -3.2820001 -0.91000003 52 18 8
-2.8169999 -3.2479999 -0.95300001 24 10 10
-2.8239999 -3.233 -0.94400001 62 42 15
-2.802 -3.3440001 -0.88999999 41 27 26
-2.809 -3.2750001 -0.94 103 81 70
-2.809 -3.2739999 -0.94099998 22 7 4
-2.7969999 -3.277 -0.95899999 24 5 1
-2.8139999 -3.2969999 -0.949 18 2 2
-2.8110001 -3.29 -0.935 66 49 39
-2.7850001 -3.2880001 -1.0039999 26 15 11
-2.849 -3.3050001 -0.94599998 97 73 63
-2.8099999 -3.3139999 -0.898 93 51 29
-2.8369999 -3.2509999 -0.92000002 255 218 174
-2.836 -3.2490001 -0.91900003 148 96 56
-2.8469999 -3.28 -0.91600001 129 103 90
-2.8499999 -3.3 -1.005 82 61 44
-2.852 -3.302 -1.0089999 39 19 12
-2.825 -3.335 -0.963 108 73 51
-2.826 -3.3340001 -0.96100003 80 33 5
-2.8239999 -3.3340001 -0.96600002 99 53 29
-2.8269999 -3.3239999 -0.97799999 19 1 1
-2.8340001 -3.3199999 -0.98299998 68 27 9
-2.8 -3.302 -1.035 3 1 4
-2.8280001 -3.3269999 -0.98199999 70 26 0
-2.8269999 -3.326 -0.99000001 101 53 31
-2.829 -3.323 -0.995 48 18 8
-2.825 -3.3280001 -1 36 5 2
-2.822 -3.339 -0.96100003 32 5 0
-2.8329999 -3.325 -0.94800001 124 112 112
-2.7739999 -3.3039999 -1.026 44 36 23
-2.776 -3.3139999 -1.02 32 15 8
-2.7839999 -3.313 -1.023 34 16 2
-2.802 -3.3199999 -1.026 17 0 0
-2.8050001 -3.336 -0.926 129 106 92
-2.806 -3.332 -0.93400002 135 108 89
-2.802 -3.3369999 -0.93099999 60 44 31
-2.806 -3.3340001 -0.93800002 55 28 7
-2.8239999 -3.3610001 -0.92000002 182 141 111
-2.845 -3.3429999 -0.921 55 36 30
-2.8380001 -3.3599999 -0.91900003 131 65 39
-2.823 -3.339 -0.89300001 148 102 66
-2.8369999 -3.342 -0.89300001 102 54 8
-2.8080001 -3.332 -0.94499999 49 21 0
-2.8069999 -3.352 -0.89300001 196 146 109
-2.8269999 -3.3540001 -0.89899999 76 35 5
-2.829 -3.346 -0.89499998 205 148 93
-2.8080001 -3.233 -0.935 134 114 113
-2.8139999 -3.2590001 -0.96700001 8 0 0
-2.8410001 -3.2279999 -0.93599999 180 162 114
-2.825 -3.22 -0.93400002 56 36 12
-2.79 -3.283 -1.017 149 98 67
-2.7950001 -3.3199999 -0.98199999 124 89 57
-2.859 -3.296 -1.021 65 37 26
-2.8540001 -3.2909999 -1.011 18 0 0
-2.839 -3.3050001 -1.03 8 3 0
-2.835 -3.3110001 -1.027 63 28 9
-2.846 -3.2780001 -0.94099998 58 28 2
-2.8410001 -3.2820001 -0.94700003 219 187 126
-2.8469999 -3.2479999 -0.92900002 189 160 118
-2.8329999 -3.2720001 -0.96399999 79 15 0
-2.8340001 -3.2780001 -0.96399999 53 25 11
-2.8399999 -3.273 -0.949 49 27 14
-2.8410001 -3.2739999 -0.94599998 40 14 0
-2.8429999 -3.289 -0.95499998 9 0 0
-2.8410001 -3.2950001 -0.96100003 15 6 7
-2.839 -3.28 -0.991 25 11 10
-2.839 -3.2839999 -0.98900002 127 117 116
-2.842 -3.2839999 -0.99199998 122 99 83
-2.822 -3.267 -0.98900002 123 102 97
-2.849 -3.2939999 -1.003 34 15 0
-2.8469999 -3.2969999 -1.033 53 28 21
-2.8369999 -3.293 -1.033 8 0 0
-2.8180001 -3.2950001 -1.036 10 2 0
-2.8069999 -3.2950001 -1.0369999 11 7 6
-2.8380001 -3.2850001 -0.963 118 80 61
-2.832 -3.276 -1.0039999 11 2 3
-2.8380001 -3.286 -0.98799998 126 107 92
-2.842 -3.3110001 -0.91000003 128 83 54
-2.8469999 -3.3110001 -0.917 109 42 0
-2.8440001 -3.329 -0.91000003 26 6 0
-2.8110001 -3.2780001 -0.92900002 106 81 74
-2.813 -3.279 -0.912 43 23 14
-2.829 -3.233 -0.94499999 46 29 0
-2.8329999 -3.2320001 -0.94199997 103 91 67
-2.8150001 -3.2390001 -0.94300002 130 111 104
-2.8099999 -3.2620001 -0.97299999 11 0 0
-2.8039999 -3.2639999 -0.96499997 135 121 112
-2.8010001 -3.2720001 -0.98900002 119 97 83
-2.7969999 -3.2839999 -0.98699999 78 61 54
-2.8499999 -3.306 -0.94400001 51 13 4
-2.8559999 -3.309 -0.92299998 95 51 26
-2.8239999 -3.2650001 -0.91399997 52 27 7
-2.8150001 -3.26 -0.912 58 12 0
-2.809 -3.302 -0.89899999 113 79 54
-2.813 -3.3010001 -0.89399999 106 75 46
-2.8380001 -3.3199999 -0.90799999 67 28 13
-2.8499999 -3.3039999 -1.013 69 37 24
-2.8410001 -3.3099999 -1.02 61 28 21
-2.8410001 -3.3099999 -1.021 87 50 31
-2.8299999 -3.3169999 -1.002 40 26 25
-2.826 -3.326 -0.96600002 26 7 3
-2.8169999 -3.3280001 -1.005 113 88 84
-2.78 -3.303 -1.025 35 16 2
-2.783 -3.312 -1.023 27 3 1
-2.803 -3.3369999 -0.92799997 36 12 0
-2.809 -3.3559999 -0.92000002 130 84 50
-2.8559999 -3.309 -0.935 66 10 0
-2.8540001 -3.316 -0.92500001 117 46 2
-2.829 -3.3559999 -0.92400002 130 122 120
-2.8380001 -3.3429999 -0.89600003 106 61 22
-2.835 -3.3529999 -0.90200001 163 122 76
-2.822 -3.345 -0.89399999 119 65 19
-2.8069999 -3.335 -0.94599998 128 98 70
-2.7920001 -3.2739999 -1.007 10 0 0
-2.813 -3.277 -1.02 1 0 0
-2.8399999 -3.2950001 -0.99199998 13 0 0
-2.836 -3.2909999 -0.98100001 56 24 11
-2.825 -3.3050001 -1.035 16 5 1
-2.835 -3.3139999 -1.024 66 30 16
-2.846 -3.2720001 -0.93900001 95 31 0
-2.8280001 -3.273 -0.97000003 81 17 0
-2.845 -3.2820001 -0.995 56 31 11
-2.8169999 -3.267 -0.98500001 117 98 94
-2.8440001 -3.302 -1.03 6 0 0
-2.8329999 -3.283 -1.02 42 28 19
-2.8110001 -3.28 -1.028 1 1 1
-2.812 -3.279 -1.024 1 1 1
-2.832 -3.2950001 -1.035 21 0 0
-2.803 -3.2780001 -1.036 9 0 0
-2.803 -3.273 -1.03 43 23 12
-2.809 -3.277 -1.01 28 9 2
-2.816 -3.2739999 -1.0089999 5 0 0
-2.8169999 -3.273 -1.01 5 1 0
-2.8440001 -3.2939999 -0.99599999 21 6 1
-2.8329999 -3.3110001 -0.90499997 124 95 77
-2.8280001 -3.309 -0.90499997 147 110 81
-2.813 -3.3380001 -0.97399998 74 36 15
-2.8269999 -3.3469999 -0.94199997 119 93 78
-2.8380001 -3.266 -0.91799998 83 46 20
-2.8169999 -3.2980001 -0.89899999 140 104 70
-2.813 -3.286 -0.91000003 60 28 17
-2.8110001 -3.279 -0.912 44 29 24
-2.8039999 -3.2950001 -0.91600001 70 38 23
-2.802 -3.27 -0.91900003 57 20 12
-2.8039999 -3.2880001 -0.92199999 49 31 27
-2.8039999 -3.2909999 -0.92199999 61 43 31
-2.812 -3.256 -0.90899998 18 4 1
-2.8110001 -3.2590001 -0.91399997 91 67 57
-2.8139999 -3.3080001 -0.898 93 60 29
-2.8310001 -3.2390001 -0.94300002 81 42 13
-2.8210001 -3.2509999 -0.958 20 7 1
-2.835 -3.234 -0.94300002 53 31 8
-2.806 -3.2520001 -0.93300003 113 87 70
-2.809 -3.2980001 -0.92799997 84 28 1
-2.8080001 -3.29 -0.95499998 66 25 7
-2.793 -3.289 -0.986 74 57 50
-2.813 -3.2609999 -0.91399997 76 28 6
-2.8150001 -3.2690001 -0.91500002 117 51 16
-2.8380001 -3.3150001 -0.99900001 16 1 0
-2.839 -3.3150001 -1.01 96 77 62
-2.849 -3.3150001 -1.005 22 0 0
-2.8399999 -3.3069999 -0.97000003 33 2 0
-2.8380001 -3.3150001 -0.96499997 32 9 3
-2.835 -3.3150001 -0.98000002 113 98 93
-2.8310001 -3.3269999 -0.94300002 140 96 67
-2.813 -3.355 -0.92500001 73 33 8
-2.8069999 -3.352 -0.92000002 123 70 26
-2.855 -3.3150001 -0.921 124 40 0
-2.836 -3.3610001 -0.90200001 126 80 64
-2.8239999 -3.2720001 -1.0039999 11 1 0
-2.822 -3.2690001 -1.003 4 0 0
-2.789 -3.2980001 -1.005 82 59 41
-2.793 -3.3110001 -0.98199999 84 41 6
-2.812 -3.299 -1.0369999 11 5 5
-2.835 -3.2939999 -0.98500001 85 63 50
-2.835 -3.3010001 -0.972 85 57 36
-2.8310001 -3.316 -1.015 28 5 0
-2.8340001 -3.29 -0.97600001 21 0 0
-2.848 -3.299 -1.031 17 8 9
-2.819 -3.2969999 -1.036 5 0 0
-2.802 -3.2750001 -1.035 30 11 0
-2.8169999 -3.293 -1.034 32 8 4
-2.809 -3.279 -1.028 1 0 0
-2.846 -3.2950001 -0.99900001 49 30 23
-2.839 -3.306 -0.90600002 112 76 52
-2.8069999 -3.3469999 -0.93900001 142 121 116
-2.826 -3.346 -0.93800002 27 13 2
-2.8110001 -3.3010001 -0.93099999 62 31 11
-2.8180001 -3.2869999 -0.91100001 38 15 9
-2.809 -3.2980001 -0.91299999 52 34 30
-2.809 -3.2880001 -0.92799997 89 45 20
-2.8110001 -3.316 -0.93900001 76 26 1
-2.8110001 -3.2850001 -0.93900001 90 51 22
-2.793 -3.2869999 -0.98299998 72 55 45
-2.8099999 -3.263 -0.917 57 20 4
-2.836 -3.309 -0.99199998 45 22 14
-2.8399999 -3.3139999 -1.005 51 26 21
-2.8440001 -3.312 -1.003 80 58 44
-2.845 -3.3099999 -0.96100003 135 97 74
-2.8429999 -3.309 -0.96499997 33 3 1
-2.8 -3.2839999 -1.034 14 5 6
-2.793 -3.3080001 -0.986 27 15 19
-2.839 -3.3110001 -1.021 72 40 27
-2.848 -3.2920001 -1.002 58 39 25
-2.848 -3.3 -1.029 36 9 0
-2.8099999 -3.2839999 -1.033 1 0 0
-2.8369999 -3.3 -0.99000001 32 15 8
-2.848 -3.3080001 -1.006 135 113 99
-2.8050001 -3.3050001 -0.92299998 51 20 0
-2.8110001 -3.2980001 -0.89999998 88 55 22
-2.802 -3.2579999 -0.91900003 54 36 32
-2.8110001 -3.2920001 -0.93099999 62 37 30
-2.8110001 -3.2820001 -0.94400001 30 10 3
-2.8469999 -3.3039999 -0.99599999 19 1 1
-2.8410001 -3.299 -0.99400002 15 4 0
-2.8429999 -3.3110001 -0.96700001 29 0 0
-2.842 -3.2980001 -0.95999998 95 65 54
-2.8340001 -3.3039999 -0.98299998 36 1 0
-2.8369999 -3.3080001 -0.97399998 38 7 4
-2.803 -3.2969999 -1.035 6 2 3
-2.826 -3.3540001 -0.89899999 158 105 53
-2.845 -3.293 -0.99800003 30 13 6
-2.8199999 -3.286 -1.025 61 41 40
-2.806 -3.293 -1.036 1 0 0
-2.8110001 -3.283 -1.0319999 37 8 2
-2.8099999 -3.2820001 -1.0319999 2 2 2
-2.806 -3.2550001 -0.926 50 17 2
-2.8080001 -3.2809999 -1.033 1 1 1
-2.8310001 -3.3139999 -1.021 45 9 0
-2.806 -3.257 -0.93000001 46 7 0
-2.8380001 -3.303 -0.96600002 35 5 0
0 0 0 1 0 0 0 1 0 0 0 1 0 0 0 0 0 600 1 0 0
