ply
format ascii 1.0
comment PCL generated
element vertex 1276
property float x
property float y
property float z
property uchar red
property uchar green
property uchar blue
element camera 0
property float view_px
property float view_py
property float view_pz
property float x_axisx
property float x_axisy
property float x_axisz
property float y_axisx
property float y_axisy
property float y_axisz
property float z_axisx
property float z_axisy
property float z_axisz
property float focal
property float scalex
property float scaley
property float centerx
property float centery
property int viewportx
property int viewporty
property float k1
property float k2
end_header
-8.5780001 11.514 -1.082 121 62 22
-8.573 11.504 -1.0829999 117 75 51
-8.5869999 11.378 -1.0650001 170 103 60
-8.5769997 11.384 -1.064 178 84 14
-8.5760002 11.379 -1.073 114 40 1
-8.6300001 11.36 -1.082 195 110 43
-8.6400003 11.363 -1.0700001 181 89 22
-8.6440001 11.352 -1.076 148 125 111
-8.6470003 11.342 -1.076 226 139 72
-8.7119999 11.353 -1.141 130 62 17
-8.7060003 11.346 -1.135 192 123 81
-8.7180004 11.342 -1.136 197 127 67
-8.7080002 11.368 -1.142 131 53 7
-8.7080002 11.367 -1.141 210 103 35
-8.7010002 11.356 -1.135 121 62 18
-8.7320004 11.346 -1.138 140 87 55
-8.743 11.373 -1.146 251 147 74
-8.7419996 11.38 -1.146 115 52 9
-8.75 11.381 -1.142 171 93 27
-8.7410002 11.381 -1.142 197 120 52
-8.6719999 11.281 -1.0190001 175 149 134
-8.6709995 11.276 -1.025 177 155 142
-8.6759996 11.28 -1.013 130 95 75
-8.6660004 11.296 -1.003 160 101 69
-8.6700001 11.283 -1.029 138 76 29
-8.698 11.219 -0.62699997 185 120 66
-8.5690002 11.387 -1.075 109 64 35
-8.5710001 11.491 -1.0779999 100 91 94
-8.5679998 11.506 -1.064 115 96 92
-8.6969995 11.232 -0.61400002 223 154 99
-8.698 11.227 -0.61699998 178 127 80
-8.7080002 11.226 -0.60799998 113 62 17
-8.7060003 11.23 -0.60299999 194 117 63
-8.658 11.422 -0.72500002 153 106 62
-8.6739998 11.288 -1.007 170 139 121
-8.6389999 11.414 -1.136 77 2 0
-8.6409998 11.402 -1.147 121 40 10
-8.6450005 11.406 -1.1440001 124 66 28
-8.6490002 11.409 -1.143 128 57 11
-8.6999998 11.368 -1.138 148 126 115
-8.6660004 11.431 -0.65700001 108 54 7
-8.6610003 11.43 -0.66399997 104 64 28
-8.6689997 11.432 -0.66399997 239 175 113
-8.6680002 11.429 -0.74000001 146 94 55
-8.6660004 11.424 -0.759 169 98 46
-8.665 11.427 -0.75400001 116 77 48
-8.6619997 11.431 -0.759 128 105 89
-8.5939999 11.473 -1.003 125 89 67
-8.599 11.473 -1.0089999 146 83 30
-8.6000004 11.467 -1.003 147 80 10
-8.6479998 11.384 -0.99900001 144 80 36
-8.6440001 11.379 -0.98699999 162 107 68
-8.7620001 11.292 -0.81699997 103 62 40
-8.7620001 11.294 -0.81900001 180 135 96
-8.7670002 11.284 -0.81599998 76 11 0
-8.7910004 11.293 -0.68199998 117 59 19
-8.6590004 11.41 -0.764 101 67 57
-8.6960001 11.234 -0.63099998 74 44 20
-8.5080004 11.488 -0.81699997 182 133 90
-8.8050003 11.284 -0.66600001 237 151 68
-8.7419996 11.222 -0.62300003 201 126 69
-8.7419996 11.224 -0.63099998 225 151 78
-8.7390003 11.277 -0.92000002 119 72 26
-8.7440004 11.28 -0.92199999 140 96 71
-8.7440004 11.281 -0.91299999 111 63 40
-8.6630001 11.414 -0.69400001 244 168 106
-8.658 11.41 -0.69999999 198 136 75
-8.6599998 11.407 -0.69400001 116 53 2
-8.6700001 11.424 -0.61500001 89 36 0
-8.6669998 11.427 -0.63099998 105 45 0
-8.665 11.429 -0.61500001 131 63 14
-8.6660004 11.422 -0.625 150 91 15
-8.6660004 11.422 -0.63700002 186 133 53
-8.6639996 11.416 -0.76300001 186 108 34
-8.6619997 11.419 -0.77200001 142 98 69
-8.7279997 11.26 -0.75800002 84 44 18
-8.7270002 11.244 -0.75099999 112 53 19
-8.5170002 11.485 -0.85799998 67 36 18
-8.5080004 11.487 -0.85799998 84 48 26
-8.5209999 11.484 -0.86900002 136 96 70
-8.5200005 11.486 -0.86299998 155 128 119
-8.5170002 11.501 -0.84799999 89 60 42
-8.5159998 11.495 -0.85900003 191 171 160
-8.5220003 11.492 -0.86500001 158 135 119
-8.566 11.5 -0.94300002 104 80 70
-8.5719995 11.501 -0.94599998 127 68 28
-8.5740004 11.499 -0.94099998 140 72 27
-8.5200005 11.504 -0.85399997 109 72 46
-8.5139999 11.504 -0.85299999 142 96 60
-8.5129995 11.495 -0.861 93 64 46
-8.7089996 11.217 -0.616 196 142 78
-8.7299995 11.367 -1.13 225 150 82
-8.7290001 11.377 -1.127 170 133 107
-8.7189999 11.372 -1.132 174 69 3
-8.7399998 11.224 -0.60399997 90 53 37
-8.7019997 11.233 -0.61900002 151 99 60
-8.7060003 11.238 -0.61400002 172 119 75
-8.7080002 11.221 -0.611 162 97 43
-8.7089996 11.235 -0.60799998 133 50 0
-8.7259998 11.212 -0.61400002 173 94 25
-8.6450005 11.428 -1.132 124 72 35
-8.6350002 11.358 -1.082 217 162 123
-8.6359997 11.358 -1.086 172 144 123
-8.6960001 11.353 -1.135 164 100 62
-8.7060003 11.344 -1.125 140 94 68
-8.7110004 11.346 -1.128 135 77 29
-8.7580004 11.374 -1.038 195 116 59
-8.7539997 11.372 -1.039 159 137 124
-8.7550001 11.375 -1.0190001 97 68 52
-8.7299995 11.364 -1.128 227 151 91
-8.7460003 11.296 -0.917 104 52 15
-8.7480001 11.311 -0.91000003 69 33 7
-8.7469997 11.299 -0.93000001 120 70 33
-8.7840004 11.41 -0.91000003 168 97 45
-8.7670002 11.285 -0.81800002 88 36 0
-8.7600002 11.304 -0.84399998 120 75 34
-8.757 11.302 -0.838 103 56 30
-8.7629995 11.3 -0.83600003 144 98 65
-8.7639999 11.306 -0.83600003 152 100 60
-8.6230001 11.348 -1.096 141 85 60
-8.6999998 11.224 -0.62 131 94 78
-8.7119999 11.209 -0.62900001 252 187 123
-8.7119999 11.208 -0.63999999 186 128 82
-8.6639996 11.425 -0.71499997 255 196 139
-8.6680002 11.426 -0.64899999 113 63 0
-8.6610003 11.423 -0.63999999 142 91 46
-8.6739998 11.286 -1.013 163 134 118
-8.6750002 11.283 -1.02 199 128 66
-8.6759996 11.302 -1.021 140 85 44
-8.71 11.285 -0.85799998 190 132 95
-8.7040005 11.27 -0.86000001 103 83 76
-8.7119999 11.278 -0.852 184 148 122
-8.7089996 11.277 -0.86299998 90 54 30
-8.7250004 11.281 -0.85799998 96 37 3
-8.743 11.301 -0.93099999 86 49 30
-8.7290001 11.217 -0.61000001 148 87 40
-8.7510004 11.424 -0.89399999 156 118 97
-8.7600002 11.419 -0.889 103 38 0
-8.7629995 11.424 -0.89099997 172 105 50
-8.6639996 11.425 -0.74199998 174 105 48
-8.6669998 11.428 -0.74299997 129 58 4
-8.7419996 11.277 -0.74400002 168 135 118
-8.7460003 11.283 -0.73900002 111 70 42
-8.7489996 11.277 -0.73500001 144 79 39
-8.665 11.426 -0.76499999 142 86 53
-8.6470003 11.383 -1.005 190 135 105
-8.6499996 11.381 -1.023 104 40 2
-8.6520004 11.384 -1.012 138 74 38
-8.5930004 11.47 -1.001 212 181 153
-8.5889997 11.477 -1.0039999 225 185 150
-8.5830002 11.47 -1.002 124 65 21
-8.5719995 11.469 -0.99199998 167 127 102
-8.651 11.398 -1.131 226 155 101
-8.6470003 11.417 -1.13 78 27 0
-8.6409998 11.409 -1.137 82 46 24
-8.6479998 11.408 -1.137 53 24 10
-8.6590004 11.423 -1.133 140 73 31
-8.6470003 11.429 -1.12 115 69 33
-8.6420002 11.424 -1.125 96 57 40
-8.6379995 11.422 -1.122 57 28 24
-8.6520004 11.426 -1.1289999 69 45 33
-8.658 11.424 -1.1289999 95 22 0
-8.7460003 11.294 -0.83099997 99 64 34
-8.7889996 11.297 -0.68000001 172 105 52
-8.7939997 11.303 -0.68099999 149 79 30
-8.665 11.417 -0.64499998 108 50 10
-8.6960001 11.232 -0.62699997 162 94 45
-8.6990004 11.229 -0.63 238 195 152
-8.7250004 11.236 -0.77399999 134 88 52
-8.7229996 11.233 -0.773 157 95 56
-8.7150002 11.237 -0.78100002 144 96 47
-8.7200003 11.246 -0.79500002 140 87 47
-8.7320004 11.24 -0.60900003 141 102 69
-8.7320004 11.239 -0.611 240 183 116
-8.724 11.235 -0.60399997 195 161 113
-8.7209997 11.231 -0.60100001 229 189 153
-8.6680002 11.425 -0.74000001 204 120 50
-8.7930002 11.31 -0.676 157 85 27
-8.8000002 11.304 -0.68000001 139 103 43
-8.7270002 11.207 -0.62900001 135 73 26
-8.5089998 11.488 -0.85500002 68 38 14
-8.5200005 11.492 -0.87099999 175 117 71
-8.5229998 11.489 -0.87400001 144 86 48
-8.5220003 11.484 -0.87400001 75 46 30
-8.6669998 11.428 -0.73100001 142 104 81
-8.6630001 11.433 -0.74000001 139 112 93
-8.5229998 11.494 -0.86699998 174 128 79
-8.6599998 11.416 -0.94700003 81 58 50
-8.6569996 11.419 -0.958 140 83 28
-8.6499996 11.408 -0.954 124 55 14
-8.6619997 11.422 -0.954 157 81 23
-8.6599998 11.409 -0.986 130 112 102
-8.6630001 11.41 -1.0039999 139 77 36
-8.6669998 11.409 -0.99900001 179 164 157
-8.6110001 11.388 -1.1210001 84 50 40
-8.6280003 11.395 -1.1339999 132 57 15
-8.6190004 11.394 -1.119 134 60 11
-8.5209999 11.444 -0.98100001 143 85 39
-8.5139999 11.446 -0.98100001 179 94 39
-8.5159998 11.445 -0.97799999 119 111 122
-8.5299997 11.462 -0.977 145 89 54
-8.5360003 11.453 -0.97100002 170 86 26
-8.5880003 11.386 -1.061 148 126 115
-8.5790005 11.43 -1.0700001 197 154 122
-8.5740004 11.411 -1.072 98 47 18
-8.5830002 11.426 -1.084 66 48 36
-8.5670004 11.412 -1.066 100 53 25
-8.585 11.432 -1.084 124 62 21
-8.5930004 11.437 -1.079 164 100 65
-8.625 11.403 -1.114 107 54 20
-8.6260004 11.419 -1.114 164 149 144
-8.6520004 11.37 -1.1390001 131 68 14
-8.6560001 11.356 -1.1440001 88 51 24
-8.6470003 11.369 -1.1339999 156 60 0
-8.6490002 11.383 -1.132 171 152 145
-8.651 11.364 -1.135 157 140 132
-8.6809998 11.363 -1.149 196 88 26
-8.6850004 11.362 -1.1569999 91 22 0
-8.6780005 11.366 -1.145 67 33 8
-8.6800003 11.357 -1.155 98 67 39
-8.684 11.375 -1.1390001 144 86 49
-8.7220001 11.349 -1.128 170 128 103
-8.7200003 11.344 -1.135 208 134 87
-8.7270002 11.35 -1.138 152 91 44
-8.7259998 11.354 -1.1289999 132 79 47
-8.724 11.354 -1.122 109 40 0
-8.7449999 11.29 -0.91399997 153 86 44
-8.7889996 11.413 -0.90600002 103 62 30
-8.7840004 11.406 -0.90200001 126 72 44
-8.783 11.404 -0.88800001 137 67 18
-8.7880001 11.41 -0.89300001 138 94 57
-8.757 11.31 -0.84100002 112 93 79
-8.7390003 11.297 -0.83200002 140 96 69
-8.7410002 11.319 -0.90100002 74 28 5
-8.7410002 11.319 -0.89499998 101 47 19
-8.6660004 11.419 -0.88200003 111 46 6
-8.665 11.416 -0.88 244 180 118
-8.6689997 11.422 -0.87900001 110 69 39
-8.6569996 11.412 -0.884 231 187 160
-8.6890001 11.31 -0.93900001 195 144 101
-8.6929998 11.309 -0.93699998 85 42 8
-8.6990004 11.311 -0.92799997 193 144 101
-8.6969995 11.321 -0.92799997 223 157 107
-8.651 11.364 -1.067 139 119 108
-8.6549997 11.362 -1.062 136 85 40
-8.6549997 11.365 -1.051 180 135 96
-8.6260004 11.355 -1.0930001 151 88 45
-8.6730003 11.28 -1.022 142 86 49
-8.7139997 11.209 -0.62199998 255 212 142
-8.7080002 11.214 -0.62199998 218 163 98
-8.6680002 11.428 -0.64700001 230 170 110
-8.7130003 11.278 -0.88499999 158 92 44
-8.71 11.271 -0.87300003 138 77 33
-8.7110004 11.275 -0.884 163 99 55
-8.7080002 11.268 -0.87199998 158 109 79
-8.7080002 11.266 -0.86500001 149 102 74
-8.7010002 11.299 -0.93000001 69 50 46
-8.7049999 11.297 -0.91500002 100 61 28
-8.7010002 11.29 -0.93099999 70 33 4
-8.6590004 11.401 -0.87900001 112 47 5
-8.6569996 11.409 -0.889 141 91 54
-8.7419996 11.332 -0.898 131 68 27
-8.7360001 11.322 -0.89999998 173 105 56
-8.7250004 11.287 -0.82999998 96 59 30
-8.7349997 11.285 -0.83700001 139 65 26
-8.7270002 11.273 -0.833 133 62 10
-8.7259998 11.267 -0.85600001 70 49 28
-8.7159996 11.272 -0.85299999 87 49 26
-8.7180004 11.278 -0.82599998 134 81 31
-8.7209997 11.275 -0.82700002 140 96 69
-8.7080002 11.267 -0.85799998 196 156 131
-8.717 11.277 -0.86699998 103 54 24
-8.8050003 11.299 -0.67500001 154 79 12
-8.8000002 11.295 -0.67500001 157 89 40
-8.632 11.396 -1.138 168 155 149
-8.6169996 11.383 -1.148 78 33 0
-8.6219997 11.38 -1.154 153 66 21
-8.625 11.378 -1.15 122 46 0
-8.6429996 11.418 -1.132 111 74 47
-8.6499996 11.417 -1.132 175 146 130
-8.7819996 11.416 -0.88999999 144 79 25
-8.7679996 11.411 -0.889 193 132 101
-8.7600002 11.408 -0.889 173 119 93
-8.7650003 11.398 -0.889 149 92 63
-8.757 11.407 -0.88999999 128 62 10
-8.7559996 11.405 -0.89399999 134 80 46
-8.7550001 11.425 -0.89399999 124 80 51
-8.7489996 11.434 -0.903 101 66 38
-8.7419996 11.29 -0.76200002 104 84 75
-8.7419996 11.287 -0.764 102 43 11
-8.7460003 11.294 -0.76499999 101 54 24
-8.7189999 11.279 -0.80800003 177 124 74
-8.7209997 11.281 -0.80299997 119 79 53
-8.7200003 11.288 -0.80199999 144 93 64
-8.6619997 11.42 -0.77100003 57 39 25
-8.665 11.427 -0.764 112 71 41
-8.5719995 11.468 -0.99299997 182 163 148
-8.5719995 11.461 -0.99199998 154 83 39
-8.5769997 11.464 -1.003 152 83 41
-8.559 11.455 -0.98799998 177 98 32
-8.6479998 11.385 -1.0190001 111 78 71
-8.6470003 11.388 -1.02 159 101 55
-8.6479998 11.386 -1.0140001 190 137 105
-8.5780001 11.466 -1.007 231 192 163
-8.5670004 11.501 -0.94800001 222 157 101
-8.6450005 11.419 -1.013 241 181 127
-8.6630001 11.409 -1.02 187 124 80
-8.651 11.394 -1.107 205 189 176
-8.6379995 11.392 -1.113 98 49 16
-8.6479998 11.403 -1.102 98 49 16
-8.6540003 11.399 -1.104 94 30 0
-8.6499996 11.389 -1.123 215 133 75
-8.6470003 11.396 -1.142 120 46 0
-8.6529999 11.389 -1.128 80 32 0
-8.5760002 11.502 -1.0700001 171 113 67
-8.5740004 11.509 -1.063 203 153 120
-8.5839996 11.493 -1.059 182 124 78
-8.6639996 11.427 -1.108 108 36 0
-8.7130003 11.349 -1.124 96 81 76
-8.717 11.355 -1.119 136 83 51
-8.6750002 11.387 -1.123 70 34 12
-8.6709995 11.385 -1.127 214 142 66
-8.6820002 11.384 -1.135 135 56 0
-8.6920004 11.392 -1.133 79 25 0
-8.6929998 11.393 -1.143 93 35 0
-8.6940002 11.414 -1.13 64 28 6
-8.691 11.389 -1.142 37 14 6
-8.6820002 11.378 -1.1390001 124 101 87
-8.6809998 11.37 -1.14 133 70 26
-8.6969995 11.386 -1.142 26 3 0
-8.7019997 11.392 -1.143 164 107 54
-8.7729998 11.4 -1.046 165 96 54
-8.7749996 11.393 -1.0470001 220 128 63
-8.776 11.397 -1.041 157 97 63
-8.6289997 11.356 -1.092 180 142 106
-8.6940002 11.323 -0.986 85 38 12
-8.6870003 11.318 -0.98100001 87 36 7
-8.6929998 11.323 -0.96499997 58 39 35
-8.6850004 11.326 -0.99900001 137 89 41
-8.7620001 11.293 -0.824 135 91 66
-8.7810001 11.33 -0.667 103 59 48
-8.7869997 11.328 -0.67299998 105 58 32
-8.7810001 11.328 -0.671 93 53 28
-8.665 11.42 -0.63499999 135 81 43
-8.7010002 11.228 -0.63700002 173 103 44
-8.7080002 11.235 -0.63 136 52 6
-8.7209997 11.246 -0.62199998 106 63 56
-8.7299995 11.228 -0.62599999 129 63 29
-8.7299995 11.236 -0.639 219 142 88
-8.7159996 11.237 -0.77200001 106 64 39
-8.71 11.261 -0.86199999 116 66 17
-8.7790003 11.31 -0.67400002 78 28 5
-8.7840004 11.303 -0.67400002 107 61 37
-8.7419996 11.229 -0.62099999 116 79 61
-8.7510004 11.238 -0.62900001 132 59 16
-8.7519999 11.244 -0.63200003 135 85 36
-8.7189999 11.206 -0.62199998 239 179 116
-8.7200003 11.208 -0.62900001 199 136 82
-8.5109997 11.496 -0.84899998 104 66 43
-8.6619997 11.42 -0.81999999 232 201 180
-8.665 11.419 -0.81999999 208 147 102
-8.6709995 11.43 -0.801 150 107 72
-8.6599998 11.421 -0.838 179 145 120
-8.6619997 11.418 -0.829 196 165 144
-8.6660004 11.422 -0.79799998 76 58 46
-8.6599998 11.413 -0.796 192 129 78
-8.6599998 11.412 -0.79799998 91 64 55
-8.658 11.409 -0.79400003 151 90 43
-8.7049999 11.384 -1.132 77 27 2
-8.5349998 11.456 -0.90600002 105 57 9
-8.5419998 11.456 -0.903 157 92 52
-8.5349998 11.457 -0.91299999 93 52 32
-8.5279999 11.458 -0.90899998 131 105 92
-8.5279999 11.457 -0.90100002 118 96 83
-8.5699997 11.494 -0.94700003 159 114 83
-8.6639996 11.405 -0.98699999 126 55 3
-8.6689997 11.397 -0.986 106 56 31
-8.6730003 11.408 -0.96700001 161 87 40
-8.665 11.411 -0.958 117 60 15
-8.5640001 11.457 -0.98400003 154 138 123
-8.5869999 11.476 -1.006 45 24 23
-8.632 11.393 -1.122 125 92 85
-8.6429996 11.431 -1.125 152 75 31
-8.6339998 11.43 -1.112 60 32 18
-8.6429996 11.43 -1.12 117 58 24
-8.6190004 11.439 -1.103 63 9 0
-8.6190004 11.434 -1.1059999 173 111 60
-8.6260004 11.431 -1.103 140 91 58
-8.6370001 11.437 -1.094 70 6 0
-8.6230001 11.452 -1.097 115 44 2
-8.625 11.458 -1.103 87 55 44
-8.5790005 11.386 -1.0779999 173 112 67
-8.5799999 11.392 -1.081 143 67 17
-8.5900002 11.387 -1.0779999 204 110 36
-8.6199999 11.378 -1.143 143 57 6
-8.618 11.397 -1.1059999 222 159 106
-8.6169996 11.385 -1.117 157 133 123
-8.6140003 11.381 -1.098 114 60 36
-8.6199999 11.385 -1.135 180 96 34
-8.5469999 11.46 -0.90600002 172 111 64
-8.5459995 11.471 -0.92400002 112 49 8
-8.5410004 11.466 -0.91399997 142 78 30
-8.5360003 11.457 -0.96700001 112 73 44
-8.5559998 11.459 -0.96700001 136 103 70
-8.5480003 11.46 -0.96799999 158 87 41
-8.5459995 11.452 -0.98299998 113 87 74
-8.6490002 11.387 -1.024 150 100 67
-8.651 11.393 -1.031 161 148 142
-8.6490002 11.397 -1.0190001 126 85 53
-8.6499996 11.39 -1.034 163 114 82
-8.6549997 11.38 -1.04 133 65 16
-8.6529999 11.387 -1.035 138 72 24
-8.6529999 11.398 -1.045 232 187 156
-8.5710001 11.484 -1.058 178 112 64
-8.6560001 11.341 -1.152 130 67 24
-8.658 11.34 -1.155 176 68 19
-8.6599998 11.336 -1.153 63 28 6
-8.665 11.344 -1.142 105 42 1
-8.6960001 11.352 -1.128 225 144 79
-8.6949997 11.355 -1.1289999 118 62 13
-8.6809998 11.361 -1.122 136 68 19
-8.6800003 11.363 -1.114 106 41 9
-8.6639996 11.354 -1.12 152 132 125
-8.6700001 11.354 -1.141 175 151 139
-8.6669998 11.368 -1.126 210 110 50
-8.6759996 11.364 -1.138 130 87 53
-8.6590004 11.364 -1.135 170 67 1
-8.7379999 11.353 -1.041 148 58 0
-8.7449999 11.363 -1.043 151 133 121
-8.7379999 11.358 -1.0369999 126 81 39
-8.7370005 11.356 -1.034 101 42 10
-8.7279997 11.345 -1.137 189 111 45
-8.7600002 11.384 -1.054 121 63 25
-8.6409998 11.418 -1.026 95 38 8
-8.6379995 11.411 -1.0140001 119 57 20
-8.6059999 11.465 -1.006 68 47 26
-8.6090002 11.462 -0.98299998 120 73 45
-8.6099997 11.459 -0.98500001 153 80 35
-8.6719999 11.375 -1.0420001 235 168 100
-8.6750002 11.387 -1.035 174 103 51
-8.6759996 11.381 -1.044 167 145 131
-8.6590004 11.385 -1.033 82 49 32
-8.743 11.29 -0.90600002 110 57 23
-8.7410002 11.293 -0.903 89 46 27
-8.743 11.309 -0.90899998 131 63 14
-8.7650003 11.39 -0.90499997 107 68 37
-8.7639999 11.403 -0.91399997 110 64 31
-8.7770004 11.406 -0.90899998 78 26 2
-8.7580004 11.387 -0.90499997 90 38 14
-8.7720003 11.412 -0.91000003 166 103 59
-8.7779999 11.418 -0.91399997 154 102 63
-8.7869997 11.41 -0.90200001 143 87 54
-8.651 11.404 -0.91600001 168 122 86
-8.6499996 11.407 -0.91500002 115 57 20
-8.651 11.404 -0.90399998 97 64 33
-8.6499996 11.407 -0.92799997 184 125 83
-8.6529999 11.407 -0.921 110 71 40
-8.658 11.404 -0.93300003 118 60 20
-8.6890001 11.31 -0.97000003 96 45 16
-8.6890001 11.31 -0.95999998 110 55 24
-8.6940002 11.305 -0.95999998 107 66 38
-8.658 11.412 -0.93300003 170 106 70
-8.6479998 11.363 -1.069 183 158 138
-8.6719999 11.359 -1.036 110 67 33
-8.6739998 11.347 -1.031 146 123 105
-8.6669998 11.341 -1.033 132 78 34
-8.6549997 11.35 -1.0779999 154 134 123
-8.651 11.354 -1.089 189 102 48
-8.6800003 11.352 -1.017 105 54 25
-8.6780005 11.351 -1.02 165 114 83
-8.6730003 11.34 -1.023 169 146 128
-8.6789999 11.352 -1.0190001 124 89 67
-8.6789999 11.363 -1.068 128 49 10
-8.6820002 11.358 -1.068 143 99 70
-8.6800003 11.372 -1.075 147 101 75
-8.6210003 11.357 -1.094 181 102 33
-8.6309996 11.363 -1.086 218 160 114
-8.6160002 11.381 -1.136 187 171 158
-8.6780005 11.333 -1.049 149 129 118
-8.6859999 11.333 -1.043 105 53 5
-8.6780005 11.332 -1.028 148 125 111
-8.6850004 11.332 -1.046 118 54 8
-8.6689997 11.351 -1.0650001 166 144 133
-8.6700001 11.354 -1.069 136 63 10
-8.677 11.355 -1.0700001 146 87 43
-8.6540003 11.348 -1.071 165 143 130
-8.6739998 11.345 -1.044 144 125 110
-8.6759996 11.338 -1.036 167 101 53
-8.6660004 11.42 -0.64399999 101 53 17
-8.717 11.266 -0.89099997 120 70 45
-8.71 11.272 -0.89200002 101 59 35
-8.7130003 11.267 -0.88099998 118 68 19
-8.7089996 11.269 -0.87800002 142 95 65
-8.7069998 11.299 -0.90700001 147 85 46
-8.7080002 11.292 -0.90799999 114 73 51
-8.6540003 11.413 -0.84299999 155 96 54
-8.6599998 11.414 -0.838 215 181 156
-8.6569996 11.402 -0.85299999 110 42 0
-8.6540003 11.412 -0.85399997 132 73 29
-8.7270002 11.279 -0.85399997 118 100 88
-8.7290001 11.275 -0.83099997 196 133 79
-8.7320004 11.267 -0.81599998 60 32 28
-8.7279997 11.274 -0.82200003 158 85 30
-8.7180004 11.263 -0.81999999 110 69 41
-8.7119999 11.277 -0.86400002 150 99 68
-8.7180004 11.273 -0.87 159 106 66
-8.743 11.299 -0.93800002 107 74 55
-8.8039999 11.294 -0.671 213 124 58
-8.5950003 11.44 -1.0829999 150 106 71
-8.5959997 11.44 -1.0779999 110 82 70
-8.6059999 11.446 -1.084 217 164 120
-8.5830002 11.457 -1.061 116 67 34
-8.5799999 11.454 -1.051 225 147 83
-8.5799999 11.459 -1.062 173 124 81
-8.6389999 11.4 -1.142 60 23 4
-8.6309996 11.392 -1.136 99 66 51
-8.6450005 11.416 -1.136 89 30 0
-8.7720003 11.408 -0.889 116 49 0
-8.7770004 11.409 -0.889 108 53 23
-8.7849998 11.412 -0.889 103 50 19
-8.7709999 11.424 -0.89499998 133 110 94
-8.776 11.419 -0.89300001 104 61 27
-8.7539997 11.418 -0.88999999 141 94 68
-8.665 11.418 -0.80900002 233 163 104
-8.6610003 11.411 -0.82200003 180 113 68
-8.5609999 11.466 -0.98199999 189 126 72
-8.5550003 11.463 -0.97899997 131 100 72
-8.6389999 11.399 -1 126 59 14
-8.6479998 11.392 -1.01 191 133 85
-8.6680002 11.395 -1.0420001 113 48 10
-8.6619997 11.403 -1.022 154 118 96
-8.6610003 11.401 -1.038 180 142 119
-8.6599998 11.404 -1.013 147 143 144
-8.6569996 11.387 -1.02 111 56 15
-8.6549997 11.388 -1.006 236 152 88
-8.6520004 11.385 -1 214 146 107
-8.6440001 11.375 -0.98400003 120 52 5
-8.6590004 11.386 -0.97799999 112 61 32
-8.599 11.464 -1 189 163 146
-8.6079998 11.465 -0.98000002 216 158 108
-8.5690002 11.487 -0.96100003 143 91 67
-8.5609999 11.478 -0.97399998 131 65 30
-8.559 11.483 -0.96700001 104 87 80
-8.5550003 11.488 -0.95999998 123 70 38
-8.5640001 11.473 -0.97100002 205 136 77
-8.6689997 11.406 -0.95599997 134 60 15
-8.7360001 11.374 -1.119 118 87 58
-8.7309999 11.376 -1.1210001 247 180 110
-8.6540003 11.391 -1.113 92 34 10
-8.6730003 11.398 -1.113 92 54 31
-8.6079998 11.446 -1.0599999 242 158 94
-8.6079998 11.453 -1.054 163 107 56
-8.6049995 11.443 -1.059 211 129 79
-8.5810003 11.495 -1.05 100 77 63
-8.5880003 11.483 -1.048 129 66 22
-8.6389999 11.43 -1.098 130 52 3
-8.6459999 11.421 -1.104 126 114 114
-8.6389999 11.429 -1.097 138 79 39
-8.6450005 11.408 -1.086 185 116 51
-8.7030001 11.431 -1.101 94 46 24
-8.6929998 11.434 -1.115 88 26 0
-8.6949997 11.43 -1.108 107 61 35
-8.6940002 11.431 -1.115 109 73 49
-8.6599998 11.412 -1.025 124 111 103
-8.71 11.357 -1.138 179 114 56
-8.7150002 11.357 -1.138 130 79 34
-8.6569996 11.365 -1.142 163 88 33
-8.6639996 11.359 -1.08 160 140 129
-8.7600002 11.387 -1.031 56 24 3
-8.7279997 11.38 -1.018 127 73 45
-8.7290001 11.375 -1.0140001 111 70 42
-8.7069998 11.369 -1.024 167 127 92
-8.6630001 11.366 -1.113 108 56 19
-8.6709995 11.356 -1.133 168 111 66
-8.6700001 11.356 -1.138 202 137 79
-8.6759996 11.312 -0.99299997 63 30 21
-8.677 11.333 -1.02 186 146 120
-8.6949997 11.334 -1.012 151 101 50
-8.7299995 11.284 -0.81400001 104 60 35
-8.7320004 11.286 -0.80400002 113 69 30
-8.7270002 11.29 -0.80900002 88 71 63
-8.7309999 11.283 -0.81599998 166 122 83
-8.7410002 11.29 -0.833 81 42 13
-8.7720003 11.303 -0.66000003 117 93 81
-8.776 11.299 -0.653 183 130 99
-8.7880001 11.312 -0.64499998 189 102 48
-8.6630001 11.421 -0.634 148 84 36
-8.7049999 11.254 -0.62699997 204 156 110
-8.7019997 11.259 -0.62300003 131 69 18
-8.7060003 11.26 -0.63200003 179 94 30
-8.7150002 11.242 -0.62300003 122 44 0
-8.7220001 11.242 -0.60600001 124 72 22
-8.7200003 11.242 -0.77499998 117 63 27
-8.7150002 11.247 -0.79699999 105 40 8
-8.7139997 11.26 -0.87300003 96 60 26
-8.7150002 11.271 -0.85500002 87 33 0
-8.7089996 11.278 -0.90600002 50 28 7
-8.7130003 11.273 -0.90200001 110 56 20
-8.7110004 11.28 -0.89999998 82 44 23
-8.7860003 11.324 -0.67000002 145 80 38
-8.8109999 11.309 -0.65700001 171 112 56
-8.809 11.294 -0.65499997 249 157 70
-8.8009996 11.304 -0.64700001 152 103 62
-8.8030005 11.309 -0.65899998 97 56 24
-8.7959995 11.321 -0.65799999 123 64 22
-8.743 11.229 -0.62099999 135 91 64
-8.7469997 11.239 -0.63800001 228 148 75
-8.7370005 11.231 -0.63700002 169 97 49
-8.757 11.275 -0.699 229 184 145
-8.7600002 11.269 -0.69400001 143 72 30
-8.7650003 11.281 -0.68099999 147 73 24
-8.5129995 11.497 -0.84799999 210 161 129
-8.6630001 11.421 -0.81 226 192 167
-8.7360001 11.219 -0.62800002 131 77 33
-8.7370005 11.218 -0.62300003 205 125 56
-8.7360001 11.218 -0.61699998 145 83 42
-8.5600004 11.474 -0.95499998 138 77 33
-8.5620003 11.472 -0.95999998 144 130 127
-8.5679998 11.476 -0.949 156 91 35
-8.6599998 11.408 -1.005 134 117 110
-8.6450005 11.399 -1.001 120 55 17
-8.6560001 11.4 -0.98500001 107 62 33
-8.6499996 11.395 -0.995 169 127 87
-8.6689997 11.412 -0.96700001 175 165 164
-8.6599998 11.413 -0.963 94 56 33
-8.5900002 11.383 -1.068 207 162 131
-8.5749998 11.402 -1.053 127 52 10
-8.5740004 11.401 -1.056 121 104 97
-8.632 11.396 -1.1289999 157 140 133
-8.6429996 11.428 -1.127 167 101 66
-8.6120005 11.447 -1.092 101 45 22
-8.5790005 11.494 -1.073 198 137 90
-8.5860004 11.474 -1.061 170 126 99
-8.585 11.476 -1.061 165 130 110
-8.6260004 11.378 -1.127 168 89 30
-8.6289997 11.396 -1.112 120 50 0
-8.6239996 11.425 -1.11 142 68 19
-8.618 11.429 -1.101 75 43 30
-8.6079998 11.433 -1.091 68 8 0
-8.6099997 11.435 -1.095 136 62 17
-8.618 11.381 -1.094 182 111 55
-8.6260004 11.37 -1.101 248 192 143
-8.5649996 11.487 -0.94499999 99 41 3
-8.5629997 11.48 -0.93900001 122 52 3
-8.5439997 11.476 -0.921 128 101 72
-8.54 11.469 -0.91600001 138 75 32
-8.658 11.415 -0.89099997 99 60 29
-8.5290003 11.457 -0.96799999 137 126 134
-8.54 11.451 -0.98000002 133 123 132
-8.533 11.451 -0.977 147 82 42
-8.6459999 11.389 -1.059 152 79 24
-8.5839996 11.471 -1.059 215 146 87
-8.5769997 11.471 -1.058 97 88 91
-8.5780001 11.45 -1.046 198 133 69
-8.5719995 11.497 -1.074 137 93 66
-8.5710001 11.504 -1.067 181 104 48
-8.5780001 11.466 -1.015 152 71 24
-8.6400003 11.372 -1.075 170 143 132
-8.6470003 11.377 -1.069 170 151 144
-8.6780005 11.383 -1.1160001 102 49 17
-8.677 11.37 -1.117 51 20 2
-8.6730003 11.377 -1.115 95 20 0
-8.7110004 11.359 -1.122 76 11 0
-8.6660004 11.356 -1.143 165 94 48
-8.6789999 11.284 -1.0190001 173 100 47
-8.6789999 11.284 -1.013 115 71 34
-8.7220001 11.346 -1.137 160 84 32
-8.7550001 11.375 -1.046 155 136 122
-8.7519999 11.403 -1.066 95 43 6
-8.7469997 11.403 -1.077 87 48 15
-8.7539997 11.406 -1.0650001 123 84 51
-8.6700001 11.351 -1.049 241 172 105
-8.6599998 11.362 -1.058 133 86 60
-8.6049995 11.455 -0.995 169 95 48
-8.5979996 11.457 -1.0089999 105 83 69
-8.6140003 11.448 -0.98500001 117 46 4
-8.6549997 11.399 -1.041 103 49 13
-8.7410002 11.292 -0.91000003 114 75 58
-8.7419996 11.312 -0.903 96 71 51
-8.7309999 11.3 -0.89099997 182 97 43
-8.7690001 11.395 -0.89700001 192 120 72
-8.6700001 11.4 -0.95700002 141 80 36
-8.658 11.4 -0.94499999 162 91 45
-8.6669998 11.395 -0.95899999 126 57 15
-8.6630001 11.403 -0.95200002 227 148 82
-8.7440004 11.359 -0.89300001 112 59 28
-8.75 11.362 -0.89300001 130 76 50
-8.75 11.34 -0.88200003 133 79 45
-8.7390003 11.341 -0.88700002 138 99 68
-8.6590004 11.408 -0.92500001 98 53 20
-8.6949997 11.307 -0.95099998 144 95 65
-8.6990004 11.306 -0.949 150 96 58
-8.7049999 11.304 -0.92400002 105 70 40
-8.6879997 11.315 -0.94199997 209 154 124
-8.6969995 11.32 -0.93699998 122 82 46
-8.698 11.32 -0.95300001 114 77 51
-8.6590004 11.408 -0.93800002 96 51 18
-8.6669998 11.38 -1.094 144 54 1
-8.6750002 11.382 -1.0880001 106 45 1
-8.6730003 11.374 -1.085 87 48 17
-8.6780005 11.391 -1.096 112 53 21
-8.6490002 11.351 -1.073 163 123 97
-8.6440001 11.361 -1.072 174 128 92
-8.6759996 11.347 -1.024 191 119 69
-8.6709995 11.393 -0.97500002 67 25 0
-8.6689997 11.397 -0.96799999 117 54 10
-8.665 11.39 -0.97299999 143 76 34
-8.6689997 11.403 -0.97100002 104 57 15
-8.6960001 11.325 -0.99699998 129 74 35
-8.684 11.351 -1.022 141 92 60
-8.6929998 11.358 -1.02 149 74 32
-8.6289997 11.373 -1.0930001 211 135 75
-8.6110001 11.381 -1.1289999 189 143 110
-8.6549997 11.349 -1.064 160 137 123
-8.6689997 11.351 -1.058 168 146 135
-8.7060003 11.235 -0.62400001 175 116 76
-8.5380001 11.472 -0.90499997 115 83 58
-8.5340004 11.477 -0.91500002 134 67 25
-8.5410004 11.479 -0.90499997 166 101 47
-8.5380001 11.467 -0.96399999 158 96 55
-8.7080002 11.214 -0.62900001 206 147 89
-8.7089996 11.315 -0.91600001 83 35 0
-8.717 11.306 -0.90399998 110 47 6
-8.7089996 11.289 -0.89700001 148 106 81
-8.7110004 11.284 -0.90100002 99 62 36
-8.7370005 11.331 -0.89600003 70 20 0
-8.7399998 11.34 -0.89300001 118 54 16
-8.7189999 11.302 -0.87900001 93 74 67
-8.7270002 11.311 -0.89700001 69 18 0
-8.7200003 11.304 -0.89600003 98 79 72
-8.6590004 11.41 -0.84899998 76 38 17
-8.6569996 11.418 -0.83200002 114 71 37
-8.6630001 11.423 -0.79799998 112 63 23
-8.6569996 11.407 -0.85600001 194 159 131
-8.6540003 11.417 -0.83899999 153 125 104
-8.6630001 11.421 -0.847 132 102 78
-8.7119999 11.3 -0.90399998 94 49 30
-8.7320004 11.28 -0.89600003 179 118 63
-8.7250004 11.276 -0.86500001 64 22 0
-8.7349997 11.278 -0.83899999 64 42 19
-8.7270002 11.271 -0.81900001 142 84 44
-8.7229996 11.262 -0.815 97 58 25
-8.7349997 11.264 -0.79900002 137 60 4
-8.7360001 11.395 -1.034 91 39 2
-8.7370005 11.399 -1.025 108 76 61
-8.7390003 11.402 -1.028 159 116 82
-8.8039999 11.3 -0.65399998 162 125 106
-8.5900002 11.464 -1.062 181 98 32
-8.665 11.417 -0.89700001 122 54 15
-8.6599998 11.415 -0.90799999 134 102 81
-8.6610003 11.413 -0.88700002 162 109 67
-8.7480001 11.296 -0.77200001 132 77 23
-8.7449999 11.295 -0.78100002 98 44 10
-8.75 11.3 -0.778 102 63 34
-8.7349997 11.283 -0.78299999 92 53 24
-8.7220001 11.27 -0.81599998 101 51 14
-8.7250004 11.286 -0.80900002 166 140 117
-8.6499996 11.394 -0.98299998 180 138 100
-8.6389999 11.388 -0.977 126 71 41
-8.6409998 11.385 -0.98500001 91 43 3
-8.6470003 11.411 -1.007 120 71 38
-8.6490002 11.406 -0.96700001 188 115 74
-8.6459999 11.451 -1.08 142 82 48
-8.6499996 11.448 -1.075 160 134 121
-8.6450005 11.455 -1.077 148 113 91
-8.6389999 11.383 -0.98400003 133 95 72
-8.6529999 11.387 -0.98900002 140 69 25
-8.6529999 11.387 -0.98400003 191 147 120
-8.6499996 11.391 -0.96899998 125 116 117
-8.6479998 11.398 -0.95700002 107 72 50
-8.6479998 11.397 -0.95300001 121 77 42
-8.5640001 11.467 -0.97600001 168 90 24
-8.6429996 11.407 -1.015 124 60 16
-8.6569996 11.4 -1.027 109 59 24
-8.665 11.389 -0.97799999 140 76 28
-8.6610003 11.401 -1.006 169 125 98
-8.6610003 11.399 -1.011 140 83 40
-8.5900002 11.462 -1.002 108 80 66
-8.5880003 11.457 -1.013 156 122 87
-8.5860004 11.46 -1.012 107 79 68
-8.5550003 11.485 -0.96100003 144 109 87
-8.5550003 11.479 -0.96399999 106 62 35
-8.5740004 11.485 -0.95599997 164 115 75
-8.6730003 11.396 -1.114 121 68 36
-8.7320004 11.367 -1.1210001 86 31 0
-8.7299995 11.37 -1.127 226 170 121
-8.6199999 11.443 -1.08 177 122 68
-8.5830002 11.488 -1.0420001 161 92 35
-8.6339998 11.426 -1.092 139 125 124
-8.6420002 11.425 -1.104 182 132 97
-8.6619997 11.424 -1.1 130 64 14
-8.6459999 11.424 -1.024 201 143 93
-8.6470003 11.42 -1.02 114 50 2
-8.6929998 11.369 -1.124 55 36 30
-8.6940002 11.411 -1.126 87 33 5
-8.6809998 11.402 -1.109 73 54 48
-8.6879997 11.418 -1.11 138 85 54
-8.6829996 11.39 -1.1210001 109 49 23
-8.6800003 11.391 -1.115 114 70 35
-8.6800003 11.387 -1.1160001 132 98 73
-8.6529999 11.372 -1.135 126 64 25
-8.6529999 11.375 -1.13 156 99 54
-8.6700001 11.356 -1.073 168 148 137
-8.6750002 11.37 -1.079 126 69 40
-8.6689997 11.363 -1.081 126 57 16
-8.7600002 11.379 -1.043 126 61 19
-8.7539997 11.399 -1.016 105 74 54
-8.7460003 11.375 -1.0190001 125 65 13
-8.7370005 11.398 -1.024 76 29 0
-8.677 11.382 -1.082 169 98 36
-8.6619997 11.349 -1.135 213 138 98
-8.6490002 11.35 -1.133 189 113 63
-8.6560001 11.356 -1.141 158 136 125
-8.6590004 11.366 -1.115 185 176 171
-8.6700001 11.358 -1.126 170 64 4
-8.6750002 11.323 -1.007 78 28 3
-8.6890001 11.316 -0.98000002 87 46 26
-8.6990004 11.356 -1.035 124 78 42
-8.7060003 11.353 -1.043 155 89 39
-8.7189999 11.362 -1.036 141 83 33
-8.7130003 11.355 -1.035 143 112 92
-8.6920004 11.333 -1.0420001 150 74 22
-8.6870003 11.352 -1.044 118 37 0
-8.6719999 11.332 -1.024 142 98 63
-8.7320004 11.28 -0.81300002 94 49 16
-8.7349997 11.284 -0.833 86 46 11
-8.783 11.317 -0.65600002 135 62 9
-8.6660004 11.421 -0.61400002 164 103 40
-8.7130003 11.25 -0.62 98 22 0
-8.7150002 11.233 -0.62699997 179 90 32
-8.7489996 11.247 -0.64399999 221 126 60
-8.7390003 11.251 -0.65100002 139 62 8
-8.7349997 11.245 -0.65200001 102 46 9
-8.7469997 11.251 -0.63999999 138 72 12
-8.757 11.251 -0.63300002 123 66 21
-8.7550001 11.256 -0.639 117 82 62
-8.7609997 11.275 -0.65100002 129 75 39
-8.7679996 11.278 -0.65700001 209 121 57
-8.7659998 11.273 -0.65100002 135 57 9
-8.7639999 11.274 -0.67400002 109 76 59
-8.7639999 11.273 -0.67500001 122 56 8
-8.7309999 11.278 -0.79000002 116 70 34
-8.7220001 11.264 -0.80599999 134 82 42
-8.7220001 11.275 -0.81099999 103 63 37
-8.7290001 11.266 -0.80199999 136 78 41
-8.7159996 11.245 -0.796 87 41 18
-8.717 11.275 -0.90700001 93 58 30
-8.7069998 11.212 -0.64300001 204 132 60
-8.7469997 11.264 -0.70300001 126 57 0
-8.7449999 11.258 -0.68900001 130 49 2
-8.7440004 11.232 -0.63300002 157 92 34
-8.7969999 11.285 -0.66900003 160 67 0
-8.7950001 11.289 -0.65100002 220 146 73
-8.7629995 11.278 -0.68300003 79 41 5
-8.7480001 11.264 -0.685 128 75 41
-8.7399998 11.265 -0.70700002 88 58 48
-8.5129995 11.495 -0.85799998 112 66 30
-8.665 11.423 -0.80199999 143 84 42
-8.5509996 11.469 -0.972 82 41 13
-8.6619997 11.403 -1.001 180 123 80
-8.6610003 11.401 -0.99699998 195 152 120
-8.6709995 11.41 -0.96100003 163 113 78
-8.592 11.46 -1.005 181 107 58
-8.5930004 11.461 -1.003 167 103 55
-8.6000004 11.45 -0.98799998 128 87 55
-8.5909996 11.388 -1.073 130 112 108
-8.5719995 11.39 -1.071 137 76 31
-8.6040001 11.437 -1.09 132 115 108
-8.6020002 11.429 -1.081 74 14 0
-8.618 11.446 -1.095 74 23 4
-8.6149998 11.45 -1.0829999 129 50 7
-8.6079998 11.442 -1.071 126 66 32
-8.6079998 11.445 -1.087 212 159 107
-8.5889997 11.483 -1.059 105 44 0
-8.6009998 11.469 -1.062 152 120 105
-8.6549997 11.476 -1.075 171 90 37
-8.6569996 11.481 -1.075 149 125 113
-8.658 11.481 -1.079 112 54 17
-8.6219997 11.457 -1.094 204 147 94
-8.6000004 11.452 -1.048 164 88 36
-8.6199999 11.396 -1.115 193 127 75
-8.5889997 11.404 -1.075 149 99 50
-8.6190004 11.429 -1.103 151 138 132
-8.625 11.419 -1.107 80 46 36
-8.566 11.48 -0.94499999 234 184 157
-8.5629997 11.493 -0.94999999 146 84 43
-8.5419998 11.471 -0.90499997 162 117 84
-8.5369997 11.466 -0.903 156 89 47
-8.6540003 11.408 -0.90200001 131 75 40
-8.6610003 11.399 -0.89499998 139 89 54
-8.5279999 11.462 -0.97000003 191 156 126
-8.5319996 11.462 -0.96700001 97 35 0
-8.5310001 11.464 -0.97000003 118 91 80
-8.5270004 11.457 -0.96799999 133 113 104
-8.632 11.392 -1.071 154 76 12
-8.5749998 11.407 -1.075 149 90 58
-8.5419998 11.456 -0.98900002 141 81 45
-8.5760002 11.487 -1.066 123 73 40
-8.5780001 11.461 -1.0470001 132 82 45
-8.573 11.481 -1.056 153 131 120
-8.573 11.479 -1.048 102 59 25
-8.5710001 11.493 -1.053 147 95 58
-8.5699997 11.488 -1.045 108 58 25
-8.573 11.504 -1.062 181 142 125
-8.585 11.464 -1.0140001 169 124 91
-8.6379995 11.421 -1.104 67 37 35
-8.6490002 11.352 -1.084 242 167 110
-8.6440001 11.357 -1.099 83 43 17
-8.6359997 11.359 -1.098 96 52 27
-8.6789999 11.388 -1.11 127 56 10
-8.6689997 11.381 -1.112 156 143 137
-8.6680002 11.386 -1.105 117 61 26
-8.6789999 11.366 -1.1160001 136 118 108
-8.6700001 11.37 -1.1160001 147 51 1
-8.6920004 11.392 -1.1289999 42 23 16
-8.7189999 11.376 -1.1160001 135 90 71
-8.7229996 11.372 -1.1210001 136 73 38
-8.6680002 11.358 -1.1440001 64 28 4
-8.684 11.345 -1.0420001 127 64 20
-8.6809998 11.349 -1.057 117 91 74
-8.6820002 11.361 -1.053 142 70 22
-8.6569996 11.381 -1.058 95 41 13
-8.6529999 11.374 -1.061 165 134 113
-8.6750002 11.348 -1.051 157 137 126
-8.7030001 11.397 -1.074 137 80 50
-8.71 11.405 -1.079 116 72 47
-8.6960001 11.409 -1.084 40 23 16
-8.691 11.387 -1.056 187 139 103
-8.6920004 11.389 -1.054 139 72 19
-8.585 11.433 -1.043 83 42 20
-8.5839996 11.428 -1.0420001 140 102 79
-8.5780001 11.428 -1.039 79 57 34
-8.592 11.451 -1.031 177 144 125
-8.5909996 11.458 -1.02 149 108 80
-8.592 11.424 -1.056 146 65 20
-8.585 11.435 -1.048 99 65 40
-8.6459999 11.402 -1.074 167 145 134
-8.6540003 11.398 -1.072 136 54 7
-8.6730003 11.367 -1.039 132 64 15
-8.6730003 11.358 -1.045 101 38 3
-8.6569996 11.4 -1.03 144 88 51
-8.658 11.401 -1.04 124 78 45
-8.7299995 11.306 -0.91299999 185 126 94
-8.7270002 11.293 -0.90200001 91 62 44
-8.6709995 11.406 -0.96600002 124 80 55
-8.7480001 11.423 -0.898 198 152 119
-8.7480001 11.428 -0.90499997 81 43 22
-8.7489996 11.418 -0.90499997 132 72 20
-8.7589998 11.346 -0.89700001 154 85 43
-8.7519999 11.36 -0.89700001 103 49 11
-8.7480001 11.363 -0.89399999 166 98 51
-8.6630001 11.416 -0.838 110 44 0
-8.6639996 11.403 -0.88499999 183 116 63
-8.7709999 11.418 -0.91100001 153 130 112
-8.6599998 11.407 -0.91799998 189 127 86
-8.7200003 11.312 -0.91600001 71 14 0
-8.7139997 11.314 -0.92199999 102 39 6
-8.7080002 11.302 -0.92799997 133 78 39
-8.7130003 11.304 -0.91600001 98 80 78
-8.7060003 11.295 -0.917 120 62 22
-8.7040005 11.291 -0.93199998 108 90 86
-8.7080002 11.299 -0.92900002 67 21 0
-8.7159996 11.336 -0.92900002 167 117 80
-8.7139997 11.355 -0.92000002 133 89 54
-8.7030001 11.343 -0.93000001 142 85 42
-8.717 11.344 -0.92299998 95 62 45
-8.7069998 11.318 -0.954 169 122 96
-8.7119999 11.322 -0.96200001 141 80 35
-8.7049999 11.334 -0.93199998 83 38 7
-8.6990004 11.324 -0.935 127 93 66
-8.7019997 11.328 -0.92799997 152 91 47
-8.6619997 11.354 -1.072 171 149 135
-8.6709995 11.362 -1.033 161 139 125
-8.691 11.36 -1.026 168 117 74
-8.698 11.322 -0.96600002 126 71 41
-8.7049999 11.324 -0.96899998 104 72 49
-8.691 11.36 -1.022 190 109 46
-8.7019997 11.368 -1.024 181 131 98
-8.7030001 11.365 -1.02 151 99 52
-8.6610003 11.376 -1.097 150 133 126
-8.5360003 11.48 -0.92000002 149 87 48
-8.5360003 11.481 -0.92500001 103 77 64
-8.54 11.475 -0.92199999 139 116 98
-8.5410004 11.476 -0.91299999 124 72 35
-8.7209997 11.211 -0.63499999 118 56 15
-8.7069998 11.32 -0.91799998 179 112 67
-8.7040005 11.327 -0.92500001 116 80 48
-8.7159996 11.325 -0.898 104 40 4
-8.75 11.333 -0.88300002 107 55 18
-8.7609997 11.339 -0.903 131 78 36
-8.7180004 11.293 -0.87900001 150 92 46
-8.6590004 11.412 -0.847 204 170 143
-8.658 11.415 -0.82499999 72 51 30
-8.7349997 11.283 -0.903 112 68 43
-8.7270002 11.288 -0.90200001 71 30 10
-8.7089996 11.296 -0.903 85 47 24
-8.717 11.275 -0.90100002 131 80 35
-8.7279997 11.274 -0.85600001 168 112 65
-8.724 11.263 -0.815 118 84 57
-8.7180004 11.266 -0.86500001 148 94 56
-8.7030001 11.304 -0.94700003 54 33 28
-8.6000004 11.468 -1.063 192 105 38
-8.6700001 11.415 -0.90899998 171 95 33
-8.6630001 11.415 -0.91100001 138 81 36
-8.6560001 11.412 -0.91900003 219 143 83
-8.6610003 11.413 -0.91500002 134 81 47
-8.7349997 11.286 -0.78899997 127 66 9
-8.7329998 11.285 -0.78899997 96 41 2
-8.7299995 11.278 -0.81099999 199 124 67
-8.6490002 11.4 -0.96200001 184 104 51
-8.6499996 11.401 -0.96899998 183 134 94
-8.6479998 11.406 -0.972 167 123 88
-8.6540003 11.41 -0.96499997 137 68 26
-8.5909996 11.457 -1.016 205 151 107
-8.585 11.454 -1.028 160 121 88
-8.5909996 11.465 -1.015 170 134 102
-8.5830002 11.455 -1.033 107 65 41
-8.5860004 11.457 -1.015 163 86 42
-8.5790005 11.463 -1.011 180 143 117
-8.6529999 11.388 -0.97799999 126 53 8
-8.6479998 11.407 -1.007 151 86 48
-8.6590004 11.4 -0.99699998 122 53 12
-8.6639996 11.408 -1.046 255 202 135
-8.6599998 11.409 -1.044 116 102 93
-8.6669998 11.411 -1.048 198 114 54
-8.6099997 11.453 -0.986 162 143 136
-8.5530005 11.478 -0.95999998 127 115 115
-8.5469999 11.471 -0.958 122 53 11
-8.6619997 11.405 -0.94400001 118 61 18
-8.6630001 11.416 -0.926 153 91 42
-8.6549997 11.411 -0.92199999 108 49 19
-8.75 11.416 -0.90600002 160 116 87
-8.7290001 11.408 -1.085 133 113 102
-8.7139997 11.415 -1.097 101 56 27
-8.6689997 11.423 -1.104 138 98 72
-8.6870003 11.429 -1.108 83 64 58
-8.6569996 11.39 -1.127 132 121 115
-8.7329998 11.373 -1.0369999 207 126 70
-8.7349997 11.378 -1.0319999 47 19 5
-8.7299995 11.374 -1.127 154 98 61
-8.6359997 11.429 -1.087 188 131 101
-8.6239996 11.433 -1.092 141 124 116
-8.6309996 11.425 -1.091 142 83 27
-8.625 11.423 -1.09 111 83 69
-8.6400003 11.404 -1.074 180 148 135
-8.6400003 11.408 -1.09 65 37 23
-8.5950003 11.451 -1.059 133 103 79
-8.6619997 11.423 -1.101 166 82 18
-8.7299995 11.415 -1.08 93 53 28
-8.7329998 11.411 -1.096 78 27 0
-8.7360001 11.415 -1.0829999 125 70 40
-8.6999998 11.379 -1.119 54 23 3
-8.6929998 11.375 -1.123 61 24 18
-8.6789999 11.408 -1.103 112 48 13
-8.6960001 11.41 -1.13 136 92 55
-8.7069998 11.399 -1.1289999 136 92 55
-8.6870003 11.411 -1.108 115 39 13
-8.6590004 11.364 -1.092 240 150 88
-8.6529999 11.396 -1.079 125 111 110
-8.7550001 11.4 -1.0369999 74 51 37
-8.7530003 11.41 -1.03 112 77 47
-8.7489996 11.4 -1.039 122 48 9
-8.7469997 11.4 -1.05 169 94 62
-8.757 11.394 -1.043 103 71 48
-8.7589998 11.406 -1.008 97 34 0
-8.757 11.412 -1.0039999 162 103 71
-8.7600002 11.403 -1.0039999 97 56 24
-8.7379999 11.394 -1.027 134 61 20
-8.75 11.405 -1.018 139 96 64
-8.7469997 11.369 -1.038 52 33 19
-8.7510004 11.381 -1.022 121 77 38
-8.6800003 11.387 -1.085 144 52 5
-8.6829996 11.401 -1.076 165 76 20
-8.6709995 11.382 -1.073 153 62 7
-8.6129999 11.375 -1.125 158 141 133
-8.6210003 11.377 -1.1160001 193 135 89
-8.6219997 11.376 -1.109 188 126 67
-8.6230001 11.372 -1.112 216 141 86
-8.6210003 11.379 -1.109 245 183 134
-8.6210003 11.369 -1.135 197 128 86
-8.6590004 11.348 -1.133 61 24 0
-8.6529999 11.353 -1.127 111 51 0
-8.6529999 11.36 -1.12 85 60 55
-8.6730003 11.362 -1.1210001 103 84 80
-8.6669998 11.309 -0.99699998 49 28 27
-8.6730003 11.31 -1.017 165 137 123
-8.6719999 11.301 -0.99299997 182 118 72
-8.6759996 11.316 -1.013 114 58 11
-8.6890001 11.323 -0.995 147 112 84
-8.7189999 11.353 -1.03 252 190 131
-8.7180004 11.358 -1.034 138 82 47
-8.71 11.346 -1.033 181 99 41
-8.7110004 11.345 -1.028 114 62 25
-8.6969995 11.316 -1.018 150 64 3
-8.6960001 11.335 -1.0190001 150 88 49
-8.6990004 11.32 -0.99599999 125 52 0
-8.6960001 11.332 -1.039 122 69 35
-8.7089996 11.349 -1.029 133 71 10
-8.7040005 11.34 -1.031 101 42 0
-8.6800003 11.289 -1.013 140 82 34
-8.6789999 11.288 -1.016 87 46 16
-8.6940002 11.336 -1.02 115 55 21
-8.6750002 11.326 -1.016 40 20 21
-8.7880001 11.325 -0.66000003 146 73 28
-8.7930002 11.32 -0.66000003 84 42 18
-8.7849998 11.32 -0.65700001 121 73 50
-8.7840004 11.308 -0.65399998 172 143 127
-8.6639996 11.423 -0.61699998 160 125 103
-8.7639999 11.259 -0.64099997 142 88 50
-8.7659998 11.259 -0.64099997 161 102 44
-8.7589998 11.253 -0.64499998 134 82 43
-8.7539997 11.249 -0.639 149 87 40
-8.7819996 11.3 -0.64600003 149 97 57
-8.7349997 11.28 -0.78899997 154 95 55
-8.7290001 11.27 -0.80199999 106 70 44
-8.7849998 11.296 -0.67400002 119 75 30
-8.79 11.293 -0.67500001 132 70 23
-8.7620001 11.291 -0.66799998 136 57 16
-8.7550001 11.279 -0.68199998 144 74 15
-8.7580004 11.278 -0.67799997 108 73 19
-8.7670002 11.288 -0.671 139 95 68
-8.7390003 11.223 -0.616 158 98 48
-8.7060003 11.222 -0.63999999 144 63 7
-8.7320004 11.236 -0.64200002 155 97 49
-8.7559996 11.269 -0.70200002 118 35 0
-8.7510004 11.274 -0.69800001 106 73 54
-8.743 11.231 -0.63999999 139 90 24
-8.7340002 11.231 -0.64200002 96 52 15
-8.7320004 11.226 -0.63700002 199 122 52
-8.7309999 11.232 -0.64700001 164 105 45
-8.8000002 11.289 -0.64899999 255 206 155
-8.776 11.31 -0.66500002 76 48 27
-8.7629995 11.282 -0.65399998 128 57 11
-8.7679996 11.29 -0.65799999 147 71 19
-8.7559996 11.277 -0.69599998 78 54 10
-8.7449999 11.275 -0.69099998 78 46 35
-8.7410002 11.276 -0.72500002 81 52 36
-8.717 11.223 -0.64300001 117 64 32
-8.7299995 11.242 -0.64999998 162 103 47
-8.7320004 11.247 -0.65499997 106 71 51
-8.7320004 11.218 -0.63499999 120 47 0
-8.7229996 11.224 -0.64600003 151 78 9
-8.6490002 11.406 -0.954 177 109 64
-8.6049995 11.447 -0.977 190 100 40
-8.6049995 11.457 -0.97299999 79 52 35
-8.6009998 11.449 -0.97600001 148 84 23
-8.6020002 11.429 -0.98400003 136 114 101
-8.6110001 11.443 -0.98100001 118 68 41
-8.5389996 11.464 -0.97100002 164 125 96
-8.5480003 11.471 -0.95499998 136 116 107
-8.559 11.469 -0.96600002 204 178 165
-8.6560001 11.391 -0.995 237 156 91
-8.6689997 11.406 -0.97100002 218 163 109
-8.6630001 11.408 -0.97299999 156 96 60
-8.5769997 11.393 -1.062 155 101 67
-8.573 11.408 -1.058 82 33 1
-8.5760002 11.414 -1.057 203 154 111
-8.5810003 11.421 -1.053 249 175 110
-8.5769997 11.414 -1.056 189 111 49
-8.6009998 11.406 -1.058 173 110 66
-8.6049995 11.449 -1.0599999 241 193 153
-8.6009998 11.453 -1.059 211 131 80
-8.599 11.455 -1.051 225 133 68
-8.592 11.464 -1.046 133 102 84
-8.6260004 11.4 -1.109 146 70 12
-8.5900002 11.41 -1.066 95 18 0
-8.5889997 11.422 -1.077 98 28 3
-8.5860004 11.397 -1.074 113 40 0
-8.6230001 11.415 -1.089 82 50 39
-8.6199999 11.384 -1.095 254 165 85
-8.5679998 11.482 -0.949 229 164 96
-8.5679998 11.488 -0.95599997 102 44 6
-8.5450001 11.483 -0.92199999 90 55 27
-8.5609999 11.483 -0.94599998 238 174 113
-8.5419998 11.471 -0.91500002 194 153 123
-8.6040001 11.425 -1.062 166 131 101
-8.6300001 11.396 -1.069 136 58 19
-8.6260004 11.381 -1.079 124 47 0
-8.6260004 11.382 -1.079 140 84 49
-8.5719995 11.396 -1.063 161 121 86
-8.54 11.456 -0.986 139 78 31
-8.5760002 11.484 -1.061 254 192 141
-8.5710001 11.495 -1.075 170 115 76
-8.5740004 11.492 -1.067 85 61 61
-8.5769997 11.478 -1.04 145 109 77
-8.6960001 11.389 -1.094 99 44 3
-8.6999998 11.391 -1.0880001 104 60 33
-8.6879997 11.405 -1.11 155 138 131
-8.7139997 11.363 -1.118 64 33 5
-8.7019997 11.373 -1.1160001 129 85 60
-8.71 11.365 -1.12 135 85 52
-8.7189999 11.358 -1.04 191 133 85
-8.7519999 11.376 -1.054 102 44 6
-8.7209997 11.393 -1.118 134 103 83
-8.7229996 11.409 -1.12 67 45 34
-8.7229996 11.396 -1.1109999 91 45 19
-8.7180004 11.385 -1.1109999 124 60 25
-8.677 11.345 -1.05 71 25 0
-8.7440004 11.41 -1.029 184 112 72
-8.6529999 11.397 -1.054 243 202 174
-8.6660004 11.389 -1.061 153 97 46
-8.6829996 11.389 -1.062 201 108 39
-8.6630001 11.397 -1.0599999 182 91 21
-8.6809998 11.37 -1.051 187 119 58
-8.7320004 11.309 -0.912 81 38 6
-8.7370005 11.317 -0.90100002 121 68 28
-8.7329998 11.312 -0.89899999 59 14 0
-8.6529999 11.409 -0.92699999 159 109 72
-8.7620001 11.393 -0.89999998 214 142 84
-8.7559996 11.429 -0.89999998 182 113 71
-8.7469997 11.339 -0.889 130 77 37
-8.7559996 11.347 -0.89999998 129 79 42
-8.6610003 11.415 -0.85100001 132 74 28
-8.6599998 11.399 -0.884 123 71 31
-8.7449999 11.394 -0.903 80 60 53
-8.7600002 11.406 -0.90600002 118 103 100
-8.7519999 11.412 -0.90799999 111 65 42
-8.6639996 11.403 -0.89600003 151 79 21
-8.6599998 11.41 -0.912 137 87 54
-8.7110004 11.301 -0.91799998 78 37 9
-8.7139997 11.295 -0.90600002 126 64 23
-8.724 11.308 -0.912 133 80 40
-8.6940002 11.306 -0.96700001 57 40 30
-8.6920004 11.304 -0.98799998 84 40 13
-8.6949997 11.31 -0.972 113 50 0
-8.6960001 11.309 -0.98500001 146 86 34
-8.7080002 11.311 -0.96100003 120 85 65
-8.6879997 11.298 -0.99400002 115 57 11
-8.6870003 11.298 -0.99299997 52 21 16
-8.7150002 11.334 -0.93000001 112 63 31
-8.7159996 11.332 -0.93000001 117 63 25
-8.7130003 11.335 -0.926 184 111 56
-8.6999998 11.321 -0.93800002 122 87 59
-8.7049999 11.331 -0.926 169 114 84
-8.7060003 11.329 -0.93099999 128 75 33
-8.6999998 11.309 -0.95300001 82 45 27
-8.6660004 11.36 -1.079 169 88 35
-8.691 11.36 -1.036 51 35 36
-8.6969995 11.321 -0.98500001 125 72 41
-8.6999998 11.36 -1.021 159 97 40
-8.5310001 11.464 -0.97100002 137 64 13
-8.5380001 11.478 -0.91500002 150 86 42
-8.7159996 11.209 -0.62900001 213 153 93
-8.7110004 11.323 -0.92400002 110 75 45
-8.7110004 11.319 -0.92699999 97 38 4
-8.7069998 11.343 -0.92000002 127 80 50
-8.7360001 11.329 -0.88999999 133 67 19
-8.7250004 11.296 -0.89399999 62 46 23
-8.7209997 11.291 -0.89499998 100 54 31
-8.7189999 11.289 -0.89499998 92 55 26
-8.7159996 11.297 -0.884 135 99 67
-8.7049999 11.334 -0.92900002 172 119 87
-8.6560001 11.423 -0.77700001 74 51 37
-8.6610003 11.415 -0.81300002 124 67 22
-8.7370005 11.285 -0.90100002 211 166 133
-8.6949997 11.313 -0.94999999 137 100 73
-8.8030005 11.306 -0.67000002 129 90 59
-8.5880003 11.482 -1.0599999 167 103 59
-8.7209997 11.282 -0.81599998 109 72 45
-8.6529999 11.409 -0.95899999 166 116 79
-8.5900002 11.461 -1.022 170 94 34
-8.5810003 11.459 -1.015 192 140 101
-8.5819998 11.452 -1.0420001 146 103 69
-8.5830002 11.444 -1.0420001 151 116 94
-8.5670004 11.474 -0.963 182 111 49
-8.6529999 11.41 -0.91100001 88 31 2
-8.6549997 11.411 -0.90700001 209 173 151
-8.6590004 11.406 -1.046 167 120 92
-8.6569996 11.393 -1.005 216 163 119
-8.6040001 11.46 -0.97799999 179 91 28
-8.6040001 11.456 -0.986 158 146 134
-8.5959997 11.463 -0.99900001 154 121 88
-8.6009998 11.449 -0.98900002 147 78 13
-8.6099997 11.454 -0.98500001 163 149 140
-8.6639996 11.413 -0.91299999 168 103 63
-8.6630001 11.408 -0.92799997 131 69 28
