ply
format ascii 1.0
comment PCL generated
element vertex 518
property float x
property float y
property float z
property uchar red
property uchar green
property uchar blue
element camera 1
property float view_px
property float view_py
property float view_pz
property float x_axisx
property float x_axisy
property float x_axisz
property float y_axisx
property float y_axisy
property float y_axisz
property float z_axisx
property float z_axisy
property float z_axisz
property float focal
property float scalex
property float scaley
property float centerx
property float centery
property int viewportx
property int viewporty
property float k1
property float k2
end_header
4.7600002 6.04 -0.98500001 128 87 59
4.756 6.0409999 -0.97899997 129 85 48
4.7540002 6.0380001 -0.97500002 148 103 70
4.7579999 6.04 -0.977 80 57 25
4.7820001 6.0539999 -0.97600001 70 36 11
4.7880001 6.0570002 -0.972 162 121 93
4.7849998 6.0570002 -0.98100001 62 41 22
4.8299999 6.0809999 -0.89700001 44 21 15
4.829 6.0819998 -0.89300001 37 17 10
4.822 6.0780001 -0.88999999 125 112 106
4.7649999 6.1329999 -0.76800001 33 11 0
4.7659998 6.1399999 -0.76999998 187 169 159
4.7610002 6.1329999 -0.77700001 74 48 21
4.7600002 6.125 -0.76999998 112 87 67
4.7610002 6.0430002 -0.97600001 47 23 21
4.7839999 6.138 -0.77200001 92 51 19
4.7940001 6.1329999 -0.76999998 80 60 36
4.7849998 6.131 -0.76200002 61 26 4
4.7659998 6.145 -0.89700001 8 0 0
4.7529998 6.1459999 -0.88099998 8 3 0
4.7690001 6.1459999 -0.87800002 123 114 109
4.7670002 6.1009998 -0.75999999 86 58 47
4.7870002 6.1009998 -0.76800001 65 34 6
4.7779999 6.112 -0.75999999 110 88 74
4.7779999 6.1020002 -0.764 67 45 34
4.743 6.1420002 -0.87900001 20 8 12
4.7519999 6.1399999 -0.89099997 31 20 24
4.7470002 6.145 -0.88300002 8 0 0
4.7519999 6.1389999 -0.88599998 54 40 39
4.7649999 6.1170001 -0.76300001 83 40 8
4.7579999 6.1110001 -0.764 20 6 6
4.7779999 6.1160002 -0.75999999 81 62 48
4.7729998 6.1269999 -0.75999999 105 83 70
4.7729998 6.1110001 -0.76300001 65 46 32
4.777 6.0710001 -0.85600001 36 22 21
4.7820001 6.0669999 -0.86900002 32 11 6
4.7750001 6.0679998 -0.866 18 4 3
4.7820001 6.0679998 -0.86699998 38 14 4
4.8140001 6.0830002 -0.89600003 108 99 102
4.8309999 6.0830002 -0.898 30 11 7
4.8260002 6.0819998 -0.89499998 46 25 20
4.8039999 6.1500001 -0.80900002 91 72 58
4.816 6.1500001 -0.82499999 107 96 94
4.8200002 6.151 -0.80599999 46 27 13
4.7480001 6.145 -0.87400001 8 0 0
4.7459998 6.145 -0.87599999 14 5 0
4.7449999 6.145 -0.87800002 10 0 0
4.8000002 6.1220002 -0.81599998 101 60 30
4.8099999 6.1220002 -0.81900001 43 21 8
4.7950001 6.1139998 -0.82599998 25 6 0
4.789 6.1100001 -0.81999999 184 148 112
4.8280001 6.0830002 -0.89099997 26 5 0
4.7360001 6.1240001 -0.86500001 8 0 0
4.7389998 6.1209998 -0.875 11 6 3
4.7340002 6.1220002 -0.86500001 11 3 1
4.7989998 6.1230001 -0.77100003 119 95 49
4.7940001 6.1290002 -0.76899999 118 99 103
4.7420001 6.1440001 -0.875 18 4 3
4.7649999 6.1230001 -0.76599997 36 15 0
4.7719998 6.1149998 -0.76300001 74 28 0
4.743 6.1430001 -0.87900001 14 4 3
4.743 6.118 -0.88499999 11 5 9
4.7750001 6.1360002 -0.76800001 99 65 19
4.77 6.1399999 -0.76999998 181 168 160
4.8039999 6.1420002 -0.80599999 31 11 2
4.8109999 6.1399999 -0.80699998 24 5 0
4.8049998 6.131 -0.80500001 54 31 23
4.8049998 6.131 -0.80699998 67 41 28
4.803 6.1279998 -0.80800003 63 45 31
4.7919998 6.1199999 -0.78200001 85 60 19
4.8109999 6.1360002 -0.80800003 82 50 27
4.7919998 6.1059999 -0.78200001 34 19 16
4.783 6.098 -0.77600002 255 221 173
4.8179998 6.1440001 -0.80900002 81 59 48
4.7810001 6.1279998 -0.89499998 130 94 72
4.7779999 6.125 -0.89899999 18 6 6
4.7919998 6.1240001 -0.89399999 49 35 34
4.77 6.1409998 -0.884 24 5 1
4.7690001 6.1420002 -0.88499999 15 0 0
4.7519999 6.145 -0.884 21 14 8
4.7579999 6.145 -0.89499998 9 0 0
4.7579999 6.145 -0.889 8 0 0
4.756 6.138 -0.89300001 49 35 34
4.7620001 6.098 -0.76499999 185 155 144
4.7750001 6.098 -0.77100003 102 79 73
4.7859998 6.105 -0.76700002 29 5 0
4.744 6.131 -0.81699997 149 114 92
4.7459998 6.1300001 -0.81599998 79 43 19
4.7459998 6.131 -0.81699997 107 72 50
4.743 6.1440001 -0.87300003 34 23 17
4.7579999 6.1209998 -0.76599997 47 19 5
4.7519999 6.112 -0.778 93 60 45
4.757 6.1149998 -0.76899999 23 7 7
4.7750001 6.1170001 -0.76200002 114 87 76
4.7820001 6.099 -0.77399999 46 27 23
4.8239999 6.0840001 -0.89399999 29 11 7
4.8150001 6.0929999 -0.89600003 9 3 5
4.7540002 6.1139998 -0.89999998 6 0 0
4.7529998 6.1170001 -0.898 11 5 7
4.7550001 6.112 -0.88700002 44 16 4
4.757 6.1020002 -0.90499997 22 2 0
4.77 6.0710001 -0.866 32 16 16
4.7750001 6.079 -0.87099999 89 71 67
4.7639999 6.0739999 -0.86000001 17 0 0
4.7519999 6.085 -0.94599998 60 32 10
4.7550001 6.1009998 -0.93199998 70 37 22
4.7600002 6.092 -0.93199998 75 43 28
4.8210001 6.1360002 -0.86199999 214 199 194
4.8239999 6.1360002 -0.86699998 215 196 189
4.8270001 6.1350002 -0.866 129 119 110
4.8119998 6.1360002 -0.86199999 87 58 42
4.8109999 6.1420002 -0.847 34 16 12
4.8249998 6.1339998 -0.86799997 201 186 179
4.7950001 6.112 -0.78100002 63 47 47
4.7919998 6.1079998 -0.78299999 34 8 0
4.7979999 6.1259999 -0.80699998 80 44 22
4.8109999 6.1409998 -0.83999997 29 10 3
4.8099999 6.145 -0.83600003 118 92 79
4.7820001 6.105 -0.83200002 63 34 26
4.789 6.0999999 -0.84799999 118 91 74
4.7880001 6.0929999 -0.85000002 52 24 20
4.7919998 6.1009998 -0.847 75 49 36
4.7839999 6.0739999 -0.87 119 91 77
4.8119998 6.1090002 -0.889 21 8 0
4.8060002 6.1110001 -0.889 23 9 9
4.816 6.1149998 -0.88999999 18 6 6
4.8130002 6.0960002 -0.87800002 23 3 0
4.8039999 6.099 -0.86799997 83 45 22
4.8080001 6.086 -0.87599999 141 124 114
4.8179998 6.1469998 -0.81699997 77 54 38
4.816 6.1399999 -0.81699997 60 13 3
4.816 6.1409998 -0.81599998 35 20 15
4.7490001 6.1370001 -0.86799997 22 5 0
4.757 6.0939999 -0.95099998 46 18 7
4.757 6.0900002 -0.95300001 80 36 11
4.7719998 6.0869999 -0.852 130 104 89
4.757 6.0939999 -0.85299999 114 76 53
4.7340002 6.1230001 -0.86299998 10 0 0
4.7420001 6.1430001 -0.875 30 16 15
4.7360001 6.1259999 -0.85699999 24 8 8
4.744 6.1409998 -0.87599999 47 33 30
4.7490001 6.145 -0.87800002 18 11 5
4.744 6.1409998 -0.87800002 43 29 28
4.777 6.131 -0.78600001 40 20 9
4.7750001 6.132 -0.78200001 47 28 14
4.7550001 6.119 -0.77600002 44 21 5
4.7600002 6.1209998 -0.78200001 55 34 17
4.7420001 6.119 -0.87599999 7 0 0
4.7420001 6.1220002 -0.87 13 2 0
4.7550001 6.1069999 -0.87099999 119 92 73
4.802 6.1160002 -0.889 33 19 19
4.7969999 6.1129999 -0.88200003 97 62 43
4.7940001 6.0679998 -0.94599998 88 53 34
4.796 6.072 -0.954 112 103 86
4.7919998 6.0679998 -0.96399999 73 37 15
4.8070002 6.085 -0.889 101 69 44
4.816 6.0780001 -0.889 22 11 7
4.7979999 6.092 -0.87599999 60 33 24
4.7849998 6.0890002 -0.866 88 76 62
4.8169999 6.0879998 -0.88499999 17 3 2
4.8189998 6.0949998 -0.884 24 14 15
4.7579999 6.1110001 -0.884 31 13 9
4.7659998 6.0970001 -0.88099998 30 2 0
4.7579999 6.1209998 -0.88999999 23 13 14
4.763 6.1300001 -0.89600003 8 2 2
4.8239999 6.1069999 -0.89399999 13 0 0
4.8150001 6.1110001 -0.89399999 17 3 0
4.7709999 6.125 -0.89999998 7 3 2
4.7800002 6.119 -0.90200001 44 1 0
4.7800002 6.0960002 -0.88999999 17 8 11
4.783 6.0840001 -0.88999999 113 78 50
4.776 6.0700002 -0.86299998 38 17 12
4.7810001 6.0739999 -0.972 52 23 9
4.79 6.086 -0.97299999 84 47 20
4.7789998 6.0809999 -0.97299999 62 43 13
4.7859998 6.1040001 -0.78500003 36 22 21
4.7779999 6.0970001 -0.77999997 147 119 97
4.8070002 6.1399999 -0.80699998 78 60 50
4.7940001 6.1259999 -0.80299997 95 58 31
4.7859998 6.1230001 -0.79100001 39 22 15
4.7969999 6.1240001 -0.81199998 89 49 24
4.8150001 6.1360002 -0.86000001 134 112 101
4.7589998 6.145 -0.88800001 9 1 0
4.757 6.1430001 -0.87800002 8 2 2
4.7610002 6.1420002 -0.87599999 11 0 0
4.7919998 6.1100001 -0.77399999 133 105 84
4.8010001 6.1269999 -0.80900002 79 43 21
4.7989998 6.0960002 -0.86799997 30 1 0
4.7800002 6.0760002 -0.87 30 12 8
4.7789998 6.0710001 -0.86299998 77 52 47
4.8239999 6.1040001 -0.88800001 41 16 20
4.8049998 6.0939999 -0.87099999 31 7 0
4.816 6.1040001 -0.89499998 9 0 0
4.8039999 6.1079998 -0.89499998 27 13 12
4.8140001 6.0970001 -0.89700001 9 0 1
4.776 6.086 -0.85699999 147 119 95
4.7550001 6.1079998 -0.78100002 70 32 19
4.757 6.1020002 -0.86299998 18 0 0
4.7509999 6.1059999 -0.84500003 49 26 12
4.79 6.1170001 -0.76800001 28 9 5
4.7849998 6.1199999 -0.76499999 170 142 128
4.7410002 6.1259999 -0.85299999 56 38 38
4.7610002 6.1350002 -0.84799999 118 100 90
4.7379999 6.125 -0.86199999 14 0 0
4.7600002 6.125 -0.77899998 155 138 120
4.7789998 6.132 -0.778 34 16 2
4.7750001 6.0999999 -0.76800001 113 80 65
4.77 6.098 -0.77399999 40 4 0
4.7870002 6.1149998 -0.89499998 71 30 12
4.8010001 6.1170001 -0.89099997 98 62 40
4.8080001 6.0960002 -0.89499998 7 3 2
4.7989998 6.1030002 -0.89200002 18 4 1
4.8049998 6.0809999 -0.884 50 25 18
4.7969999 6.0910001 -0.88800001 12 1 0
4.789 6.0890002 -0.88499999 14 0 0
4.7690001 6.1149998 -0.91399997 43 10 0
4.7610002 6.0819998 -0.86900002 11 1 2
4.756 6.0890002 -0.94400001 67 38 20
4.7820001 6.1009998 -0.96499997 85 80 61
4.79 6.1020002 -0.97100002 129 124 121
4.7870002 6.0999999 -0.96100003 84 54 28
4.789 6.1020002 -0.97399998 58 26 1
4.7659998 6.1040001 -0.89499998 51 41 39
4.763 6.0949998 -0.90600002 68 42 25
4.7800002 6.0640001 -0.97100002 92 57 37
4.7839999 6.072 -0.963 74 62 40
4.7729998 6.0599999 -0.96499997 47 16 0
4.7740002 6.0570002 -0.97000003 91 53 17
4.757 6.085 -0.94199997 43 14 0
4.7909999 6.0679998 -0.95899999 133 115 111
4.7950001 6.1360002 -0.852 70 42 30
4.8000002 6.1399999 -0.83099997 247 238 221
4.789 6.1139998 -0.79299998 208 150 112
4.8189998 6.138 -0.82499999 105 69 35
4.8130002 6.1350002 -0.84200001 38 15 0
4.8130002 6.1350002 -0.829 176 118 81
4.8039999 6.1350002 -0.85799998 53 23 13
4.802 6.1350002 -0.85699999 57 29 18
4.809 6.1360002 -0.85500002 128 100 89
4.7610002 6.1440001 -0.89499998 17 9 6
4.7659998 6.1370001 -0.89600003 13 3 1
4.7579999 6.1420002 -0.87199998 10 0 1
4.7519999 6.145 -0.87699997 13 4 5
4.7490001 6.1440001 -0.87400001 8 0 0
4.7639999 6.131 -0.89700001 15 5 4
4.7820001 6.0710001 -0.86900002 113 94 90
4.796 6.1009998 -0.85399997 79 50 34
4.783 6.1370001 -0.81599998 77 57 50
4.7729998 6.1269999 -0.829 48 12 0
4.7620001 6.1329999 -0.81900001 78 42 26
4.7909999 6.145 -0.82099998 237 223 214
4.7870002 6.1389999 -0.81599998 113 94 87
4.803 6.145 -0.82700002 123 92 72
4.79 6.1360002 -0.85699999 105 87 73
4.8099999 6.1350002 -0.86199999 46 16 5
4.7950001 6.086 -0.95499998 26 14 0
4.743 6.119 -0.88300002 7 3 2
4.744 6.119 -0.88099998 6 0 0
4.7620001 6.1440001 -0.889 8 0 2
4.7709999 6.0819998 -0.85600001 59 36 28
4.7659998 6.105 -0.83700001 121 95 82
4.7690001 6.1040001 -0.82999998 130 97 78
4.7839999 6.0939999 -0.852 138 109 79
4.7610002 6.1040001 -0.87199998 58 25 10
4.7620001 6.1030002 -0.87 20 2 0
4.77 6.092 -0.78399998 181 158 152
4.7610002 6.0970001 -0.77999997 149 100 70
4.7880001 6.1160002 -0.76700002 189 166 148
4.7420001 6.1230001 -0.86400002 29 14 11
4.7779999 6.1290002 -0.79000002 52 27 22
4.7690001 6.1230001 -0.79299998 54 31 15
4.7800002 6.1279998 -0.79400003 26 1 0
4.7729998 6.1259999 -0.78899997 61 34 23
4.7589998 6.1230001 -0.773 79 48 30
4.783 6.131 -0.77899998 117 101 85
4.7740002 6.1230001 -0.80900002 78 61 35
4.776 6.1269999 -0.815 78 52 37
4.7670002 6.1199999 -0.81300002 59 42 34
4.7740002 6.1220002 -0.80599999 80 56 46
4.7420001 6.1220002 -0.85299999 21 9 9
4.7410002 6.1269999 -0.85699999 37 23 20
4.7410002 6.1259999 -0.86199999 36 22 22
4.8099999 6.1240001 -0.83899999 96 64 51
4.8010001 6.1220002 -0.84100002 61 43 29
4.796 6.072 -0.94400001 127 119 108
4.7940001 6.0739999 -0.94800001 69 38 9
4.7989998 6.1079998 -0.88300002 26 15 13
4.777 6.085 -0.87699997 15 3 5
4.8200002 6.0929999 -0.88700002 88 74 73
4.7659998 6.0960002 -0.86900002 29 11 9
4.7810001 6.098 -0.95999998 116 108 106
4.776 6.0939999 -0.94400001 34 25 26
4.7620001 6.0999999 -0.94700003 98 84 81
4.7659998 6.0970001 -0.94400001 105 100 94
4.7880001 6.0939999 -0.97299999 80 52 41
4.783 6.099 -0.96899998 57 29 7
4.7789998 6.0619998 -0.96799999 139 121 119
4.803 6.145 -0.82499999 122 88 63
4.8049998 6.145 -0.82499999 204 169 141
4.8070002 6.145 -0.829 143 114 96
4.7740002 6.1360002 -0.84200001 78 51 34
4.7690001 6.131 -0.84899998 97 94 87
4.7589998 6.132 -0.84399998 34 5 0
4.7470002 6.125 -0.85000002 94 65 49
4.7659998 6.131 -0.83700001 60 30 19
4.7930002 6.1230001 -0.77499998 46 28 16
4.8140001 6.1469998 -0.81099999 66 48 46
4.8039999 6.1440001 -0.82099998 169 129 93
4.802 6.1329999 -0.83899999 243 236 218
4.75 6.118 -0.86000001 53 44 47
4.7709999 6.131 -0.85500002 90 49 31
4.7680001 6.131 -0.85500002 24 5 1
4.75 6.1259999 -0.85600001 27 7 6
4.7509999 6.1259999 -0.85500002 26 5 2
4.7779999 6.131 -0.88800001 68 50 46
4.7680001 6.1339998 -0.89600003 7 2 0
4.7940001 6.1360002 -0.80699998 168 141 124
4.8080001 6.1240001 -0.82800001 83 57 42
4.789 6.1030002 -0.84600002 92 63 49
4.7930002 6.118 -0.84399998 43 19 7
4.7969999 6.1059999 -0.85799998 51 28 22
4.8000002 6.125 -0.85000002 70 32 13
4.796 6.099 -0.85699999 114 105 110
4.8130002 6.0910001 -0.88200003 50 29 24
4.7750001 6.1230001 -0.80800003 54 30 18
4.7459998 6.1300001 -0.82200003 143 110 91
4.7449999 6.1300001 -0.82300001 60 28 17
4.7459998 6.1259999 -0.82599998 21 6 1
4.7779999 6.1300001 -0.89099997 50 34 34
4.7639999 6.1399999 -0.87599999 14 0 0
4.7680001 6.131 -0.86199999 22 1 0
4.8130002 6.1339998 -0.86000001 141 114 105
4.7969999 6.1329999 -0.86199999 67 44 36
4.796 6.118 -0.88200003 64 33 15
4.8039999 6.0809999 -0.94800001 82 49 30
4.7969999 6.0890002 -0.93599999 152 143 136
4.776 6.1110001 -0.824 98 67 47
4.7750001 6.099 -0.85399997 58 24 0
4.7779999 6.0929999 -0.85399997 123 91 70
4.756 6.1279998 -0.81900001 40 13 4
4.777 6.1149998 -0.815 68 44 40
4.7810001 6.1149998 -0.81 71 48 34
4.7690001 6.1110001 -0.81099999 43 20 4
4.777 6.1139998 -0.81900001 35 10 3
4.7670002 6.1160002 -0.801 37 10 1
4.7680001 6.1170001 -0.81400001 123 99 89
4.7540002 6.1209998 -0.83899999 37 14 0
4.789 6.1100001 -0.787 75 37 16
4.7849998 6.1100001 -0.78799999 151 120 92
4.7639999 6.1269999 -0.78600001 161 143 131
4.7709999 6.1290002 -0.78399998 38 13 9
4.7779999 6.1350002 -0.76899999 219 211 209
4.7379999 6.1259999 -0.85600001 22 6 6
4.744 6.1259999 -0.85600001 24 8 9
4.7989998 6.132 -0.84299999 73 32 12
4.7950001 6.1139998 -0.82700002 25 7 0
4.8080001 6.1240001 -0.82999998 127 101 84
4.7909999 6.086 -0.93699998 104 73 52
4.7610002 6.0999999 -0.93699998 118 98 89
4.7680001 6.099 -0.935 108 104 93
4.763 6.112 -0.92500001 110 84 69
4.796 6.0960002 -0.89300001 9 0 0
4.783 6.1020002 -0.90600002 22 17 11
4.783 6.1149998 -0.90200001 130 106 96
4.777 6.1100001 -0.91500002 133 111 97
4.7649999 6.0949998 -0.91100001 90 61 47
4.8000002 6.1009998 -0.86299998 115 75 50
4.757 6.0939999 -0.94199997 27 0 0
4.7610002 6.0929999 -0.935 60 30 6
4.7659998 6.1129999 -0.912 113 84 66
4.776 6.1290002 -0.83200002 26 9 2
4.7810001 6.1090002 -0.83999997 130 90 55
4.7550001 6.1300001 -0.83700001 52 22 12
4.7709999 6.0999999 -0.79799998 100 83 75
4.7810001 6.1129999 -0.79400003 197 153 126
4.7670002 6.131 -0.85299999 50 23 14
4.79 6.1279998 -0.80299997 79 57 43
4.789 6.1329999 -0.80699998 88 53 34
4.7950001 6.1409998 -0.81099999 203 185 165
4.7989998 6.1440001 -0.81400001 125 99 86
4.8099999 6.131 -0.829 248 193 152
4.809 6.1240001 -0.83399999 122 95 78
4.803 6.1300001 -0.875 43 16 5
4.796 6.1300001 -0.87099999 34 10 0
4.7950001 6.0960002 -0.866 50 13 4
4.8169999 6.1040001 -0.889 12 0 0
4.7719998 6.131 -0.85600001 67 39 27
4.7719998 6.1300001 -0.86000001 88 51 33
4.7820001 6.132 -0.86000001 184 159 129
4.7789998 6.131 -0.85600001 224 197 167
4.8000002 6.1350002 -0.85299999 102 72 62
4.7550001 6.1259999 -0.82599998 60 27 12
4.7680001 6.118 -0.82499999 122 98 88
4.7529998 6.1259999 -0.82599998 62 30 9
4.7449999 6.1300001 -0.81800002 101 67 42
4.7480001 6.1279998 -0.83200002 90 70 61
4.7709999 6.1329999 -0.87099999 66 37 19
4.809 6.125 -0.85399997 37 13 3
4.7880001 6.132 -0.86500001 43 17 0
4.7880001 6.0879998 -0.96799999 66 35 14
4.796 6.0869999 -0.94499999 25 14 8
4.77 6.085 -0.85600001 30 13 5
4.7610002 6.0890002 -0.85900003 56 27 13
4.777 6.0819998 -0.86199999 56 38 36
4.7509999 6.131 -0.82499999 87 52 32
4.7519999 6.131 -0.82800001 70 35 16
4.7490001 6.1300001 -0.82700002 77 43 33
4.757 6.1090002 -0.78399998 67 35 20
4.7690001 6.1160002 -0.81599998 23 6 0
4.7579999 6.0929999 -0.85900003 108 77 57
4.7880001 6.112 -0.76899999 90 65 45
4.7709999 6.132 -0.778 50 33 17
4.763 6.125 -0.78399998 48 23 3
4.7639999 6.1259999 -0.787 113 92 75
4.7839999 6.118 -0.80400002 52 30 16
4.8119998 6.1389999 -0.84899998 199 187 175
4.7950001 6.1160002 -0.82999998 64 38 15
4.796 6.085 -0.93900001 128 84 55
4.7680001 6.092 -0.94700003 101 91 90
4.7839999 6.0879998 -0.96399999 48 36 20
4.796 6.1100001 -0.87099999 54 26 15
4.789 6.0910001 -0.889 128 91 64
4.783 6.1020002 -0.90200001 49 33 33
4.7740002 6.0939999 -0.91100001 61 49 49
4.77 6.1020002 -0.90200001 123 88 69
4.7789998 6.1100001 -0.91000003 51 23 9
4.7930002 6.105 -0.89300001 49 25 15
4.7719998 6.0879998 -0.87300003 29 17 19
4.756 6.1149998 -0.89999998 6 2 1
4.7589998 6.1090002 -0.91000003 88 59 45
4.7839999 6.132 -0.83700001 70 37 18
4.789 6.1329999 -0.83700001 66 44 33
4.7859998 6.0999999 -0.85000002 56 37 22
4.7610002 6.1300001 -0.83899999 65 30 11
4.789 6.1360002 -0.84799999 48 20 9
4.8119998 6.1329999 -0.81800002 65 20 0
4.7480001 6.1199999 -0.84600002 56 56 48
4.7849998 6.1259999 -0.88800001 40 17 11
4.7909999 6.1399999 -0.815 215 201 190
4.79 6.112 -0.847 25 10 7
4.796 6.0970001 -0.86400002 33 0 0
4.7870002 6.092 -0.85600001 82 74 53
4.822 6.0960002 -0.88800001 69 41 29
4.7919998 6.1360002 -0.824 138 109 93
4.7470002 6.1220002 -0.82999998 61 46 39
4.7480001 6.1290002 -0.829 59 32 23
4.7740002 6.132 -0.89099997 17 5 5
4.8080001 6.132 -0.85799998 90 60 50
4.7989998 6.1199999 -0.85900003 51 26 21
4.783 6.1300001 -0.86400002 193 167 140
4.7729998 6.1329999 -0.87900001 86 69 62
4.7729998 6.131 -0.87400001 87 58 42
4.7839999 6.0929999 -0.96399999 73 43 33
4.79 6.0760002 -0.95599997 95 61 36
4.7950001 6.0799999 -0.94599998 64 29 7
4.7880001 6.085 -0.95999998 83 52 23
4.783 6.0749998 -0.96899998 110 98 98
4.7950001 6.0869999 -0.94599998 84 47 28
4.7680001 6.0830002 -0.85900003 42 19 5
4.7550001 6.1300001 -0.82700002 77 44 27
4.7600002 6.1069999 -0.78399998 92 44 22
4.7659998 6.098 -0.778 92 73 59
4.7750001 6.1009998 -0.78600001 108 62 38
4.7880001 6.1090002 -0.76999998 55 30 23
4.7709999 6.1259999 -0.78799999 69 43 28
4.7639999 6.1199999 -0.79000002 119 79 54
4.7659998 6.1149998 -0.792 184 125 83
4.7750001 6.0999999 -0.91799998 56 23 4
4.7810001 6.0999999 -0.93599999 15 7 5
4.7550001 6.1079998 -0.92299998 43 20 6
4.783 6.0869999 -0.93400002 8 0 0
4.7649999 6.0970001 -0.92299998 70 41 23
4.7839999 6.1110001 -0.90200001 32 9 3
4.8000002 6.1420002 -0.82800001 160 139 110
4.7509999 6.1300001 -0.83200002 53 24 16
4.7509999 6.1279998 -0.83399999 54 34 27
4.7519999 6.1300001 -0.83099997 65 29 17
4.7589998 6.1300001 -0.83399999 40 9 0
4.7880001 6.1350002 -0.847 61 33 19
4.7859998 6.1360002 -0.85000002 99 80 73
4.8179998 6.0960002 -0.89300001 10 0 1
4.8000002 6.1409998 -0.82999998 215 202 183
4.7680001 6.1160002 -0.82800001 69 36 19
4.7620001 6.1220002 -0.833 40 20 13
4.7680001 6.1100001 -0.83600003 25 6 0
4.7540002 6.1279998 -0.84100002 33 13 12
4.796 6.1079998 -0.866 54 17 1
4.7740002 6.0890002 -0.94700003 73 43 19
4.7649999 6.1139998 -0.79000002 61 38 24
4.7579999 6.1090002 -0.78500003 36 14 3
4.7709999 6.1279998 -0.78500003 48 23 18
4.7649999 6.1240001 -0.792 59 44 41
4.7820001 6.1339998 -0.76899999 160 150 148
4.7940001 6.0900002 -0.93699998 113 79 52
4.7709999 6.1030002 -0.92500001 14 11 0
4.7779999 6.0910001 -0.93599999 89 58 38
4.7870002 6.1339998 -0.80800003 71 39 16
4.757 6.1300001 -0.838 28 10 6
4.7979999 6.1389999 -0.82800001 252 250 235
4.7880001 6.1300001 -0.87 155 133 109
4.7589998 6.1209998 -0.838 102 67 47
4.763 6.1090002 -0.78799999 35 12 0
4.7649999 6.099 -0.79000002 73 27 1
4.7649999 6.1059999 -0.926 64 29 7
4.783 6.0910001 -0.93599999 114 80 55
4.7670002 6.0970001 -0.926 71 36 17
4.7820001 6.1079998 -0.84399998 179 133 97
4.802 6.1440001 -0.82200003 152 112 77
4.802 6.1300001 -0.86000001 75 33 17
4.7909999 6.1269999 -0.875 121 91 65
4.7579999 6.1220002 -0.83700001 78 46 25
4.7639999 6.105 -0.79000002 151 123 112
4.776 6.0999999 -0.88999999 34 25 28
4.7800002 6.0910001 -0.93400002 78 45 28
4.7810001 6.1030002 -0.85100001 131 99 74
4.796 6.1300001 -0.87 37 12 7
4.7670002 6.1040001 -0.79299998 116 73 57
4.7719998 6.099 -0.92299998 84 54 43
0 0 0 1 0 0 0 1 0 0 0 1 0 0 0 0 0 518 1 0 0
