ply
format ascii 1.0
comment PCL generated
element vertex 93
property float x
property float y
property float z
property uchar red
property uchar green
property uchar blue
element camera 1
property float view_px
property float view_py
property float view_pz
property float x_axisx
property float x_axisy
property float x_axisz
property float y_axisx
property float y_axisy
property float y_axisz
property float z_axisx
property float z_axisy
property float z_axisz
property float focal
property float scalex
property float scaley
property float centerx
property float centery
property int viewportx
property int viewporty
property float k1
property float k2
end_header
2.207 16.181999 -0.71700001 149 71 23
2.2 16.181 -0.71600002 163 112 81
2.197 16.169001 -0.71100003 98 64 39
2.2030001 16.166 -0.71399999 192 122 71
2.2260001 16.167 -0.71100003 153 94 50
2.2360001 16.167 -0.83899999 170 125 94
2.237 16.169001 -0.84200001 146 111 89
2.2490001 16.159 -0.83999997 102 68 41
2.2320001 16.150999 -0.82300001 186 156 145
2.2349999 16.164 -0.787 190 107 57
2.2249999 16.167 -0.78500003 132 59 16
2.2249999 16.167999 -0.76700002 122 49 6
2.2190001 16.174 -0.75 171 123 77
2.2279999 16.171 -0.755 173 101 51
2.2309999 16.173 -0.73100001 126 88 65
2.244 16.171 -0.83899999 146 71 31
2.2290001 16.162001 -0.82200003 106 65 43
2.1989999 16.183001 -0.72799999 120 72 32
2.1949999 16.18 -0.72500002 126 86 60
2.2079999 16.173 -0.72799999 148 85 42
2.2019999 16.18 -0.72399998 166 110 75
2.2349999 16.153999 -0.82599998 170 94 44
2.1989999 16.172001 -0.71799999 155 105 70
2.2160001 16.174 -0.73400003 127 77 44
2.23 16.158001 -0.82599998 116 74 50
2.224 16.157 -0.81599998 123 65 27
2.24 16.162001 -0.722 125 47 0
2.227 16.160999 -0.72000003 152 90 49
2.2309999 16.166 -0.71600002 139 90 58
2.234 16.157 -0.79100001 134 72 25
2.233 16.16 -0.796 217 158 116
2.2290001 16.163 -0.787 140 96 69
2.233 16.167999 -0.75199997 132 85 55
2.2379999 16.167999 -0.73699999 102 55 35
2.2460001 16.162001 -0.727 156 82 33
2.2460001 16.163 -0.73699999 181 107 58
2.214 16.172001 -0.76899999 129 80 50
2.2119999 16.166 -0.77399999 100 57 22
2.2119999 16.162001 -0.77200001 133 80 36
2.2409999 16.167999 -0.84299999 128 67 23
2.2260001 16.167 -0.71399999 150 79 33
2.217 16.167999 -0.72799999 145 73 23
2.221 16.16 -0.73199999 130 63 21
2.23 16.159 -0.81300002 112 66 42
2.2249999 16.155001 -0.81599998 124 50 1
2.2479999 16.165001 -0.83700001 146 83 40
2.197 16.177999 -0.722 159 85 38
2.214 16.174 -0.72899997 135 87 49
2.2349999 16.156 -0.81599998 170 96 49
2.2349999 16.156 -0.824 117 71 38
2.224 16.164 -0.77499998 132 64 19
2.237 16.158001 -0.773 118 69 29
2.2349999 16.163 -0.77600002 107 58 17
2.2249999 16.155001 -0.78600001 157 67 15
2.224 16.156 -0.79699999 141 82 42
2.224 16.146999 -0.80500001 122 43 2
2.237 16.166 -0.75800002 151 71 18
2.2309999 16.167 -0.759 131 68 24
2.23 16.163 -0.75800002 106 64 39
2.2360001 16.16 -0.73699999 161 83 34
2.2320001 16.149 -0.76700002 112 96 96
2.2320001 16.155001 -0.73000002 128 87 57
2.2249999 16.153999 -0.76599997 180 90 27
2.234 16.146999 -0.77499998 171 86 32
2.214 16.166 -0.73199999 89 73 74
2.227 16.164 -0.74699998 129 48 3
2.2360001 16.164 -0.82300001 124 77 35
2.2320001 16.159 -0.79900002 135 88 46
2.2320001 16.156 -0.80400002 142 123 119
2.2390001 16.160999 -0.76899999 124 43 0
2.234 16.146 -0.78500003 171 85 36
2.2460001 16.167 -0.84200001 100 55 24
2.2030001 16.172001 -0.71700001 123 72 43
2.2279999 16.15 -0.78899997 133 82 51
2.2290001 16.164 -0.778 144 83 39
2.2390001 16.160999 -0.73699999 146 93 59
2.2309999 16.165001 -0.76899999 102 57 28
2.2179999 16.167 -0.76200002 99 68 39
2.2290001 16.15 -0.80599999 92 43 11
2.224 16.156 -0.80400002 124 84 59
2.21 16.171 -0.72000003 168 107 63
2.2290001 16.15 -0.78500003 122 78 49
2.2249999 16.156 -0.77600002 172 82 20
2.243 16.159 -0.727 211 175 151
2.2360001 16.160999 -0.76700002 177 95 39
2.2160001 16.167999 -0.74000001 171 118 66
2.227 16.167999 -0.73799998 177 99 50
2.22 16.166 -0.75400001 114 61 30
2.2349999 16.150999 -0.80599999 144 67 25
2.2079999 16.172001 -0.71799999 194 130 92
2.2360001 16.16 -0.727 154 77 25
2.2249999 16.167999 -0.75 117 46 2
2.2320001 16.159 -0.73699999 207 166 138
0 0 0 1 0 0 0 1 0 0 0 1 0 0 0 0 0 93 1 0 0
