ply
format ascii 1.0
comment PCL generated
element vertex 1014
property float x
property float y
property float z
property uchar red
property uchar green
property uchar blue
element camera 1
property float view_px
property float view_py
property float view_pz
property float x_axisx
property float x_axisy
property float x_axisz
property float y_axisx
property float y_axisy
property float y_axisz
property float z_axisx
property float z_axisy
property float z_axisz
property float focal
property float scalex
property float scaley
property float centerx
property float centery
property int viewportx
property int viewporty
property float k1
property float k2
end_header
-2.3399999 -3.082 -1.005 86 68 64
-2.342 -3.1029999 -1.017 90 58 37
-2.3380001 -3.0799999 -1.0089999 124 97 86
-2.3510001 -3.227 -0.97299999 131 82 52
-2.3499999 -3.2320001 -0.95899999 53 25 4
-2.3659999 -3.237 -0.97500002 130 87 44
-2.4430001 -3.1359999 -0.85900003 129 81 43
-2.4400001 -3.1329999 -0.86500001 124 78 42
-2.4489999 -3.1429999 -0.87199998 66 36 8
-2.4260001 -3.1029999 -0.95300001 219 135 63
-2.418 -3.0910001 -0.94999999 110 76 64
-2.4230001 -3.108 -0.93199998 249 169 110
-2.431 -3.096 -0.96399999 87 25 0
-2.4189999 -3.1029999 -0.93699998 128 54 9
-2.3940001 -3.062 -0.98900002 10 2 0
-2.3929999 -3.063 -0.98199999 10 7 2
-2.3870001 -3.066 -0.98100001 103 83 72
-2.418 -3.066 -1.027 58 39 33
-2.421 -3.0699999 -1.03 50 20 9
-2.4300001 -3.0650001 -1.028 91 52 35
-2.3659999 -3.0320001 -0.97799999 26 1 0
-2.3659999 -3.0309999 -0.977 25 6 0
-2.3740001 -3.029 -0.98000002 28 1 0
-2.382 -3.0350001 -0.97500002 45 15 7
-2.3989999 -3.0639999 -0.986 125 82 73
-2.3889999 -3.0569999 -0.96899998 5 0 0
-2.3929999 -3.0409999 -0.97399998 17 2 0
-2.427 -3.0539999 -0.93300003 211 161 112
-2.425 -3.059 -0.93099999 198 139 79
-2.425 -3.0510001 -0.92799997 160 109 54
-2.352 -3.099 -1.013 81 48 31
-2.3599999 -3.109 -1.027 136 128 115
-2.345 -3.1040001 -1.023 122 92 68
-2.4000001 -3.138 -0.875 112 75 66
-2.4000001 -3.1389999 -0.87099999 130 96 86
-2.3929999 -3.142 -0.88 107 76 71
-2.408 -3.1270001 -0.86199999 59 42 34
-2.411 -3.1210001 -0.87300003 86 41 8
-2.404 -3.1210001 -0.89200002 93 44 14
-2.424 -3.04 -0.93000001 136 104 79
-2.438 -3.043 -0.949 124 78 26
-2.424 -3.05 -0.92699999 167 112 55
-2.4360001 -3.1530001 -0.86500001 27 0 0
-2.4419999 -3.145 -0.85900003 161 114 84
-2.4230001 -3.0550001 -0.926 193 131 70
-2.4349999 -3.131 -0.90200001 30 10 3
-2.4330001 -3.1370001 -0.90499997 58 44 33
-2.4330001 -3.1359999 -0.90700001 66 47 33
-2.4260001 -3.1170001 -0.90399998 110 49 21
-2.425 -3.1159999 -0.90899998 98 34 7
-2.3789999 -3.049 -0.93000001 162 138 138
-2.3829999 -3.0380001 -0.93800002 92 68 66
-2.365 -3.0450001 -0.93699998 128 84 35
-2.402 -3.0380001 -0.926 72 51 48
-2.4159999 -3.0309999 -0.93300003 59 23 0
-2.401 -3.0220001 -0.94400001 54 23 3
-2.418 -3.0380001 -0.92500001 135 71 36
-2.4159999 -3.125 -0.86000001 153 99 53
-2.4130001 -3.128 -0.85900003 155 99 52
-2.411 -3.0450001 -0.92199999 248 232 172
-2.4059999 -3.0450001 -0.921 21 0 0
-2.411 -3.039 -0.92799997 132 87 45
-2.3859999 -3.0680001 -1.024 21 3 0
-2.404 -3.069 -1.0089999 17 0 0
-2.4100001 -3.063 -1.0190001 134 80 46
-2.3729999 -3.0639999 -1.028 100 72 58
-2.3729999 -3.0710001 -1.0140001 36 18 16
-2.4289999 -3.0710001 -1.023 43 5 0
-2.4319999 -3.0669999 -1.016 65 36 28
-2.4319999 -3.0739999 -1.007 93 69 59
-2.428 -3.085 -1.008 183 156 137
-2.4170001 -3.089 -1.021 34 3 0
-2.3710001 -3.118 -0.99299997 8 0 0
-2.3710001 -3.112 -0.98100001 13 1 1
-2.359 -3.098 -0.98400003 110 90 81
-2.3759999 -3.119 -0.98299998 55 45 43
-2.372 -3.118 -0.99199998 12 3 4
-2.401 -3.089 -1.036 30 6 2
-2.3929999 -3.0869999 -1.0369999 22 2 1
-2.385 -3.099 -1.0369999 14 0 0
-2.372 -3.1849999 -0.98799998 36 8 0
-2.3629999 -3.1949999 -0.98199999 22 15 7
-2.372 -3.1900001 -0.99400002 36 7 0
-2.369 -3.1919999 -0.97299999 86 71 68
-2.358 -3.204 -0.98699999 30 6 4
-2.3610001 -3.201 -1.01 17 8 1
-2.3870001 -3.0220001 -0.95099998 58 42 42
-2.381 -3.029 -0.963 50 10 2
-2.3729999 -3.03 -0.97500002 43 16 9
-2.349 -3.0929999 -1.027 153 146 136
-2.3410001 -3.0810001 -1.021 48 10 0
-2.346 -3.082 -1.028 30 10 0
-2.3380001 -3.0780001 -1.008 87 68 62
-2.3469999 -3.0769999 -1.026 156 128 104
-2.349 -3.0799999 -1.013 18 3 0
-2.362 -3.0739999 -1.0039999 67 52 49
-2.3599999 -3.0829999 -0.99400002 21 6 1
-2.3640001 -3.033 -0.96200001 89 44 21
-2.3670001 -3.0469999 -0.96200001 97 66 61
-2.4260001 -3.059 -1.018 37 20 13
-2.4219999 -3.063 -1.01 32 14 14
-2.3759999 -3.188 -0.98500001 88 36 12
-2.4119999 -3.1459999 -0.86199999 227 170 99
-2.402 -3.1429999 -0.86900002 127 90 81
-2.4030001 -3.161 -0.86900002 145 113 74
-2.4059999 -3.1570001 -0.86699998 138 91 39
-2.418 -3.135 -0.85699999 167 105 44
-2.4189999 -3.0539999 -0.926 224 179 111
-2.411 -3.052 -0.92000002 196 173 119
-2.4170001 -3.053 -0.92500001 233 200 131
-2.411 -3.05 -0.921 255 252 193
-2.415 -3.049 -0.92299998 255 248 179
-2.418 -3.1199999 -0.866 98 68 18
-2.4170001 -3.1240001 -0.86199999 147 102 61
-2.425 -3.049 -0.93000001 28 7 2
-2.425 -3.0350001 -0.935 139 98 76
-2.4360001 -3.158 -0.87199998 43 40 33
-2.4389999 -3.1570001 -0.88099998 135 115 104
-2.4360001 -3.1670001 -0.87300003 236 208 158
-2.405 -3.1289999 -0.88499999 65 12 0
-2.401 -3.1370001 -0.88599998 50 21 15
-2.408 -3.2249999 -0.93900001 141 81 31
-2.4119999 -3.233 -0.935 45 17 0
-2.415 -3.2309999 -0.93599999 21 13 10
-2.3800001 -3.1830001 -0.91399997 123 96 89
-2.3889999 -3.181 -0.91900003 55 27 23
-2.3829999 -3.1919999 -0.92000002 111 72 43
-2.385 -3.1849999 -0.917 87 60 53
-2.382 -3.1730001 -0.903 121 91 83
-2.3829999 -3.1689999 -0.90499997 147 118 110
-2.3840001 -3.1760001 -0.91100001 105 76 68
-2.395 -3.151 -0.95899999 30 12 0
-2.3900001 -3.135 -0.96200001 26 23 18
-2.3859999 -3.1500001 -0.97799999 40 14 0
-2.3900001 -3.1359999 -0.96399999 15 14 9
-2.382 -3.119 -0.96799999 65 54 50
-2.378 -3.1159999 -0.95599997 29 5 3
-2.4260001 -3.125 -0.90499997 129 82 64
-2.4430001 -3.1470001 -0.87699997 108 77 46
-2.4119999 -3.0999999 -0.935 74 34 22
-2.4070001 -3.059 -0.926 182 142 93
-2.4119999 -3.1889999 -0.97500002 65 36 18
-2.4130001 -3.204 -0.97000003 28 20 1
-2.4170001 -3.1900001 -0.96899998 117 76 54
-2.4070001 -3.197 -0.97299999 76 35 15
-2.3829999 -3.1340001 -1.017 21 1 0
-2.388 -3.1400001 -1.023 62 43 37
-2.382 -3.1470001 -1.0089999 43 5 0
-2.392 -3.1300001 -1.027 39 11 0
-2.391 -3.1259999 -1.025 51 22 16
-2.381 -3.1099999 -1.024 50 12 0
-2.3710001 -3.112 -1.021 112 101 99
-2.3989999 -3.029 -0.96100003 100 83 76
-2.3929999 -3.0220001 -0.95499998 74 54 45
-2.4119999 -3.0669999 -1.011 165 92 39
-2.3840001 -3.0869999 -1.034 12 2 1
-2.382 -3.085 -1.0319999 18 2 2
-2.378 -3.0669999 -1.027 111 74 58
-2.372 -3.073 -1.028 64 35 21
-2.365 -3.069 -1.02 149 92 49
-2.398 -3.075 -1.028 102 48 24
-2.3959999 -3.0739999 -1.025 124 76 56
-2.427 -3.0699999 -1.028 67 35 22
-2.4130001 -3.109 -0.986 82 51 46
-2.4119999 -3.1110001 -0.995 34 16 14
-2.4130001 -3.119 -0.991 68 51 44
-2.4189999 -3.1010001 -1.002 42 21 4
-2.3699999 -3.108 -0.97500002 25 1 0
-2.3710001 -3.0780001 -0.995 9 0 0
-2.3640001 -3.1070001 -1.002 58 14 1
-2.3610001 -3.095 -1.003 69 46 14
-2.3629999 -3.2030001 -0.97799999 31 11 4
-2.352 -3.227 -0.96600002 131 75 40
-2.3829999 -3.1830001 -0.991 158 126 105
-2.3670001 -3.085 -0.98000002 20 0 0
-2.415 -3.1960001 -0.926 89 28 9
-2.431 -3.198 -0.917 116 45 0
-2.4159999 -3.1989999 -0.92799997 92 42 9
-2.415 -3.1789999 -0.92900002 146 123 109
-2.415 -3.1860001 -0.91900003 147 117 106
-2.411 -3.1849999 -0.94199997 204 177 170
-2.4130001 -3.2 -0.93199998 32 11 6
-2.421 -3.096 -0.954 162 92 41
-2.425 -3.1040001 -0.95099998 200 119 53
-2.4119999 -3.119 -0.97399998 18 0 0
-2.4100001 -3.1210001 -0.977 23 5 3
-2.402 -3.0969999 -0.92900002 114 51 0
-2.401 -3.095 -0.93400002 145 84 40
-2.404 -3.086 -0.94099998 103 69 42
-2.4030001 -3.086 -1.03 33 8 4
-2.3940001 -3.0350001 -0.94300002 17 0 0
-2.385 -3.0239999 -0.95499998 85 63 50
-2.3640001 -3.027 -0.95599997 36 19 12
-2.365 -3.043 -0.94099998 126 99 78
-2.3670001 -3.046 -0.94800001 23 0 0
-2.349 -3.0710001 -1.017 39 19 8
-2.3540001 -3.075 -1.021 39 11 0
-2.3699999 -3.049 -0.96499997 47 15 2
-2.3629999 -3.0580001 -0.96100003 51 24 17
-2.3659999 -3.0320001 -0.95999998 40 21 14
-2.421 -3.174 -1.015 116 65 46
-2.4170001 -3.1689999 -1.018 96 49 31
-2.418 -3.1849999 -1.02 19 5 0
-2.4219999 -3.177 -1.0140001 63 17 1
-2.4170001 -3.1559999 -1.031 146 90 65
-2.4159999 -3.1589999 -1.031 137 78 48
-2.4159999 -3.1860001 -0.98900002 46 28 24
-2.4089999 -3.1889999 -1 35 17 7
-2.402 -3.1889999 -0.99299997 137 69 20
-2.418 -3.1800001 -0.972 196 131 77
-2.431 -3.0639999 -1.013 73 47 34
-2.428 -3.059 -1.017 21 3 0
-2.427 -3.0680001 -1.006 35 9 0
-2.425 -3.0669999 -0.99299997 80 65 58
-2.425 -3.049 -0.93699998 92 69 61
-2.425 -3.0369999 -0.93699998 108 88 79
-2.424 -3.0380001 -0.94099998 149 85 37
-2.4319999 -3.0439999 -0.95099998 45 32 16
-2.428 -3.052 -0.96100003 42 23 17
-2.437 -3.043 -0.95300001 119 76 33
-2.415 -3.0510001 -0.96600002 38 21 14
-2.4100001 -3.0550001 -0.96600002 19 9 7
-2.427 -3.052 -0.93900001 105 85 76
-2.405 -3.0610001 -0.92699999 161 120 64
-2.4100001 -3.0680001 -0.93800002 175 111 84
-2.421 -3.059 -0.93800002 25 5 0
-2.4130001 -3.0699999 -0.94700003 119 81 68
-2.359 -3.2309999 -0.96399999 41 16 0
-2.3640001 -3.237 -0.96200001 171 128 73
-2.3610001 -3.102 -1.029 40 5 0
-2.3559999 -3.0829999 -1.005 17 3 2
-2.4089999 -3.1259999 -0.875 62 17 0
-2.4070001 -3.135 -0.86900002 140 103 85
-2.4030001 -3.063 -0.92799997 59 45 42
-2.4000001 -3.0639999 -0.93099999 151 115 91
-2.3970001 -3.062 -0.92699999 247 211 151
-2.4030001 -3.0539999 -0.92299998 126 81 40
-2.4030001 -3.0569999 -0.92299998 115 75 39
-2.3989999 -3.0539999 -0.92500001 74 40 15
-2.4200001 -3.138 -0.85699999 194 129 61
-2.425 -3.1240001 -0.85900003 145 85 35
-2.4260001 -3.122 -0.86699998 128 78 29
-2.421 -3.049 -0.92400002 155 95 33
-2.421 -3.053 -0.92500001 207 143 81
-2.415 -3.0510001 -0.92299998 247 227 158
-2.4059999 -3.049 -0.92199999 94 54 3
-2.4070001 -3.1329999 -0.875 95 59 43
-2.4200001 -3.036 -0.93000001 184 160 148
-2.415 -3.033 -0.949 122 92 66
-2.4100001 -3.0239999 -0.954 129 77 40
-2.414 -3.033 -0.94700003 106 49 4
-2.4119999 -3.0250001 -0.95599997 46 18 6
-2.4170001 -3.0350001 -0.94800001 117 50 7
-2.404 -3.1329999 -0.87900001 77 40 31
-2.4219999 -3.1630001 -0.87 138 104 67
-2.415 -3.1589999 -0.87 201 159 109
-2.415 -3.168 -0.875 125 97 73
-2.3859999 -3.2019999 -0.92799997 49 20 6
-2.3759999 -3.2090001 -0.92900002 73 50 36
-2.3929999 -3.198 -0.958 95 68 51
-2.414 -3.1960001 -0.95200002 41 36 30
-2.3989999 -3.1919999 -0.954 127 104 98
-2.4000001 -3.1949999 -0.95999998 25 6 0
-2.4100001 -3.2060001 -0.96399999 87 30 11
-2.3889999 -3.198 -0.898 184 137 93
-2.398 -3.2090001 -0.89899999 140 96 49
-2.3859999 -3.198 -0.89700001 214 176 131
-2.4130001 -3.187 -0.96100003 109 47 26
-2.414 -3.1860001 -0.96600002 97 88 83
-2.414 -3.191 -0.95700002 114 56 19
-2.3940001 -3.188 -0.96100003 124 98 81
-2.3840001 -3.197 -0.97500002 122 100 87
-2.395 -3.178 -0.97399998 98 49 19
-2.4000001 -3.112 -0.92900002 37 30 14
-2.3870001 -3.1159999 -0.93800002 34 5 0
-2.395 -3.118 -0.926 96 63 30
-2.3900001 -3.1099999 -0.94 31 1 0
-2.3829999 -3.181 -0.91299999 148 94 47
-2.3970001 -3.152 -0.87400001 189 110 35
-2.398 -3.1589999 -0.87699997 53 17 0
-2.401 -3.1559999 -0.87099999 124 91 84
-2.3940001 -3.1489999 -0.88599998 136 103 96
-2.3970001 -3.1489999 -0.889 94 102 91
-2.398 -3.1670001 -0.89899999 67 24 7
-2.395 -3.148 -0.95899999 93 75 63
-2.405 -3.1300001 -0.95099998 62 31 3
-2.381 -3.1059999 -0.94800001 55 21 12
-2.4000001 -3.1199999 -0.95700002 24 13 0
-2.3929999 -3.109 -0.95099998 160 126 99
-2.4070001 -3.1300001 -0.949 82 50 25
-2.3940001 -3.1040001 -0.93199998 25 17 4
-2.3959999 -3.109 -0.91500002 76 43 24
-2.392 -3.098 -0.93300003 43 8 4
-2.385 -3.1289999 -0.98100001 22 21 16
-2.3789999 -3.142 -0.995 16 7 0
-2.428 -3.1559999 -0.88999999 26 22 19
-2.425 -3.1689999 -0.88599998 106 80 53
-2.4289999 -3.1559999 -0.88800001 30 26 23
-2.4289999 -3.152 -0.89600003 18 14 11
-2.4119999 -3.2019999 -0.93699998 130 129 125
-2.4170001 -3.2090001 -0.93000001 40 13 0
-2.4130001 -3.198 -0.96399999 56 9 0
-2.402 -3.1900001 -1.006 82 52 26
-2.358 -3.214 -0.98299998 38 21 5
-2.3540001 -3.2179999 -0.98900002 128 103 99
-2.358 -3.227 -0.98000002 121 50 6
-2.4230001 -3.1459999 -0.95899999 65 43 29
-2.4170001 -3.1470001 -0.95700002 89 50 33
-2.4170001 -3.1359999 -0.94300002 67 27 0
-2.418 -3.1359999 -0.94599998 104 68 32
-2.4000001 -3.115 -0.90100002 84 49 29
-2.405 -3.131 -0.89700001 129 67 0
-2.3800001 -3.1389999 -1.0089999 76 32 5
-2.375 -3.0999999 -1.035 13 3 2
-2.3889999 -3.1140001 -1.027 46 8 0
-2.408 -3.115 -1.0140001 39 0 0
-2.381 -3.0420001 -0.93599999 107 93 90
-2.3940001 -3.049 -0.92699999 96 59 17
-2.3989999 -3.0480001 -0.92299998 244 201 150
-2.4030001 -3.026 -0.958 53 35 25
-2.3870001 -3.076 -1.026 14 0 0
-2.4119999 -3.099 -1.024 69 33 19
-2.415 -3.1099999 -1.017 25 5 0
-2.4289999 -3.0680001 -1.024 65 21 8
-2.4200001 -3.0999999 -1.008 19 0 0
-2.4170001 -3.1530001 -1.0319999 78 22 5
-2.4119999 -3.154 -1.03 92 37 16
-2.4089999 -3.161 -1.03 158 99 65
-2.4130001 -3.1440001 -1.018 14 0 0
-2.3740001 -3.1110001 -0.96899998 24 0 0
-2.3800001 -3.148 -0.995 55 31 7
-2.375 -3.145 -1.001 79 44 24
-2.3800001 -3.158 -0.995 19 0 0
-2.3800001 -3.1530001 -0.99900001 24 0 0
-2.3829999 -3.1659999 -1 103 56 28
-2.401 -3.073 -1.0039999 18 0 0
-2.3900001 -3.073 -0.99699998 72 27 6
-2.3629999 -3.079 -1.026 20 0 0
-2.369 -3.0710001 -1.008 170 120 93
-2.368 -3.109 -0.99000001 14 2 2
-2.365 -3.102 -0.98900002 35 11 0
-2.3759999 -3.1099999 -1.016 64 26 13
-2.3610001 -3.0899999 -0.99199998 61 41 34
-2.3629999 -3.0929999 -0.99400002 46 28 18
-2.3770001 -3.1860001 -0.90700001 56 21 0
-2.3840001 -3.1960001 -0.903 145 103 61
-2.3829999 -3.1960001 -0.90799999 131 86 47
-2.3710001 -3.214 -0.91900003 45 10 0
-2.3770001 -3.079 -0.98000002 107 98 99
-2.378 -3.0669999 -0.977 24 7 0
-2.3699999 -3.0840001 -0.98400003 36 17 10
-2.3789999 -3.075 -0.97600001 34 16 12
-2.378 -3.075 -0.96600002 69 32 5
-2.378 -3.0680001 -0.96600002 43 18 11
-2.3759999 -3.075 -0.963 62 30 7
-2.372 -3.086 -0.96100003 114 51 20
-2.3759999 -3.0769999 -0.96200001 90 63 42
-2.4100001 -3.108 -0.95200002 95 79 82
-2.4030001 -3.105 -0.93199998 101 47 23
-2.3640001 -3.2349999 -0.958 137 95 37
-2.362 -3.2309999 -0.95499998 173 141 103
-2.3659999 -3.2349999 -0.95499998 177 132 75
-2.3640001 -3.227 -0.95099998 188 142 90
-2.424 -3.207 -0.912 115 59 32
-2.4300001 -3.2030001 -0.90799999 129 83 47
-2.4200001 -3.2130001 -0.91100001 255 244 195
-2.4289999 -3.201 -0.90499997 123 79 44
-2.424 -3.2019999 -0.90700001 111 67 28
-2.4319999 -3.1470001 -0.89899999 204 174 148
-2.431 -3.1459999 -0.90200001 28 24 21
-2.434 -3.1440001 -0.889 62 53 46
-2.3989999 -3.039 -0.93099999 152 130 119
-2.391 -3.029 -0.958 71 49 38
-2.3540001 -3.0739999 -1.017 48 16 0
-2.368 -3.046 -0.95300001 46 20 7
-2.369 -3.053 -0.96399999 39 10 2
-2.381 -3.036 -0.97299999 57 23 14
-2.3759999 -3.046 -0.96799999 91 41 18
-2.3659999 -3.0309999 -0.97399998 67 47 40
-2.4059999 -3.0639999 -0.972 101 82 76
-2.418 -3.0669999 -0.97799999 77 62 57
-2.3940001 -3.0599999 -0.97299999 25 16 17
-2.3959999 -3.049 -0.96499997 7 1 1
-2.4119999 -3.0739999 -0.95499998 161 110 63
-2.4130001 -3.069 -0.95099998 148 95 51
-2.4159999 -3.178 -0.92400002 50 26 22
-2.408 -3.1800001 -0.92299998 18 3 6
-2.4189999 -3.152 -0.95999998 47 24 8
-2.421 -3.069 -0.99699998 20 5 2
-2.415 -3.0710001 -0.99400002 95 77 63
-2.4119999 -3.03 -0.935 209 142 100
-2.414 -3.043 -0.96499997 23 8 3
-2.4189999 -3.0369999 -0.96799999 151 89 52
-2.4230001 -3.0569999 -0.94499999 50 31 25
-2.414 -3.0599999 -0.954 37 18 12
-2.3559999 -3.2290001 -0.96499997 48 22 9
-2.3540001 -3.227 -0.96399999 85 60 38
-2.3570001 -3.2320001 -0.95999998 78 48 20
-2.368 -3.237 -0.97799999 110 71 32
-2.3670001 -3.223 -0.98799998 78 58 34
-2.382 -3.233 -0.98299998 48 27 10
-2.385 -3.2320001 -0.98400003 50 0 0
-2.3800001 -3.237 -0.98299998 62 16 3
-2.401 -3.079 -0.93599999 23 5 1
-2.4030001 -3.076 -0.94 88 50 27
-2.3959999 -3.0550001 -0.92799997 43 15 3
-2.4059999 -3.141 -0.866 123 76 22
-2.425 -3.158 -0.86299998 148 104 57
-2.4200001 -3.1370001 -0.85699999 236 177 111
-2.4159999 -3.1340001 -0.86000001 166 101 43
-2.4419999 -3.145 -0.87099999 54 26 5
-2.4070001 -3.1259999 -0.884 69 11 0
-2.385 -3.2049999 -0.92799997 37 11 0
-2.388 -3.211 -0.93099999 51 20 0
-2.3859999 -3.2119999 -0.93000001 40 17 1
-2.3989999 -3.2119999 -0.935 128 112 99
-2.4089999 -3.217 -0.93400002 148 87 43
-2.398 -3.2219999 -0.93800002 123 110 104
-2.401 -3.198 -0.96499997 113 105 102
-2.398 -3.1889999 -0.94099998 36 14 0
-2.4170001 -3.1760001 -0.97000003 75 28 10
-2.4119999 -3.1830001 -0.95899999 215 187 165
-2.411 -3.1800001 -0.96100003 60 34 21
-2.414 -3.1919999 -0.95099998 63 43 34
-2.4119999 -3.187 -0.95300001 155 100 69
-2.398 -3.184 -0.95999998 44 26 22
-2.4059999 -3.175 -0.963 184 168 168
-2.4059999 -3.174 -0.95499998 39 20 22
-2.4030001 -3.181 -0.958 37 2 0
-2.4070001 -3.1700001 -0.95700002 30 12 12
-2.3889999 -3.1930001 -0.98100001 24 4 0
-2.4100001 -3.1849999 -0.99800003 49 31 19
-2.3959999 -3.154 -0.96200001 114 94 83
-2.3959999 -3.1500001 -0.97100002 55 24 6
-2.4070001 -3.1689999 -0.94700003 176 162 162
-2.4100001 -3.1470001 -0.91500002 43 35 32
-2.414 -3.142 -0.91799998 25 11 11
-2.415 -3.154 -0.91399997 102 40 1
-2.4170001 -3.1300001 -0.93400002 108 65 23
-2.4170001 -3.131 -0.92900002 136 94 54
-2.4170001 -3.131 -0.94 84 49 9
-2.4089999 -3.1240001 -0.912 67 58 43
-2.395 -3.1389999 -0.91299999 65 50 47
-2.391 -3.1789999 -0.898 124 107 100
-2.405 -3.1849999 -0.88700002 226 172 110
-2.3989999 -3.1589999 -0.88200003 60 26 14
-2.3789999 -3.1159999 -0.95499998 22 1 0
-2.4159999 -3.1329999 -0.95300001 57 30 9
-2.395 -3.1470001 -0.96700001 115 76 47
-2.3829999 -3.0999999 -0.94499999 92 75 91
-2.3800001 -3.1199999 -0.97799999 65 49 36
-2.3829999 -3.1459999 -0.99000001 35 14 0
-2.3870001 -3.135 -0.98699999 48 31 21
-2.427 -3.155 -0.89300001 23 19 16
-2.427 -3.1559999 -0.89099997 131 102 86
-2.4200001 -3.2060001 -0.92199999 137 79 29
-2.418 -3.2160001 -0.93400002 60 32 11
-2.4030001 -3.2249999 -0.93699998 170 136 108
-2.3570001 -3.2260001 -0.972 37 15 0
-2.3670001 -3.2060001 -0.977 24 1 0
-2.401 -3.1370001 -0.89200002 41 14 7
-2.421 -3.1210001 -0.94300002 85 51 26
-2.4130001 -3.1340001 -0.935 30 11 13
-2.4170001 -3.1300001 -0.92400002 106 73 38
-2.421 -3.1059999 -0.93699998 245 164 101
-2.4189999 -3.102 -0.94199997 132 51 0
-2.427 -3.1259999 -0.89099997 79 33 10
-2.425 -3.122 -0.89999998 119 72 42
-2.415 -3.1140001 -0.90499997 169 100 61
-2.4070001 -3.1129999 -0.90799999 111 49 10
-2.3970001 -3.109 -0.91100001 58 26 13
-2.404 -3.1029999 -0.92199999 223 156 85
-2.3889999 -3.1340001 -0.97899997 59 31 17
-2.3740001 -3.2079999 -1.017 34 17 10
-2.382 -3.201 -1.026 35 21 18
-2.3710001 -3.198 -1.016 16 7 2
-2.368 -3.198 -1.015 13 2 0
-2.381 -3.135 -1.007 106 92 83
-2.3710001 -3.105 -1.028 30 0 0
-2.4189999 -3.0350001 -0.96600002 53 24 10
-2.414 -3.0320001 -0.94999999 19 0 0
-2.404 -3.0469999 -0.92199999 117 75 25
-2.424 -3.0409999 -0.93199998 132 94 57
-2.4219999 -3.05 -0.92500001 176 116 54
-2.4219999 -3.063 -1.017 18 2 2
-2.405 -3.0699999 -1.013 116 59 29
-2.388 -3.0769999 -1.016 107 58 26
-2.404 -3.0929999 -1.0319999 51 15 3
-2.3929999 -3.095 -1.0319999 15 0 0
-2.4170001 -3.1129999 -1.012 52 24 21
-2.411 -3.1429999 -1.023 14 0 0
-2.408 -3.118 -1.0039999 29 15 15
-2.4119999 -3.102 -1.017 34 13 12
-2.3829999 -3.221 -1.018 118 75 41
-2.375 -3.2219999 -1.016 35 5 0
-2.3770001 -3.23 -1.017 39 7 0
-2.3829999 -3.2149999 -1.018 57 26 5
-2.3870001 -3.2090001 -1.022 30 6 2
-2.3859999 -3.2260001 -1.016 45 10 0
-2.385 -3.204 -1.023 26 15 13
-2.3840001 -3.201 -1.023 66 33 18
-2.385 -3.2130001 -1.013 32 8 0
-2.3859999 -3.207 -1.02 67 25 0
-2.3959999 -3.1760001 -1.022 34 5 1
-2.3829999 -3.1919999 -1.0190001 31 2 0
-2.392 -3.1760001 -1.015 92 63 47
-2.4119999 -3.155 -1.024 17 3 0
-2.4089999 -3.138 -1.016 33 14 0
-2.3759999 -3.138 -0.99900001 25 15 5
-2.381 -3.076 -0.995 15 1 0
-2.3610001 -3.0810001 -1.028 34 20 17
-2.355 -3.0840001 -1.027 67 54 48
-2.352 -3.0899999 -1.027 21 13 2
-2.3829999 -3.075 -1.0039999 128 113 110
-2.395 -3.128 -1.02 46 16 6
-2.398 -3.1370001 -1.027 42 13 7
-2.4030001 -3.1359999 -1.018 42 13 5
-2.3970001 -3.152 -1.022 34 5 0
-2.3989999 -3.151 -1.024 130 114 98
-2.395 -3.1440001 -1.022 104 47 18
-2.3940001 -3.105 -1.021 162 143 129
-2.382 -3.1259999 -0.99000001 24 23 18
-2.381 -3.1110001 -1.013 27 2 0
-2.365 -3.105 -1.02 54 20 11
-2.368 -3.0799999 -0.99599999 14 0 0
-2.3840001 -3.177 -0.98500001 41 13 1
-2.388 -3.161 -0.99000001 45 36 27
-2.381 -3.188 -0.90499997 149 105 68
-2.381 -3.1900001 -0.91100001 174 126 86
-2.3829999 -3.197 -0.91600001 165 120 81
-2.3900001 -3.0699999 -0.93199998 53 15 0
-2.3659999 -3.0710001 -0.93900001 27 0 0
-2.369 -3.0780001 -0.93699998 110 77 44
-2.369 -3.0810001 -0.94599998 156 120 88
-2.369 -3.0699999 -0.93099999 131 101 67
-2.378 -3.0799999 -0.972 79 42 23
-2.3770001 -3.072 -0.95899999 67 28 11
-2.4300001 -3.197 -0.90100002 153 110 76
-2.4289999 -3.1960001 -0.90700001 112 49 0
-2.4349999 -3.1659999 -0.87599999 171 134 81
-2.415 -3.108 -0.917 54 11 2
-2.421 -3.118 -0.91399997 75 28 2
-2.402 -3.099 -0.92799997 215 147 82
-2.4100001 -3.1229999 -0.97500002 48 30 28
-2.395 -3.0469999 -0.92900002 42 15 0
-2.398 -3.0369999 -0.96799999 86 38 16
-2.378 -3.0639999 -0.97299999 38 17 14
-2.382 -3.0469999 -0.96600002 42 21 4
-2.372 -3.03 -0.954 35 16 1
-2.3699999 -3.0480001 -0.96499997 38 6 0
-2.3900001 -3.063 -0.97500002 9 0 1
-2.414 -3.079 -0.96899998 61 12 0
-2.4100001 -3.0739999 -0.96399999 26 10 10
-2.404 -3.0810001 -0.94300002 25 11 8
-2.425 -3.0999999 -0.95700002 234 148 75
-2.4260001 -3.099 -0.95999998 251 168 98
-2.414 -3.1070001 -0.96600002 41 23 19
-2.4159999 -3.1370001 -0.98000002 49 35 22
-2.4170001 -3.168 -0.96799999 70 24 0
-2.411 -3.1819999 -0.95599997 41 13 0
-2.4170001 -3.1530001 -0.95999998 41 3 0
-2.418 -3.158 -0.96100003 179 141 102
-2.4170001 -3.1530001 -0.912 118 56 35
-2.415 -3.1600001 -0.903 99 33 7
-2.4260001 -3.0969999 -0.96399999 231 154 86
-2.424 -3.0969999 -0.96799999 254 179 111
-2.404 -3.0350001 -0.935 109 89 80
-2.427 -3.049 -0.963 111 93 83
-2.425 -3.0439999 -0.95499998 76 39 12
-2.4170001 -3.0599999 -0.94599998 141 91 38
-2.3770001 -3.1989999 -0.972 107 78 60
-2.372 -3.1989999 -0.972 141 110 79
-2.372 -3.204 -0.97500002 72 58 57
-2.368 -3.2349999 -0.95599997 154 109 54
-2.3729999 -3.234 -0.958 209 145 83
-2.3670001 -3.2019999 -1.0039999 44 27 11
-2.368 -3.2019999 -0.99000001 47 15 2
-2.369 -3.2019999 -1.001 157 134 118
-2.3570001 -3.21 -0.99800003 129 106 98
-2.3900001 -3.194 -0.89999998 186 143 88
-2.3829999 -3.2030001 -0.91399997 129 82 40
-2.411 -3.138 -0.86500001 249 182 104
-2.421 -3.151 -0.861 152 106 56
-2.4260001 -3.131 -0.85900003 147 83 35
-2.411 -3.152 -0.866 130 74 13
-2.4130001 -3.1489999 -0.86400002 133 84 28
-2.414 -3.155 -0.86699998 236 215 148
-2.402 -3.154 -0.87 123 75 27
-2.4289999 -3.1289999 -0.88200003 72 39 20
-2.421 -3.125 -0.88599998 166 106 70
-2.4319999 -3.1300001 -0.88 100 63 45
-2.431 -3.135 -0.88800001 100 58 42
-2.434 -3.1370001 -0.87400001 71 40 12
-2.431 -3.135 -0.88599998 100 62 49
-2.4260001 -3.1700001 -0.88099998 115 86 56
-2.415 -3.1819999 -0.88999999 180 131 75
-2.415 -3.174 -0.88700002 158 106 59
-2.411 -3.1730001 -0.88099998 159 100 44
-2.421 -3.177 -0.89700001 43 15 4
-2.4200001 -3.1789999 -0.90799999 83 62 61
-2.3840001 -3.214 -0.92900002 71 44 25
-2.391 -3.2160001 -0.93199998 60 38 17
-2.3900001 -3.211 -0.93099999 43 20 6
-2.408 -3.177 -0.95700002 38 19 21
-2.4070001 -3.177 -0.94199997 80 40 14
-2.405 -3.177 -0.94199997 93 52 22
-2.402 -3.1849999 -0.954 190 155 125
-2.398 -3.188 -0.94999999 159 107 68
-2.4030001 -3.2019999 -0.97500002 116 111 105
-2.3859999 -3.201 -0.98699999 140 116 104
-2.3870001 -3.201 -1.003 82 45 16
-2.3840001 -3.2019999 -0.977 154 109 68
-2.381 -3.217 -0.97899997 55 1 0
-2.3770001 -3.2249999 -1 31 20 18
-2.408 -3.168 -0.963 23 7 7
-2.4070001 -3.2019999 -0.93300003 56 30 17
-2.398 -3.175 -0.91399997 125 114 108
-2.4059999 -3.155 -0.90899998 36 33 28
-2.4059999 -3.1719999 -0.90899998 93 54 25
-2.4070001 -3.1210001 -0.90100002 37 32 26
-2.391 -3.1849999 -0.90100002 74 43 22
-2.3900001 -3.1429999 -0.97299999 65 28 19
-2.4059999 -3.1530001 -0.963 14 0 0
-2.398 -3.1199999 -0.958 81 60 39
-2.3770001 -3.115 -0.97299999 201 159 121
-2.4260001 -3.1530001 -0.89499998 42 37 33
-2.4289999 -3.128 -0.86699998 148 96 46
-2.3840001 -3.1989999 -1.017 178 126 87
-2.3989999 -3.1819999 -1.0140001 55 7 0
-2.4289999 -3.1429999 -0.90600002 31 28 23
-2.4289999 -3.164 -0.87199998 222 190 141
-2.401 -3.138 -0.89499998 30 10 3
-2.4189999 -3.1270001 -0.949 104 65 34
-2.4170001 -3.1289999 -0.935 117 78 37
-2.4200001 -3.1099999 -0.93400002 123 65 43
-2.404 -3.1170001 -0.926 46 36 24
-2.3970001 -3.141 -0.91600001 58 54 45
-2.4130001 -3.1329999 -0.93800002 21 2 4
-2.425 -3.1289999 -0.912 89 79 70
-2.411 -3.0569999 -0.92900002 31 26 33
-2.411 -3.1270001 -0.98699999 44 21 5
-2.391 -3.1619999 -0.99000001 55 37 27
-2.3870001 -3.165 -0.99299997 21 2 0
-2.3929999 -3.168 -1.026 20 2 0
-2.404 -3.1689999 -1.022 155 141 130
-2.392 -3.161 -1.007 56 28 24
-2.3889999 -3.1289999 -0.977 44 17 10
-2.3659999 -3.2160001 -1.013 95 81 70
-2.365 -3.2079999 -1.005 41 18 10
-2.3840001 -3.2119999 -1.0190001 108 91 84
-2.375 -3.1099999 -1.012 53 20 5
-2.3859999 -3.132 -1.0089999 171 144 127
-2.382 -3.1129999 -1.006 17 0 0
-2.3740001 -3.1029999 -1.031 26 5 4
-2.4189999 -3.0339999 -0.954 207 135 97
-2.411 -3.03 -0.949 139 72 19
-2.404 -3.0350001 -0.96100003 108 88 77
-2.4230001 -3.0710001 -1.026 62 30 17
-2.411 -3.0669999 -1.021 71 28 11
-2.388 -3.085 -1.0319999 158 113 94
-2.395 -3.092 -1.033 74 34 22
-2.4230001 -3.092 -1.006 31 12 0
-2.4200001 -3.0869999 -1.011 57 26 8
-2.425 -3.085 -1 52 29 15
-2.3859999 -3.2030001 -1.02 71 25 9
-2.3829999 -3.217 -1.006 66 24 8
-2.3829999 -3.2179999 -1 107 70 43
-2.3770001 -3.2130001 -1.016 112 93 78
-2.4100001 -3.155 -1.016 16 2 0
-2.4119999 -3.1670001 -1.007 37 17 8
-2.4119999 -3.1359999 -0.986 38 12 0
-2.401 -3.138 -1.0319999 79 39 29
-2.3759999 -3.0969999 -0.96799999 70 27 10
-2.3740001 -3.098 -0.972 38 11 0
-2.375 -3.0880001 -0.97600001 44 11 0
-2.388 -3.105 -0.96799999 65 24 4
-2.3840001 -3.089 -0.96100003 120 101 87
-2.3770001 -3.0929999 -0.96499997 35 13 0
-2.3789999 -3.0829999 -0.97799999 69 37 24
-2.3729999 -3.109 -0.97000003 35 16 12
-2.3770001 -3.075 -0.98799998 122 83 54
-2.375 -3.0769999 -0.995 32 8 4
-2.3789999 -3.086 -1.03 12 2 3
-2.3870001 -3.075 -1.0039999 21 5 5
-2.3929999 -3.1010001 -1.027 77 47 39
-2.392 -3.145 -1.017 78 59 53
-2.358 -3.0999999 -1.015 180 121 65
-2.3599999 -3.096 -1.006 28 8 7
-2.358 -3.095 -1.008 23 2 0
-2.3610001 -3.0899999 -0.991 35 21 18
-2.3610001 -3.0969999 -0.98400003 109 89 80
-2.3640001 -3.207 -0.98000002 75 38 9
-2.385 -3.1670001 -0.99599999 54 7 0
-2.3840001 -3.1800001 -0.90100002 52 37 30
-2.382 -3.076 -0.93699998 123 88 68
-2.372 -3.072 -0.935 94 63 35
-2.369 -3.076 -0.93699998 134 100 75
-2.3770001 -3.079 -0.98199999 137 110 99
-2.402 -3.0940001 -0.97399998 60 18 6
-2.402 -3.0929999 -0.97399998 53 30 24
-2.398 -3.1040001 -0.98299998 94 37 8
-2.3759999 -3.082 -0.96600002 105 78 59
-2.3710001 -3.0780001 -0.94700003 36 3 0
-2.3699999 -3.0840001 -0.949 193 158 120
-2.3729999 -3.063 -0.94499999 70 51 36
-2.3710001 -3.095 -0.963 88 60 46
-2.3699999 -3.096 -0.97299999 70 51 37
-2.3729999 -3.0910001 -0.97299999 25 6 2
-2.3740001 -3.0639999 -0.94099998 24 5 1
-2.3759999 -3.0599999 -0.93599999 69 45 41
-2.3989999 -3.2249999 -0.935 54 19 0
-2.4000001 -3.2309999 -0.92299998 209 125 53
-2.3940001 -3.227 -0.92900002 63 26 7
-2.408 -3.2279999 -0.912 203 151 49
-2.404 -3.2130001 -0.90399998 213 152 61
-2.408 -3.2219999 -0.912 92 54 31
-2.4200001 -3.2130001 -0.92299998 59 39 15
-2.428 -3.1949999 -0.912 142 95 53
-2.3870001 -3.2 -0.92699999 80 51 35
-2.3989999 -3.2030001 -0.93199998 54 33 28
-2.421 -3.2079999 -0.91900003 42 12 2
-2.3989999 -3.0999999 -0.97100002 81 45 23
-2.395 -3.1070001 -0.97500002 30 11 5
-2.398 -3.1099999 -0.91100001 56 20 4
-2.404 -3.108 -0.917 137 75 24
-2.3989999 -3.0320001 -0.96200001 108 88 79
-2.4070001 -3.0380001 -0.96200001 52 8 0
-2.414 -3.04 -0.96499997 255 226 143
-2.3989999 -3.0380001 -0.96799999 185 136 106
-2.369 -3.059 -0.96499997 34 5 1
-2.418 -3.069 -0.98199999 98 83 78
-2.4000001 -3.082 -0.977 25 10 7
-2.3900001 -3.0780001 -0.986 49 23 10
-2.4189999 -3.092 -0.95999998 169 107 70
-2.4159999 -3.184 -1.018 75 43 30
-2.4000001 -3.178 -1.021 36 23 15
-2.4159999 -3.135 -0.972 75 28 2
-2.4189999 -3.155 -0.96100003 121 96 76
-2.4170001 -3.1600001 -0.96600002 98 49 17
-2.418 -3.151 -0.96799999 88 32 0
-2.4159999 -3.1800001 -0.98100001 229 168 121
-2.415 -3.1800001 -0.99000001 93 42 15
-2.425 -3.075 -0.99900001 56 29 20
-2.4200001 -3.0369999 -0.94599998 222 145 93
-2.381 -3.0309999 -0.95200002 55 36 38
-2.3670001 -3.198 -0.97500002 39 11 0
-2.3710001 -3.234 -0.963 181 118 67
-2.372 -3.23 -0.97600001 99 70 52
-2.3759999 -3.227 -0.98000002 83 40 0
-2.3729999 -3.1919999 -1.011 70 43 26
-2.4219999 -3.1240001 -0.87199998 62 27 8
-2.4170001 -3.119 -0.88499999 116 82 54
-2.4089999 -3.175 -0.91399997 34 14 15
-2.424 -3.1960001 -0.89399999 194 150 111
-2.402 -3.197 -0.898 245 218 171
-2.402 -3.2030001 -0.90100002 161 117 72
-2.4000001 -3.171 -0.88999999 102 44 0
-2.3859999 -3.201 -0.90200001 255 216 173
-2.388 -3.223 -0.92500001 70 31 0
-2.391 -3.2249999 -0.92199999 78 41 25
-2.3829999 -3.2249999 -0.91600001 157 109 60
-2.3900001 -3.224 -0.93300003 110 83 53
-2.3829999 -3.22 -0.92400002 70 41 23
-2.3959999 -3.2219999 -0.91299999 172 122 71
-2.4230001 -3.141 -0.85699999 227 176 113
-2.437 -3.1440001 -0.88300002 76 52 42
-2.381 -3.2130001 -0.926 139 105 95
-2.381 -3.2049999 -0.926 91 52 23
-2.391 -3.217 -0.93199998 52 17 0
-2.4100001 -3.181 -0.94400001 47 18 4
-2.4070001 -3.1760001 -0.94599998 52 14 0
-2.4070001 -3.1719999 -0.95099998 26 7 9
-2.3840001 -3.2149999 -0.99599999 77 34 2
-2.3800001 -3.2090001 -0.98699999 154 101 69
-2.3729999 -3.223 -1.0140001 33 7 0
-2.3989999 -3.1889999 -0.93900001 40 13 0
-2.398 -3.1849999 -0.92299998 23 5 3
-2.392 -3.1830001 -0.92000002 51 23 19
-2.3989999 -3.2160001 -0.90799999 142 81 18
-2.391 -3.22 -0.91100001 156 104 54
-2.3889999 -3.108 -0.93900001 31 0 0
-2.391 -3.1129999 -0.95700002 59 26 7
-2.3770001 -3.1140001 -0.97000003 28 7 2
-2.4349999 -3.1570001 -0.88099998 16 15 11
-2.3970001 -3.142 -0.90600002 74 59 54
-2.4059999 -3.154 -0.90799999 46 41 35
-2.4189999 -3.1259999 -0.95999998 53 28 23
-2.4170001 -3.135 -0.96799999 77 25 3
-2.4130001 -3.122 -0.94999999 151 139 141
-2.3989999 -3.1459999 -0.958 108 95 89
-2.414 -3.135 -0.91600001 45 26 12
-2.4130001 -3.132 -0.94099998 13 0 0
-2.4170001 -3.1289999 -0.926 154 116 77
-2.4089999 -3.118 -0.898 154 90 55
-2.414 -3.112 -0.91000003 170 99 55
-2.3859999 -3.158 -1.001 108 79 61
-2.4119999 -3.1730001 -0.98500001 58 28 4
-2.395 -3.138 -1.031 66 38 27
-2.385 -3.1689999 -0.99900001 75 20 0
-2.3859999 -3.174 -1.0039999 100 65 37
-2.388 -3.1800001 -1 38 23 20
-2.3800001 -3.1129999 -1.002 27 0 0
-2.378 -3.112 -1.002 29 1 0
-2.3740001 -3.1099999 -1.0089999 34 4 2
-2.365 -3.1040001 -1.031 48 15 10
-2.3829999 -3.102 -1.031 45 11 1
-2.411 -3.0309999 -0.94700003 161 95 35
-2.4100001 -3.0710001 -1 115 88 69
-2.4089999 -3.0710001 -1.005 62 27 8
-2.4219999 -3.0810001 -1.017 22 1 0
-2.3840001 -3.2030001 -1.013 150 94 57
-2.4030001 -3.145 -1.0319999 151 119 98
-2.404 -3.1429999 -1.03 78 42 28
-2.402 -3.1389999 -1.023 39 21 9
-2.4100001 -3.131 -1.003 28 2 1
-2.4059999 -3.132 -1.01 37 9 5
-2.3789999 -3.1099999 -0.95899999 84 60 48
-2.3740001 -3.086 -1.027 31 13 13
-2.391 -3.0799999 -0.98900002 39 21 11
-2.3699999 -3.0829999 -0.98699999 102 61 15
-2.3710001 -3.082 -0.98900002 20 6 6
-2.3829999 -3.112 -1.012 50 11 4
-2.3629999 -3.1029999 -1.018 39 5 3
-2.359 -3.0940001 -1.006 21 5 5
-2.372 -3.108 -1.012 68 36 21
-2.3599999 -3.075 -1.015 75 43 20
-2.378 -3.0799999 -0.94 108 74 37
-2.3840001 -3.0799999 -0.94099998 96 64 41
-2.3770001 -3.0969999 -0.95999998 87 56 35
-2.3759999 -3.0910001 -0.958 95 34 5
-2.4119999 -3.1040001 -0.97399998 22 7 2
-2.372 -3.0969999 -0.98000002 47 23 13
-2.3699999 -3.0999999 -0.97299999 38 21 14
-2.3940001 -3.0999999 -0.93099999 35 1 0
-2.3729999 -3.0669999 -0.93300003 92 67 37
-2.3770001 -3.039 -0.94400001 15 0 0
-2.411 -3.2149999 -0.91100001 170 94 19
-2.4200001 -3.2130001 -0.926 174 114 80
-2.4200001 -3.184 -0.90399998 39 20 6
-2.4159999 -3.1110001 -0.91100001 59 13 0
-2.414 -3.1099999 -0.91399997 236 167 125
-2.401 -3.102 -0.92699999 192 132 70
-2.365 -3.0510001 -0.94999999 112 86 73
-2.3770001 -3.0350001 -0.94800001 126 106 105
-2.4130001 -3.063 -0.96399999 24 9 4
-2.4100001 -3.181 -1.018 114 81 74
-2.408 -3.1659999 -1.023 174 160 147
-2.4189999 -3.1459999 -0.96399999 48 25 9
-2.4189999 -3.1440001 -0.977 99 94 100
-2.418 -3.1459999 -0.97500002 39 29 20
-2.4119999 -3.1619999 -0.977 52 36 39
-2.4070001 -3.0309999 -0.935 163 136 119
-2.408 -3.0380001 -0.92900002 102 83 76
-2.4089999 -3.0380001 -0.92900002 68 24 0
-2.368 -3.0510001 -0.94800001 20 0 0
-2.3710001 -3.22 -0.97000003 28 5 0
-2.3710001 -3.204 -0.97500002 111 80 60
-2.395 -3.2249999 -0.93800002 138 128 126
-2.368 -3.1989999 -0.97100002 93 61 22
-2.3670001 -3.223 -1.006 32 9 0
-2.3800001 -3.2260001 -0.98900002 11 0 0
-2.365 -3.204 -1.011 98 53 32
-2.4159999 -3.122 -0.88 70 30 0
-2.425 -3.125 -0.87099999 78 29 0
-2.4170001 -3.119 -0.89399999 212 181 160
-2.4219999 -3.1989999 -0.89999998 171 93 11
-2.401 -3.171 -0.889 146 98 36
-2.4059999 -3.1700001 -0.88099998 218 161 82
-2.3989999 -3.168 -0.89200002 105 93 95
-2.381 -3.223 -0.91600001 119 67 20
-2.385 -3.2079999 -0.90899998 190 155 87
-2.3870001 -3.223 -0.912 155 105 56
-2.388 -3.2049999 -0.90499997 174 127 81
-2.385 -3.217 -0.91500002 30 2 0
-2.3889999 -3.223 -0.91600001 94 41 0
-2.4200001 -3.148 -0.86000001 160 104 43
-2.4319999 -3.1470001 -0.85799998 156 104 44
-2.4349999 -3.142 -0.884 155 118 91
-2.3629999 -3.207 -0.99699998 22 1 0
-2.3670001 -3.22 -0.99400002 45 26 12
-2.4059999 -3.181 -0.94999999 70 32 9
-2.405 -3.1849999 -0.93800002 148 114 89
-2.4059999 -3.1830001 -0.92699999 154 118 86
-2.391 -3.1919999 -0.92400002 93 66 45
-2.405 -3.165 -0.875 173 114 44
-2.4089999 -3.1470001 -0.98900002 37 15 1
-2.4100001 -3.152 -0.99599999 52 29 15
-2.408 -3.1500001 -0.98900002 32 8 0
-2.4170001 -3.1700001 -0.88300002 79 46 15
-2.4330001 -3.152 -0.884 53 48 42
-2.4349999 -3.1389999 -0.875 77 43 15
-2.3989999 -3.1429999 -0.89700001 13 0 0
-2.418 -3.1240001 -0.94800001 135 107 83
-2.4170001 -3.1300001 -0.96399999 66 36 26
-2.418 -3.1140001 -0.94 34 20 19
-2.4130001 -3.132 -0.94400001 34 20 19
-2.3900001 -3.1530001 -1.0089999 52 14 1
-2.3989999 -3.175 -0.98000002 20 6 3
-2.3929999 -3.164 -0.99000001 28 0 0
-2.4100001 -3.1700001 -0.98400003 59 43 44
-2.388 -3.1700001 -1.003 23 3 2
-2.4070001 -3.027 -0.94599998 84 52 27
-2.424 -3.0810001 -1.015 24 4 0
-2.3989999 -3.082 -1.029 94 44 19
-2.4100001 -3.164 -1.026 145 94 63
-2.4119999 -3.1689999 -1.0190001 122 67 37
-2.411 -3.1670001 -1.0039999 35 15 4
-2.4100001 -3.148 -1.013 40 16 14
-2.408 -3.1429999 -1.028 16 0 1
-2.408 -3.141 -0.99699998 45 14 0
-2.4089999 -3.1389999 -1.0089999 39 17 3
-2.4089999 -3.1389999 -1.006 100 49 28
-2.372 -3.102 -0.963 76 22 0
-2.369 -3.0910001 -1.028 46 18 4
-2.3829999 -3.0799999 -0.98699999 12 1 5
-2.3610001 -3.0880001 -0.99900001 135 115 106
-2.3640001 -3.21 -0.98100001 27 8 4
-2.395 -3.085 -0.94099998 60 46 45
-2.3770001 -3.0539999 -0.93099999 81 47 22
-2.4119999 -3.23 -0.92299998 138 86 36
-2.4159999 -3.2019999 -0.90200001 152 107 68
-2.418 -3.198 -0.89999998 194 151 106
-2.405 -3.207 -0.903 152 110 60
-2.4100001 -3.181 -0.93199998 77 50 39
-2.4159999 -3.112 -0.91000003 72 17 0
-2.404 -3.105 -0.92000002 213 150 83
-2.3829999 -3.0339999 -0.96700001 39 19 12
-2.4189999 -3.0739999 -0.98199999 61 47 44
-2.414 -3.0810001 -0.97899997 68 44 32
-2.4070001 -3.0899999 -0.94599998 218 147 59
-2.418 -3.1500001 -0.972 48 25 19
-2.411 -3.171 -0.99400002 34 8 0
-2.4100001 -3.1470001 -1.0089999 20 6 5
-2.4089999 -3.161 -0.97000003 54 18 0
-2.405 -3.0929999 -0.97899997 48 14 2
-2.3699999 -3.224 -0.96399999 111 98 92
-2.378 -3.227 -0.99599999 72 50 39
-2.3789999 -3.2190001 -0.98900002 102 49 15
-2.368 -3.227 -0.986 94 73 44
-2.3699999 -3.23 -0.98500001 23 11 0
-2.4189999 -3.119 -0.89499998 122 62 28
-2.402 -3.1800001 -0.921 33 15 15
-2.4070001 -3.1889999 -0.89200002 215 158 87
-2.4170001 -3.1960001 -0.89899999 196 163 112
-2.3929999 -3.194 -0.89999998 225 204 151
-2.388 -3.201 -0.89999998 163 120 75
-2.3989999 -3.1760001 -0.89399999 102 51 6
-2.3789999 -3.2119999 -0.917 146 99 55
-2.378 -3.2090001 -0.917 125 98 87
-2.4059999 -3.174 -0.88599998 230 167 88
-2.4070001 -3.164 -0.87400001 162 101 38
-2.414 -3.1400001 -0.98199999 42 22 13
-2.4030001 -3.1489999 -0.89700001 80 73 63
-2.4170001 -3.1240001 -0.95099998 111 85 62
-2.4170001 -3.1289999 -0.921 146 115 86
-2.405 -3.188 -1 39 18 1
-2.3789999 -3.1029999 -1.029 29 5 3
-2.428 -3.075 -1.011 33 13 12
-2.3699999 -3.223 -1.008 87 65 51
-2.378 -3.2190001 -1.016 78 43 15
-2.4130001 -3.1819999 -0.99400002 128 77 48
-2.411 -3.168 -1.002 55 33 22
-2.3800001 -3.096 -0.99199998 18 0 0
-2.3940001 -3.0810001 -0.99199998 1 1 1
-2.392 -3.109 -0.97600001 49 18 0
-2.3729999 -3.102 -0.97899997 29 10 3
-2.3789999 -3.0639999 -0.92900002 85 49 25
-2.4119999 -3.221 -0.92900002 185 105 46
-2.4159999 -3.187 -0.917 92 69 63
-2.4230001 -3.2060001 -0.91500002 112 95 88
-2.4070001 -3.2019999 -0.90200001 220 169 106
-2.391 -3.1949999 -0.92500001 42 1 0
-2.3859999 -3.1070001 -0.97100002 53 11 0
-2.4130001 -3.0869999 -0.96899998 48 2 0
-2.4130001 -3.082 -0.977 64 42 29
-2.4159999 -3.085 -0.98400003 52 41 39
-2.414 -3.1719999 -1.002 107 72 42
-2.411 -3.171 -0.99699998 38 14 2
-2.4119999 -3.175 -0.99699998 80 66 66
-2.401 -3.155 -0.98000002 68 26 1
-2.4000001 -3.1689999 -0.986 29 12 4
-2.401 -3.102 -0.98900002 22 1 0
-2.4170001 -3.099 -0.99000001 95 47 35
-2.4189999 -3.0869999 -0.99299997 45 19 4
-2.3710001 -3.23 -0.95899999 169 140 122
-2.3640001 -3.2219999 -0.95499998 134 113 110
-2.369 -3.2349999 -0.98400003 91 48 14
-2.3859999 -3.2019999 -0.90499997 197 149 109
-2.418 -3.152 -0.86299998 229 206 162
-2.4100001 -3.1700001 -0.98799998 77 61 62
-2.4119999 -3.138 -0.98500001 39 17 4
-2.4100001 -3.135 -0.995 67 27 2
-2.408 -3.1429999 -0.95899999 111 91 82
-2.408 -3.164 -0.98900002 139 121 121
-2.4100001 -3.1689999 -0.99800003 37 6 3
-2.4130001 -3.1789999 -0.99400002 88 34 6
-2.3610001 -3.0940001 -1.003 19 4 0
-2.3770001 -3.063 -0.93000001 142 107 79
-2.3729999 -3.0669999 -0.93699998 55 29 14
-2.4170001 -3.204 -0.90499997 139 95 56
-2.424 -3.075 -0.99199998 132 102 76
-2.4130001 -3.1010001 -0.97799999 35 16 12
-2.4260001 -3.0810001 -0.99299997 17 6 4
-2.4119999 -3.181 -1.002 27 12 5
-2.4089999 -3.1559999 -0.97899997 17 2 0
-2.369 -3.224 -0.963 57 34 18
-2.3710001 -3.223 -0.95599997 136 108 94
-2.4059999 -3.2060001 -0.903 205 158 102
-2.4100001 -3.145 -0.958 100 80 69
-2.414 -3.2060001 -0.90600002 181 128 74
-2.4130001 -3.0929999 -0.986 64 38 23
-2.4260001 -3.0810001 -1.002 51 25 12
-2.3800001 -3.0680001 -0.93300003 117 83 48
-2.421 -3.079 -0.98900002 14 0 0
0 0 0 1 0 0 0 1 0 0 0 1 0 0 0 0 0 1014 1 0 0
