ply
format ascii 1.0
comment PCL generated
element vertex 97
property float x
property float y
property float z
property uchar red
property uchar green
property uchar blue
element camera 1
property float view_px
property float view_py
property float view_pz
property float x_axisx
property float x_axisy
property float x_axisz
property float y_axisx
property float y_axisy
property float y_axisz
property float z_axisx
property float z_axisy
property float z_axisz
property float focal
property float scalex
property float scaley
property float centerx
property float centery
property int viewportx
property int viewporty
property float k1
property float k2
end_header
8.5620003 9.1560001 -0.39500001 134 75 31
8.5629997 9.1630001 -0.38800001 60 44 18
8.5550003 9.1499996 -0.38299999 156 104 57
8.5539999 9.1470003 -0.38499999 114 65 33
8.566 9.1680002 -0.39500001 69 52 42
8.559 9.158 -0.403 38 25 6
8.5550003 9.1680002 -0.39899999 86 50 14
8.5690002 9.1780005 -0.39300001 110 69 49
8.5690002 9.1780005 -0.373 73 37 15
8.5710001 9.1730003 -0.38 108 88 81
8.5679998 9.1759996 -0.38299999 102 61 39
8.5550003 9.1859999 -0.38100001 147 110 65
8.5649996 9.1789999 -0.39399999 168 130 94
8.533 9.1630001 -0.405 129 107 93
8.5319996 9.1719999 -0.405 134 109 89
8.5299997 9.1639996 -0.405 111 75 51
8.5690002 9.1780005 -0.39500001 166 131 99
8.5579996 9.1850004 -0.40700001 106 71 52
8.5699997 9.1709995 -0.391 130 107 99
8.5640001 9.1730003 -0.37900001 180 142 67
8.5620003 9.1859999 -0.373 76 44 33
8.5500002 9.1490002 -0.368 97 68 52
8.54 9.1409998 -0.377 84 56 42
8.5480003 9.1459999 -0.37599999 136 116 109
8.5469999 9.1490002 -0.40000001 149 102 58
8.5439997 9.1440001 -0.398 130 91 62
8.5559998 9.1520004 -0.40000001 159 112 68
8.5450001 9.1560001 -0.40200001 113 64 23
8.5430002 9.184 -0.40400001 43 25 13
8.5410004 9.1850004 -0.40400001 85 64 33
8.5349998 9.1929998 -0.391 174 140 68
8.5319996 9.1960001 -0.38 86 62 52
8.559 9.1800003 -0.39300001 185 139 113
8.5500002 9.1759996 -0.361 109 50 10
8.559 9.1780005 -0.373 100 58 33
8.5550003 9.1590004 -0.40200001 133 100 81
8.5410004 9.1590004 -0.40000001 148 97 52
8.5559998 9.1560001 -0.37099999 113 83 59
8.5410004 9.1420002 -0.38600001 130 111 107
8.5340004 9.1479998 -0.37799999 122 75 45
8.5229998 9.1879997 -0.38499999 84 47 29
8.5249996 9.191 -0.38499999 98 72 57
8.526 9.1809998 -0.37799999 89 65 55
8.5200005 9.1789999 -0.384 117 100 92
8.5290003 9.177 -0.37200001 107 83 73
8.5410004 9.1899996 -0.366 169 131 82
8.5559998 9.1859999 -0.373 150 96 49
8.559 9.177 -0.398 123 89 79
8.5559998 9.1599998 -0.38299999 158 88 36
8.5450001 9.1660004 -0.36700001 92 38 0
8.5419998 9.1639996 -0.368 176 136 111
8.5369997 9.1700001 -0.361 115 88 77
8.5509996 9.1450005 -0.39199999 157 89 42
8.5450001 9.1450005 -0.38800001 170 146 136
8.5299997 9.1929998 -0.389 153 128 98
8.5349998 9.1850004 -0.398 115 78 62
8.5290003 9.184 -0.389 132 110 99
8.526 9.1789999 -0.38800001 121 81 56
8.5369997 9.191 -0.37200001 83 46 27
8.5349998 9.1719999 -0.368 79 44 22
8.5299997 9.1630001 -0.37200001 66 42 30
8.533 9.1599998 -0.37799999 123 62 17
8.5279999 9.1619997 -0.38600001 76 53 39
8.5459995 9.1759996 -0.40099999 146 82 36
8.5500002 9.1820002 -0.40200001 54 27 16
8.5480003 9.1750002 -0.40000001 130 94 70
8.5430002 9.1689997 -0.40200001 102 44 6
8.5679998 9.1709995 -0.38499999 65 47 35
8.5559998 9.1700001 -0.375 150 127 113
8.552 9.1680002 -0.37200001 123 98 67
8.5480003 9.1610003 -0.36899999 136 107 89
8.5279999 9.1680002 -0.391 194 178 165
8.5349998 9.1800003 -0.39700001 148 116 77
8.5319996 9.1780005 -0.39199999 177 163 154
8.5380001 9.1809998 -0.368 157 137 130
8.5349998 9.1870003 -0.375 155 137 133
8.5290003 9.1800003 -0.37599999 162 122 97
8.5349998 9.1890001 -0.37599999 94 61 46
8.5299997 9.1709995 -0.37799999 62 34 20
8.5349998 9.1899996 -0.39500001 82 58 46
8.5410004 9.1870003 -0.38299999 123 78 49
8.5500002 9.1820002 -0.39399999 142 104 68
8.5489998 9.1809998 -0.36300001 76 40 16
8.5450001 9.1870003 -0.40200001 146 112 41
8.5340004 9.158 -0.36700001 102 46 13
8.5419998 9.1520004 -0.373 66 44 31
8.5539999 9.1590004 -0.36899999 216 148 101
8.5319996 9.1520004 -0.39399999 124 89 67
8.5500002 9.1450005 -0.39300001 137 85 45
8.5290003 9.1630001 -0.39500001 206 184 170
8.5279999 9.1689997 -0.38800001 65 42 28
8.5319996 9.1719999 -0.396 104 87 80
8.54 9.1820002 -0.368 144 113 93
8.5380001 9.1940002 -0.37400001 120 66 20
8.5570002 9.184 -0.40200001 176 140 64
8.5509996 9.1850004 -0.40000001 76 53 45
8.5410004 9.1890001 -0.38100001 157 119 70
0 0 0 1 0 0 0 1 0 0 0 1 0 0 0 0 0 97 1 0 0
