ply
format ascii 1.0
comment PCL generated
element vertex 813
property float x
property float y
property float z
property uchar red
property uchar green
property uchar blue
element camera 1
property float view_px
property float view_py
property float view_pz
property float x_axisx
property float x_axisy
property float x_axisz
property float y_axisx
property float y_axisy
property float y_axisz
property float z_axisx
property float z_axisy
property float z_axisz
property float focal
property float scalex
property float scaley
property float centerx
property float centery
property int viewportx
property int viewporty
property float k1
property float k2
end_header
-7.625 12.846 -0.79299998 138 78 44
-7.6360002 12.853 -0.79799998 164 102 63
-7.6269999 12.853 -0.79299998 121 76 53
-7.6230001 12.84 -0.79000002 126 81 58
-7.618 12.858 -0.79900002 150 80 31
-7.638 12.856 -0.80699998 144 77 34
-7.4829998 12.902 -0.92900002 147 101 67
-7.4829998 12.895 -0.93000001 143 88 49
-7.4840002 12.893 -0.92799997 156 112 83
-7.6030002 12.881 -0.94999999 120 52 15
-7.6009998 12.868 -0.95200002 87 28 0
-7.6079998 12.877 -0.93599999 149 79 28
-7.5100002 12.981 -1.151 234 185 145
-7.5120001 12.982 -1.146 146 88 50
-7.5079999 12.986 -1.146 112 64 26
-7.5300002 12.96 -1.118 123 81 56
-7.5289998 12.961 -1.122 146 80 32
-7.527 12.965 -1.117 159 91 44
-7.5190001 12.963 -1.122 152 88 42
-7.5110002 12.98 -1.135 165 103 62
-7.5009999 12.906 -1.054 136 86 59
-7.4920001 12.892 -1.069 95 49 25
-7.5009999 12.904 -1.05 137 100 71
-7.6129999 12.86 -1.021 138 73 19
-7.6090002 12.853 -1.018 173 127 94
-7.619 12.862 -1.025 139 59 6
-7.6170001 12.846 -1.0319999 126 53 8
-7.5450001 12.855 -1.058 109 67 29
-7.546 12.832 -1.063 152 92 55
-7.559 12.854 -1.063 100 50 17
-7.526 12.951 -1.1289999 160 79 23
-7.5300002 12.951 -1.123 214 144 75
-7.6170001 12.876 -1.045 161 125 101
-7.612 12.854 -1.04 172 119 87
-7.6240001 12.874 -1.045 157 94 27
-7.6170001 12.858 -1.038 79 23 0
-7.605 12.856 -1.039 118 55 14
-7.4840002 12.908 -0.89700001 149 99 64
-7.4959998 12.908 -0.898 180 122 82
-7.493 12.904 -0.90100002 139 120 103
-7.4840002 12.912 -0.89899999 120 57 22
-7.4840002 12.915 -0.89999998 126 80 56
-7.4770002 12.906 -0.90499997 97 50 24
-7.487 12.906 -0.90200001 183 127 80
-7.6020002 12.734 -1.039 175 142 109
-7.612 12.752 -1.045 183 121 84
-7.6069999 12.754 -1.04 146 97 65
-7.599 12.74 -1.044 127 64 29
-7.5970001 12.737 -1.046 111 94 84
-7.5939999 12.738 -1.04 237 156 75
-7.598 12.739 -1.0470001 123 78 47
-7.585 12.826 -0.83999997 165 117 79
-7.5879998 12.825 -0.85299999 110 70 44
-7.586 12.823 -0.838 108 63 34
-7.5560002 12.744 -1.086 160 110 103
-7.5539999 12.749 -1.085 158 127 99
-7.553 12.751 -1.091 135 103 92
-7.5999999 12.754 -1.036 169 128 98
-7.4850001 12.905 -0.91600001 173 100 47
-7.493 12.905 -0.91299999 135 114 97
-7.4959998 12.918 -0.98100001 121 93 79
-7.5050001 12.916 -0.98299998 115 66 33
-7.493 12.921 -0.98100001 90 46 21
-7.605 12.755 -1.045 133 59 10
-7.605 12.882 -0.94099998 180 131 90
-7.6079998 12.882 -0.93300003 50 21 13
-7.553 12.867 -0.949 120 64 27
-7.552 12.872 -0.94700003 78 34 9
-7.5630002 12.863 -0.94700003 169 124 95
-7.5570002 12.934 -1.023 86 31 10
-7.552 12.933 -1.028 89 42 12
-7.5609999 12.932 -1.024 114 50 12
-7.6090002 12.877 -1.152 183 118 62
-7.6009998 12.876 -1.151 225 160 104
-7.592 12.884 -1.153 225 164 107
-7.599 12.884 -1.15 221 182 141
-7.5089998 12.978 -1.133 126 65 21
-7.4980001 12.904 -1.0930001 213 162 131
-7.4920001 12.907 -1.096 184 137 109
-7.4920001 12.889 -1.08 142 87 46
-7.493 12.894 -1.069 190 140 103
-7.5040002 12.894 -0.972 94 85 76
-7.5009999 12.896 -0.96700001 83 47 31
-7.4920001 12.915 -0.97799999 69 41 27
-7.598 12.875 -1.151 184 161 169
-7.494 12.901 -1.096 209 147 98
-7.5009999 12.912 -1.1059999 177 127 94
-7.5760002 12.875 -0.98100001 100 48 27
-7.5780001 12.867 -0.97500002 117 64 24
-7.5770001 12.869 -0.98699999 135 81 35
-7.5830002 12.876 -0.98400003 96 31 1
-7.5830002 12.882 -0.99699998 121 48 0
-7.5770001 12.88 -1.0039999 149 101 89
-7.586 12.878 -1.01 76 33 0
-7.5760002 12.873 -1.0190001 82 35 15
-7.5910001 12.889 -0.98799998 66 44 30
-7.5910001 12.875 -0.97600001 163 87 29
-7.5669999 12.879 -1.024 132 85 55
-7.5549998 12.884 -1.041 102 97 104
-7.5510001 12.885 -1.038 124 88 64
-7.6160002 12.847 -0.79299998 143 86 56
-7.6110001 12.85 -0.79500002 175 131 96
-7.6020002 12.863 -1.033 121 54 0
-7.605 12.859 -1.036 158 98 61
-7.493 12.913 -0.91000003 118 78 53
-7.592 12.824 -0.85500002 124 81 49
-7.5910001 12.834 -0.833 107 72 53
-7.5929999 12.846 -0.84100002 66 35 15
-7.5830002 12.814 -0.79500002 160 89 43
-7.5939999 12.829 -0.79699999 131 68 27
-7.5910001 12.816 -0.79100001 143 102 70
-7.5890002 12.83 -0.80299997 123 68 48
-7.592 12.841 -0.80400002 75 41 31
-7.6199999 12.857 -0.80699998 132 69 26
-7.6259999 12.86 -0.82700002 104 40 4
-7.5159998 12.799 -1.08 226 158 111
-7.5100002 12.79 -1.091 86 49 40
-7.5170002 12.798 -1.08 123 61 22
-7.5159998 12.796 -1.091 223 155 108
-7.5170002 12.796 -1.0880001 187 125 84
-7.6110001 12.852 -1.036 85 40 1
-7.5939999 12.756 -1.0420001 143 98 65
-7.5780001 12.858 -0.963 190 146 109
-7.585 12.862 -0.95999998 125 66 32
-7.5869999 12.867 -0.97100002 152 102 69
-7.5380001 12.873 -0.98100001 149 99 66
-7.52 12.86 -0.986 121 78 43
-7.5219998 12.865 -0.99199998 125 84 54
-7.4850001 12.91 -0.91900003 128 80 44
-7.4889998 12.898 -0.926 147 118 102
-7.4910002 12.902 -0.92500001 133 110 92
-7.493 12.892 -0.93400002 110 70 44
-7.566 12.928 -0.94099998 141 110 90
-7.5549998 12.934 -0.94599998 117 86 66
-7.5570002 12.932 -0.95300001 90 27 0
-7.5630002 12.93 -0.93800002 149 123 110
-7.5570002 12.895 -0.88 109 63 30
-7.5570002 12.89 -0.88499999 177 142 120
-7.5510001 12.888 -0.88200003 114 77 58
-7.5539999 12.892 -0.88800001 106 54 32
-7.5549998 12.872 -0.95099998 157 113 84
-7.5040002 12.913 -0.94400001 146 79 34
-7.5079999 12.917 -0.94300002 106 70 44
-7.5019999 12.915 -0.95200002 101 39 0
-7.5100002 12.917 -0.94 137 101 77
-7.5560002 12.93 -0.94400001 129 77 40
-7.552 12.92 -0.94300002 136 90 54
-7.5560002 12.926 -0.93599999 136 76 42
-7.5320001 12.922 -0.94300002 134 81 49
-7.5929999 12.881 -1.147 171 115 64
-7.5100002 12.974 -1.141 225 174 131
-7.5419998 12.777 -1.127 114 69 36
-7.5440001 12.785 -1.135 100 52 12
-7.5440001 12.777 -1.135 61 48 40
-7.5419998 12.79 -1.137 116 71 40
-7.5450001 12.776 -1.124 205 163 123
-7.5419998 12.77 -1.112 147 120 99
-7.5450001 12.78 -1.122 116 66 29
-7.4959998 12.896 -1.063 150 107 72
-7.4990001 12.885 -1.068 149 117 96
-7.4970002 12.883 -1.084 42 38 29
-7.5009999 12.902 -1.0700001 137 86 57
-7.5289998 12.951 -1.122 116 87 69
-7.4990001 12.912 -0.97899997 106 75 55
-7.4949999 12.913 -0.97899997 108 64 39
-7.5040002 12.897 -1.056 75 33 9
-7.5180001 12.898 -1.053 131 80 35
-7.533 12.911 -1.003 111 81 73
-7.5359998 12.912 -1.006 157 122 100
-7.5409999 12.912 -0.99699998 170 124 98
-7.5349998 12.901 -0.98799998 91 34 14
-7.6170001 12.875 -1.151 195 132 79
-7.6220002 12.881 -1.147 129 72 19
-7.5180001 12.804 -1.1 230 141 75
-7.52 12.803 -1.1 146 104 66
-7.5170002 12.794 -1.096 239 177 130
-7.5170002 12.809 -1.107 222 161 114
-7.5469999 12.779 -1.135 138 111 94
-7.5650001 12.783 -1.1339999 139 87 47
-7.5669999 12.774 -1.132 115 45 0
-7.5580001 12.777 -1.127 89 34 4
-7.573 12.785 -1.137 158 136 125
-7.5500002 12.787 -1.137 123 72 41
-7.5419998 12.788 -1.12 108 60 24
-7.586 12.868 -0.977 175 131 94
-7.6139998 12.898 -1.0190001 116 66 31
-7.612 12.893 -1.0089999 176 127 86
-7.6100001 12.912 -1.012 131 82 41
-7.6139998 12.868 -1.0319999 163 121 96
-7.5840001 12.873 -1.0319999 177 119 79
-7.5510001 12.792 -1.135 98 45 5
-7.5619998 12.878 -1.122 138 63 8
-7.5679998 12.884 -1.123 107 67 32
-7.5609999 12.879 -1.126 141 83 43
-7.6170001 12.875 -1.143 178 117 70
-7.6259999 12.879 -1.143 211 153 107
-7.4920001 12.911 -0.90100002 169 132 114
-7.5910001 12.831 -0.83200002 146 103 71
-7.6209998 12.852 -0.85900003 149 122 101
-7.6139998 12.845 -0.86799997 147 93 57
-7.6139998 12.844 -0.85799998 176 109 64
-7.618 12.844 -0.85100001 176 105 59
-7.625 12.852 -0.80299997 171 125 92
-7.5359998 12.792 -1.072 207 136 82
-7.5339999 12.795 -1.071 203 136 91
-7.5370002 12.794 -1.0700001 166 102 58
-7.5279999 12.802 -1.0700001 209 145 101
-7.579 12.754 -1.072 59 19 0
-7.5739999 12.757 -1.082 74 26 3
-7.5809999 12.754 -1.077 99 49 22
-7.5739999 12.757 -1.073 68 20 0
-7.6040001 12.852 -1.024 143 89 51
-7.5900002 12.745 -1.0470001 123 76 50
-7.5869999 12.765 -1.0599999 215 133 77
-7.5939999 12.762 -1.046 155 95 59
-7.598 12.755 -1.04 100 49 18
-7.5749998 12.862 -0.97100002 167 117 90
-7.5619998 12.861 -0.95899999 174 118 83
-7.5840001 12.867 -0.972 108 62 36
-7.5840001 12.865 -0.96700001 167 85 45
-7.5999999 12.868 -1.023 148 93 52
-7.4899998 12.904 -0.92400002 142 92 55
-7.5479999 12.854 -1.062 161 114 88
-7.5549998 12.849 -1.068 122 45 1
-7.5359998 12.833 -1.063 153 128 108
-7.5370002 12.835 -1.064 110 68 30
-7.533 12.827 -1.063 191 133 95
-7.5229998 12.83 -1.052 148 99 67
-7.5799999 12.755 -1.087 78 38 12
-7.5879998 12.757 -1.075 103 90 84
-7.5799999 12.762 -1.0880001 165 135 109
-7.5339999 12.896 -0.98500001 181 116 76
-7.552 12.904 -0.97899997 149 100 60
-7.552 12.91 -0.986 145 96 66
-7.5489998 12.91 -0.96799999 135 88 60
-7.5900002 12.869 -0.96499997 97 31 0
-7.5869999 12.878 -0.96899998 88 60 49
-7.5830002 12.874 -0.95499998 80 25 0
-7.5739999 12.889 -0.96899998 145 107 86
-7.6009998 12.854 -0.917 87 44 12
-7.6030002 12.85 -0.92000002 173 125 87
-7.598 12.855 -0.93099999 131 67 31
-7.5900002 12.858 -0.92500001 55 20 0
-7.5879998 12.851 -0.92699999 180 146 111
-7.585 12.852 -0.91900003 110 61 21
-7.5890002 12.832 -0.85500002 139 63 5
-7.5510001 12.887 -0.88999999 139 101 78
-7.5510001 12.888 -0.89600003 48 27 24
-7.5910001 12.859 -0.89099997 125 102 86
-7.5840001 12.851 -0.88599998 96 58 37
-7.6009998 12.855 -0.87800002 138 76 29
-7.5939999 12.845 -0.86900002 80 49 28
-7.494 12.899 -0.93199998 91 47 20
-7.5019999 12.911 -0.95200002 105 57 21
-7.513 12.917 -0.958 117 63 39
-7.5159998 12.964 -1.13 177 95 37
-7.5159998 12.961 -1.122 141 114 97
-7.5539999 12.767 -1.109 125 77 39
-7.5560002 12.766 -1.119 130 111 104
-7.5500002 12.772 -1.118 131 78 38
-7.5570002 12.766 -1.125 125 98 81
-7.5180001 12.891 -1.048 106 54 17
-7.526 12.901 -1.044 194 155 124
-7.5339999 12.91 -1.04 96 47 15
-7.527 12.897 -1.038 169 127 102
-7.5050001 12.903 -0.97299999 123 84 55
-7.4970002 12.895 -0.95300001 136 101 79
-7.5050001 12.883 -0.96799999 108 59 27
-7.5009999 12.896 -0.95899999 113 77 61
-7.5089998 12.872 -0.98100001 96 59 41
-7.5040002 12.877 -0.97799999 97 52 33
-7.5079999 12.869 -0.97500002 89 44 11
-7.5209999 12.87 -0.99199998 151 114 88
-7.5289998 12.898 -0.99000001 112 67 28
-7.5359998 12.898 -1.015 172 131 111
-7.54 12.884 -1.026 44 22 8
-7.526 12.895 -1.005 137 101 77
-7.5339999 12.899 -1.01 109 74 54
-7.5599999 12.781 -1.117 149 85 41
-7.553 12.785 -1.125 134 61 8
-7.5190001 12.8 -1.087 197 129 82
-7.5240002 12.794 -1.092 201 132 77
-7.52 12.807 -1.102 220 149 103
-7.5500002 12.757 -1.087 151 89 50
-7.5799999 12.883 -0.977 139 99 64
-7.5900002 12.889 -0.98199999 141 64 22
-7.5760002 12.901 -0.97799999 176 141 111
-7.5669999 12.896 -0.95899999 102 54 31
-7.5939999 12.885 -1.011 104 38 4
-7.5960002 12.88 -1.015 117 73 36
-7.6009998 12.894 -0.99299997 95 46 16
-7.605 12.918 -0.99900001 69 36 17
-7.599 12.912 -1.001 92 25 0
-7.5760002 12.876 -0.98400003 80 33 7
-7.6220002 12.872 -1.041 159 82 30
-7.5089998 12.91 -1.105 111 90 73
-7.5869999 12.873 -1.026 169 117 78
-7.5879998 12.902 -1.0470001 98 64 39
-7.5949998 12.899 -1.053 143 98 67
-7.5929999 12.9 -1.062 140 81 47
-7.5749998 12.9 -1.061 146 95 64
-7.5770001 12.901 -1.054 113 73 47
-7.5840001 12.903 -1.062 94 41 9
-7.5689998 12.884 -1.118 189 153 129
-7.5500002 12.784 -1.119 86 31 1
-7.5469999 12.801 -1.119 140 76 28
-7.5609999 12.75 -1.0880001 124 111 103
-7.5619998 12.765 -1.09 151 80 34
-7.6100001 12.879 -1.147 192 132 80
-7.4850001 12.907 -0.90700001 63 36 9
-7.5910001 12.833 -0.84100002 151 116 97
-7.5910001 12.831 -0.85000002 116 79 61
-7.5960002 12.848 -0.93000001 79 30 0
-7.5999999 12.844 -0.91799998 93 48 19
-7.5910001 12.834 -0.917 91 54 28
-7.6129999 12.847 -0.79699999 179 126 94
-7.6110001 12.844 -0.80500001 159 109 72
-7.598 12.824 -0.80400002 133 90 56
-7.5879998 12.812 -0.792 207 152 87
-7.6269999 12.84 -0.80500001 111 49 10
-7.625 12.839 -0.80599999 175 129 93
-7.6259999 12.84 -0.796 104 56 18
-7.6230001 12.84 -0.80400002 139 93 57
-7.6110001 12.841 -0.86500001 152 91 46
-7.6110001 12.832 -0.84500003 132 74 24
-7.598 12.826 -0.85500002 179 103 43
-7.6040001 12.826 -0.83200002 108 59 26
-7.6139998 12.835 -0.83899999 124 82 57
-7.619 12.847 -0.83899999 85 40 7
-7.6170001 12.84 -0.82499999 144 76 27
-7.6009998 12.839 -0.83899999 126 81 50
-7.6129999 12.845 -0.83999997 123 76 46
-7.6149998 12.843 -0.82599998 158 101 48
-7.6030002 12.837 -0.83700001 138 75 32
-7.612 12.839 -0.82099998 115 87 83
-7.5229998 12.832 -1.061 136 81 42
-7.5250001 12.825 -1.067 197 135 96
-7.5190001 12.812 -1.071 181 118 77
-7.5219998 12.818 -1.074 169 110 70
-7.5190001 12.809 -1.0880001 245 152 82
-7.5359998 12.806 -1.091 151 96 55
-7.5219998 12.82 -1.0829999 123 61 24
-7.5209999 12.799 -1.076 167 114 72
-7.5339999 12.817 -1.066 235 172 131
-7.552 12.806 -1.073 147 120 101
-7.5580001 12.813 -1.0650001 155 101 67
-7.5819998 12.734 -1.0700001 95 50 29
-7.5819998 12.729 -1.077 118 73 50
-7.5809999 12.725 -1.073 124 95 65
-7.5949998 12.747 -1.045 143 54 0
-7.5580001 12.86 -0.94999999 178 98 45
-7.559 12.865 -0.95499998 70 26 1
-7.559 12.867 -0.963 116 69 39
-7.566 12.863 -0.95999998 135 79 56
-7.5640001 12.864 -0.96600002 158 112 88
-7.5380001 12.872 -0.97299999 128 99 81
-7.5580001 12.878 -0.96700001 77 30 4
-7.5609999 12.878 -0.96799999 163 87 38
-7.5489998 12.913 -0.99699998 129 76 45
-7.5560002 12.916 -0.99800003 167 114 80
-7.5560002 12.929 -1.021 100 53 25
-7.5640001 12.884 -1.026 140 121 107
-7.5599999 12.888 -1.02 97 55 39
-7.5549998 12.873 -0.963 166 125 93
-7.5539999 12.878 -0.96399999 105 55 18
-7.5339999 12.89 -0.972 94 42 3
-7.5289998 12.891 -0.97799999 98 50 12
-7.526 12.869 -0.98100001 111 69 44
-7.5650001 12.81 -1.067 118 74 37
-7.566 12.81 -1.062 79 42 13
-7.5409999 12.853 -1.064 147 98 58
-7.526 12.831 -1.059 224 169 130
-7.5450001 12.836 -1.069 102 56 20
-7.5440001 12.841 -1.077 160 94 46
-7.5500002 12.851 -1.071 181 125 88
-7.6009998 12.89 -0.94999999 71 25 1
-7.5910001 12.873 -0.94700003 142 107 79
-7.5900002 12.897 -0.98199999 59 23 0
-7.585 12.866 -0.96799999 130 94 72
-7.5900002 12.86 -0.95099998 152 107 74
-7.5819998 12.863 -0.95200002 179 137 99
-7.592 12.876 -0.94099998 161 123 86
-7.6009998 12.867 -0.94 130 72 35
-7.5599999 12.873 -0.954 137 60 14
-7.572 12.868 -0.95700002 155 104 73
-7.5929999 12.863 -0.93199998 172 98 37
-7.5910001 12.873 -0.935 139 68 22
-7.6209998 12.858 -0.86500001 164 95 53
-7.605 12.854 -0.86900002 93 29 0
-7.6110001 12.856 -0.85699999 130 80 43
-7.5890002 12.83 -0.85799998 137 89 49
-7.5939999 12.842 -0.85500002 96 65 45
-7.5970001 12.857 -0.88599998 130 99 79
-7.5999999 12.847 -0.89300001 95 36 4
-7.592 12.851 -0.88300002 80 47 28
-7.5029998 12.911 -0.95700002 147 86 42
-7.5110002 12.918 -0.96700001 127 95 72
-7.5089998 12.905 -0.97899997 105 51 27
-7.513 12.912 -0.96600002 118 73 34
-7.5479999 12.923 -0.96100003 105 48 29
-7.559 12.767 -1.1160001 82 74 53
-7.4959998 12.889 -1.074 153 112 82
-7.4970002 12.89 -1.084 98 78 67
-7.5209999 12.891 -1.052 108 59 29
-7.5409999 12.886 -1.035 109 66 31
-7.5229998 12.933 -1.107 192 124 75
-7.52 12.934 -1.107 174 108 48
-7.527 12.902 -1.0470001 137 76 29
-7.507 12.89 -0.96399999 121 80 50
-7.5089998 12.893 -0.94999999 156 119 101
-7.487 12.898 -0.93000001 150 87 44
-7.5050001 12.881 -0.97000003 132 83 43
-7.507 12.88 -0.97799999 86 45 17
-7.527 12.918 -0.95200002 145 103 78
-7.5279999 12.916 -0.94599998 111 84 63
-7.5089998 12.881 -0.98000002 133 70 26
-7.5089998 12.893 -0.98900002 142 111 90
-7.5139999 12.893 -0.98900002 176 127 87
-7.5279999 12.892 -1.001 109 57 35
-7.533 12.895 -1.0039999 180 136 111
-7.533 12.901 -0.99599999 188 135 101
-7.5279999 12.902 -1.002 150 105 72
-7.5289998 12.899 -0.99800003 145 119 104
-7.5339999 12.906 -1.011 153 103 70
-7.5669999 12.782 -1.133 175 116 74
-7.585 12.774 -1.08 133 71 32
-7.5310001 12.795 -1.084 139 91 55
-7.5339999 12.796 -1.0880001 178 107 61
-7.5250001 12.796 -1.094 150 124 109
-7.5469999 12.776 -1.098 120 66 30
-7.5510001 12.781 -1.098 123 59 23
-7.5500002 12.769 -1.109 105 49 14
-7.5549998 12.887 -0.98799998 111 65 31
-7.5549998 12.884 -0.97000003 111 58 26
-7.592 12.878 -1.016 95 39 2
-7.6009998 12.883 -1.016 97 43 5
-7.586 12.889 -1 150 109 81
-7.6079998 12.905 -1.012 59 24 2
-7.6110001 12.894 -1.024 65 31 4
-7.6170001 12.866 -1.031 114 58 21
-7.507 12.913 -1.102 126 99 80
-7.5120001 12.931 -1.107 149 87 40
-7.5780001 12.867 -1.0599999 121 87 62
-7.573 12.861 -1.069 125 56 14
-7.5770001 12.875 -1.069 119 60 26
-7.5910001 12.873 -1.025 138 89 56
-7.5840001 12.903 -1.053 123 67 32
-7.579 12.897 -1.0470001 171 101 52
-7.5830002 12.898 -1.0420001 170 107 66
-7.5700002 12.791 -1.095 167 109 63
-7.5689998 12.812 -1.085 162 105 62
-7.559 12.795 -1.095 148 87 43
-7.5450001 12.788 -1.132 135 98 71
-7.5910001 12.826 -0.85699999 85 50 31
-7.5669999 12.789 -1.074 132 55 1
-7.566 12.801 -1.076 86 47 18
-7.566 12.793 -1.079 80 29 0
-7.5560002 12.784 -1.08 165 105 68
-7.5669999 12.784 -1.077 125 55 6
-7.5580001 12.803 -1.077 162 125 99
-7.4840002 12.908 -0.90799999 147 97 62
-7.5970001 12.825 -0.84600002 157 99 36
-7.592 12.827 -0.83600003 148 84 36
-7.6009998 12.828 -0.85299999 161 131 107
-7.5910001 12.847 -0.90200001 85 52 33
-7.592 12.853 -0.89700001 76 44 23
-7.5939999 12.856 -0.92699999 139 79 42
-7.6160002 12.843 -0.801 143 92 61
-7.6129999 12.857 -0.80599999 77 72 79
-7.592 12.837 -0.80500001 105 68 39
-7.5949998 12.823 -0.801 180 82 17
-7.625 12.851 -0.81800002 133 68 30
-7.6329999 12.843 -0.801 165 108 78
-7.6129999 12.844 -0.86699998 126 94 69
-7.6009998 12.831 -0.86400002 169 111 48
-7.6139998 12.834 -0.84399998 125 71 33
-7.619 12.847 -0.81300002 187 117 65
-7.6259999 12.841 -0.81 197 134 90
-7.6230001 12.839 -0.81599998 165 117 81
-7.5190001 12.813 -1.081 126 63 22
-7.5279999 12.826 -1.069 89 43 9
-7.5359998 12.827 -1.074 159 87 39
-7.5339999 12.79 -1.0779999 164 96 49
-7.5489998 12.767 -1.092 158 88 39
-7.5500002 12.77 -1.092 209 150 110
-7.5310001 12.82 -1.064 142 78 40
-7.5900002 12.742 -1.054 95 53 29
-7.598 12.755 -1.045 114 52 15
-7.6009998 12.744 -1.052 159 85 14
-7.5409999 12.893 -1.011 108 81 62
-7.5599999 12.902 -1.017 76 17 0
-7.5630002 12.905 -1.0089999 171 134 107
-7.552 12.903 -1.008 68 45 29
-7.5440001 12.909 -1 86 32 8
-7.5669999 12.884 -1.0420001 174 123 92
-7.559 12.89 -1.017 68 30 9
-7.5539999 12.869 -0.95200002 106 53 22
-7.5669999 12.88 -1.016 66 21 0
-7.5650001 12.886 -1.012 88 35 4
-7.5310001 12.877 -0.98500001 121 90 62
-7.5180001 12.891 -0.995 120 87 70
-7.54 12.842 -1.067 204 128 76
-7.5570002 12.82 -1.084 84 25 0
-7.5739999 12.816 -1.0829999 110 51 17
-7.5339999 12.823 -1.064 145 83 34
-7.5549998 12.917 -0.97299999 90 31 0
-7.5960002 12.914 -0.99800003 85 38 10
-7.5900002 12.899 -1.011 142 104 81
-7.6040001 12.917 -0.97600001 70 60 50
-7.6090002 12.92 -0.977 94 38 11
-7.6100001 12.92 -0.97899997 104 58 32
-7.5799999 12.86 -0.96100003 140 100 65
-7.6009998 12.884 -0.94499999 177 99 37
-7.5960002 12.862 -0.94700003 96 55 25
-7.5869999 12.878 -0.93699998 112 81 61
-7.5890002 12.854 -0.93800002 133 87 54
-7.6020002 12.847 -0.91500002 180 123 80
-7.6139998 12.847 -0.87699997 97 51 18
-7.599 12.846 -0.89700001 91 48 16
-7.5960002 12.837 -0.88499999 111 65 31
-7.6030002 12.842 -0.87900001 128 79 46
-7.598 12.843 -0.88800001 153 75 26
-7.6009998 12.835 -0.86900002 148 127 110
-7.6209998 12.853 -0.83499998 129 103 86
-7.6139998 12.853 -0.84500003 116 58 21
-7.619 12.848 -0.84600002 148 123 101
-7.6269999 12.853 -0.82700002 114 74 48
-7.5890002 12.827 -0.85600001 93 68 63
-7.5929999 12.835 -0.866 130 55 0
-7.592 12.839 -0.84399998 85 80 87
-7.6040001 12.85 -0.86699998 157 116 88
-7.546 12.907 -0.93099999 201 154 126
-7.559 12.92 -0.92799997 92 53 36
-7.5560002 12.912 -0.93199998 108 45 2
-7.5500002 12.9 -0.92799997 186 146 110
-7.553 12.891 -0.89600003 145 98 70
-7.5619998 12.928 -0.93400002 130 80 45
-7.5050001 12.906 -0.95099998 129 95 68
-7.5019999 12.908 -0.96899998 128 70 30
-7.5539999 12.78 -1.112 128 102 85
-7.546 12.855 -1.0700001 129 90 47
-7.5510001 12.86 -1.089 103 41 4
-7.5630002 12.881 -1.115 148 77 31
-7.5689998 12.885 -1.1109999 134 92 54
-7.5510001 12.86 -1.081 165 105 68
-7.5209999 12.931 -1.109 175 121 85
-7.5799999 12.901 -1.067 82 41 13
-7.5679998 12.892 -1.0549999 69 17 3
-7.5479999 12.899 -1.045 115 92 76
-7.553 12.883 -1.0599999 104 101 110
-7.5380001 12.909 -1.04 119 79 53
-7.5159998 12.903 -0.94099998 163 110 76
-7.5219998 12.903 -0.94199997 96 49 19
-7.5170002 12.898 -0.94300002 91 46 17
-7.5320001 12.904 -0.93199998 134 75 35
-7.54 12.912 -0.93400002 59 34 29
-7.5300002 12.915 -0.94199997 91 90 98
-7.552 12.909 -0.94400001 85 34 5
-7.5159998 12.875 -0.98500001 150 104 68
-7.5650001 12.773 -1.1210001 143 88 49
-7.5689998 12.788 -1.0880001 172 128 99
-7.579 12.771 -1.076 136 65 19
-7.5830002 12.76 -1.067 116 65 36
-7.5650001 12.779 -1.104 85 40 7
-7.5679998 12.782 -1.098 101 37 1
-7.573 12.764 -1.0880001 117 64 33
-7.572 12.77 -1.085 135 99 67
-7.5510001 12.818 -1.0829999 99 51 29
-7.5539999 12.854 -1.095 164 134 108
-7.552 12.86 -1.099 149 82 39
-7.559 12.868 -1.099 143 73 22
-7.5749998 12.878 -1.067 85 36 6
-7.559 12.876 -1.066 67 23 0
-7.5219998 12.794 -1.095 189 148 118
-7.5749998 12.881 -0.991 83 36 10
-7.6020002 12.878 -1.0190001 85 25 0
-7.6090002 12.893 -1.018 108 56 16
-7.6009998 12.892 -0.98400003 214 167 139
-7.6059999 12.909 -1.0089999 85 38 8
-7.612 12.893 -1.012 158 86 38
-7.6069999 12.895 -1.0039999 96 52 15
-7.6149998 12.853 -1.035 208 150 113
-7.5619998 12.856 -1.067 107 49 11
-7.5040002 12.896 -1.074 76 32 5
-7.5819998 12.883 -1.0599999 68 30 19
-7.585 12.885 -1.054 91 37 13
-7.586 12.895 -1.059 99 68 47
-7.5739999 12.814 -1.084 195 139 104
-7.5469999 12.804 -1.113 101 51 14
-7.5489998 12.806 -1.117 103 45 8
-7.5510001 12.804 -1.091 93 43 8
-7.5500002 12.794 -1.1289999 76 22 0
-7.539 12.792 -1.075 197 167 141
-7.5630002 12.775 -1.086 156 79 25
-7.5580001 12.799 -1.0880001 121 65 30
-7.5580001 12.806 -1.072 118 62 27
-7.5900002 12.84 -0.91500002 98 44 6
-7.5900002 12.843 -0.90799999 172 128 99
-7.5910001 12.839 -0.91399997 74 23 0
-7.6009998 12.852 -0.91900003 175 111 65
-7.598 12.836 -0.80900002 129 84 51
-7.6329999 12.853 -0.81300002 195 119 59
-7.6300001 12.846 -0.79900002 163 89 40
-7.605 12.843 -0.87599999 146 88 50
-7.6110001 12.837 -0.852 173 114 72
-7.5960002 12.842 -0.84100002 143 112 91
-7.618 12.838 -0.80599999 124 83 61
-7.6209998 12.849 -0.82499999 216 149 97
-7.5419998 12.797 -1.08 124 106 94
-7.5430002 12.799 -1.075 156 74 18
-7.5539999 12.78 -1.09 93 74 67
-7.5910001 12.741 -1.058 115 38 0
-7.5970001 12.745 -1.052 208 179 149
-7.559 12.89 -1.0089999 70 32 13
-7.5560002 12.905 -1.0039999 64 19 0
-7.5619998 12.902 -1.021 136 104 81
-7.5539999 12.904 -1.034 106 44 3
-7.5599999 12.902 -1.035 71 9 0
-7.5760002 12.899 -1.025 149 104 81
-7.5640001 12.898 -1.026 185 140 107
-7.5669999 12.885 -1.034 135 85 52
-7.5669999 12.882 -1.006 177 106 62
-7.5359998 12.878 -0.97500002 89 45 10
-7.5370002 12.882 -0.97500002 179 130 97
-7.5219998 12.875 -0.97799999 139 98 66
-7.5469999 12.816 -1.09 144 56 0
-7.5489998 12.823 -1.091 113 69 40
-7.5580001 12.855 -1.103 163 131 110
-7.5339999 12.821 -1.074 91 53 44
-7.5549998 12.909 -0.98699999 88 42 18
-7.5700002 12.903 -0.986 101 38 5
-7.5549998 12.926 -0.95499998 105 56 23
-7.5609999 12.914 -0.96700001 114 66 30
-7.572 12.903 -0.98500001 120 70 37
-7.5599999 12.924 -0.96100003 70 33 7
-7.599 12.904 -0.98299998 110 46 8
-7.5999999 12.875 -0.93900001 108 58 31
-7.5669999 12.89 -0.94999999 82 35 15
-7.592 12.859 -0.93400002 111 80 62
-7.6209998 12.857 -0.85900003 109 64 31
-7.619 12.853 -0.84200001 109 47 8
-7.5910001 12.844 -0.88300002 109 64 35
-7.598 12.833 -0.86400002 147 86 41
-7.605 12.853 -0.85500002 63 32 12
-7.598 12.861 -0.89600003 154 116 93
-7.5939999 12.85 -0.90700001 119 73 47
-7.5580001 12.78 -1.11 133 77 42
-7.5500002 12.874 -1.058 62 24 13
-7.5240002 12.891 -1.05 109 78 57
-7.5380001 12.89 -1.046 156 95 48
-7.5339999 12.894 -1.043 232 197 167
-7.5349998 12.9 -1.045 131 104 83
-7.5749998 12.888 -1.067 138 99 68
-7.5560002 12.902 -1.039 58 16 0
-7.546 12.901 -1.026 152 124 103
-7.5289998 12.915 -0.95499998 138 89 49
-7.5170002 12.909 -0.96100003 131 87 60
-7.5500002 12.906 -0.96200001 120 89 71
-7.5209999 12.897 -0.97799999 142 106 80
-7.5110002 12.885 -0.96399999 73 42 22
-7.5089998 12.895 -0.95899999 147 121 104
-7.5089998 12.899 -0.95300001 152 116 90
-7.5619998 12.918 -0.93000001 121 84 57
-7.5739999 12.917 -0.94499999 143 93 60
-7.572 12.92 -0.95200002 145 99 66
-7.5539999 12.894 -0.93300003 111 62 32
-7.5580001 12.904 -0.93599999 125 102 88
-7.5580001 12.888 -0.949 103 74 58
-7.5359998 12.901 -0.92699999 79 48 28
-7.5440001 12.905 -0.93699998 137 85 37
-7.5380001 12.904 -0.92799997 91 72 58
-7.5310001 12.907 -0.92299998 89 40 7
-7.5180001 12.869 -0.98699999 159 122 96
-7.572 12.771 -1.125 93 57 23
-7.5630002 12.773 -1.1109999 136 60 10
-7.5770001 12.77 -1.082 154 120 95
-7.566 12.766 -1.1 80 26 0
-7.5370002 12.824 -1.067 119 77 37
-7.5580001 12.815 -1.086 183 122 78
-7.5570002 12.863 -1.079 95 43 6
-7.5630002 12.863 -1.1 128 65 22
-7.559 12.866 -1.108 157 73 11
-7.5349998 12.802 -1.089 184 140 101
-7.5770001 12.881 -1 98 41 0
-7.5669999 12.886 -0.97899997 75 33 9
-7.553 12.9 -0.97000003 99 32 0
-7.5510001 12.886 -0.96600002 116 75 47
-7.5939999 12.875 -1.027 91 78 69
-7.5999999 12.877 -1.023 73 34 5
-7.5939999 12.878 -1.027 181 135 101
-7.6040001 12.869 -1.0190001 137 73 35
-7.6069999 12.905 -0.99699998 129 52 8
-7.592 12.888 -1.0089999 111 57 23
-7.5879998 12.879 -1.033 172 100 52
-7.579 12.899 -1.034 137 69 24
-7.5840001 12.903 -1.028 89 26 0
-7.572 12.903 -1.002 94 47 29
-7.5869999 12.897 -1.021 81 25 2
-7.5939999 12.893 -1.017 95 30 0
-7.5879998 12.893 -1.024 130 64 12
-7.5770001 12.876 -1.062 139 95 60
-7.592 12.899 -1.061 183 106 54
-7.5879998 12.888 -1.05 75 64 60
-7.5669999 12.784 -1.091 141 85 48
-7.5549998 12.777 -1.086 104 63 35
-7.5479999 12.803 -1.0880001 107 52 13
-7.5630002 12.805 -1.074 147 106 74
-7.5879998 12.851 -0.91900003 108 81 64
-7.5960002 12.844 -0.912 87 38 6
-7.5960002 12.85 -0.90100002 92 46 12
-7.5970001 12.843 -0.88999999 99 69 41
-7.6329999 12.856 -0.815 168 94 47
-7.6259999 12.844 -0.81099999 135 90 51
-7.6259999 12.848 -0.82599998 117 65 26
-7.5219998 12.818 -1.076 144 114 90
-7.5219998 12.813 -1.0700001 152 103 73
-7.5339999 12.804 -1.073 156 96 59
-7.5840001 12.757 -1.064 113 59 23
-7.5650001 12.886 -1.035 137 85 46
-7.5689998 12.885 -1.038 108 63 30
-7.5749998 12.886 -1.0420001 127 71 36
-7.5240002 12.886 -0.972 161 114 86
-7.5170002 12.888 -0.96799999 122 91 63
-7.546 12.813 -1.086 146 76 27
-7.572 12.915 -0.95599997 159 115 88
-7.5669999 12.911 -0.95099998 116 72 47
-7.5619998 12.928 -0.95200002 71 45 32
-7.5679998 12.884 -0.96499997 138 93 60
-7.5830002 12.866 -0.94599998 189 143 119
-7.5910001 12.855 -0.93900001 178 143 105
-7.592 12.85 -0.89399999 123 77 44
-7.599 12.837 -0.87 123 85 62
-7.5450001 12.856 -1.064 59 28 7
-7.5510001 12.885 -1.0470001 86 58 37
-7.559 12.882 -1.059 99 53 20
-7.54 12.908 -1.018 112 68 43
-7.5510001 12.908 -0.96200001 112 61 40
-7.5170002 12.905 -0.963 134 85 55
-7.5110002 12.876 -0.97000003 136 89 61
-7.5120001 12.887 -0.963 86 38 0
-7.5689998 12.897 -0.95099998 140 77 42
-7.559 12.883 -0.95200002 124 84 59
-7.5669999 12.918 -0.93599999 132 86 60
-7.5539999 12.888 -0.95499998 116 63 19
-7.5560002 12.9 -0.95099998 82 32 5
-7.5510001 12.907 -0.94199997 105 53 31
-7.5560002 12.902 -0.93300003 109 63 29
-7.52 12.868 -0.98100001 165 124 96
-7.5640001 12.771 -1.12 123 57 9
-7.5640001 12.771 -1.1 121 65 30
-7.5640001 12.771 -1.1109999 142 88 52
-7.5539999 12.862 -1.0829999 133 96 69
-7.566 12.861 -1.071 167 132 110
-7.526 12.811 -1.082 197 133 89
-7.5440001 12.765 -1.098 132 107 87
-7.5479999 12.765 -1.097 166 87 28
-7.5630002 12.76 -1.099 146 112 84
-7.5500002 12.768 -1.103 139 85 47
-7.573 12.901 -0.986 158 115 98
-7.6040001 12.896 -1.013 104 87 77
-7.6079998 12.912 -1.005 142 81 52
-7.586 12.895 -1.028 123 107 94
-7.5819998 12.885 -1.053 102 61 29
-7.5549998 12.794 -1.087 173 93 32
-7.5949998 12.84 -0.91399997 152 122 88
-7.592 12.848 -0.90499997 108 60 24
-7.598 12.854 -0.89700001 113 55 18
-7.5910001 12.831 -0.82300001 136 79 59
-7.5949998 12.828 -0.82499999 138 77 22
-7.5999999 12.827 -0.82800001 100 63 34
-7.5970001 12.825 -0.82800001 133 76 7
-7.6290002 12.857 -0.81900001 70 32 9
-7.631 12.85 -0.80699998 122 69 35
-7.5640001 12.89 -1.0470001 134 82 43
-7.5339999 12.907 -1.039 146 121 99
-7.54 12.9 -1.034 110 51 9
-7.5430002 12.886 -0.995 124 79 48
-7.5549998 12.917 -0.97000003 92 28 0
-7.5869999 12.874 -0.94 79 44 22
-7.5869999 12.873 -0.93900001 164 108 73
-7.5819998 12.866 -0.949 149 83 49
-7.5900002 12.855 -0.93900001 105 51 17
-7.5900002 12.853 -0.89200002 68 21 0
-7.5960002 12.846 -0.898 158 112 89
-7.5949998 12.843 -0.875 74 46 42
-7.5250001 12.881 -0.97299999 116 89 70
-7.5609999 12.904 -0.94199997 172 114 77
-7.5510001 12.901 -0.94300002 98 61 42
-7.5619998 12.765 -1.105 118 50 5
-7.5640001 12.866 -1.0700001 67 15 0
-7.5500002 12.767 -1.1 159 101 61
-7.5770001 12.9 -1 146 111 83
-7.5650001 12.909 -0.95999998 157 97 60
-7.5840001 12.902 -1.002 100 49 22
-7.585 12.899 -0.99900001 128 55 10
-7.5939999 12.905 -0.99699998 110 36 0
-7.5840001 12.886 -1.041 79 37 25
-7.5910001 12.881 -1.034 87 26 0
-7.5869999 12.889 -1.039 138 91 61
-7.586 12.892 -1.038 73 18 0
-7.5700002 12.896 -1.05 130 74 41
-7.5370002 12.889 -1 81 38 21
-7.5939999 12.843 -0.91000003 53 21 0
-7.5669999 12.88 -1.053 91 56 26
-7.566 12.765 -1.097 75 29 0
-7.572 12.865 -1.0700001 101 23 0
-7.5970001 12.899 -1.01 106 62 25
-7.5890002 12.885 -1.028 59 31 10
-7.5799999 12.899 -1.026 70 26 0
-7.5689998 12.889 -1.062 150 118 97
-7.6009998 12.899 -1.01 92 38 2
-7.5869999 12.887 -1.031 109 98 92
-7.5700002 12.896 -1.008 60 37 23
0 0 0 1 0 0 0 1 0 0 0 1 0 0 0 0 0 813 1 0 0
