ply
format ascii 1.0
comment PCL generated
element vertex 1325
property float x
property float y
property float z
property uchar red
property uchar green
property uchar blue
element camera 0
property float view_px
property float view_py
property float view_pz
property float x_axisx
property float x_axisy
property float x_axisz
property float y_axisx
property float y_axisy
property float y_axisz
property float z_axisx
property float z_axisy
property float z_axisz
property float focal
property float scalex
property float scaley
property float centerx
property float centery
property int viewportx
property int viewporty
property float k1
property float k2
end_header
1.688 6.9749999 -0.653 27 16 14
1.678 6.9499998 -0.66299999 114 91 85
1.681 6.9439998 -0.66299999 73 39 27
1.676 6.9660001 -0.65399998 112 76 44
1.705 6.9629998 -0.84100002 26 5 0
1.702 6.9679999 -0.84899998 19 1 0
1.717 6.9840002 -0.847 66 31 1
1.714 6.9819999 -0.84500003 37 12 5
1.715 6.9819999 -0.84100002 32 8 0
1.721 6.9850001 -0.847 53 22 1
1.719 6.9850001 -0.847 57 26 0
1.698 6.9759998 -0.86900002 166 121 82
1.705 6.9879999 -0.86500001 47 23 19
1.7 6.9710002 -0.85299999 62 39 25
1.876 6.882 -0.79000002 174 122 98
1.842 6.855 -0.78899997 107 78 60
1.849 6.8569999 -0.79100001 170 143 132
1.819 6.8790002 -0.79100001 95 42 24
1.854 6.8520002 -0.74699998 128 94 66
1.859 6.8610001 -0.75099999 90 53 37
1.773 6.9369998 -0.755 82 51 30
1.777 6.9380002 -0.73799998 40 22 10
1.773 6.9320002 -0.74199998 47 10 0
1.847 6.8530002 -0.75300002 78 46 25
1.895 6.8899999 -0.73100001 69 18 0
1.83 6.8870001 -0.73299998 167 120 92
1.846 6.9029999 -0.73000002 46 12 0
1.747 6.9580002 -0.73500001 128 99 95
1.707 6.9640002 -0.68699998 66 28 9
1.712 6.9580002 -0.69800001 147 116 87
1.762 6.901 -0.83899999 145 112 95
1.763 6.9060001 -0.838 68 30 11
1.778 6.9029999 -0.83099997 119 70 40
1.778 6.9180002 -0.81999999 131 93 74
1.76 6.902 -0.84399998 77 53 41
1.771 6.947 -0.75 115 52 35
1.779 6.9629998 -0.79100001 39 12 5
1.7690001 6.9629998 -0.796 71 52 46
1.795 6.9530001 -0.77100003 62 39 33
1.756 6.948 -0.79699999 178 124 88
1.763 6.9499998 -0.80199999 83 41 17
1.76 6.9460001 -0.80000001 75 28 2
1.711 7.0250001 -0.78899997 49 17 4
1.739 6.973 -0.72399998 85 28 1
1.765 6.941 -0.73699999 114 70 45
1.748 6.9419999 -0.73500001 52 22 11
1.75 6.9320002 -0.736 49 17 6
1.748 6.973 -0.68099999 97 59 14
1.747 6.9790001 -0.755 68 51 44
1.753 6.987 -0.75800002 50 17 0
1.743 6.9850001 -0.755 127 99 85
1.739 6.9879999 -0.75 144 133 101
1.752 6.9949999 -0.75599998 118 71 41
1.748 7.0050001 -0.75 137 102 83
1.74 6.994 -0.75 101 74 63
1.742 6.9990001 -0.745 72 39 20
1.7539999 6.9790001 -0.759 97 41 18
1.762 6.9809999 -0.76599997 46 21 16
1.851 6.915 -0.81999999 31 11 4
1.876 6.9169998 -0.84500003 36 8 0
1.823 6.8850002 -0.787 36 22 22
1.83 6.8899999 -0.76899999 139 107 92
1.824 6.8909998 -0.796 55 27 13
1.824 6.9619999 -0.75800002 197 171 156
1.723 6.9310002 -0.84899998 72 21 2
1.729 6.9289999 -0.85100001 67 24 5
1.878 6.848 -0.84299999 64 35 19
1.891 6.8470001 -0.83700001 115 59 26
1.876 6.8769999 -0.79299998 129 117 121
1.794 7.007 -0.70999998 68 30 11
1.7920001 7.0079999 -0.70999998 76 38 17
1.7589999 7.02 -0.72399998 54 21 6
1.774 6.9400001 -0.80599999 62 25 7
1.803 6.9809999 -0.86199999 39 9 0
1.809 6.9899998 -0.86000001 146 119 108
1.778 6.9549999 -0.86500001 163 133 109
1.786 6.9860001 -0.85799998 39 7 0
1.794 6.9809999 -0.866 52 20 5
1.7869999 6.9809999 -0.86799997 144 118 101
1.798 6.9460001 -0.72899997 36 13 5
1.7869999 6.9710002 -0.73100001 40 19 0
1.813 6.9580002 -0.75199997 45 25 18
1.806 6.9559999 -0.76300001 19 2 0
1.812 6.9679999 -0.75 50 28 17
1.822 6.9660001 -0.75300002 128 105 91
1.8279999 6.9749999 -0.73500001 33 3 0
1.751 7.0320001 -0.73199999 135 90 69
1.743 7.0159998 -0.77899998 40 16 12
1.757 6.9819999 -0.73100001 142 113 97
1.747 7.013 -0.74900001 45 11 1
1.858 6.9190001 -0.86699998 20 9 7
1.853 6.9120002 -0.86799997 29 1 0
1.847 6.9109998 -0.87 20 1 0
1.826 6.9450002 -0.85600001 75 40 18
1.827 6.9450002 -0.84799999 54 36 34
1.858 6.954 -0.85900003 48 15 0
1.87 6.9349999 -0.86699998 191 153 142
1.873 6.8829999 -0.89899999 64 14 0
1.853 6.9039998 -0.875 20 0 0
1.8609999 6.8909998 -0.87800002 74 46 34
1.869 6.902 -0.88200003 74 45 41
1.7460001 6.934 -0.90600002 101 57 32
1.7309999 6.9289999 -0.85699999 174 120 82
1.7460001 6.9260001 -0.85399997 74 41 24
1.755 6.9419999 -0.88300002 44 14 3
1.756 6.9390001 -0.801 158 97 52
1.752 6.928 -0.81599998 104 42 21
1.7970001 6.8909998 -0.94400001 170 144 129
1.807 6.888 -0.94400001 76 46 22
1.776 6.9650002 -0.92799997 155 119 97
1.786 6.954 -0.94 17 10 2
1.776 6.9619999 -0.92699999 186 127 83
1.772 6.9660001 -0.921 94 39 8
1.798 6.9060001 -0.92400002 33 10 0
1.796 6.8990002 -0.92699999 150 124 107
1.774 6.8920002 -0.898 88 63 56
1.784 6.902 -0.89399999 93 67 52
1.786 6.9190001 -0.93300003 86 29 0
1.8430001 6.8660002 -0.83399999 13 1 1
1.858 6.9050002 -0.84200001 32 13 7
1.849 6.8759999 -0.85699999 147 138 143
1.854 6.8670001 -0.87400001 46 12 0
1.897 6.8629999 -0.81800002 103 52 25
1.8150001 6.8829999 -0.921 208 184 156
1.836 6.8839998 -0.92500001 50 26 24
1.881 6.9289999 -0.90100002 45 31 28
1.875 6.934 -0.89399999 38 25 19
1.8430001 6.8909998 -0.94800001 39 4 0
1.834 6.855 -0.94700003 53 37 12
1.8789999 6.8670001 -0.91100001 59 24 5
1.768 7.1560001 -0.46399999 43 9 0
1.773 7.1609998 -0.465 160 116 89
1.776 7.1599998 -0.46799999 95 49 16
1.771 7.171 -0.43399999 86 30 13
1.762 7.164 -0.41299999 81 46 24
1.762 7.1599998 -0.40400001 55 19 5
1.758 7.1570001 -0.417 89 61 40
1.767 7.1820002 -0.42300001 76 19 0
1.77 7.1700001 -0.391 59 10 0
1.762 7.1630001 -0.398 69 36 17
1.767 7.1700001 -0.405 55 17 0
1.7640001 7.165 -0.45300001 160 127 110
1.7690001 7.1589999 -0.45100001 90 40 13
1.737 6.9949999 -0.40000001 212 184 137
1.716 7.0149999 -0.39300001 97 56 10
1.844 7.1719999 -0.37099999 125 76 33
1.849 7.1869998 -0.38999999 114 69 48
1.84 7.2010002 -0.377 64 38 39
1.818 7.1630001 -0.382 102 61 39
1.808 7.1609998 -0.39300001 109 68 40
1.806 7.165 -0.414 210 173 167
1.735 7.0419998 -0.40700001 140 92 70
1.7690001 7.1409998 -0.33000001 150 107 75
1.774 7.1609998 -0.44299999 140 112 98
1.7640001 7.151 -0.43099999 51 31 24
1.786 7.1409998 -0.44999999 70 22 0
1.78 7.1490002 -0.449 67 15 2
1.807 7.1490002 -0.477 28 10 0
1.783 7.1479998 -0.45899999 57 20 2
1.766 7.1490002 -0.44299999 75 27 4
1.799 7.1669998 -0.43099999 76 34 10
1.813 7.1690001 -0.43799999 52 20 9
1.813 7.1690001 -0.44299999 35 23 7
1.811 7.171 -0.447 45 30 27
1.802 7.1620002 -0.42500001 121 81 56
1.785 7.1560001 -0.43599999 71 36 16
1.796 7.165 -0.428 87 41 15
1.8200001 7.164 -0.46000001 33 0 0
1.835 7.1259999 -0.44499999 148 108 83
1.829 7.1230001 -0.44499999 148 76 0
1.824 7.1279998 -0.44299999 235 157 74
1.826 7.1329999 -0.44400001 166 101 37
1.834 7.0910001 -0.45899999 217 185 162
1.812 7.1700001 -0.486 32 4 0
1.807 7.1719999 -0.50999999 35 2 0
1.8329999 7.1300001 -0.47999999 118 55 46
1.83 7.1269999 -0.479 51 32 36
1.826 7.1110001 -0.50700003 34 5 1
1.839 7.1269999 -0.45699999 118 98 99
1.813 7.131 -0.45199999 171 103 66
1.819 7.1100001 -0.44800001 202 139 88
1.83 7.1240001 -0.47600001 54 32 35
1.724 7.0229998 -0.44 31 4 0
1.724 7.0170002 -0.46900001 31 5 6
1.724 7.0219998 -0.45100001 20 2 0
1.735 7.0139999 -0.42399999 255 225 164
1.743 7.0149999 -0.41999999 180 128 91
1.743 7.0180001 -0.41999999 183 134 101
1.723 7.0310001 -0.421 80 37 20
1.7589999 7.1609998 -0.37200001 83 25 1
1.756 7.1630001 -0.38800001 70 30 18
1.779 7.1570001 -0.382 116 61 30
1.7920001 7.1659999 -0.38299999 183 146 128
1.819 7.1760001 -0.359 141 118 102
1.7460001 7.138 -0.33700001 111 58 26
1.816 7.2119999 -0.38100001 163 112 69
1.796 7.197 -0.396 98 35 0
1.774 7.1810002 -0.405 94 30 2
1.844 7.2049999 -0.391 123 79 52
1.822 7.211 -0.39700001 112 67 34
1.791 7.184 -0.421 88 59 51
1.8200001 7.2059999 -0.40000001 120 73 47
1.8150001 7.1890001 -0.419 47 12 6
1.8 7.1750002 -0.42300001 91 32 0
1.774 7.165 -0.33899999 141 89 75
1.774 7.1690001 -0.338 125 56 14
1.6900001 6.9549999 -0.86500001 36 15 10
1.719 6.9239998 -0.80299997 82 43 12
1.698 6.948 -0.79900002 75 36 21
1.7970001 6.9559999 -0.83200002 150 113 94
1.796 6.9580002 -0.84100002 35 12 4
1.6950001 6.9260001 -0.79799998 29 12 2
1.697 6.9239998 -0.80699998 29 9 2
1.691 6.9320002 -0.79900002 79 47 24
1.758 6.915 -0.85500002 64 28 12
1.77 6.8979998 -0.90399998 42 17 10
1.765 6.8959999 -0.87400001 52 29 21
1.779 6.8930001 -0.88599998 106 68 49
1.779 6.895 -0.88999999 75 39 23
1.79 6.8909998 -0.92500001 142 115 94
1.803 6.8850002 -0.92699999 114 87 60
1.784 6.9460001 -0.96600002 46 18 7
1.784 6.8899999 -0.88099998 51 46 52
1.859 6.9250002 -0.90799999 67 25 3
1.86 6.9369998 -0.90399998 84 66 66
1.8559999 6.928 -0.90499997 20 1 0
1.85 6.9330001 -0.90200001 32 12 5
1.852 6.9400001 -0.89600003 112 85 68
1.809 6.9099998 -0.93800002 81 25 0
1.8559999 6.8779998 -0.87599999 60 38 27
1.859 6.8839998 -0.89399999 65 10 5
1.865 6.8540001 -0.79400003 46 23 17
1.849 6.8579998 -0.77899998 74 30 5
1.876 6.8540001 -0.81999999 110 70 45
1.811 6.869 -0.71100003 73 17 2
1.84 6.8509998 -0.727 78 43 21
1.853 6.8400002 -0.68300003 84 42 20
1.848 6.8400002 -0.69300002 93 51 26
1.836 6.8400002 -0.68699998 131 101 90
1.845 6.8449998 -0.68400002 91 50 28
1.8559999 6.8470001 -0.67400002 81 46 18
1.86 6.8579998 -0.65700001 86 46 34
1.849 6.8330002 -0.70300001 78 40 21
1.712 6.9660001 -0.95599997 118 99 84
1.693 6.9629998 -0.91299999 47 10 4
1.716 6.9219999 -0.92500001 43 20 14
1.7079999 6.921 -0.94300002 99 41 0
1.694 6.967 -0.87800002 63 37 24
1.698 6.9650002 -0.80500001 38 8 0
1.698 6.9640002 -0.801 34 5 1
1.699 6.9580002 -0.80699998 48 14 2
1.701 6.9580002 -0.81199998 35 2 0
1.7 6.954 -0.81400001 48 12 0
1.6799999 6.9190001 -0.71899998 59 24 5
1.682 6.9190001 -0.71899998 49 12 0
1.679 6.9359999 -0.72299999 92 33 3
1.6799999 6.9229999 -0.71799999 65 28 9
1.679 6.9219999 -0.71899998 133 55 6
1.696 6.9580002 -0.68300003 65 37 23
1.692 6.9559999 -0.67799997 54 23 3
1.689 6.9390001 -0.66799998 66 23 6
1.696 6.9520001 -0.67299998 41 28 20
1.6900001 6.9439998 -0.667 86 36 13
1.702 6.9580002 -0.67299998 121 85 69
1.689 6.9400001 -0.72500002 134 97 81
1.6950001 6.9439998 -0.78200001 53 20 3
1.693 6.9330001 -0.77200001 49 16 1
1.761 6.9879999 -0.84200001 60 30 22
1.761 6.993 -0.838 23 10 1
1.676 6.9349999 -0.74800003 83 45 22
1.6849999 6.9349999 -0.74800003 96 37 7
1.682 6.928 -0.75599998 58 32 19
1.687 6.974 -0.68900001 72 24 1
1.691 6.9829998 -0.68800002 75 38 12
1.704 6.9850001 -0.713 139 112 101
1.7079999 6.9949999 -0.39899999 104 59 17
1.7410001 7.0219998 -0.421 123 82 54
1.745 7.027 -0.417 99 64 42
1.724 7.0229998 -0.44400001 99 71 68
1.753 7.0289998 -0.41499999 96 45 16
1.735 7.0320001 -0.41800001 78 31 15
1.7460001 7.0370002 -0.41299999 88 44 19
1.84 6.9699998 -0.70300001 124 75 42
1.827 6.9559999 -0.72899997 134 85 53
1.827 6.941 -0.72600001 186 121 81
1.822 6.9400001 -0.72600001 134 95 80
1.818 6.9429998 -0.72100002 67 25 13
1.837 6.8800001 -0.67199999 16 1 0
1.8430001 6.8629999 -0.65200001 113 81 60
1.846 6.862 -0.64700001 63 18 0
1.831 7.1290002 -0.40700001 72 19 1
1.837 7.1199999 -0.405 95 44 15
1.74 6.9899998 -0.41100001 127 90 64
1.749 7.0089998 -0.41999999 138 90 42
1.739 7.0040002 -0.42300001 149 101 63
1.72 6.9829998 -0.421 235 194 148
1.726 7.0139999 -0.49700001 29 10 6
1.715 7.0159998 -0.49399999 80 37 18
1.728 7.0120001 -0.52700001 27 1 0
1.786 7.1490002 -0.537 60 10 0
1.784 7.1529999 -0.53299999 52 7 4
1.8329999 7.0999999 -0.44299999 67 34 17
1.845 7.1129999 -0.44800001 64 20 0
1.831 7.1079998 -0.44299999 215 154 97
1.875 7.112 -0.42399999 199 162 146
1.726 7.0170002 -0.463 72 47 42
1.817 7.1469998 -0.484 114 68 45
1.79 7.158 -0.51899999 69 24 3
1.8099999 7.1700001 -0.51999998 143 99 98
1.806 7.1750002 -0.51099998 41 10 5
1.8099999 7.1570001 -0.50700003 65 48 54
1.813 7.1609998 -0.491 87 45 29
1.784 7.1170001 -0.53200001 29 15 6
1.798 7.1069999 -0.542 48 14 2
1.7920001 7.119 -0.53200001 84 48 34
1.808 7.098 -0.54500002 137 101 65
1.78 7.1240001 -0.51200002 25 0 0
1.781 7.1209998 -0.51200002 66 23 7
1.763 7.1240001 -0.54299998 133 92 72
1.761 7.1290002 -0.54100001 171 140 109
1.757 7.1370001 -0.57999998 43 28 21
1.752 7.1420002 -0.55800003 28 7 2
1.7539999 7.1609998 -0.54500002 75 55 46
1.74 7.1680002 -0.52700001 98 34 22
1.7690001 7.1339998 -0.48899999 28 5 0
1.789 7.1259999 -0.48899999 110 65 42
1.827 7.1040001 -0.50999999 34 6 2
1.829 7.0900002 -0.47099999 134 89 60
1.831 7.0900002 -0.46599999 33 16 0
1.837 7.099 -0.472 144 103 75
1.837 7.0939999 -0.46599999 124 75 42
1.823 7.1030002 -0.47999999 31 14 7
1.801 7.151 -0.52499998 96 66 56
1.8049999 7.1570001 -0.523 90 54 32
1.799 7.1459999 -0.53200001 44 8 0
1.8200001 7.131 -0.52100003 64 37 20
1.751 7.1409998 -0.61500001 53 17 1
1.751 7.1479998 -0.62 42 9 0
1.832 6.8400002 -0.68400002 30 2 0
1.755 7.0139999 -0.68000001 76 46 35
1.75 7.006 -0.68099999 111 74 55
1.7589999 7.0289998 -0.671 106 56 33
1.778 7.0300002 -0.70999998 52 23 9
1.779 7.0539999 -0.67400002 88 65 51
1.7460001 7.0469999 -0.65799999 75 47 33
1.761 7.052 -0.667 139 107 94
1.756 7.0409999 -0.66000003 75 49 36
1.749 7.053 -0.63999999 76 49 28
1.772 7.0599999 -0.66399997 70 34 10
1.7410001 6.974 -0.68199998 92 58 46
1.8660001 6.8959999 -0.68099999 109 71 58
1.865 6.8800001 -0.66600001 86 54 41
1.851 6.888 -0.67000002 115 95 86
1.85 6.8909998 -0.671 135 111 101
1.867 6.888 -0.68099999 151 93 47
1.875 6.8870001 -0.68099999 50 3 0
1.8430001 6.8959999 -0.70300001 65 60 57
1.849 6.8959999 -0.71899998 46 22 12
1.7640001 7.0430002 -0.71799999 67 19 0
1.761 7.0799999 -0.66900003 96 45 26
1.747 7.1550002 -0.53200001 65 27 4
1.752 7.1680002 -0.53899997 53 3 0
1.817 7.1110001 -0.465 56 18 0
1.6950001 6.9710002 -0.60900003 59 17 1
1.7 6.9809999 -0.62599999 30 11 5
1.73 7.0229998 -0.57599998 62 28 16
1.727 7.013 -0.56699997 60 28 5
1.819 7.1090002 -0.53500003 28 13 18
1.825 7.092 -0.50199997 20 0 0
1.877 6.8790002 -0.61400002 136 111 104
1.831 7.1020002 -0.50300002 35 0 0
1.824 7.1160002 -0.50099999 40 10 2
1.755 7.1370001 -0.62 60 40 29
1.758 7.1420002 -0.61500001 47 18 2
1.757 7.1090002 -0.60900003 78 34 7
1.755 7.1129999 -0.60699999 53 31 18
1.775 7.0970001 -0.61500001 107 65 41
1.771 7.0879998 -0.61400002 137 99 78
1.76 7.098 -0.62199998 102 42 16
1.794 7.0879998 -0.68199998 30 13 6
1.803 7.119 -0.55800003 129 65 30
1.7690001 7.145 -0.54299998 55 44 38
1.8099999 7.105 -0.54699999 105 71 36
1.808 7.1100001 -0.54900002 79 46 31
1.824 7.0970001 -0.50400001 27 0 0
1.804 7.1110001 -0.52899998 85 47 34
1.808 7.1009998 -0.537 63 34 20
1.817 7.105 -0.523 33 6 0
1.8150001 7.0910001 -0.56400001 50 41 46
1.7920001 7.132 -0.52899998 50 21 3
1.814 7.1350002 -0.52499998 41 14 0
1.788 7.0890002 -0.67500001 115 68 22
1.7640001 7.0700002 -0.68000001 61 8 0
1.79 7.0799999 -0.66500002 146 91 52
1.795 7.0819998 -0.66900003 177 113 67
1.789 7.079 -0.67299998 174 135 106
1.808 7.006 -0.71799999 142 121 102
1.721 7.0040002 -0.59600002 65 6 0
1.716 7.0089998 -0.523 40 21 6
1.727 7.0029998 -0.55500001 55 20 0
1.7869999 7.099 -0.588 70 32 19
1.779 7.1259999 -0.611 152 85 59
1.79 7.1009998 -0.58499998 101 65 43
1.757 7.1300001 -0.58499998 31 16 9
1.755 7.1350002 -0.574 38 18 9
1.728 7.006 -0.56599998 48 31 21
1.733 6.9990001 -0.58399999 59 10 0
1.73 7.007 -0.57099998 25 1 0
1.735 7.0040002 -0.59600002 41 4 0
1.751 7.052 -0.62699997 57 32 25
1.766 7.0840001 -0.611 136 97 68
1.765 7.0830002 -0.59399998 126 106 99
1.758 7.0749998 -0.61799997 70 33 7
1.776 7.072 -0.63200003 65 33 20
1.784 7.1009998 -0.59500003 49 24 17
1.757 7.1059999 -0.58999997 141 118 112
1.758 7.1139998 -0.59299999 157 105 65
1.76 7.112 -0.62300003 56 6 0
1.78 7.1290002 -0.57300001 231 179 139
1.788 7.1269999 -0.57800001 47 13 4
1.7819999 7.1090002 -0.565 177 150 129
1.733 7.007 -0.61799997 39 14 10
1.723 7.0089998 -0.62800002 44 12 1
1.722 7.0029998 -0.63700002 82 53 39
1.826 6.9640002 -0.704 63 12 0
1.755 6.993 -0.67799997 129 76 44
1.72 7.0040002 -0.59899998 61 0 0
1.724 7.0019999 -0.64300001 49 21 10
1.73 7.0050001 -0.65100002 94 65 61
1.72 6.993 -0.421 208 188 161
1.699 6.9959998 -0.414 157 125 87
1.6950001 7.0029998 -0.42399999 94 51 68
1.704 7.0110002 -0.42300001 246 213 160
1.711 6.9860001 -0.69099998 46 23 5
1.721 6.9920001 -0.68400002 29 10 4
1.684 6.9400001 -0.74400002 139 108 88
1.869 6.862 -0.64300001 93 73 62
1.854 6.8520002 -0.64399999 119 57 36
1.684 6.9289999 -0.61199999 92 58 49
1.84 6.8429999 -0.60699999 114 78 54
1.836 6.8369999 -0.60600001 171 117 81
1.826 6.8299999 -0.59600002 88 55 38
1.831 6.8340001 -0.60500002 107 66 34
1.8200001 6.8559999 -0.59200001 84 55 47
1.84 6.8390002 -0.57599998 141 113 66
1.839 6.848 -0.57300001 99 48 21
1.887 6.8509998 -0.847 167 147 148
1.897 6.862 -0.866 31 12 8
1.902 6.8499999 -0.83399999 40 26 26
1.851 7.1399999 -0.396 67 30 24
1.85 7.1339998 -0.39199999 110 61 31
1.8380001 7.1550002 -0.40099999 100 62 43
1.829 7.164 -0.38100001 94 58 34
1.822 7.164 -0.38299999 113 62 31
1.836 7.164 -0.37799999 78 42 28
1.832 7.1630001 -0.37400001 105 42 1
1.848 6.8579998 -0.588 191 123 88
1.87 6.8660002 -0.60799998 95 50 27
1.869 6.8579998 -0.61000001 134 66 27
1.859 6.8559999 -0.60000002 234 180 133
1.859 6.862 -0.61000001 69 16 0
1.8329999 6.8470001 -0.60799998 41 22 26
1.763 7.1560001 -0.43000001 59 12 0
1.762 7.1560001 -0.428 105 56 41
1.743 7.04 -0.412 140 95 64
1.757 7.1479998 -0.426 61 32 14
1.763 7.152 -0.435 78 25 0
1.77 7.1440001 -0.41999999 118 74 35
1.847 6.882 -0.65899998 135 106 90
1.851 6.8870001 -0.66799998 91 67 57
1.878 6.8889999 -0.62800002 154 89 61
1.878 6.882 -0.67699999 64 33 15
1.878 6.8709998 -0.67299998 78 47 29
1.872 6.875 -0.66799998 104 69 50
1.885 6.8649998 -0.61900002 95 53 28
1.857 7.0939999 -0.419 145 85 48
1.848 7.0949998 -0.39700001 81 21 0
1.85 7.0929999 -0.41100001 83 35 0
1.837 7.1059999 -0.44400001 90 47 13
1.835 7.1090002 -0.44299999 194 149 66
1.734 7.0450001 -0.68199998 81 66 47
1.7410001 7.0619998 -0.69300002 132 81 50
1.848 6.9559999 -0.85799998 77 31 7
1.847 6.9629998 -0.85799998 38 10 0
1.841 6.9099998 -0.824 88 53 34
1.846 6.9050002 -0.82499999 66 42 30
1.845 6.914 -0.82499999 45 22 14
1.847 6.8990002 -0.84299999 62 25 6
1.789 6.9400001 -0.82499999 98 52 29
1.824 6.967 -0.84399998 139 111 100
1.824 6.9660001 -0.84399998 34 24 22
1.73 7.0279999 -0.87599999 43 30 24
1.723 7.026 -0.88099998 52 19 10
1.735 7.0240002 -0.89999998 65 23 0
1.72 7.0320001 -0.89200002 36 16 9
1.725 7.0100002 -0.88499999 132 93 60
1.706 6.9840002 -0.796 37 13 3
1.706 6.9879999 -0.79299998 29 0 0
1.704 6.9720001 -0.80699998 29 10 6
1.705 6.9699998 -0.81699997 69 27 5
1.72 7.007 -0.801 29 0 0
1.753 7.0240002 -0.83600003 56 25 7
1.751 7.0229998 -0.85299999 61 43 33
1.737 7.0139999 -0.65799999 54 21 2
1.719 7.0079999 -0.62800002 45 18 9
1.7079999 7.0009999 -0.787 20 1 0
1.712 6.9819999 -0.72399998 41 12 8
1.72 6.98 -0.73299998 16 2 1
1.716 6.9770002 -0.73000002 133 99 62
1.725 6.967 -0.74599999 26 8 6
1.721 7 -0.76599997 119 74 43
1.7079999 6.9910002 -0.77200001 81 54 35
1.704 6.9809999 -0.713 19 2 0
1.7410001 6.9949999 -0.73500001 78 37 19
1.7460001 7.006 -0.73500001 95 59 43
1.745 7.0029998 -0.73900002 89 55 43
1.751 7.007 -0.71200001 127 87 61
1.738 7 -0.70300001 58 21 3
1.73 7.0050001 -0.64499998 25 0 0
1.734 7.0040002 -0.63999999 41 21 12
1.733 6.9949999 -0.662 57 14 5
1.732 6.9959998 -0.65100002 57 17 9
1.732 6.9910002 -0.64200002 33 3 0
1.742 7.046 -0.67400002 169 108 77
1.7589999 7.0440001 -0.68900001 58 30 8
1.726 7.0240002 -0.685 51 30 13
1.711 7.0229998 -0.89499998 37 0 0
1.772 6.9499998 -0.921 205 180 173
1.7309999 7.0050001 -0.91100001 46 17 1
1.725 6.9990001 -0.917 124 84 58
1.75 7.006 -0.89399999 21 3 1
1.772 6.9749999 -0.921 214 170 135
1.775 6.9380002 -0.93000001 65 27 6
1.7690001 6.9450002 -0.92199999 152 136 136
1.812 6.9070001 -0.94099998 90 31 13
1.7180001 6.9369998 -0.95999998 67 38 8
1.733 6.9400001 -0.935 100 51 8
1.723 6.9320002 -0.93199998 111 86 79
1.729 6.9590001 -0.94300002 133 81 42
1.742 6.9780002 -0.94700003 54 13 0
1.744 6.9619999 -0.95099998 51 19 0
1.7029999 6.967 -0.91900003 142 116 103
1.7589999 6.9460001 -0.92400002 28 7 2
1.697 6.9569998 -0.921 37 3 0
1.7029999 6.9580002 -0.926 125 77 31
1.704 6.9640002 -0.92299998 29 5 1
1.7920001 6.9689999 -0.75700003 38 21 14
1.7920001 6.9580002 -0.81 152 118 108
1.847 6.9650002 -0.83899999 42 18 6
1.83 6.9889998 -0.84299999 23 4 0
1.813 6.9860001 -0.852 47 28 21
1.814 6.9619999 -0.84799999 17 2 0
1.816 6.9910002 -0.85299999 55 27 16
1.784 7.0190001 -0.722 51 28 14
1.7589999 7.0450001 -0.88 189 114 59
1.7359999 7.0320001 -0.88999999 253 211 171
1.765 7.0079999 -0.84100002 63 20 3
1.794 6.9840002 -0.82999998 24 0 0
1.852 7.0050001 -0.85799998 54 14 4
1.845 7.0100002 -0.85100001 100 48 24
1.844 7.0019999 -0.85399997 64 37 20
1.885 6.8730001 -0.63700002 69 18 0
1.886 6.8720002 -0.64200002 75 24 0
1.882 6.888 -0.64200002 37 8 0
1.8839999 6.8740001 -0.64499998 115 62 28
1.88 6.849 -0.685 82 63 59
1.872 6.908 -0.69800001 45 16 2
1.878 6.9070001 -0.704 145 109 93
1.832 6.9510002 -0.70899999 219 203 204
1.845 6.9060001 -0.74400002 27 9 5
1.874 6.9050002 -0.73100001 47 19 15
1.88 6.908 -0.73199999 156 85 63
1.876 6.902 -0.773 105 71 59
1.898 6.8920002 -0.74599999 72 20 7
1.898 6.8920002 -0.76099998 53 6 0
1.899 6.8899999 -0.75199997 61 12 0
1.8890001 6.8740001 -0.72299999 128 127 133
1.893 6.8740001 -0.73000002 135 132 141
1.864 6.9099998 -0.89099997 151 124 115
1.863 6.9180002 -0.89899999 137 114 98
1.855 6.9109998 -0.86299998 69 38 33
1.748 6.9239998 -0.83200002 31 8 2
1.892 6.8959999 -0.722 68 21 3
1.8839999 6.8629999 -0.88 127 105 92
1.896 6.8540001 -0.85900003 151 140 144
1.887 6.8709998 -0.81999999 159 131 110
1.87 6.8839998 -0.80199999 47 19 5
1.868 6.8909998 -0.792 125 93 80
1.8710001 6.901 -0.778 61 24 15
1.7029999 6.9569998 -0.773 119 88 68
1.7309999 6.9349999 -0.74199998 103 43 6
1.737 6.9530001 -0.77100003 101 70 49
1.745 6.9460001 -0.77100003 66 36 26
1.747 6.9450002 -0.76800001 32 3 0
1.7359999 6.9460001 -0.778 64 42 31
1.691 6.9130001 -0.72399998 45 16 8
1.682 6.908 -0.72399998 146 55 0
1.6799999 6.9310002 -0.722 59 22 0
1.7180001 6.9770002 -0.61000001 80 34 1
1.729 6.9920001 -0.61799997 45 17 6
1.824 6.8610001 -0.59299999 111 66 47
1.829 6.8590002 -0.597 42 3 0
1.694 6.9499998 -0.61199999 107 57 24
1.674 6.9499998 -0.62900001 124 77 47
1.6720001 6.9510002 -0.62800002 133 88 59
1.688 6.948 -0.639 37 3 0
1.686 6.9530001 -0.63200003 47 27 18
1.688 6.948 -0.648 34 1 0
1.689 6.9790001 -0.65600002 32 0 0
1.6849999 6.98 -0.65799999 55 13 0
1.676 6.96 -0.625 86 35 14
1.675 6.9590001 -0.625 88 37 16
1.684 6.9650002 -0.639 71 44 25
1.705 6.9530001 -0.847 59 26 11
1.687 6.941 -0.84799999 156 102 74
1.688 6.9439998 -0.86299998 145 86 52
1.717 6.9850001 -0.84899998 72 31 0
1.719 6.9860001 -0.85399997 69 27 3
1.715 6.9850001 -0.85699999 62 25 6
1.722 6.9850001 -0.847 29 2 0
1.715 6.9790001 -0.84200001 39 18 0
1.712 6.9770002 -0.84600002 38 23 18
1.696 6.9699998 -0.86199999 163 144 140
1.694 6.9710002 -0.866 25 6 0
1.691 6.9650002 -0.86799997 57 33 23
1.706 6.9819999 -0.87199998 104 62 14
1.707 6.98 -0.85000002 94 49 18
1.8609999 6.8559999 -0.74400002 89 52 33
1.8609999 6.8579998 -0.74699998 82 58 46
1.7640001 6.9400001 -0.75800002 120 79 49
1.804 6.9530001 -0.73699999 109 68 40
1.776 6.934 -0.74299997 65 38 19
1.776 6.9369998 -0.73900002 58 35 27
1.786 6.928 -0.81 131 90 72
1.789 6.9349999 -0.81599998 80 38 14
1.824 6.875 -0.74599999 77 30 2
1.857 6.8330002 -0.70499998 117 103 102
1.868 6.8520002 -0.722 112 103 104
1.869 6.848 -0.71700001 114 105 108
1.8200001 6.862 -0.69400001 94 38 13
1.822 6.8600001 -0.69400001 102 43 13
1.827 6.849 -0.69700003 49 9 1
1.817 6.8509998 -0.70200002 53 32 27
1.835 6.8699999 -0.685 37 5 0
1.7690001 6.9380002 -0.736 69 29 4
1.777 6.8909998 -0.852 113 77 43
1.791 6.961 -0.75999999 64 33 15
1.8099999 6.9559999 -0.78799999 59 23 23
1.775 6.9650002 -0.78899997 39 14 10
1.707 6.9510002 -0.83499998 72 48 36
1.7 6.9299998 -0.81699997 55 29 14
1.7029999 6.9390001 -0.81900001 70 37 20
1.7079999 7.0289998 -0.78799999 27 9 7
1.72 6.9699998 -0.72500002 117 108 101
1.723 6.9660001 -0.71799999 26 16 14
1.727 6.9699998 -0.71799999 84 64 57
1.725 6.9720001 -0.72299999 9 0 0
1.7180001 6.9629998 -0.71799999 31 0 0
1.75 6.9759998 -0.713 149 103 77
1.852 6.9159999 -0.824 49 11 2
1.825 6.8870001 -0.77499998 52 13 0
1.8329999 6.8870001 -0.80900002 101 64 46
1.724 6.9310002 -0.84500003 56 12 3
1.729 6.9299998 -0.85399997 100 58 36
1.886 6.8509998 -0.833 134 115 108
1.7460001 7.0279999 -0.72299999 92 17 0
1.753 7.033 -0.73000002 53 23 13
1.75 7.027 -0.73400003 47 14 5
1.749 7.0240002 -0.736 94 61 52
1.802 6.9580002 -0.70999998 130 100 90
1.784 6.9679999 -0.73199999 58 14 1
1.806 6.9559999 -0.75800002 79 55 43
1.8200001 6.967 -0.755 66 37 19
1.75 7.0300002 -0.73299998 40 7 0
1.745 7.0029998 -0.74199998 96 64 51
1.7460001 7.0209999 -0.74400002 47 19 8
1.742 7.026 -0.73299998 66 37 21
1.733 7.0009999 -0.75300002 187 156 135
1.7460001 7.006 -0.75199997 75 33 19
1.767 6.9949999 -0.83499998 75 33 19
1.773 6.9889998 -0.82999998 46 31 12
1.867 6.9159999 -0.852 44 11 0
1.852 6.9260001 -0.875 95 71 61
1.852 6.921 -0.875 83 60 46
1.851 6.9250002 -0.87699997 137 117 108
1.857 6.9219999 -0.87199998 19 5 4
1.873 6.8870001 -0.89600003 75 24 3
1.853 6.9200001 -0.88700002 47 28 13
1.8710001 6.9089999 -0.88800001 71 44 23
1.8710001 6.902 -0.86500001 42 12 2
1.73 6.9299998 -0.85900003 99 48 19
1.75 6.9390001 -0.89099997 152 137 134
1.739 6.9289999 -0.81699997 70 27 10
1.752 6.9250002 -0.81999999 151 95 44
1.791 6.9070001 -0.94099998 95 57 21
1.7970001 6.8889999 -0.93099999 152 126 113
1.799 6.901 -0.92400002 38 10 0
1.793 6.9260001 -0.94400001 36 20 5
1.851 6.9050002 -0.85000002 19 9 8
1.854 6.8709998 -0.86000001 165 153 155
1.875 6.934 -0.90100002 16 5 1
1.878 6.9349999 -0.889 50 13 7
1.762 7.1630001 -0.50800002 71 15 0
1.776 7.1630001 -0.46799999 152 103 71
1.768 7.151 -0.46799999 51 18 9
1.765 7.1750002 -0.433 126 78 42
1.765 7.1609998 -0.44800001 140 105 86
1.766 7.1750002 -0.41 93 46 18
1.7640001 7.1560001 -0.44800001 54 9 3
1.777 7.1849999 -0.41299999 99 43 20
1.7819999 7.1849999 -0.41 110 52 30
1.775 7.184 -0.41 102 28 3
1.721 7.0110002 -0.39500001 63 40 0
1.8200001 7.1630001 -0.39500001 142 89 45
1.809 7.2010002 -0.36899999 85 51 41
1.8099999 7.2059999 -0.37799999 109 44 16
1.8099999 7.2020001 -0.366 100 64 40
1.8150001 7.1669998 -0.43799999 48 18 10
1.812 7.1620002 -0.45199999 32 20 8
1.812 7.1739998 -0.449 11 0 0
1.7640001 7.151 -0.43900001 90 40 7
1.765 7.1500001 -0.44400001 49 11 2
1.762 7.152 -0.43200001 82 26 0
1.7640001 7.1529999 -0.43700001 49 11 2
1.785 7.1420002 -0.46000001 41 4 0
1.778 7.152 -0.45199999 26 3 0
1.774 7.1440001 -0.456 103 54 22
1.768 7.1479998 -0.44999999 63 24 7
1.801 7.1469998 -0.48100001 66 34 13
1.767 7.1479998 -0.44600001 67 22 3
1.791 7.1700001 -0.433 67 19 0
1.7819999 7.1570001 -0.43900001 73 31 9
1.813 7.1719999 -0.472 35 4 0
1.813 7.1680002 -0.47499999 43 9 0
1.824 7.1230001 -0.44400001 160 123 96
1.823 7.1440001 -0.45199999 89 32 2
1.846 7.1030002 -0.46399999 119 77 53
1.848 7.1059999 -0.461 140 107 92
1.845 7.1079998 -0.46599999 86 50 28
1.847 7.1069999 -0.46200001 84 43 21
1.848 7.1020002 -0.456 57 27 19
1.835 7.092 -0.45199999 195 165 141
1.842 7.0929999 -0.463 101 60 32
1.827 7.1090002 -0.50599998 34 5 1
1.826 7.118 -0.46900001 42 6 0
1.725 7.02 -0.47999999 37 15 1
1.725 7.0180001 -0.477 29 3 0
1.726 7.013 -0.47299999 27 0 0
1.724 7.0219998 -0.45300001 21 3 1
1.728 7.0339999 -0.417 58 10 0
1.723 7.027 -0.426 112 82 71
1.762 7.164 -0.37900001 50 18 3
1.813 7.2090001 -0.377 128 69 35
1.801 7.1989999 -0.396 139 80 74
1.807 7.1859999 -0.40700001 139 93 67
1.809 7.1989999 -0.39399999 63 27 11
1.781 7.1799998 -0.39899999 68 21 3
1.845 7.2020001 -0.38699999 140 70 62
1.83 7.204 -0.40000001 105 45 21
1.814 7.1939998 -0.41100001 41 7 5
1.772 7.1589999 -0.33700001 129 61 38
1.6900001 6.9569998 -0.86199999 168 146 133
1.693 6.9580002 -0.87300003 41 16 9
1.714 6.9429998 -0.89499998 63 33 22
1.733 6.9289999 -0.90399998 234 214 153
1.6950001 6.9489999 -0.80800003 61 25 11
1.699 6.9289999 -0.80900002 40 13 2
1.702 6.9320002 -0.82200003 41 14 3
1.7359999 6.9310002 -0.91100001 235 212 170
1.766 6.8990002 -0.87300003 69 47 34
1.778 6.8920002 -0.88200003 102 58 33
1.814 6.8909998 -0.94400001 72 33 0
1.812 6.8930001 -0.94499999 117 93 81
1.811 6.869 -0.93800002 51 27 17
1.8099999 6.8730001 -0.93800002 121 95 72
1.808 6.8779998 -0.93800002 161 133 109
1.749 6.954 -0.94800001 21 13 0
1.763 6.9439998 -0.94400001 55 23 2
1.777 6.9520001 -0.958 50 22 11
1.78 6.8969998 -0.89399999 71 44 35
1.79 6.8909998 -0.88200003 63 19 10
1.785 6.8979998 -0.87599999 98 52 26
1.804 6.8670001 -0.95499998 158 140 130
1.808 6.862 -0.95700002 45 25 14
1.839 6.8299999 -0.82200003 37 10 3
1.785 6.8990002 -0.87400001 102 55 27
1.775 6.8889999 -0.86699998 153 97 60
1.823 6.8769999 -0.91600001 41 15 0
1.847 6.921 -0.89200002 148 132 116
1.8150001 6.9060001 -0.94499999 65 12 4
1.858 6.881 -0.889 99 58 40
1.85 6.8540001 -0.80000001 11 1 0
1.85 6.8410001 -0.66600001 97 52 29
1.847 6.842 -0.65799999 114 59 18
1.831 6.849 -0.69 59 26 17
1.8329999 6.8600001 -0.68900001 67 33 8
1.873 6.8530002 -0.69800001 46 29 21
1.813 6.8590002 -0.73100001 91 50 28
1.705 6.967 -0.94999999 146 132 121
1.725 6.9640002 -0.94 62 36 13
1.716 6.9650002 -0.94099998 49 34 29
1.706 6.9660001 -0.935 12 1 0
1.712 6.9229999 -0.917 79 52 35
1.714 6.921 -0.92400002 31 8 2
1.715 6.927 -0.94499999 142 139 146
1.717 6.9330001 -0.93699998 27 13 12
1.71 6.9219999 -0.94199997 119 67 17
1.711 6.9850001 -0.80599999 37 14 8
1.694 6.9510002 -0.66900003 114 70 45
1.697 6.9619999 -0.65799999 45 9 0
1.694 6.9419999 -0.722 47 11 0
1.705 6.9530001 -0.70200002 130 89 67
1.689 6.9219999 -0.72100002 132 95 69
1.6849999 6.9310002 -0.72000003 121 86 67
1.692 6.9499998 -0.67400002 62 27 7
1.691 6.9390001 -0.61199999 155 97 60
1.693 6.941 -0.78299999 18 0 0
1.745 6.9860001 -0.84399998 84 54 43
1.739 6.9840002 -0.82700002 45 33 33
1.752 6.9949999 -0.82700002 44 11 0
1.735 6.9899998 -0.84600002 84 39 16
1.666 6.9289999 -0.741 113 55 17
1.705 6.987 -0.71200001 80 52 41
1.711 6.9840002 -0.70099998 122 73 43
1.7130001 6.9920001 -0.421 255 219 172
1.738 7.026 -0.421 78 43 21
1.84 6.9809999 -0.70999998 202 133 100
1.839 6.882 -0.66900003 50 16 7
1.86 6.8769999 -0.66399997 94 48 15
1.842 6.8600001 -0.64399999 78 23 0
1.845 7.1350002 -0.39399999 81 28 0
1.845 7.1129999 -0.403 91 34 4
1.8279999 7.0939999 -0.396 83 25 1
1.7 7.0279999 -0.403 94 50 13
1.735 7.0089998 -0.42399999 175 125 92
1.744 7.0019999 -0.419 124 72 22
1.725 7.0120001 -0.50400001 16 0 0
1.725 7.0110002 -0.498 21 2 0
1.72 7.0120001 -0.493 27 9 7
1.73 7.0019999 -0.53100002 24 0 0
1.873 7.1170001 -0.41800001 175 132 100
1.8559999 7.105 -0.428 44 25 18
1.8099999 7.171 -0.51800001 41 0 0
1.8099999 7.1669998 -0.51700002 36 5 0
1.812 7.1630001 -0.51300001 84 46 35
1.808 7.1659999 -0.52999997 90 60 50
1.808 7.1630001 -0.498 37 2 0
1.812 7.1490002 -0.47400001 34 19 14
1.7970001 7.1160002 -0.57800001 155 97 51
1.7690001 7.1339998 -0.51800001 82 53 39
1.8150001 7.1479998 -0.51499999 54 17 1
1.835 7.0960002 -0.49900001 91 49 35
1.844 7.1009998 -0.46799999 139 108 88
1.822 7.1030002 -0.47499999 52 29 21
1.785 7.1129999 -0.61400002 80 14 0
1.783 7.118 -0.60900003 75 16 0
1.784 7.1149998 -0.60799998 66 10 0
1.753 7.1529999 -0.62699997 57 30 13
1.814 6.875 -0.69700003 65 37 25
1.807 6.868 -0.699 128 61 16
1.762 7.0549998 -0.699 40 7 0
1.726 6.9910002 -0.671 61 24 0
1.728 6.9959998 -0.66799998 95 65 39
1.721 6.9889998 -0.66000003 36 9 0
1.729 6.9920001 -0.66000003 30 0 0
1.729 6.993 -0.65799999 35 8 1
1.79 7.0149999 -0.70999998 90 43 15
1.753 7.0599999 -0.69800001 69 32 13
1.8200001 7.1199999 -0.45899999 120 55 23
1.816 7.1279998 -0.456 89 43 10
1.818 7.1129999 -0.46399999 157 112 79
1.817 7.119 -0.45699999 64 15 0
1.728 7.013 -0.53600001 33 8 3
1.725 7.0040002 -0.54699999 28 0 0
1.818 7.0999999 -0.51700002 35 11 0
1.818 7.1220002 -0.53200001 110 72 49
1.816 7.1040001 -0.54000002 93 45 23
1.818 7.1079998 -0.53399998 94 62 37
1.877 6.8730001 -0.61400002 132 108 98
1.8430001 7.1059999 -0.47999999 83 43 18
1.8279999 7.1009998 -0.51099998 69 42 23
1.7690001 7.0809999 -0.61799997 42 27 32
1.768 7.1339998 -0.579 65 40 33
1.8049999 7.1110001 -0.52499998 71 39 28
1.7869999 7.1279998 -0.52999997 100 68 47
1.809 7.1399999 -0.52700001 69 47 34
1.809 7.1409998 -0.52399999 36 9 0
1.802 7.1339998 -0.528 111 74 47
1.7819999 7.0760002 -0.65799999 128 81 51
1.793 7.0830002 -0.667 178 117 72
1.78 7.0650001 -0.66299999 138 105 98
1.835 6.9520001 -0.71899998 77 46 17
1.8099999 6.9629998 -0.708 168 115 84
1.724 6.9899998 -0.59100002 52 22 12
1.689 6.9699998 -0.60500002 75 25 0
1.675 6.9640002 -0.61000001 177 102 62
1.748 7.145 -0.57099998 119 76 44
1.727 7.0040002 -0.574 58 24 14
1.729 7.0100002 -0.58600003 30 0 0
1.755 7.0500002 -0.63099998 36 13 0
1.751 7.0700002 -0.62800002 128 111 103
1.7690001 7.0630002 -0.62599999 128 87 55
1.7690001 7.0640001 -0.62900001 150 90 79
1.776 7.072 -0.63499999 107 75 64
1.76 7.1090002 -0.58700001 64 48 22
1.779 7.1240001 -0.58399999 76 48 34
1.807 7.092 -0.579 81 44 25
1.806 7.0949998 -0.57700002 103 65 42
1.83 6.9580002 -0.70599997 208 183 178
1.8329999 6.9590001 -0.70700002 116 71 42
1.84 6.9559999 -0.70999998 182 129 98
1.719 6.9959998 -0.634 66 20 7
1.714 7.0110002 -0.62699997 58 44 35
1.719 7 -0.63099998 52 12 0
1.729 7.0019999 -0.66000003 30 2 0
1.726 6.9959998 -0.653 32 12 1
1.716 6.9899998 -0.421 230 163 118
1.702 6.9790001 -0.70200002 94 41 23
1.709 6.9819999 -0.67500001 35 15 4
1.707 6.98 -0.68300003 42 15 6
1.7180001 6.9710002 -0.69700003 105 60 37
1.72 6.9809999 -0.625 89 60 52
1.729 6.9840002 -0.667 75 63 41
1.734 6.9889998 -0.639 37 7 0
1.698 6.9530001 -0.61900002 122 62 38
1.719 6.9780002 -0.63099998 82 39 5
1.724 6.987 -0.63499999 64 37 18
1.688 6.967 -0.62900001 134 93 63
1.7640001 7.0250001 -0.70700002 117 63 17
1.837 6.8590002 -0.60900003 61 22 7
1.837 6.8590002 -0.60799998 21 1 0
1.841 6.8569999 -0.58999997 89 29 3
1.873 6.855 -0.63499999 148 97 66
1.876 6.8600001 -0.63700002 136 101 73
1.688 6.9380002 -0.60399997 115 48 6
1.674 6.9369998 -0.61799997 154 92 51
1.831 6.8400002 -0.57499999 103 61 36
1.885 6.8530002 -0.82099998 173 92 47
1.899 6.8639998 -0.84299999 99 63 63
1.89 6.914 -0.84399998 42 9 0
1.852 6.915 -0.87199998 39 10 4
1.827 7.1680002 -0.36500001 154 100 53
1.848 6.8569999 -0.58600003 193 118 79
1.874 6.8600001 -0.61400002 203 142 88
1.831 6.8379998 -0.60699999 132 102 64
1.832 6.8470001 -0.60299999 140 95 54
1.767 7.1700001 -0.42699999 77 25 3
1.87 6.868 -0.64300001 34 15 1
1.876 6.8920002 -0.62400001 140 119 114
1.846 7.0910001 -0.40400001 143 74 32
1.835 7.099 -0.44499999 186 137 94
1.8380001 7.1110001 -0.44600001 72 51 50
1.83 6.9530001 -0.852 67 50 40
1.846 6.9120002 -0.829 58 28 17
1.823 6.9590001 -0.86299998 30 9 4
1.735 7.0279999 -0.89499998 78 38 2
1.723 7.0139999 -0.884 99 68 48
1.705 6.9699998 -0.81099999 22 1 0
1.75 7.0050001 -0.82700002 16 2 0
1.728 6.9889998 -0.82099998 39 11 0
1.753 7.0250001 -0.83399999 43 24 10
1.7180001 6.9699998 -0.73100001 113 82 61
1.7309999 6.9710002 -0.74199998 109 72 43
1.743 7.0019999 -0.72799999 68 30 9
1.744 7.007 -0.72500002 62 51 21
1.698 6.973 -0.70099998 132 83 50
1.7079999 6.954 -0.69800001 127 95 72
1.747 7.0279999 -0.71600002 95 58 42
1.738 6.993 -0.74199998 89 50 33
1.734 7.0019999 -0.63300002 65 29 13
1.733 6.9980001 -0.63300002 53 25 11
1.737 6.9910002 -0.667 41 0 0
1.73 6.9949999 -0.65399998 33 9 5
1.747 6.9990001 -0.88700002 30 12 10
1.712 6.9910002 -0.87800002 45 27 3
1.785 6.9499998 -0.95700002 47 18 4
1.758 6.9460001 -0.917 28 3 0
1.74 6.9489999 -0.94199997 89 50 17
1.7460001 6.9489999 -0.935 20 2 2
1.771 6.9650002 -0.91799998 140 98 86
1.76 6.9460001 -0.92400002 46 12 2
1.7 6.9549999 -0.93699998 14 0 0
1.809 6.9780002 -0.86299998 43 13 2
1.847 6.9819999 -0.84100002 34 1 0
1.847 6.9770002 -0.84200001 38 11 4
1.809 6.9759998 -0.78600001 102 67 45
1.802 6.9580002 -0.85000002 96 60 44
1.807 6.9899998 -0.85100001 52 23 7
1.756 7.0229998 -0.85100001 25 11 10
1.777 6.9860001 -0.833 57 31 30
1.86 6.8559999 -0.65899998 85 44 24
1.88 6.881 -0.63999999 62 45 51
1.887 6.868 -0.64999998 83 45 26
1.877 6.8670001 -0.68099999 125 96 82
1.865 6.855 -0.68699998 70 53 46
1.867 6.868 -0.68000001 55 26 8
1.877 6.9000001 -0.69700003 93 69 59
1.839 6.954 -0.71700001 84 35 2
1.834 6.9520001 -0.70999998 133 96 67
1.832 6.9520001 -0.713 229 220 225
1.835 6.8800001 -0.80500001 83 44 27
1.88 6.8639998 -0.76099998 80 37 18
1.876 6.8660002 -0.77399999 137 119 119
1.898 6.8870001 -0.75300002 66 6 0
1.891 6.8969998 -0.77100003 66 32 22
1.898 6.8930001 -0.75599998 59 7 0
1.8609999 6.8429999 -0.71499997 63 43 36
1.847 6.848 -0.72500002 125 97 85
1.886 6.8979998 -0.73199999 56 30 29
1.883 6.9120002 -0.866 50 34 35
1.874 6.8540001 -0.85000002 112 80 67
1.8559999 6.8839998 -0.87400001 48 18 8
1.846 6.8829999 -0.86000001 190 133 114
1.8839999 6.8779998 -0.699 45 21 17
1.89 6.8730001 -0.78600001 227 164 129
1.869 6.8520002 -0.77700001 116 74 52
1.706 6.9499998 -0.84200001 108 74 62
1.74 6.9450002 -0.764 29 0 0
1.687 6.9159999 -0.72100002 68 26 4
1.706 6.974 -0.61400002 65 27 4
1.709 6.9809999 -0.62 61 21 0
1.7 6.9660001 -0.60699999 87 43 6
1.729 6.9920001 -0.59200001 46 15 10
1.726 6.9899998 -0.61699998 145 116 84
1.733 6.993 -0.63 140 115 95
1.732 6.9949999 -0.62800002 51 22 8
1.7309999 6.993 -0.625 69 41 30
1.836 6.8600001 -0.60100001 60 19 1
1.693 6.9520001 -0.60500002 207 122 39
1.704 6.9640002 -0.68300003 87 39 19
1.7029999 6.9679999 -0.68000001 36 7 1
1.683 6.941 -0.66100001 101 56 37
1.678 6.9619999 -0.62400001 81 30 9
1.683 6.9580002 -0.634 117 83 58
1.716 6.9850001 -0.85299999 54 22 9
1.705 6.9829998 -0.861 83 57 42
1.791 6.961 -0.73699999 59 11 1
1.86 6.8569999 -0.74699998 131 92 77
1.863 6.8610001 -0.75099999 65 28 2
1.819 6.8660002 -0.69400001 126 59 16
1.757 6.9159999 -0.83999997 36 9 0
1.7690001 6.967 -0.78799999 25 0 0
1.79 6.9640002 -0.77999997 41 19 6
1.715 7.0240002 -0.79000002 74 32 16
1.709 7.026 -0.78299999 36 17 13
1.727 6.993 -0.736 130 106 96
1.868 6.9099998 -0.84399998 111 77 67
1.892 6.9099998 -0.84399998 68 32 18
1.839 6.8959999 -0.81599998 79 42 24
1.8380001 6.8930001 -0.81199998 94 56 37
1.834 6.8899999 -0.80500001 26 8 8
1.742 7.0300002 -0.89099997 90 57 22
1.7460001 6.934 -0.89899999 121 97 73
1.757 6.915 -0.83899999 59 19 7
1.798 6.8889999 -0.92500001 163 137 102
1.765 6.9380002 -0.94 123 95 74
1.7819999 6.9039998 -0.90100002 77 54 48
1.7970001 6.9299998 -0.93800002 198 146 107
1.849 6.9060001 -0.85299999 115 97 97
1.763 7.1700001 -0.419 188 122 72
1.7640001 7.152 -0.44499999 51 9 0
1.72 7.0100002 -0.39500001 90 66 38
1.714 7.0139999 -0.39399999 132 89 36
1.846 7.1849999 -0.38699999 116 59 14
1.813 7.1669998 -0.38299999 131 81 54
1.814 7.1690001 -0.377 154 101 51
1.816 7.1680002 -0.37599999 180 119 56
1.813 7.1630001 -0.391 136 90 41
1.822 7.164 -0.39300001 179 137 112
1.8150001 7.1760001 -0.40200001 55 12 0
1.794 7.1669998 -0.39500001 126 53 8
1.79 7.1589999 -0.40799999 142 77 39
1.801 7.1620002 -0.414 188 147 141
1.802 7.1989999 -0.375 173 141 130
1.734 7.0120001 -0.39500001 249 253 255
1.737 7.013 -0.39500001 243 243 243
1.818 7.1690001 -0.44400001 88 43 22
1.821 7.1630001 -0.45500001 47 8 0
1.774 7.1630001 -0.43900001 63 14 0
1.786 7.145 -0.456 62 23 6
1.775 7.1479998 -0.46200001 49 3 0
1.788 7.1469998 -0.417 110 42 5
1.834 7.1269999 -0.461 126 79 53
1.821 7.1300001 -0.456 69 22 2
1.8279999 7.1370001 -0.454 92 37 7
1.822 7.1570001 -0.44499999 66 19 0
1.822 7.1539998 -0.44800001 91 40 13
1.848 7.1030002 -0.458 61 38 24
1.8200001 7.099 -0.45500001 142 88 52
1.725 7.0180001 -0.46700001 43 9 0
1.727 7.0139999 -0.479 41 4 0
1.724 7.0229998 -0.43599999 40 13 2
1.811 7.1669998 -0.384 183 147 125
1.801 7.2020001 -0.38699999 166 108 97
1.801 7.2010002 -0.39199999 113 102 100
1.837 7.1729999 -0.39399999 145 96 40
1.816 7.178 -0.41999999 46 16 8
1.771 7.165 -0.34200001 142 93 79
1.818 7.1680002 -0.37200001 239 206 189
1.711 6.9569998 -0.829 72 36 12
1.707 6.9569998 -0.81900001 29 5 3
1.788 6.9390001 -0.81999999 72 41 21
1.701 6.9510002 -0.824 63 27 11
1.702 6.9359999 -0.80900002 157 118 101
1.773 6.8920002 -0.88099998 80 49 29
1.779 6.9310002 -0.95499998 73 51 38
1.808 6.902 -0.926 36 6 0
1.852 6.8530002 -0.80299997 10 2 0
1.8789999 6.848 -0.68900001 40 16 4
1.7130001 6.9660001 -0.95099998 141 125 112
1.693 6.9629998 -0.87800002 255 216 150
1.712 6.9829998 -0.81 37 14 8
1.689 6.948 -0.662 85 45 20
1.689 6.954 -0.65399998 52 4 0
1.701 6.9400001 -0.722 67 29 6
1.681 6.9359999 -0.722 64 27 8
1.683 6.9239998 -0.71899998 95 58 39
1.693 6.9359999 -0.72399998 110 74 52
1.681 6.9569998 -0.65100002 37 10 3
1.676 6.96 -0.65499997 110 95 66
1.7180001 6.9819999 -0.815 33 8 1
1.717 6.9780002 -0.81699997 195 163 140
1.749 7.0289998 -0.41499999 74 29 0
1.8380001 6.9809999 -0.70999998 156 100 75
1.8559999 6.882 -0.671 102 46 11
1.701 7.026 -0.40099999 255 233 252
1.707 6.9879999 -0.419 173 140 95
1.822 7.1560001 -0.47799999 54 32 35
1.812 7.1630001 -0.51099998 90 47 28
1.819 7.1399999 -0.45199999 74 23 6
1.822 7.1609998 -0.45899999 41 7 0
1.812 7.1020002 -0.54400003 48 20 9
1.806 7.1030002 -0.57499999 90 39 0
1.844 7.1069999 -0.47 79 35 6
1.842 7.1110001 -0.472 135 89 65
1.841 7.098 -0.46599999 64 29 7
1.8380001 7.1009998 -0.47499999 98 62 38
1.793 7.138 -0.546 101 41 17
1.78 7.1209998 -0.60500002 55 37 23
1.784 7.1149998 -0.58899999 25 1 0
1.783 7.1160002 -0.61400002 122 54 31
1.776 7.119 -0.61400002 225 173 133
1.778 7.1160002 -0.61299998 163 113 60
1.812 6.8600001 -0.70499998 90 40 3
1.811 6.8629999 -0.70200002 118 75 43
1.791 7.013 -0.70999998 124 79 50
1.878 6.862 -0.70999998 75 38 12
1.747 7.0500002 -0.70700002 63 11 0
1.818 7.1100001 -0.458 207 159 136
1.726 7.0110002 -0.56900001 28 4 2
1.729 7.0089998 -0.57200003 25 1 0
1.728 7.006 -0.53399998 29 8 5
1.723 7.0050001 -0.54400003 71 35 11
1.818 7.1079998 -0.53200001 53 34 28
1.877 6.8699999 -0.61299998 140 112 90
1.8430001 7.1059999 -0.48300001 42 4 0
1.763 7.1430001 -0.61900002 72 39 20
1.771 7.0760002 -0.62599999 96 75 84
1.774 7.073 -0.62900001 77 42 23
1.762 7.0799999 -0.60699999 107 65 41
1.761 7.0770001 -0.61900002 84 39 6
1.7640001 7.1149998 -0.62599999 39 5 0
1.786 7.1059999 -0.611 69 21 7
1.763 7.1370001 -0.58600003 60 14 0
1.774 7.1269999 -0.514 29 10 0
1.816 7.1479998 -0.51599997 54 37 45
1.7869999 7.0780001 -0.66399997 138 88 53
1.8380001 6.8639998 -0.66900003 57 32 28
1.812 7.0960002 -0.57200003 51 41 49
1.729 7.0100002 -0.58099997 28 0 0
1.73 7.006 -0.58499998 27 0 0
1.777 7.0749998 -0.63 53 26 15
1.77 7.1300001 -0.58099997 69 41 27
1.799 7.1009998 -0.579 113 72 50
1.733 7.0100002 -0.61699998 37 9 5
1.7130001 6.993 -0.61900002 37 18 12
1.7130001 7.0040002 -0.62 33 18 13
1.715 6.994 -0.62900001 29 11 9
1.7130001 6.9980001 -0.62400001 40 25 22
1.73 7.0009999 -0.66500002 37 10 3
1.73 7 -0.66799998 37 9 5
1.729 6.9749999 -0.68000001 76 41 13
1.71 6.9809999 -0.68699998 30 13 6
1.72 6.9759998 -0.69400001 232 195 169
1.6900001 6.9499998 -0.64300001 47 18 4
1.691 6.9650002 -0.653 74 37 11
1.686 6.9559999 -0.64200002 34 5 0
1.684 6.9549999 -0.63700002 181 145 111
1.7180001 6.9809999 -0.63300002 59 31 17
1.686 6.967 -0.62099999 140 102 91
1.688 6.9629998 -0.634 112 70 46
1.679 6.9400001 -0.62300003 181 138 95
1.825 6.8379998 -0.59500003 71 41 15
1.825 6.8499999 -0.58499998 109 64 35
1.825 6.8449998 -0.59100002 100 51 19
1.834 6.8439999 -0.57099998 153 103 78
1.896 6.8660002 -0.84100002 161 126 107
1.878 6.8520002 -0.847 115 86 70
1.8279999 7.1630001 -0.373 99 65 40
1.8279999 7.164 -0.37599999 157 100 47
1.76 7.1539998 -0.428 88 35 0
1.869 6.8759999 -0.66600001 89 56 37
1.853 7.105 -0.44499999 53 24 18
1.814 6.961 -0.84899998 26 6 0
1.83 6.954 -0.84399998 27 8 4
1.8279999 6.9489999 -0.852 24 9 6
1.85 6.9070001 -0.83200002 70 44 21
1.819 6.993 -0.85299999 58 19 4
1.712 6.9489999 -0.889 50 17 0
1.751 7.0079999 -0.83700001 20 5 2
1.719 6.98 -0.83600003 35 17 3
1.7029999 6.9780002 -0.773 34 10 0
1.723 6.9759998 -0.69999999 65 27 14
1.6950001 6.9749999 -0.69800001 98 50 28
1.744 7 -0.70899999 82 62 55
1.732 6.9949999 -0.65899998 52 9 0
1.743 6.987 -0.67199999 93 58 39
1.751 6.9910002 -0.69199997 97 57 31
1.715 6.993 -0.87699997 64 21 2
1.74 6.9559999 -0.94800001 25 16 1
1.693 6.9489999 -0.92299998 45 8 0
1.766 6.9990001 -0.80199999 43 6 0
1.745 7.0050001 -0.82200003 36 22 13
1.883 6.8800001 -0.639 111 79 64
1.855 6.8930001 -0.69300002 21 3 1
1.839 6.9549999 -0.72000003 78 34 7
1.8279999 6.8699999 -0.78500003 73 20 2
1.888 6.8990002 -0.76899999 59 15 6
1.898 6.8930001 -0.75800002 52 3 0
1.898 6.8920002 -0.75400001 87 34 18
1.859 6.842 -0.71399999 48 29 23
1.852 6.849 -0.72500002 183 141 116
1.878 6.8670001 -0.77499998 123 82 54
1.863 6.8569999 -0.78299999 130 111 105
1.707 6.9520001 -0.84100002 133 103 92
1.734 6.9489999 -0.75 33 2 0
1.738 6.9520001 -0.74900001 166 132 104
1.743 6.9569998 -0.74000001 32 11 6
1.737 6.973 -0.73400003 132 99 82
1.723 6.9850001 -0.60000002 83 38 7
1.7079999 6.974 -0.62 98 80 56
1.732 7.0050001 -0.611 34 5 0
1.732 6.9990001 -0.62300003 101 62 29
1.682 6.9559999 -0.60000002 133 50 6
1.669 6.954 -0.625 46 8 0
1.6799999 6.9520001 -0.66600001 180 137 86
1.682 6.9419999 -0.66500002 75 36 5
1.697 6.9629998 -0.67000002 70 41 23
1.678 6.9640002 -0.653 171 128 94
1.7180001 6.9689999 -0.83200002 162 138 126
1.7180001 6.974 -0.838 19 4 0
1.687 6.9439998 -0.85799998 134 72 35
1.7130001 6.9819999 -0.84799999 36 9 0
1.707 6.9699998 -0.847 169 152 145
1.715 6.9840002 -0.852 71 26 0
1.869 6.862 -0.75400001 46 20 5
1.865 6.8530002 -0.73900002 51 30 37
1.859 6.8449998 -0.73799998 89 72 82
1.783 6.9629998 -0.736 101 74 65
1.796 6.96 -0.73500001 25 4 0
1.848 6.8559999 -0.75300002 67 36 15
1.8710001 6.8520002 -0.81699997 135 85 52
1.758 7.0359998 -0.727 132 91 63
1.8710001 6.9070001 -0.87099999 63 26 18
1.8660001 6.8990002 -0.87699997 32 2 0
1.87 6.8920002 -0.86400002 51 21 19
1.785 6.9219999 -0.93400002 147 92 62
1.791 6.9390001 -0.94700003 46 35 17
1.852 6.8779998 -0.86699998 119 68 39
1.87 6.888 -0.889 57 15 1
1.763 7.1739998 -0.419 122 50 12
1.7640001 7.1560001 -0.44600001 57 12 6
1.717 7.0100002 -0.39500001 182 148 103
1.847 7.191 -0.39500001 169 99 91
1.812 7.1700001 -0.375 173 111 60
1.84 7.1550002 -0.396 113 74 59
1.836 7.1420002 -0.396 133 78 48
1.818 7.165 -0.44299999 100 54 31
1.775 7.1630001 -0.43900001 80 26 0
1.842 7.118 -0.45100001 79 49 38
1.837 7.198 -0.396 90 50 51
1.827 7.165 -0.39199999 125 79 30
1.8279999 7.165 -0.384 125 56 15
1.699 6.9299998 -0.815 61 33 22
1.702 6.9419999 -0.81599998 51 13 0
1.7920001 6.947 -0.80800003 75 37 18
1.7029999 6.9400001 -0.82200003 58 22 8
1.772 6.8909998 -0.87800002 62 26 10
1.813 6.8769999 -0.93300003 168 150 126
1.858 6.9400001 -0.898 86 66 68
1.727 6.9439998 -0.94700003 18 3 0
1.693 6.9679999 -0.87599999 254 211 143
1.719 7.0019999 -0.80199999 128 109 94
1.729 6.9860001 -0.84600002 111 95 106
1.724 6.9840002 -0.84299999 44 16 5
1.728 6.9840002 -0.83999997 88 77 75
1.72 6.9829998 -0.83899999 37 15 2
1.724 6.9809999 -0.83499998 26 2 0
1.693 6.9759998 -0.69499999 131 79 55
1.817 7.1599998 -0.477 46 13 4
1.822 7.1620002 -0.45699999 41 3 0
1.834 7.0999999 -0.5 110 68 54
1.834 7.0910001 -0.46700001 212 181 160
1.776 7.1240001 -0.60399997 153 96 51
1.77 7.1259999 -0.59399998 62 20 6
1.819 6.8610001 -0.69499999 135 97 60
1.728 6.9949999 -0.67199999 52 6 0
1.727 6.9949999 -0.65700001 110 73 46
1.728 7.0120001 -0.57599998 36 10 9
1.809 7.1279998 -0.52600002 59 36 22
1.874 6.8699999 -0.61000001 93 46 16
1.875 6.8769999 -0.61299998 172 106 56
1.7640001 7.0760002 -0.597 143 104 75
1.776 7.1149998 -0.61299998 74 29 0
1.771 7.1279998 -0.528 65 28 10
1.802 7.1399999 -0.53299999 117 74 67
1.811 7.0939999 -0.57300001 68 51 44
1.791 7.1170001 -0.58099997 46 16 6
1.791 7.1209998 -0.579 64 27 11
1.789 7.1209998 -0.58099997 31 2 0
1.788 7.1230001 -0.58200002 27 0 0
1.786 7.1149998 -0.58700001 21 1 0
1.724 7.0040002 -0.57800001 61 47 18
1.7869999 7.112 -0.59100002 26 3 0
1.768 7.1339998 -0.58200002 70 47 41
