ply
format ascii 1.0
comment PCL generated
element vertex 52
property float x
property float y
property float z
property uchar red
property uchar green
property uchar blue
element camera 1
property float view_px
property float view_py
property float view_pz
property float x_axisx
property float x_axisy
property float x_axisz
property float y_axisx
property float y_axisy
property float y_axisz
property float z_axisx
property float z_axisy
property float z_axisz
property float focal
property float scalex
property float scaley
property float centerx
property float centery
property int viewportx
property int viewporty
property float k1
property float k2
end_header
6.5739999 8.9879999 -0.76499999 72 55 45
6.552 8.9849997 -0.76800001 183 147 125
6.5630002 8.9890003 -0.77899998 54 37 30
6.559 8.9840002 -0.773 142 93 52
6.5570002 8.9849997 -0.77700001 74 43 25
6.5510001 8.9820004 -0.78299999 134 113 86
6.546 8.9829998 -0.76599997 55 35 24
6.5619998 8.9879999 -0.78899997 38 23 16
6.5840001 8.9820004 -0.76800001 64 50 47
6.5939999 8.9809999 -0.77899998 255 251 255
6.5949998 8.9750004 -0.76800001 148 135 129
6.5869999 8.9860001 -0.77999997 68 54 53
6.5890002 8.9770002 -0.76700002 158 148 146
6.5780001 8.9840002 -0.75300002 126 69 24
6.572 8.9860001 -0.79100001 248 238 228
6.5599999 8.9779997 -0.792 101 75 74
6.572 8.9770002 -0.787 132 122 121
6.5689998 8.9840002 -0.76899999 97 73 47
6.5619998 8.9820004 -0.75700003 140 87 37
6.5469999 8.9759998 -0.76800001 118 89 75
6.5500002 8.9750004 -0.77499998 100 80 73
6.5549998 8.974 -0.78399998 128 99 67
6.5830002 8.9770002 -0.76099998 181 170 164
6.585 8.9860001 -0.78299999 246 244 245
6.572 8.9849997 -0.77100003 122 103 97
6.5679998 8.9829998 -0.75400001 104 88 75
6.5710001 8.9759998 -0.75199997 145 89 42
6.572 8.9729996 -0.764 104 90 53
6.579 8.9720001 -0.755 145 132 123
6.5809999 8.9720001 -0.76200002 119 93 70
6.5650001 8.9759998 -0.78299999 109 88 59
6.5700002 8.9759998 -0.77700001 177 153 117
6.5669999 8.9770002 -0.76800001 116 90 57
6.585 8.974 -0.76800001 143 127 114
6.5630002 8.9759998 -0.764 168 90 24
6.5510001 8.9820004 -0.773 66 52 43
6.5879998 8.9750004 -0.76200002 128 115 107
6.5780001 8.9779997 -0.75400001 100 84 71
6.579 8.9759998 -0.75400001 117 90 73
6.5630002 8.9750004 -0.78500003 255 228 186
6.5749998 8.9770002 -0.77899998 88 74 37
6.5770001 8.9820004 -0.78299999 126 98 84
6.566 8.9770002 -0.75300002 133 106 89
6.586 8.9750004 -0.75999999 124 107 91
6.5749998 8.9750004 -0.76700002 155 137 123
6.5840001 8.9779997 -0.77700001 245 244 249
6.5819998 8.9759998 -0.77100003 252 247 251
6.586 8.9779997 -0.76599997 78 63 68
6.5760002 8.9759998 -0.76999998 232 228 227
6.572 8.9820004 -0.77899998 96 81 76
6.5669999 8.9759998 -0.75800002 166 113 61
6.5900002 8.9770002 -0.773 245 239 239
0 0 0 1 0 0 0 1 0 0 0 1 0 0 0 0 0 52 1 0 0
