ply
format ascii 1.0
comment PCL generated
element vertex 1276
property float x
property float y
property float z
property uchar red
property uchar green
property uchar blue
element camera 0
property float view_px
property float view_py
property float view_pz
property float x_axisx
property float x_axisy
property float x_axisz
property float y_axisx
property float y_axisy
property float y_axisz
property float z_axisx
property float z_axisy
property float z_axisz
property float focal
property float scalex
property float scaley
property float centerx
property float centery
property int viewportx
property int viewporty
property float k1
property float k2
end_header
3.5139999 -1.766 -0.35100001 113 88 57
3.5020001 -1.7640001 -0.35100001 54 35 28
3.3959999 -1.658 -0.235 85 64 69
3.6329999 -1.7920001 -0.34299999 101 57 12
3.6619999 -1.77 -0.34 71 50 31
3.6600001 -1.766 -0.34 77 58 43
3.687 -1.804 -0.35499999 110 67 33
3.483 -1.581 -0.403 90 80 55
3.4760001 -1.597 -0.40099999 105 82 51
3.493 -1.584 -0.40700001 167 151 125
3.4909999 -1.579 -0.40900001 51 40 20
3.4909999 -1.59 -0.39500001 175 167 154
3.4990001 -1.577 -0.426 120 100 73
3.507 -1.5779999 -0.42899999 92 72 47
3.4089999 -1.6569999 -0.27599999 93 39 11
3.3929999 -1.659 -0.27000001 63 41 30
3.408 -1.48 -0.41 162 156 158
3.4059999 -1.482 -0.41800001 118 113 119
3.4400001 -1.489 -0.41 156 138 124
3.4660001 -1.654 -0.66000003 91 59 36
3.4820001 -1.656 -0.648 174 150 140
3.4820001 -1.659 -0.65700001 70 55 52
3.48 -1.654 -0.64899999 117 83 58
3.471 -1.652 -0.66500002 102 61 39
3.5090001 -1.669 -0.80500001 86 62 50
3.5109999 -1.67 -0.796 125 98 81
3.51 -1.668 -0.80000001 88 76 60
3.4779999 -1.655 -0.662 101 71 60
3.483 -1.653 -0.66600001 114 78 52
3.471 -1.656 -0.70099998 55 27 13
3.4649999 -1.663 -0.70999998 41 18 10
3.461 -1.658 -0.70200002 29 1 0
3.4649999 -1.654 -0.69499999 74 42 21
3.3329999 -1.699 -0.74000001 69 42 21
3.309 -1.798 -0.77899998 42 24 4
3.3080001 -1.783 -0.77700001 128 82 67
3.3039999 -1.7869999 -0.75999999 131 107 59
3.3039999 -1.7970001 -0.77700001 116 115 113
3.4000001 -1.552 -0.77999997 32 0 0
3.4059999 -1.5599999 -0.787 92 44 24
3.4030001 -1.571 -0.77600002 52 24 3
3.3940001 -1.549 -0.78899997 15 0 0
3.3280001 -1.796 -0.796 57 37 13
3.2509999 -1.749 -0.69400001 168 118 69
3.23 -1.7460001 -0.65499997 122 72 39
3.2390001 -1.745 -0.671 164 113 58
3.2360001 -1.748 -0.671 151 131 106
3.237 -1.752 -0.676 135 90 51
3.391 -1.567 -0.70700002 26 5 2
3.3629999 -1.728 -0.778 245 206 165
3.3789999 -1.712 -0.77399999 158 125 90
3.3940001 -1.706 -0.77200001 131 96 58
3.3859999 -1.698 -0.778 163 129 104
3.3499999 -1.55 -0.46900001 142 106 82
3.3199999 -1.497 -0.56999999 196 137 95
3.3150001 -1.503 -0.56900001 159 95 47
3.414 -1.503 -0.67400002 104 55 22
3.414 -1.511 -0.67500001 190 115 60
3.411 -1.5089999 -0.67400002 152 92 29
3.411 -1.51 -0.67500001 201 134 82
3.4159999 -1.5190001 -0.67900002 136 73 42
3.448 -1.599 -0.59100002 98 53 12
3.3859999 -1.5470001 -0.68199998 30 13 6
3.392 -1.549 -0.68900001 142 112 101
3.323 -1.513 -0.634 58 40 38
3.3269999 -1.51 -0.62300003 52 32 23
3.3299999 -1.5190001 -0.61699998 90 73 66
3.316 -1.522 -0.66900003 30 0 0
3.3139999 -1.517 -0.65200001 50 20 12
3.323 -1.506 -0.65899998 105 77 55
3.319 -1.525 -0.64399999 174 145 131
3.3139999 -1.517 -0.64300001 87 46 24
3.3199999 -1.495 -0.60799998 59 30 14
3.325 -1.487 -0.60399997 102 56 40
3.3010001 -1.525 -0.58600003 134 83 54
3.303 -1.521 -0.58899999 66 19 0
3.306 -1.584 -0.47799999 223 182 150
3.3010001 -1.5829999 -0.47400001 101 63 40
3.3050001 -1.591 -0.479 209 165 130
3.3039999 -1.591 -0.477 247 204 170
3.312 -1.594 -0.47799999 189 153 131
3.4260001 -1.485 -0.42399999 109 100 95
3.4330001 -1.492 -0.42699999 175 161 152
3.4300001 -1.4910001 -0.42399999 148 134 125
3.4000001 -1.479 -0.44 191 155 95
3.4130001 -1.612 -0.43000001 171 131 105
3.391 -1.65 -0.37900001 163 142 157
3.3970001 -1.6569999 -0.38100001 160 134 111
3.395 -1.649 -0.38100001 145 120 98
3.369 -1.633 -0.39500001 153 108 79
3.4779999 -1.594 -0.38800001 118 98 71
3.4330001 -1.642 -0.28099999 132 125 97
3.444 -1.6849999 -0.278 182 176 142
3.4530001 -1.679 -0.28799999 77 50 33
3.437 -1.722 -0.31 46 10 0
3.4400001 -1.73 -0.31999999 94 58 24
3.4100001 -1.715 -0.34200001 90 59 38
3.404 -1.717 -0.34200001 97 69 48
3.4089999 -1.714 -0.347 120 88 67
3.358 -1.636 -0.384 140 103 84
3.3629999 -1.641 -0.38600001 85 55 29
3.355 -1.585 -0.43399999 201 156 123
3.3529999 -1.5650001 -0.428 218 166 116
3.329 -1.512 -0.43200001 233 204 134
3.323 -1.5089999 -0.43399999 248 220 147
3.322 -1.508 -0.44100001 224 193 126
3.322 -1.508 -0.43799999 199 169 97
3.349 -1.551 -0.43399999 149 116 101
3.3469999 -1.561 -0.433 120 87 68
3.221 -1.551 -0.384 71 46 42
3.3369999 -1.493 -0.41 87 52 24
3.237 -1.505 -0.40000001 176 143 90
3.2980001 -1.493 -0.396 108 72 22
3.3210001 -1.4859999 -0.40000001 124 86 63
3.3169999 -1.492 -0.39899999 33 15 0
3.279 -1.569 -0.39500001 92 67 62
3.25 -1.5829999 -0.38800001 105 75 51
3.253 -1.576 -0.39399999 74 39 11
3.2679999 -1.581 -0.389 206 187 144
3.2690001 -1.577 -0.39500001 116 88 84
3.283 -1.561 -0.40400001 190 156 119
3.2950001 -1.564 -0.41600001 153 129 85
3.2479999 -1.594 -0.389 225 185 124
3.2409999 -1.553 -0.43000001 132 83 16
3.23 -1.574 -0.412 146 98 60
3.227 -1.653 -0.31099999 167 121 85
3.2279999 -1.653 -0.31299999 189 145 106
3.234 -1.656 -0.308 172 120 62
3.3559999 -1.646 -0.28299999 160 118 94
3.335 -1.652 -0.278 169 156 147
3.3269999 -1.656 -0.28999999 143 91 41
3.3399999 -1.658 -0.28999999 174 136 113
3.3559999 -1.65 -0.28999999 239 207 186
3.359 -1.6160001 -0.43700001 148 103 72
3.339 -1.603 -0.43099999 150 112 63
3.348 -1.767 -0.461 162 141 122
3.3440001 -1.76 -0.45100001 244 236 217
3.342 -1.774 -0.463 196 184 162
3.471 -1.6440001 -0.59299999 22 3 5
3.5009999 -1.651 -0.64899999 42 9 0
3.5020001 -1.642 -0.66500002 58 34 22
3.4909999 -1.646 -0.65700001 122 96 71
3.3710001 -1.799 -0.47600001 11 0 0
3.3859999 -1.799 -0.47299999 90 45 14
3.3210001 -1.803 -0.48100001 208 182 149
3.335 -1.803 -0.486 215 204 184
3.3329999 -1.806 -0.48100001 242 234 215
3.3280001 -1.812 -0.47600001 83 44 13
3.3299999 -1.795 -0.48699999 251 234 214
3.3340001 -1.548 -0.45199999 51 30 25
3.3269999 -1.553 -0.463 220 195 155
3.3199999 -1.545 -0.461 163 137 102
3.3199999 -1.545 -0.458 209 183 146
3.3510001 -1.55 -0.45699999 97 61 45
3.464 -1.601 -0.45500001 38 13 6
3.441 -1.551 -0.433 103 90 82
3.438 -1.5470001 -0.42199999 220 200 189
3.4430001 -1.5470001 -0.42399999 106 90 74
3.3870001 -1.546 -0.43900001 202 148 101
3.421 -1.605 -0.44100001 192 139 105
3.362 -1.571 -0.454 255 244 197
3.23 -1.508 -0.72000003 26 2 0
3.2090001 -1.526 -0.82700002 47 12 0
3.1900001 -1.518 -0.82999998 135 117 107
3.1989999 -1.511 -0.83200002 86 57 41
3.1989999 -1.524 -0.83499998 63 32 12
3.2279999 -1.497 -0.70300001 91 73 63
3.243 -1.499 -0.66799998 24 5 0
3.2460001 -1.511 -0.66399997 70 47 33
3.243 -1.511 -0.662 23 3 0
3.2290001 -1.484 -0.69999999 49 29 18
3.2320001 -1.487 -0.70300001 38 16 2
3.2820001 -1.516 -0.71200001 93 74 59
3.2550001 -1.473 -0.73500001 89 88 93
3.2679999 -1.457 -0.74000001 85 75 76
3.2679999 -1.467 -0.74699998 87 81 85
3.2409999 -1.473 -0.74199998 104 101 108
3.2490001 -1.474 -0.755 39 12 1
3.29 -1.524 -0.74299997 23 6 0
3.2969999 -1.523 -0.75099999 29 14 9
3.293 -1.527 -0.75400001 24 6 2
3.375 -1.525 -0.69400001 24 5 1
3.3800001 -1.511 -0.69 77 22 1
3.3859999 -1.527 -0.69999999 58 21 5
3.398 -1.5140001 -0.69999999 116 93 79
3.3610001 -1.528 -0.69999999 131 111 100
3.368 -1.53 -0.70300001 100 66 38
3.3559999 -1.531 -0.69700003 25 5 0
3.3239999 -1.501 -0.699 53 35 23
3.3 -1.516 -0.67799997 63 45 45
3.296 -1.5190001 -0.69400001 40 21 14
3.3069999 -1.528 -0.67799997 26 2 0
3.2939999 -1.516 -0.66900003 32 5 0
3.27 -1.503 -0.67199999 32 12 3
3.28 -1.506 -0.67500001 69 32 13
3.2839999 -1.5140001 -0.667 22 3 0
3.2460001 -1.506 -0.71899998 51 22 16
3.1730001 -1.535 -0.76300001 69 47 26
3.224 -1.75 -0.68099999 238 202 170
3.2320001 -1.7539999 -0.68199998 83 46 17
3.224 -1.75 -0.67900002 71 50 33
3.2249999 -1.752 -0.671 93 52 30
3.2190001 -1.749 -0.67699999 255 254 222
3.2360001 -1.7410001 -0.67900002 255 250 205
3.233 -1.749 -0.67000002 203 168 130
3.2449999 -1.7539999 -0.69099998 203 141 68
3.2509999 -1.751 -0.69700003 134 114 90
3.2379999 -1.753 -0.68699998 82 45 26
3.2390001 -1.755 -0.69199997 80 46 11
3.2409999 -1.753 -0.70200002 60 33 4
3.243 -1.7539999 -0.70300001 79 48 17
3.2479999 -1.758 -0.71100003 220 182 143
3.3710001 -1.897 -0.574 140 119 90
3.3369999 -1.798 -0.48199999 188 177 159
3.3380001 -1.733 -0.41600001 127 125 126
3.325 -1.73 -0.40000001 55 43 43
3.3299999 -1.716 -0.41800001 165 118 62
3.323 -1.747 -0.417 211 172 113
3.326 -1.7589999 -0.45300001 142 131 125
3.309 -1.755 -0.44100001 238 188 127
3.329 -1.768 -0.458 217 218 202
3.3610001 -1.804 -0.41999999 106 78 66
3.359 -1.7920001 -0.40599999 147 137 127
3.352 -1.802 -0.419 249 199 128
3.346 -1.801 -0.417 104 74 48
3.2019999 -1.827 -0.41600001 191 139 89
3.2079999 -1.8380001 -0.43000001 91 56 36
3.2130001 -1.8279999 -0.419 166 121 80
3.1029999 -1.8200001 -0.347 127 65 4
3.1289999 -1.786 -0.375 97 47 22
3.1500001 -1.899 -0.42399999 219 170 129
3.0910001 -1.84 -0.331 102 81 78
3.0969999 -1.847 -0.32800001 53 13 0
3.0999999 -1.8329999 -0.331 95 76 72
3.0999999 -1.823 -0.329 169 132 103
3.0929999 -1.834 -0.33500001 127 75 53
3.191 -1.875 -0.47499999 223 185 138
3.204 -1.897 -0.48199999 246 237 196
3.1930001 -1.896 -0.48300001 133 110 76
3.1429999 -1.558 -0.62199998 66 46 47
3.1559999 -1.571 -0.63 53 24 6
3.154 -1.572 -0.62900001 50 31 17
3.2130001 -1.604 -0.47499999 247 230 204
3.2130001 -1.603 -0.477 238 213 191
3.2950001 -1.52 -0.69999999 14 0 0
3.286 -1.524 -0.69300002 50 33 26
3.289 -1.515 -0.66799998 84 60 50
3.2839999 -1.522 -0.69800001 9 0 0
3.402 -1.576 -0.78100002 102 66 52
3.3989999 -1.5650001 -0.70899999 23 4 0
3.296 -1.709 -0.727 99 68 37
3.279 -1.744 -0.74000001 241 182 124
3.306 -1.712 -0.73199999 161 119 71
3.3099999 -1.705 -0.73699999 82 44 21
3.451 -1.626 -0.597 206 165 133
3.3399999 -1.691 -0.73199999 158 125 82
3.326 -1.7 -0.73000002 129 110 78
3.3310001 -1.6950001 -0.73100001 176 124 67
3.2219999 -1.742 -0.63999999 151 131 107
3.2219999 -1.738 -0.64399999 231 213 191
3.3069999 -1.424 -0.64899999 95 55 29
3.299 -1.424 -0.64200002 112 67 44
3.309 -1.4220001 -0.64499998 63 40 26
3.3199999 -1.476 -0.574 61 25 0
3.1340001 -1.571 -0.648 53 18 0
3.115 -1.566 -0.64300001 87 34 16
3.1659999 -1.648 -0.46000001 157 109 69
3.165 -1.651 -0.45699999 94 67 50
3.171 -1.668 -0.456 150 132 118
3.1600001 -1.6619999 -0.44999999 49 32 16
3.122 -1.743 -0.391 89 54 24
3.1159999 -1.729 -0.38999999 103 72 44
3.125 -1.733 -0.40099999 136 103 70
3.1259999 -1.756 -0.40400001 56 40 40
3.122 -1.747 -0.389 123 91 80
3.1240001 -1.765 -0.403 96 69 60
3.1210001 -1.742 -0.384 91 41 16
3.128 -1.706 -0.373 151 112 69
3.1240001 -1.8380001 -0.31 141 77 41
3.1229999 -1.821 -0.31099999 109 89 90
3.1140001 -1.7410001 -0.375 102 53 21
3.122 -1.726 -0.373 104 68 32
3.1199999 -1.7410001 -0.37099999 170 125 106
3.128 -1.717 -0.37099999 118 89 49
3.1289999 -1.7029999 -0.37799999 126 85 41
3.1270001 -1.7079999 -0.382 156 119 67
3.1470001 -1.681 -0.42899999 70 46 34
3.1389999 -1.6950001 -0.412 166 110 61
3.145 -1.693 -0.42399999 69 33 7
3.1389999 -1.652 -0.45100001 202 127 60
3.152 -1.647 -0.45199999 151 100 57
3.145 -1.665 -0.45100001 125 75 38
3.1860001 -1.707 -0.45899999 101 58 24
3.191 -1.7029999 -0.45199999 249 220 186
3.1889999 -1.697 -0.45300001 187 130 77
3.22 -1.6950001 -0.44299999 190 156 108
3.2030001 -1.6799999 -0.44600001 208 183 143
3.177 -1.659 -0.45699999 104 50 14
3.1789999 -1.652 -0.45500001 153 102 57
3.1789999 -1.743 -0.67799997 73 47 22
3.471 -1.451 -0.85100001 9 1 0
3.464 -1.447 -0.84899998 38 27 25
3.4330001 -1.4220001 -0.88300002 134 108 95
3.447 -1.419 -0.87 101 76 69
3.4449999 -1.42 -0.86199999 30 5 1
3.451 -1.4299999 -0.84399998 67 33 21
3.454 -1.413 -0.847 17 5 7
3.47 -1.4630001 -0.96899998 127 110 102
3.46 -1.446 -0.95899999 135 116 110
3.47 -1.4630001 -0.96399999 137 119 115
3.471 -1.472 -0.958 5 1 0
3.4349999 -1.408 -0.91100001 145 105 79
3.4289999 -1.408 -0.91000003 35 24 2
3.4519999 -1.408 -0.90200001 41 13 2
3.4549999 -1.413 -0.90499997 47 32 29
3.46 -1.411 -0.89600003 77 50 39
3.493 -1.415 -0.89499998 8 4 1
3.487 -1.414 -0.88599998 105 81 77
3.4289999 -1.447 -0.89099997 167 145 132
3.4289999 -1.447 -0.89399999 194 171 155
3.438 -1.449 -0.89200002 51 29 16
3.1389999 -1.2309999 -0.83099997 87 43 6
3.132 -1.229 -0.83200002 73 50 34
3.516 -1.429 -0.94099998 14 0 0
3.513 -1.4299999 -0.94300002 120 110 111
3.5150001 -1.421 -0.93400002 28 17 15
3.493 -1.431 -0.95700002 13 4 5
3.5020001 -1.427 -0.94800001 5 0 0
3.448 -1.432 -0.93400002 217 200 174
3.4660001 -1.455 -0.949 107 99 97
3.46 -1.4299999 -0.963 75 51 47
3.4660001 -1.424 -0.91799998 21 7 6
3.4560001 -1.413 -0.92400002 119 91 80
3.448 -1.404 -0.91799998 96 69 52
3.447 -1.404 -0.917 18 1 0
3.4460001 -1.402 -0.91900003 50 30 19
3.4879999 -1.425 -0.93900001 90 70 61
3.471 -1.428 -0.94300002 23 13 11
3.4949999 -1.409 -0.91000003 76 60 34
3.49 -1.419 -0.903 18 7 3
3.5090001 -1.452 -0.95599997 25 15 13
3.5109999 -1.454 -0.95599997 14 4 3
3.5079999 -1.4299999 -0.949 101 84 77
3.5109999 -1.438 -0.949 27 15 15
3.54 -1.615 -0.90100002 142 119 113
3.5409999 -1.617 -0.90600002 24 10 9
3.5380001 -1.6160001 -0.90799999 39 22 12
3.5550001 -1.424 -0.83999997 120 113 120
3.1270001 -1.205 -0.89700001 103 102 108
3.2609999 -1.363 -0.97100002 85 68 61
3.256 -1.359 -0.95499998 9 3 3
3.2850001 -1.309 -0.90100002 110 78 53
3.526 -1.4220001 -0.82700002 42 15 6
3.516 -1.42 -0.75800002 103 93 101
3.53 -1.424 -0.75599998 158 106 49
3.553 -1.678 -0.87599999 98 80 58
3.553 -1.677 -0.86199999 128 109 95
3.517 -1.467 -0.83099997 51 33 19
3.5220001 -1.466 -0.81999999 63 26 0
3.5179999 -1.474 -0.82700002 126 100 85
3.5369999 -1.433 -0.85100001 43 25 23
3.5439999 -1.447 -0.85100001 85 74 78
3.5469999 -1.441 -0.84899998 11 0 0
3.559 -1.4400001 -0.829 33 16 8
3.559 -1.443 -0.82499999 36 18 6
3.5339999 -1.456 -0.77399999 88 51 24
3.5320001 -1.447 -0.778 42 23 16
3.529 -1.461 -0.77600002 89 41 5
3.5309999 -1.4630001 -0.80800003 40 17 9
3.523 -1.475 -0.81300002 28 14 3
3.6040001 -1.778 -0.41999999 108 81 62
3.595 -1.767 -0.42399999 79 32 2
3.585 -1.7970001 -0.43799999 226 211 206
3.5450001 -1.563 -0.81999999 65 33 22
3.5280001 -1.5700001 -0.81300002 168 127 95
3.5309999 -1.576 -0.81599998 160 117 74
3.533 -1.4630001 -0.755 81 32 15
3.5420001 -1.4529999 -0.76099998 248 197 134
3.5369999 -1.454 -0.75199997 32 12 5
3.5 -1.594 -0.57700002 138 125 70
3.4949999 -1.592 -0.57499999 82 44 8
3.493 -1.584 -0.57599998 108 61 5
3.54 -1.607 -0.60100001 75 35 0
3.5250001 -1.46 -0.75099999 55 29 6
3.5 -1.552 -0.745 109 61 21
3.4579999 -1.516 -0.74000001 111 66 33
3.4579999 -1.508 -0.74299997 138 96 58
3.5079999 -1.587 -0.699 30 11 4
3.5009999 -1.586 -0.70499998 57 40 30
3.5 -1.5829999 -0.68300003 38 20 18
3.5350001 -1.624 -0.708 99 85 74
3.5339999 -1.62 -0.699 29 5 0
3.5339999 -1.62 -0.70499998 38 15 7
3.527 -1.624 -0.704 81 46 8
3.6029999 -1.614 -0.414 72 26 2
3.6389999 -1.7920001 -0.42399999 205 141 79
3.651 -1.7869999 -0.39500001 58 46 34
3.648 -1.789 -0.38600001 255 224 170
3.5880001 -1.737 -0.38800001 198 191 185
3.5780001 -1.734 -0.39899999 163 155 142
3.5899999 -1.735 -0.391 182 177 171
3.5940001 -1.7309999 -0.38299999 56 38 24
3.5869999 -1.738 -0.384 136 129 123
3.529 -1.7539999 -0.35800001 108 71 27
3.5380001 -1.768 -0.36199999 234 207 190
3.552 -1.761 -0.36199999 160 132 93
3.615 -1.755 -0.389 247 225 186
3.622 -1.752 -0.39399999 75 64 60
3.622 -1.753 -0.38999999 180 167 161
3.6199999 -1.755 -0.38699999 70 57 51
3.6159999 -1.757 -0.39199999 238 215 173
3.602 -1.751 -0.39399999 150 120 92
3.6129999 -1.757 -0.38299999 101 84 74
3.6370001 -1.7589999 -0.38499999 158 145 139
3.6329999 -1.758 -0.382 188 174 171
3.543 -1.436 -0.76099998 107 63 28
3.53 -1.446 -0.74699998 143 111 64
3.53 -1.45 -0.74699998 151 119 68
3.457 -1.5039999 -0.74400002 194 153 107
3.4549999 -1.507 -0.73699999 183 151 126
3.457 -1.5039999 -0.74699998 244 204 152
3.457 -1.5039999 -0.75 225 176 120
3.5120001 -1.454 -0.773 37 14 8
3.4979999 -1.459 -0.76599997 33 4 0
3.507 -1.451 -0.77399999 41 13 9
3.4170001 -1.483 -0.68300003 144 102 62
3.4890001 -1.426 -0.74900001 50 13 0
3.497 -1.431 -0.75099999 99 86 78
3.322 -1.401 -0.92799997 99 93 97
3.3099999 -1.397 -0.93699998 47 20 13
3.309 -1.392 -0.94 34 11 5
3.3139999 -1.3940001 -0.92699999 34 5 1
3.319 -1.479 -0.96200001 14 8 12
3.302 -1.4579999 -0.95599997 17 6 2
3.2809999 -1.446 -0.85799998 94 90 91
3.2739999 -1.446 -0.86199999 139 95 84
3.2809999 -1.444 -0.85500002 81 77 78
3.283 -1.451 -0.86699998 100 96 97
3.2820001 -1.452 -0.87699997 67 50 43
3.2720001 -1.4529999 -0.86900002 87 69 67
3.263 -1.449 -0.87199998 14 0 0
3.2709999 -1.318 -0.89099997 168 123 90
3.2709999 -1.319 -0.889 139 101 88
3.28 -1.3150001 -0.88999999 45 21 17
3.2950001 -1.346 -0.88200003 45 21 9
3.3050001 -1.347 -0.89099997 60 38 17
3.303 -1.359 -0.88200003 92 85 92
3.1630001 -1.316 -0.92900002 96 89 97
3.1600001 -1.3150001 -0.93300003 15 5 4
3.1589999 -1.314 -0.92400002 85 66 62
3.148 -1.245 -0.94099998 37 28 21
3.1489999 -1.245 -0.93599999 33 23 14
3.164 -1.248 -0.94499999 26 6 0
3.1389999 -1.219 -0.95499998 152 129 121
3.4319999 -1.492 -0.41499999 174 157 147
3.4389999 -1.489 -0.41800001 142 126 113
3.411 -1.647 -0.26899999 56 14 0
3.4189999 -1.647 -0.28099999 96 60 24
3.4189999 -1.6670001 -0.257 63 27 13
3.4200001 -1.6619999 -0.241 102 65 39
3.4300001 -1.607 -0.428 174 132 107
3.4690001 -1.622 -0.42300001 228 219 176
3.4579999 -1.622 -0.42199999 124 114 87
3.471 -1.6289999 -0.42199999 143 122 103
3.4790001 -1.613 -0.43399999 110 106 107
3.471 -1.6289999 -0.39300001 113 101 77
3.4389999 -1.403 -0.92199999 58 35 29
3.4360001 -1.406 -0.91799998 10 0 0
3.5050001 -1.41 -0.90700001 11 2 3
3.4949999 -1.4170001 -0.87699997 116 93 79
3.5090001 -1.419 -0.89999998 8 0 2
3.5120001 -1.423 -0.898 8 0 0
3.5109999 -1.419 -0.92900002 17 6 2
3.5179999 -1.42 -0.926 72 58 57
3.4860001 -1.425 -0.93400002 6 0 0
3.4679999 -1.41 -0.935 55 29 4
3.457 -1.413 -0.93099999 63 41 27
3.2969999 -1.313 -0.884 6 0 0
3.279 -1.359 -0.93699998 87 66 63
3.299 -1.325 -0.90700001 7 2 6
3.2980001 -1.346 -0.92799997 43 22 17
3.293 -1.332 -0.91900003 69 50 36
3.3010001 -1.3380001 -0.91399997 4 0 3
3.306 -1.316 -0.889 8 0 0
3.0439999 -1.355 -0.866 74 46 34
3.039 -1.354 -0.86400002 129 106 88
3.05 -1.351 -0.866 32 4 0
3.062 -1.4680001 -0.86000001 39 16 10
3.0309999 -1.352 -0.87300003 174 148 133
3.03 -1.35 -0.88499999 27 6 3
3.033 -1.35 -0.88300002 43 16 7
3.0380001 -1.35 -0.88 55 32 16
3.096 -1.3559999 -0.92500001 118 105 97
3.098 -1.353 -0.93099999 94 67 56
3.0969999 -1.351 -0.92699999 196 166 155
3.0869999 -1.321 -0.94800001 54 0 0
3.0899999 -1.329 -0.94800001 84 57 40
3.096 -1.324 -0.95700002 15 1 0
3.0769999 -1.298 -0.89399999 79 33 20
3.0829999 -1.316 -0.90700001 120 96 84
3.082 -1.303 -0.889 76 40 18
3.082 -1.303 -0.898 71 39 24
3.095 -1.326 -0.95300001 9 0 0
3.0610001 -1.355 -0.86799997 124 94 86
3.0599999 -1.354 -0.861 131 86 53
3.056 -1.353 -0.86500001 34 5 0
3.0840001 -1.344 -0.91500002 177 138 99
3.0869999 -1.3380001 -0.92000002 75 23 2
3.1199999 -1.494 -0.91100001 13 2 0
3.115 -1.49 -0.90899998 62 35 26
3.1240001 -1.494 -0.91000003 55 22 13
3.1559999 -1.336 -0.94700003 54 33 30
3.1670001 -1.35 -0.93199998 70 47 31
3.1530001 -1.341 -0.94400001 93 76 66
3.165 -1.344 -0.93099999 80 52 31
3.1730001 -1.355 -0.935 54 32 18
3.171 -1.352 -0.93300003 102 79 61
3.1500001 -1.3430001 -0.949 96 86 85
3.1110001 -1.352 -0.91799998 81 53 39
3.125 -1.355 -0.92000002 91 76 69
3.128 -1.337 -0.92799997 33 15 5
3.1329999 -1.344 -0.94199997 23 0 0
3.1340001 -1.344 -0.94 54 14 6
3.108 -1.353 -0.917 31 13 1
3.109 -1.352 -0.91399997 224 203 186
3.079 -1.314 -0.85600001 190 129 100
3.0569999 -1.493 -0.69999999 182 128 81
3.053 -1.498 -0.745 57 34 0
3.063 -1.493 -0.755 63 35 13
3.0999999 -1.472 -0.833 142 119 111
3.1059999 -1.442 -0.86400002 55 37 25
3.1040001 -1.443 -0.85799998 93 74 57
3.1010001 -1.441 -0.861 155 133 120
3.0639999 -1.336 -0.83499998 250 207 103
3.0669999 -1.354 -0.86400002 24 0 0
3.1059999 -1.479 -0.91000003 15 3 5
3.108 -1.476 -0.90100002 119 103 90
3.1170001 -1.489 -0.90399998 140 126 97
3.1099999 -1.45 -0.86900002 158 137 118
3.108 -1.4529999 -0.86699998 62 45 38
3.0999999 -1.448 -0.861 169 147 136
3.102 -1.4630001 -0.861 137 110 83
3.102 -1.47 -0.85500002 191 150 120
3.1040001 -1.46 -0.903 107 73 48
3.0880001 -1.46 -0.898 30 10 0
3.0940001 -1.4579999 -0.912 54 18 2
3.1240001 -1.449 -0.88700002 67 39 25
3.128 -1.448 -0.88999999 41 15 2
3.1199999 -1.45 -0.87300003 77 47 39
3.1099999 -1.457 -0.87099999 136 93 61
3.171 -1.515 -0.85699999 138 94 55
3.151 -1.526 -0.84899998 75 45 34
3.1159999 -1.544 -0.62800002 65 38 31
3.1159999 -1.552 -0.63099998 252 216 154
3.1199999 -1.51 -0.67699999 45 11 1
3.0899999 -1.507 -0.66299999 239 180 146
3.0829999 -1.502 -0.66500002 116 47 6
3.098 -1.53 -0.662 201 132 93
3.112 -1.5140001 -0.69199997 62 36 21
3.076 -1.497 -0.65700001 190 136 98
3.0550001 -1.324 -0.84899998 93 41 17
3.0680001 -1.337 -0.84899998 63 20 0
3.0580001 -1.325 -0.847 87 53 7
3.0539999 -1.3430001 -0.86699998 71 52 38
3.063 -1.346 -0.87199998 66 24 0
3.0710001 -1.318 -0.85500002 52 22 0
3.062 -1.322 -0.847 48 29 23
3.0739999 -1.324 -0.852 57 27 17
3.053 -1.4910001 -0.713 155 115 89
3.0409999 -1.53 -0.78500003 37 19 7
3.174 -1.738 -0.76200002 114 88 65
3.1719999 -1.733 -0.76200002 137 118 101
3.26 -1.747 -0.73000002 98 73 33
3.257 -1.748 -0.73100001 139 101 78
3.197 -1.748 -0.79699999 44 4 0
3.188 -1.747 -0.79699999 43 24 10
3.2 -1.748 -0.80699998 8 0 0
3.2420001 -1.804 -0.79799998 122 105 85
3.1730001 -1.7359999 -0.787 102 77 55
3.076 -1.488 -0.77100003 93 51 3
3.0929999 -1.469 -0.796 129 91 44
3.092 -1.48 -0.79500002 49 13 1
3.0969999 -1.477 -0.824 190 135 79
3.0769999 -1.489 -0.77999997 13 3 2
3.0940001 -1.4680001 -0.792 115 72 29
3.05 -1.357 -0.85500002 196 165 136
3.0369999 -1.476 -0.838 108 94 85
3.2869999 -1.4630001 -0.79400003 119 108 102
3.2820001 -1.457 -0.787 75 50 43
3.165 -1.536 -0.64200002 53 10 0
3.164 -1.563 -0.639 50 31 14
3.1619999 -1.5599999 -0.66600001 13 0 0
3.1570001 -1.566 -0.64499998 18 0 0
3.233 -1.467 -0.56599998 78 67 73
3.2420001 -1.479 -0.57099998 51 15 0
3.243 -1.472 -0.57700002 49 20 6
3.237 -1.474 -0.56300002 128 101 82
3.164 -1.55 -0.625 42 14 2
3.2360001 -1.482 -0.71100003 96 91 95
3.244 -1.477 -0.713 92 87 93
3.234 -1.479 -0.72600001 52 23 7
3.2279999 -1.482 -0.73000002 15 7 5
3.227 -1.488 -0.722 21 2 0
3.2309999 -1.484 -0.708 24 0 0
3.148 -1.511 -0.70899999 108 73 54
3.155 -1.5 -0.70599997 249 229 170
3.1500001 -1.5 -0.70599997 62 18 0
3.349 -1.492 -0.405 117 81 47
3.3069999 -1.494 -0.40099999 162 145 129
3.299 -1.499 -0.449 239 207 192
3.2820001 -1.5140001 -0.41499999 164 129 97
3.2850001 -1.512 -0.42199999 210 192 172
3.3099999 -1.487 -0.43799999 171 134 64
3.312 -1.5 -0.44299999 60 43 27
3.3670001 -1.483 -0.40799999 158 113 84
3.4130001 -1.47 -0.41600001 185 177 175
3.4100001 -1.471 -0.40200001 34 20 9
3.3299999 -1.674 -0.234 115 96 82
3.365 -1.648 -0.257 64 46 26
3.3559999 -1.655 -0.25 140 110 102
3.359 -1.635 -0.27000001 127 82 59
3.369 -1.642 -0.27200001 179 135 108
3.372 -1.6569999 -0.28999999 104 87 77
3.3789999 -1.658 -0.27599999 85 65 54
3.3789999 -1.6619999 -0.29300001 39 23 8
3.378 -1.653 -0.26800001 74 51 33
3.391 -1.659 -0.26199999 97 76 57
3.4059999 -1.655 -0.271 78 33 12
3.286 -1.492 -0.42899999 127 101 84
3.293 -1.495 -0.43399999 169 141 119
3.3039999 -1.512 -0.43200001 82 56 39
3.3039999 -1.51 -0.42699999 171 148 132
3.3299999 -1.494 -0.43599999 33 23 14
3.312 -1.484 -0.43399999 204 169 101
3.2869999 -1.4680001 -0.55599999 63 18 0
3.2780001 -1.4630001 -0.55299997 227 164 67
3.283 -1.4579999 -0.55699998 131 82 42
3.293 -1.45 -0.56300002 110 84 23
3.279 -1.439 -0.56800002 92 48 13
3.3740001 -1.5420001 -0.454 173 125 85
3.3570001 -1.5470001 -0.447 131 108 90
3.359 -1.546 -0.44299999 93 68 48
3.3659999 -1.54 -0.449 58 30 19
3.3640001 -1.541 -0.43599999 201 171 147
3.3659999 -1.5599999 -0.44 68 51 21
3.3629999 -1.545 -0.43399999 179 153 128
3.359 -1.549 -0.43399999 255 233 207
3.362 -1.562 -0.43700001 182 127 73
3.401 -1.488 -0.428 78 70 67
3.3770001 -1.531 -0.43399999 114 86 65
3.428 -1.553 -0.426 22 5 0
3.4430001 -1.5470001 -0.41999999 127 112 91
3.484 -1.571 -0.41299999 111 103 90
3.3340001 -1.4960001 -0.412 100 65 35
3.326 -1.494 -0.41499999 94 77 57
3.316 -1.507 -0.396 177 138 95
3.3199999 -1.508 -0.41800001 182 148 120
3.3 -1.511 -0.42399999 100 72 50
3.3039999 -1.51 -0.456 221 185 173
3.3080001 -1.505 -0.449 213 182 127
3.3010001 -1.506 -0.45500001 120 96 50
3.322 -1.503 -0.44800001 128 114 101
3.1559999 -1.544 -0.373 229 196 153
3.1359999 -1.6950001 -0.38999999 227 174 124
3.2049999 -1.704 -0.308 116 75 55
3.2019999 -1.687 -0.301 103 72 54
3.204 -1.689 -0.30399999 89 61 40
3.1440001 -1.743 -0.41999999 229 166 89
3.1440001 -1.742 -0.41999999 92 66 39
3.1440001 -1.729 -0.41600001 99 64 32
3.1289999 -1.735 -0.412 114 79 47
3.1719999 -1.7690001 -0.396 122 75 29
3.1400001 -1.7589999 -0.414 179 125 61
3.132 -1.77 -0.40099999 128 92 58
3.1400001 -1.76 -0.405 139 90 32
3.1630001 -1.776 -0.39700001 108 92 59
3.1619999 -1.744 -0.42500001 188 127 72
3.1359999 -1.745 -0.419 119 86 55
3.138 -1.742 -0.41600001 87 56 25
3.1830001 -1.829 -0.40900001 245 189 138
3.1619999 -1.704 -0.35800001 177 161 164
3.178 -1.702 -0.35800001 66 50 51
3.1659999 -1.7180001 -0.36000001 69 45 43
3.168 -1.71 -0.361 60 41 24
3.154 -1.778 -0.278 147 99 59
3.1589999 -1.79 -0.28099999 143 110 93
3.1589999 -1.7920001 -0.28200001 95 49 25
3.1760001 -1.726 -0.28099999 128 100 50
3.1630001 -1.742 -0.27200001 118 89 57
3.1670001 -1.739 -0.27900001 66 37 0
3.1760001 -1.733 -0.273 184 112 62
3.5090001 -1.8049999 -0.345 78 64 53
3.497 -1.785 -0.34599999 210 122 74
3.4890001 -1.784 -0.34999999 233 204 162
3.4820001 -1.789 -0.34999999 148 124 100
3.562 -1.799 -0.34599999 109 72 30
3.5580001 -1.801 -0.35499999 115 89 72
3.5450001 -1.79 -0.345 174 146 109
3.543 -1.785 -0.338 58 47 29
3.4920001 -1.766 -0.35499999 170 135 103
3.4820001 -1.78 -0.35499999 88 53 25
3.4920001 -1.7970001 -0.384 160 118 80
3.5 -1.794 -0.389 149 66 26
3.4119999 -1.647 -0.42500001 152 121 101
3.411 -1.653 -0.412 106 60 44
3.411 -1.627 -0.43200001 177 168 137
3.4070001 -1.645 -0.405 72 34 15
3.4089999 -1.763 -0.412 192 141 75
3.4119999 -1.767 -0.42199999 151 133 97
3.411 -1.767 -0.41800001 176 158 120
3.4030001 -1.756 -0.42199999 33 6 0
3.4330001 -1.758 -0.428 170 151 134
3.434 -1.744 -0.412 130 108 94
3.4260001 -1.76 -0.40700001 92 70 82
3.4230001 -1.745 -0.447 231 168 114
3.4200001 -1.743 -0.454 203 146 91
3.418 -1.738 -0.435 153 109 70
3.4170001 -1.7410001 -0.43900001 213 170 128
3.3499999 -1.683 -0.43399999 233 205 158
3.3410001 -1.689 -0.43700001 255 240 194
3.346 -1.704 -0.428 136 132 133
3.348 -1.699 -0.426 252 242 193
3.3369999 -1.704 -0.43000001 219 188 159
3.3329999 -1.699 -0.43399999 156 129 102
3.424 -1.7309999 -0.37599999 88 55 20
3.418 -1.732 -0.38100001 231 199 161
3.424 -1.732 -0.38600001 189 158 127
3.427 -1.735 -0.38100001 129 99 63
3.4360001 -1.734 -0.39899999 153 127 110
3.414 -1.751 -0.403 182 127 71
3.4219999 -1.7539999 -0.40200001 212 147 81
3.448 -1.734 -0.41 166 143 127
3.441 -1.733 -0.38699999 213 200 183
3.441 -1.745 -0.37200001 248 230 206
3.4579999 -1.734 -0.38100001 255 224 172
3.4619999 -1.734 -0.38100001 193 157 107
3.4960001 -1.732 -0.38600001 125 107 93
3.4920001 -1.7309999 -0.38499999 140 129 111
3.4990001 -1.733 -0.37400001 228 215 196
3.4860001 -1.726 -0.36399999 59 18 0
3.4200001 -1.618 -0.43700001 145 101 74
3.4460001 -1.6109999 -0.45500001 77 32 9
3.4790001 -1.7180001 -0.34900001 137 122 101
3.4849999 -1.721 -0.345 62 30 7
3.4879999 -1.669 -0.39399999 200 158 133
3.4990001 -1.6619999 -0.39399999 205 161 132
3.503 -1.66 -0.39500001 205 164 132
3.506 -1.664 -0.39199999 205 169 145
3.483 -1.599 -0.40400001 96 73 42
3.4630001 -1.624 -0.40200001 66 50 27
3.4690001 -1.625 -0.39700001 68 53 30
3.47 -1.623 -0.40400001 156 145 91
3.4649999 -1.608 -0.419 102 81 60
3.46 -1.617 -0.40799999 110 93 109
3.4949999 -1.647 -0.40799999 88 54 27
3.4960001 -1.632 -0.426 77 44 27
3.494 -1.619 -0.42500001 191 154 125
3.4979999 -1.638 -0.42699999 64 32 17
3.5090001 -1.646 -0.419 57 42 23
3.4890001 -1.6289999 -0.43599999 60 33 24
3.493 -1.633 -0.435 49 23 10
3.4909999 -1.628 -0.412 81 47 20
3.4909999 -1.635 -0.41600001 75 41 14
3.4979999 -1.638 -0.41800001 70 34 10
3.4960001 -1.67 -0.40900001 157 140 122
3.4979999 -1.666 -0.40799999 205 187 167
3.4949999 -1.665 -0.40799999 119 99 75
3.4979999 -1.638 -0.43000001 46 18 4
3.4920001 -1.638 -0.428 57 27 16
3.4920001 -1.6440001 -0.414 48 35 16
3.5109999 -1.647 -0.40599999 64 48 32
3.529 -1.6289999 -0.41499999 88 72 46
3.533 -1.625 -0.41999999 164 150 124
3.4849999 -1.6059999 -0.57200003 156 106 57
3.487 -1.603 -0.57300001 198 167 123
3.4719999 -1.613 -0.56900001 57 31 16
3.313 -1.587 -0.47999999 108 65 31
3.319 -1.59 -0.479 180 144 120
3.3499999 -1.612 -0.45899999 152 120 99
3.3469999 -1.613 -0.45699999 147 107 81
3.3540001 -1.613 -0.461 222 195 178
3.329 -1.498 -0.58399999 128 79 47
3.3180001 -1.518 -0.579 178 126 89
3.4519999 -1.676 -0.414 195 135 75
3.4590001 -1.683 -0.40900001 71 34 7
3.457 -1.6799999 -0.40799999 155 123 98
3.447 -1.693 -0.41100001 210 158 101
3.527 -1.739 -0.40200001 127 95 74
3.543 -1.7359999 -0.38499999 175 124 81
3.5439999 -1.742 -0.40700001 123 112 94
3.526 -1.684 -0.39500001 77 61 45
3.526 -1.6799999 -0.39899999 74 58 42
3.5179999 -1.733 -0.39899999 111 100 82
3.5209999 -1.738 -0.38 156 122 85
3.5350001 -1.74 -0.375 109 94 63
3.5250001 -1.676 -0.39899999 106 89 69
3.5050001 -1.65 -0.41100001 58 45 28
3.4990001 -1.6619999 -0.39899999 160 125 95
3.5320001 -1.63 -0.40000001 107 90 46
3.5079999 -1.6059999 -0.41600001 141 117 91
3.5090001 -1.603 -0.39700001 153 149 138
3.5179999 -1.607 -0.403 137 137 139
3.553 -2.3740001 -0.98199999 83 51 10
3.552 -2.3740001 -0.97899997 85 56 14
3.5610001 -2.3740001 -0.99699998 113 78 40
3.552 -2.378 -0.963 73 29 0
3.569 -2.3710001 -0.972 58 44 31
3.5680001 -2.3759999 -0.97100002 120 70 37
3.559 -2.3789999 -0.99699998 34 1 0
3.543 -2.348 -0.92199999 75 46 14
3.5420001 -2.3529999 -0.92000002 98 61 16
3.5420001 -2.3570001 -0.926 78 43 5
3.5439999 -2.348 -0.91000003 127 96 65
3.5550001 -2.362 -0.96100003 145 109 75
3.559 -2.3640001 -0.96200001 82 57 37
3.5480001 -2.3629999 -0.96600002 111 90 43
3.5480001 -2.3540001 -0.94099998 105 69 37
3.552 -2.3559999 -0.93900001 81 56 16
3.5669999 -2.368 -0.95999998 54 39 20
3.5599999 -2.3659999 -0.96899998 83 57 32
3.5469999 -2.2550001 -0.903 127 97 59
3.5439999 -2.2620001 -0.90200001 171 134 108
3.5940001 -2.1930001 -0.95899999 47 34 17
3.586 -2.194 -0.963 133 103 105
3.549 -2.1689999 -0.97899997 246 212 149
3.5469999 -2.1659999 -0.97100002 167 129 80
3.5450001 -2.1700001 -0.97500002 203 178 111
3.559 -2.345 -0.89700001 65 52 43
3.559 -2.349 -0.90200001 83 67 54
3.5420001 -2.3469999 -0.90700001 171 133 112
3.5569999 -2.349 -0.889 33 17 4
3.5539999 -2.3510001 -0.889 76 48 27
3.559 -2.3529999 -0.90200001 51 34 14
3.549 -2.2290001 -0.96799999 152 118 72
3.5409999 -2.2190001 -0.96700001 47 20 9
3.5320001 -2.207 -0.97600001 196 125 69
3.5309999 -2.2160001 -0.96100003 104 72 33
3.5209999 -1.806 -0.35600001 146 119 102
3.553 -1.804 -0.38100001 161 128 93
3.5480001 -1.7970001 -0.37799999 129 103 90
3.608 -1.779 -0.354 192 148 83
3.608 -1.76 -0.37 170 153 127
3.6129999 -1.771 -0.36399999 198 158 97
3.6110001 -1.765 -0.37 208 169 114
3.5090001 -1.738 -0.36399999 147 112 72
3.54 -1.785 -0.33500001 87 76 56
3.5569999 -1.785 -0.35299999 126 91 49
3.563 -1.78 -0.35299999 89 50 7
3.579 -1.798 -0.37200001 163 142 99
3.582 -1.793 -0.38299999 247 220 173
3.5569999 -1.766 -0.36000001 152 114 69
3.6489999 -1.807 -0.42300001 166 100 39
3.6589999 -1.8150001 -0.39399999 48 40 29
3.648 -1.803 -0.39399999 54 31 23
3.6530001 -1.803 -0.403 49 39 30
3.507 -1.624 -0.61299998 134 110 100
3.5 -1.628 -0.60699999 31 13 9
3.5350001 -1.776 -0.44999999 92 65 38
3.5380001 -1.777 -0.45100001 106 78 54
3.5650001 -1.794 -0.442 218 183 115
3.552 -1.774 -0.45100001 132 119 102
3.5940001 -1.775 -0.44999999 50 24 11
3.464 -1.597 -0.60900003 178 138 113
3.467 -1.585 -0.59600002 159 100 58
3.4990001 -1.614 -0.58999997 191 148 129
3.4560001 -1.6059999 -0.58499998 154 143 147
3.4590001 -1.605 -0.58099997 247 221 110
3.461 -1.615 -0.57999998 255 234 177
3.467 -1.598 -0.60100001 255 188 107
3.585 -1.768 -0.435 235 185 124
3.3729999 -1.988 -0.81599998 122 105 89
3.3770001 -1.9859999 -0.81800002 67 49 35
3.3759999 -1.9859999 -0.815 76 57 42
3.3840001 -1.9910001 -0.82599998 140 106 78
3.5510001 -2.1240001 -0.79100001 143 105 58
3.5450001 -2.1229999 -0.78799999 205 162 117
3.5480001 -2.122 -0.787 182 140 90
3.5580001 -2.1300001 -0.79299998 128 94 82
3.536 -2.1240001 -0.78200001 87 49 28
3.552 -2.0020001 -0.741 209 188 141
3.381 -1.96 -0.77899998 41 25 10
3.3710001 -1.9630001 -0.74699998 60 39 22
3.372 -1.959 -0.755 255 235 159
3.3469999 -1.993 -0.80500001 102 76 53
3.3529999 -1.993 -0.80800003 66 34 13
3.3659999 -1.994 -0.80599999 92 73 59
3.3870001 -1.98 -0.81199998 61 42 25
3.385 -1.982 -0.80299997 128 83 60
3.385 -1.984 -0.81300002 100 81 64
3.3800001 -1.984 -0.80599999 80 63 45
3.381 -1.984 -0.81 87 68 51
3.378 -1.985 -0.80699998 54 32 18
3.3829999 -1.972 -0.78200001 85 35 12
3.3729999 -1.999 -0.84500003 79 38 6
3.372 -1.9960001 -0.852 140 97 65
3.381 -1.992 -0.85399997 130 118 102
3.3789999 -2.0090001 -0.87199998 77 42 23
3.3759999 -2.0120001 -0.87800002 55 41 32
3.381 -2.013 -0.88099998 52 36 23
3.388 -1.98 -0.82099998 56 40 25
3.3889999 -1.99 -0.833 118 84 57
3.3840001 -1.999 -0.82999998 73 41 26
3.3710001 -2.0090001 -0.83200002 167 149 127
3.368 -2 -0.82200003 76 54 40
3.3310001 -1.99 -0.852 108 86 63
3.3310001 -1.9910001 -0.86299998 152 108 71
3.3239999 -1.9910001 -0.84600002 169 146 128
3.3329999 -2.0039999 -0.84100002 113 74 41
3.3199999 -1.989 -0.86799997 172 142 116
3.369 -2.007 -0.83999997 121 104 96
3.312 -1.998 -0.81999999 23 5 5
3.316 -1.995 -0.82599998 237 198 143
3.339 -2.0009999 -0.82599998 117 100 82
3.359 -1.99 -0.74299997 246 226 165
3.3540001 -1.984 -0.75199997 123 89 44
3.348 -1.9809999 -0.759 186 152 114
3.4100001 -1.7130001 -0.78299999 171 130 84
3.4119999 -1.7180001 -0.78299999 160 127 86
3.418 -1.71 -0.78799999 149 119 85
3.4070001 -1.734 -0.78799999 177 148 118
3.29 -1.9400001 -1 10 0 0
3.3069999 -1.9529999 -0.949 9 0 0
3.3110001 -1.966 -0.94199997 45 10 4
3.312 -1.9579999 -0.958 14 0 0
3.3199999 -1.965 -0.94199997 38 16 0
3.3269999 -1.9529999 -0.94499999 9 0 1
3.2950001 -1.928 -1 15 4 2
3.4630001 -1.8150001 -0.85799998 205 192 183
3.4619999 -1.812 -0.861 241 228 222
3.5450001 -1.45 -0.829 86 67 52
3.5510001 -1.646 -0.88300002 145 133 121
3.5569999 -1.636 -0.87400001 69 34 14
3.543 -1.5779999 -0.815 101 97 98
3.53 -1.581 -0.81800002 197 164 121
3.5320001 -1.607 -0.898 124 117 124
3.467 -1.485 -0.88599998 56 40 25
3.4690001 -1.474 -0.89200002 121 104 96
3.4690001 -1.475 -0.88800001 97 84 76
3.4549999 -1.466 -0.89700001 81 54 37
3.454 -1.4579999 -0.89700001 142 110 72
3.473 -1.461 -0.93599999 40 16 12
3.4449999 -1.5140001 -0.92299998 89 61 49
3.4489999 -1.523 -0.921 128 124 125
3.45 -1.524 -0.92699999 131 121 119
3.441 -1.493 -0.94400001 4 0 1
3.444 -1.497 -0.94400001 133 102 84
3.5020001 -2.085 -0.523 225 187 140
3.5009999 -2.0840001 -0.52100003 255 213 163
3.5020001 -2.072 -0.51700002 141 107 70
3.438 -2.033 -0.56699997 105 87 67
3.4300001 -2.029 -0.55599999 99 87 63
3.4430001 -2.0280001 -0.57800001 130 88 46
3.5280001 -2.1129999 -0.551 27 4 0
3.529 -2.1159999 -0.55500001 27 3 0
3.507 -2.1099999 -0.55400002 65 43 29
3.5309999 -2.1140001 -0.55500001 19 0 0
3.5079999 -2.112 -0.54799998 59 33 18
3.5050001 -2.1010001 -0.53899997 84 60 34
3.5090001 -2.1199999 -0.55599999 60 37 21
3.529 -2.115 -0.55199999 27 3 0
3.47 -2.0420001 -0.62400001 108 73 41
3.47 -2.0409999 -0.61400002 41 12 0
3.47 -2.043 -0.61900002 92 62 34
3.464 -2.04 -0.61900002 46 18 0
3.5869999 -2.016 -0.71700001 197 163 128
3.539 -2.02 -0.73100001 107 99 96
3.5369999 -2.0280001 -0.71700001 107 75 50
3.687 -2.0450001 -0.74699998 207 183 155
3.684 -2.0420001 -0.74299997 239 217 176
3.6819999 -2.0450001 -0.74699998 254 235 193
3.678 -2.0480001 -0.75 224 198 165
3.6719999 -2.0510001 -0.75099999 255 245 196
3.6789999 -2.043 -0.74299997 190 163 118
3.5639999 -1.765 -0.44400001 109 99 87
3.569 -1.76 -0.45100001 131 118 99
3.573 -1.757 -0.42899999 38 28 19
3.576 -1.765 -0.43099999 200 150 125
3.599 -1.7819999 -0.44 61 34 23
3.582 -1.806 -0.43799999 70 54 54
3.602 -1.755 -0.375 138 119 89
3.546 -1.676 -0.88099998 29 16 8
3.553 -1.674 -0.87699997 143 124 117
3.556 -1.71 -0.93099999 90 72 72
3.5599999 -1.714 -0.92699999 99 81 77
3.631 -2.0320001 -0.93199998 245 195 132
3.546 -1.6950001 -0.85000002 152 124 100
3.539 -1.6900001 -0.85799998 198 174 150
3.48 -1.798 -0.86699998 213 191 167
3.4719999 -1.802 -0.86000001 87 50 34
3.652 -1.999 -0.76700002 101 58 26
3.6559999 -2.039 -0.76499999 159 134 127
3.6459999 -2.0120001 -0.73900002 58 44 43
3.6589999 -2.0209999 -0.74199998 255 224 161
3.642 -2.098 -0.78899997 125 93 70
3.6489999 -2.0409999 -0.75599998 255 234 189
3.648 -2.026 -0.75 142 124 120
3.6400001 -2.0250001 -0.759 178 156 135
3.628 -2.02 -0.764 98 55 20
3.6470001 -1.993 -0.74900001 201 186 183
3.168 -1.761 -0.237 131 96 66
3.164 -1.7640001 -0.24699999 136 107 65
3.1659999 -1.762 -0.24699999 104 76 36
3.175 -1.776 -0.227 122 92 58
3.1719999 -1.7869999 -0.23199999 125 62 21
3.168 -1.78 -0.23199999 86 56 30
3.1530001 -1.784 -0.25 129 63 11
3.171 -1.803 -0.25299999 169 138 110
3.1789999 -1.8049999 -0.255 146 84 33
3.165 -1.801 -0.27599999 243 185 137
3.5190001 -2.23 -0.67299998 128 87 55
3.5780001 -2.1110001 -0.81900001 161 148 139
3.5840001 -2.122 -0.80699998 165 137 90
3.5799999 -2.1099999 -0.81999999 12 0 0
3.569 -2.1029999 -0.80000001 20 0 0
3.5840001 -2.0539999 -0.74400002 194 161 107
3.5880001 -2.0550001 -0.73699999 195 177 139
3.5810001 -2.0580001 -0.74400002 245 228 184
3.5910001 -2.046 -0.72799999 169 136 93
3.5869999 -2.036 -0.75300002 107 84 68
3.572 -2.0050001 -0.72100002 128 127 122
3.4749999 -2.0480001 -0.62800002 123 87 51
3.4690001 -2.05 -0.62300003 94 77 49
3.4760001 -2.066 -0.63099998 168 133 101
3.4809999 -2.056 -0.63800001 69 35 8
3.4590001 -2.1340001 -0.57800001 64 44 35
3.46 -2.125 -0.56699997 91 61 35
3.4690001 -2.138 -0.57800001 147 142 146
3.46 -2.1389999 -0.58099997 125 75 24
3.5 -2.2780001 -0.73699999 178 146 99
3.5020001 -2.28 -0.73799998 247 216 161
3.503 -2.266 -0.72899997 69 43 18
3.5020001 -2.2690001 -0.73000002 113 67 8
3.444 -2.2079999 -0.70099998 109 65 38
3.441 -2.204 -0.69599998 255 236 170
3.4419999 -2.1960001 -0.69300002 92 74 72
3.4679999 -2.2219999 -0.653 138 112 89
3.4679999 -2.223 -0.65200001 80 48 9
3.4679999 -2.217 -0.65200001 98 72 49
3.5020001 -2.28 -0.74299997 83 51 10
3.5039999 -2.2820001 -0.73799998 240 205 147
3.5079999 -2.2839999 -0.74299997 236 199 144
3.513 -2.2620001 -0.71399999 149 123 86
3.494 -2.2639999 -0.71200001 151 110 64
3.493 -2.2620001 -0.71200001 122 84 47
3.49 -2.2590001 -0.704 155 118 73
3.4890001 -2.2550001 -0.70099998 125 91 54
3.4949999 -2.247 -0.71600002 132 109 95
3.493 -2.24 -0.70499998 83 55 34
3.4949999 -2.2620001 -0.70499998 253 210 159
3.4949999 -2.2679999 -0.72000003 134 94 45
3.4949999 -2.266 -0.722 77 44 13
3.451 -2.188 -0.68599999 255 243 199
3.4860001 -2.201 -0.71700001 126 103 87
3.4860001 -2.1949999 -0.72299999 42 14 0
3.4590001 -2.21 -0.713 146 113 80
3.4890001 -2.227 -0.90100002 198 172 113
3.5039999 -2.223 -0.89499998 176 139 87
3.49 -2.227 -0.89899999 169 121 57
3.5280001 -2.1819999 -0.95499998 165 132 81
3.51 -2.1719999 -0.95899999 202 184 112
3.5320001 -2.1819999 -0.949 179 144 90
3.5150001 -2.171 -0.96100003 185 153 102
3.652 -2.096 -0.792 59 32 15
3.5339999 -2.2750001 -0.741 54 32 21
3.5320001 -2.273 -0.74900001 102 74 53
3.536 -2.28 -0.74599999 57 38 24
3.6440001 -2.0999999 -0.79000002 255 245 202
3.6459999 -2.098 -0.78799999 255 247 202
3.6370001 -2.1029999 -0.792 255 241 208
3.523 -2.2390001 -0.70899999 57 39 25
3.5120001 -2.2409999 -0.70099998 45 21 9
3.523 -2.234 -0.69800001 44 26 14
3.52 -2.2279999 -0.69499999 49 31 17
3.52 -2.2219999 -0.67900002 49 26 18
3.5179999 -2.217 -0.67400002 49 26 12
3.503 -2.2260001 -0.69099998 109 61 15
3.517 -2.221 -0.67699999 121 84 57
3.5280001 -2.256 -0.71100003 57 35 24
3.5320001 -2.2709999 -0.73299998 50 31 16
3.5220001 -2.237 -0.68900001 59 37 23
3.523 -2.2390001 -0.69300002 54 35 21
3.5220001 -2.233 -0.68800002 43 25 11
3.5209999 -2.2360001 -0.68400002 56 35 18
3.5050001 -2.2260001 -0.67900002 49 22 11
3.5209999 -2.224 -0.676 44 22 11
3.539 -2.3180001 -0.85699999 65 31 6
3.5480001 -2.3299999 -0.85299999 73 56 38
3.51 -2.2820001 -0.75700003 100 74 47
3.5280001 -2.2780001 -0.73299998 176 154 141
3.5090001 -2.277 -0.73400003 241 203 140
3.5190001 -2.273 -0.73299998 72 49 31
3.5150001 -2.286 -0.74800003 91 59 38
3.5090001 -2.283 -0.74299997 191 149 101
3.526 -2.214 -0.65899998 57 33 5
3.516 -2.21 -0.653 34 10 0
3.5120001 -2.2149999 -0.65700001 71 40 20
3.513 -2.217 -0.65899998 65 33 10
3.493 -2.22 -0.65899998 159 130 100
3.5179999 -2.2179999 -0.66100001 49 26 8
3.53 -2.2019999 -0.64600003 49 31 9
3.5020001 -2.1589999 -0.68800002 81 62 48
3.4979999 -2.1719999 -0.68900001 239 219 195
3.5020001 -2.1630001 -0.68400002 192 170 157
3.494 -2.1600001 -0.68800002 48 19 3
3.529 -2.1989999 -0.64600003 59 42 22
3.5940001 -2.043 -0.71799999 116 103 61
3.4849999 -2.2179999 -0.65399998 85 64 47
3.487 -2.211 -0.64899999 135 110 80
3.4820001 -2.2290001 -0.65700001 41 14 7
3.4779999 -2.1889999 -0.73400003 52 33 18
3.4760001 -2.197 -0.70599997 213 183 129
3.47 -2.1989999 -0.71600002 69 52 34
3.4879999 -2.188 -0.727 117 85 60
3.4860001 -2.1949999 -0.71799999 78 47 27
3.5369999 -2.122 -0.77399999 60 23 4
3.527 -2.122 -0.773 92 55 28
3.5320001 -2.0409999 -0.73900002 212 194 158
3.527 -2.049 -0.73299998 149 125 99
3.4579999 -2.1930001 -0.73299998 59 32 3
3.562 -2.135 -0.83200002 144 110 73
3.46 -2.217 -0.63099998 56 26 15
3.4590001 -2.21 -0.62099999 39 18 0
3.454 -2.2030001 -0.61500001 255 236 171
3.4549999 -2.2019999 -0.62900001 108 75 42
3.454 -2.2049999 -0.62900001 75 44 15
3.4560001 -2.2060001 -0.63200003 71 37 9
3.493 -2.24 -0.69599998 253 241 227
3.4860001 -2.243 -0.68900001 97 69 30
3.4879999 -2.2460001 -0.69300002 90 60 24
3.473 -2.1789999 -0.62300003 116 73 20
3.4860001 -2.1860001 -0.62900001 77 55 44
3.487 -2.1830001 -0.62199998 177 163 163
3.487 -2.175 -0.61400002 156 144 144
3.4560001 -2.168 -0.60500002 191 170 127
3.448 -2.178 -0.60500002 154 103 76
3.4590001 -2.1819999 -0.62400001 56 22 0
3.457 -2.1719999 -0.60900003 62 41 24
3.4979999 -2.0699999 -0.67299998 18 0 0
3.497 -2.063 -0.66900003 25 0 0
3.4920001 -2.0680001 -0.66399997 26 3 0
3.5020001 -2.062 -0.67400002 39 17 6
3.4890001 -2.073 -0.66900003 50 39 45
3.3559999 -1.908 -0.36500001 111 90 63
3.372 -1.925 -0.36899999 139 119 86
3.3559999 -1.941 -0.37099999 61 45 20
3.3740001 -1.933 -0.377 248 223 192
3.3610001 -1.9349999 -0.37400001 111 85 48
3.3740001 -1.927 -0.375 152 130 107
3.3570001 -1.9170001 -0.36500001 182 157 127
3.3629999 -1.902 -0.37400001 140 109 107
3.378 -1.929 -0.38100001 225 200 178
3.348 -1.9400001 -0.405 236 198 162
3.3440001 -1.937 -0.405 150 124 99
3.3380001 -1.939 -0.41100001 156 134 120
3.3800001 -1.936 -0.40599999 176 158 136
3.368 -1.944 -0.41100001 179 162 142
3.3710001 -1.952 -0.41800001 135 117 103
3.348 -1.984 -0.39700001 255 249 220
3.339 -1.983 -0.39300001 240 214 179
3.332 -1.995 -0.39700001 254 229 188
3.4909999 -1.753 -0.36399999 159 127 89
3.4909999 -1.762 -0.36000001 126 108 108
3.4860001 -1.755 -0.36300001 63 18 0
3.5090001 -1.808 -0.345 89 75 66
3.592 -1.802 -0.40099999 253 223 197
3.6470001 -1.781 -0.39700001 214 181 127
3.6500001 -1.803 -0.40700001 54 44 35
3.665 -1.817 -0.36399999 128 116 136
3.6589999 -1.807 -0.34400001 107 89 67
3.665 -1.806 -0.35299999 126 83 51
3.3859999 -2.075 -0.47799999 255 249 217
3.378 -2.066 -0.46799999 179 161 121
3.3959999 -2.0940001 -0.514 127 93 58
3.401 -2.072 -0.509 112 83 41
3.404 -2.063 -0.51099998 77 62 43
3.401 -2.0669999 -0.5 141 117 79
3.3940001 -2.063 -0.495 130 106 70
3.46 -2.151 -0.59200001 134 89 34
3.4489999 -2.148 -0.588 142 109 78
3.4230001 -2.049 -0.58700001 255 247 200
3.424 -2.049 -0.60100001 147 98 65
3.4189999 -2.046 -0.58899999 255 236 191
3.418 -2.049 -0.583 233 218 179
3.434 -2.0510001 -0.57800001 135 114 111
3.4979999 -2.0699999 -0.50999999 248 200 160
3.494 -2.0580001 -0.48899999 104 86 48
3.4960001 -2.0710001 -0.51200002 135 87 47
3.441 -2.0309999 -0.484 174 135 78
3.4319999 -2.033 -0.48899999 222 178 113
3.4519999 -2.0320001 -0.48800001 163 131 82
3.4430001 -2.0350001 -0.48899999 200 167 122
3.4489999 -2.033 -0.477 98 82 46
3.4449999 -2.026 -0.472 68 55 20
3.451 -2.023 -0.47799999 255 229 175
3.447 -2.02 -0.583 98 68 34
3.454 -2.023 -0.58999997 73 32 2
3.4300001 -2.0209999 -0.57300001 129 112 94
3.4960001 -2.059 -0.50300002 219 176 141
3.4230001 -2.0179999 -0.56800002 71 43 29
3.444 -2.0309999 -0.597 95 62 45
3.437 -2.029 -0.59500003 253 245 232
3.4400001 -2.0280001 -0.59200001 207 185 172
3.4419999 -2.0350001 -0.60699999 208 172 136
3.4360001 -2.026 -0.59100002 251 241 232
3.437 -2.0250001 -0.57999998 90 77 61
3.398 -1.962 -0.41999999 185 132 78
3.391 -1.947 -0.414 153 107 58
3.401 -1.979 -0.433 110 80 69
3.487 -2.0610001 -0.49399999 89 71 35
3.494 -2.0580001 -0.493 95 77 39
3.497 -2.062 -0.50400001 213 169 134
3.4960001 -2.052 -0.49399999 241 197 160
3.5 -2.0539999 -0.48800001 91 76 37
3.503 -2.089 -0.52499998 207 180 135
3.4030001 -2.0810001 -0.491 95 76 70
3.398 -2.0639999 -0.48100001 82 59 45
3.398 -2.05 -0.472 47 18 2
3.3369999 -1.948 -0.54000002 168 143 102
3.355 -1.936 -0.54000002 84 57 27
3.3269999 -1.947 -0.53600001 168 140 93
3.3699999 -1.902 -0.57599998 141 102 63
3.3510001 -1.967 -0.52600002 255 224 183
3.3540001 -1.9529999 -0.53100002 132 105 58
3.3659999 -1.9579999 -0.53600001 206 182 136
3.4089999 -1.937 -0.523 203 142 77
3.4200001 -1.928 -0.51999998 200 145 80
3.418 -1.931 -0.51300001 230 169 104
3.414 -1.9349999 -0.51800001 225 161 97
3.4089999 -1.949 -0.50599998 252 207 150
3.3900001 -2.0510001 -0.47299999 255 238 147
3.4460001 -2.026 -0.477 88 75 41
3.438 -2.029 -0.47499999 114 101 56
3.434 -2.029 -0.47499999 176 145 117
3.4189999 -2.0280001 -0.47099999 80 51 33
3.418 -2.029 -0.47499999 94 63 45
3.381 -2.086 -0.49200001 209 187 146
3.3729999 -2.0739999 -0.484 114 87 70
3.398 -2.076 -0.50099999 118 68 5
3.5209999 -2.2409999 -0.68699998 74 45 29
3.497 -2.2479999 -0.68800002 213 163 104
3.5179999 -2.2349999 -0.68000001 123 94 76
3.51 -2.2539999 -0.70200002 160 132 84
3.5120001 -2.237 -0.69599998 44 22 9
3.494 -2.234 -0.69999999 75 44 23
3.4909999 -2.233 -0.68699998 160 144 129
3.5020001 -2.247 -0.70899999 234 219 200
3.517 -2.2149999 -0.67199999 51 25 8
3.0969999 -2.03 -0.69499999 101 56 27
3.0969999 -2.036 -0.69499999 74 33 15
3.089 -2.0409999 -0.69300002 243 215 167
3.191 -1.931 -0.91500002 21 4 0
3.0639999 -2.016 -0.66600001 44 25 11
3.0599999 -2.0409999 -0.671 144 114 86
3.0599999 -2.0190001 -0.66100001 45 23 9
3.168 -1.967 -0.699 190 149 119
3.2609999 -1.786 -0.79100001 80 53 34
3.2690001 -1.781 -0.796 40 15 0
3.267 -1.785 -0.79900002 87 58 40
3.2290001 -1.88 -0.87800002 72 29 0
3.224 -1.916 -0.89099997 103 67 41
3.2049999 -1.92 -0.91299999 54 2 0
3.21 -1.916 -0.92000002 50 24 7
3.2179999 -1.915 -0.91500002 143 114 98
3.349 -1.875 -0.79400003 15 4 0
3.3399999 -1.864 -0.79699999 110 108 111
3.3529999 -1.876 -0.79699999 14 5 0
3.3440001 -1.855 -0.80400002 129 95 67
3.25 -1.8559999 -0.81599998 40 19 14
3.256 -1.903 -0.79400003 137 103 78
3.2579999 -1.896 -0.78399998 59 39 28
3.2609999 -1.897 -0.79000002 23 0 0
3.2579999 -1.859 -0.78399998 183 118 76
3.2590001 -1.895 -0.77200001 79 21 0
3.2520001 -1.899 -0.77999997 74 52 39
3.2709999 -1.96 -0.79100001 46 13 6
3.27 -1.9630001 -0.79100001 64 31 16
