ply
format ascii 1.0
comment PCL generated
element vertex 1129
property float x
property float y
property float z
property uchar red
property uchar green
property uchar blue
element camera 1
property float view_px
property float view_py
property float view_pz
property float x_axisx
property float x_axisy
property float x_axisz
property float y_axisx
property float y_axisy
property float y_axisz
property float z_axisx
property float z_axisy
property float z_axisz
property float focal
property float scalex
property float scaley
property float centerx
property float centery
property int viewportx
property int viewporty
property float k1
property float k2
end_header
9.3079996 3.7490001 -0.55199999 156 111 70
9.3009996 3.756 -0.54100001 161 128 87
9.302 3.7420001 -0.55599999 153 104 63
9.3000002 3.7520001 -0.54500002 169 125 96
9.2880001 3.7479999 -0.55000001 167 131 117
9.2989998 3.7479999 -0.55000001 120 91 73
9.2939997 3.747 -0.56599998 190 128 69
9.2919998 3.7460001 -0.56199998 53 26 17
9.2910004 3.7479999 -0.57300001 143 122 119
9.2279997 3.812 -0.74400002 113 81 70
9.2250004 3.8110001 -0.75300002 92 54 31
9.2250004 3.809 -0.75199997 255 254 247
9.29 3.76 -0.54500002 169 115 68
9.2840004 3.7539999 -0.56699997 102 84 72
9.2980003 3.7449999 -0.55500001 163 106 53
9.3050003 3.753 -0.54799998 185 135 84
9.3050003 3.7579999 -0.54299998 154 105 49
9.2959995 3.7490001 -0.55000001 208 143 79
9.224 3.8069999 -0.755 98 75 67
9.2309999 3.793 -0.759 129 97 82
9.2580004 3.816 -0.67400002 88 44 9
9.2609997 3.8150001 -0.67799997 97 48 15
9.2639999 3.8210001 -0.676 114 88 75
9.2659998 3.8239999 -0.671 45 26 22
9.2329998 3.8280001 -0.76200002 127 77 52
9.2189999 3.8510001 -0.56199998 114 85 67
9.2150002 3.8410001 -0.56199998 189 131 91
9.2119999 3.849 -0.54799998 153 111 63
9.2580004 3.783 -0.67000002 66 46 47
9.2679996 3.779 -0.66600001 94 39 0
9.2620001 3.7750001 -0.66600001 115 88 77
9.2740002 3.7820001 -0.67000002 78 43 15
9.2539997 3.789 -0.64499998 84 51 34
9.2440004 3.777 -0.653 151 131 130
9.243 3.7720001 -0.64499998 99 42 12
9.2510004 3.79 -0.65200001 159 122 104
9.2469997 3.8080001 -0.61000001 46 22 20
9.2530003 3.8069999 -0.62 115 69 33
9.2510004 3.822 -0.62099999 79 49 38
9.2559996 3.7720001 -0.66399997 116 70 34
9.2609997 3.766 -0.662 62 44 44
9.2659998 3.7739999 -0.66299999 59 36 22
9.224 3.7969999 -0.76599997 187 142 103
9.2229996 3.79 -0.76800001 79 47 34
9.2679996 3.7679999 -0.65700001 105 82 74
9.2740002 3.7650001 -0.65100002 55 37 33
9.2639999 3.7620001 -0.64499998 129 100 86
9.2849998 3.8050001 -0.74400002 66 40 39
9.2969999 3.806 -0.73799998 116 83 50
9.2889996 3.816 -0.75800002 113 66 36
9.2980003 3.799 -0.73699999 56 29 12
9.2189999 3.8399999 -0.55299997 225 123 206
9.2519999 3.845 -0.53100002 177 141 107
9.2290001 3.842 -0.53299999 182 130 90
9.2290001 3.8510001 -0.53500003 76 31 0
9.3380003 3.8180001 -0.84600002 38 16 5
9.342 3.819 -0.852 45 18 11
9.3409996 3.819 -0.84500003 71 29 7
9.323 3.8269999 -0.84799999 51 19 4
9.3310003 3.8169999 -0.85799998 54 27 0
9.3439999 3.8139999 -0.85900003 55 25 15
9.2919998 3.822 -0.75099999 72 39 8
9.302 3.75 -0.54900002 94 72 48
9.2869997 3.779 -0.53799999 143 98 57
9.2849998 3.783 -0.53100002 104 61 27
9.2819996 3.7750001 -0.53899997 120 57 22
9.2959995 3.7690001 -0.53799999 136 84 36
9.2939997 3.767 -0.542 140 92 44
9.283 3.872 -0.76899999 129 79 46
9.2740002 3.869 -0.76800001 168 110 64
9.2770004 3.8699999 -0.75400001 187 120 67
9.2720003 3.868 -0.76300001 220 157 106
9.2309999 3.819 -0.759 53 33 22
9.2290001 3.8080001 -0.75 68 41 34
9.2810001 3.823 -0.77399999 139 74 36
9.2869997 3.8239999 -0.76099998 65 38 17
9.2860003 3.8210001 -0.77700001 53 28 8
9.2869997 3.8440001 -0.76200002 198 153 124
9.2519999 3.7880001 -0.66399997 139 112 101
9.257 3.79 -0.67000002 91 61 59
9.2559996 3.799 -0.67500001 113 90 84
9.2530003 3.7909999 -0.65700001 58 25 8
9.2399998 3.793 -0.75 81 46 40
9.3170004 3.7520001 -0.55699998 224 190 152
9.3439999 3.8099999 -0.85399997 26 9 0
9.3369999 3.802 -0.84399998 79 56 38
9.3369999 3.8050001 -0.85000002 84 28 0
9.3330002 3.79 -0.86000001 175 143 118
9.3310003 3.803 -0.85399997 63 35 23
9.2390003 3.8239999 -0.60500002 115 82 65
9.243 3.8099999 -0.59899998 171 161 162
9.2440004 3.812 -0.602 178 146 185
9.2510004 3.7739999 -0.66500002 110 81 49
9.2440004 3.813 -0.54400003 228 136 213
9.2270002 3.8210001 -0.537 134 89 56
9.243 3.823 -0.53100002 128 88 53
9.2299995 3.816 -0.54799998 120 88 39
9.2679996 3.7939999 -0.52399999 148 88 62
9.276 3.7939999 -0.52100003 215 158 103
9.2819996 3.803 -0.51499999 149 107 59
9.2729998 3.803 -0.51899999 255 230 174
9.2609997 3.8169999 -0.51999998 74 47 20
9.2690001 3.8169999 -0.51499999 133 83 30
9.2329998 3.8269999 -0.53399998 121 70 27
9.2349997 3.8340001 -0.53299999 201 152 119
9.2659998 3.826 -0.51999998 156 98 48
9.2709999 3.8239999 -0.51599997 182 129 77
9.2620001 3.766 -0.63800001 135 95 69
9.2580004 3.813 -0.62599999 92 37 0
9.2609997 3.79 -0.63599998 108 75 58
9.2659998 3.802 -0.62699997 83 54 40
9.257 3.767 -0.65200001 119 83 59
9.2690001 3.7980001 -0.70200002 169 140 136
9.2690001 3.7909999 -0.713 73 52 47
9.2770004 3.7950001 -0.70099998 70 54 28
9.2639999 3.7969999 -0.708 52 21 0
9.2519999 3.7969999 -0.85799998 74 52 41
9.2639999 3.7850001 -0.87199998 84 52 31
9.2620001 3.7880001 -0.87699997 99 79 54
9.276 3.7739999 -0.824 108 75 60
9.2679996 3.779 -0.82499999 151 123 109
9.2770004 3.776 -0.847 103 81 84
9.2930002 3.7690001 -0.85299999 63 34 18
9.283 3.773 -0.83399999 77 44 29
9.2910004 3.773 -0.829 117 71 37
9.2709999 3.7650001 -0.64999998 185 158 111
9.2679996 3.7679999 -0.65700001 105 82 74
9.2740002 3.767 -0.65499997 130 95 67
9.2700005 3.766 -0.65100002 56 37 22
9.302 3.747 -0.57300001 151 118 87
9.2779999 3.789 -0.67199999 97 68 52
9.2740002 3.7980001 -0.67900002 73 47 22
9.283 3.7950001 -0.69300002 76 45 42
9.2969999 3.7939999 -0.727 99 56 22
9.3120003 3.7869999 -0.73900002 165 117 81
9.2770004 3.7939999 -0.74199998 177 122 81
9.2860003 3.8010001 -0.73400003 253 246 238
9.2399998 3.7950001 -0.77999997 73 44 30
9.2379999 3.8 -0.78299999 96 57 28
9.2329998 3.7939999 -0.78299999 127 76 33
9.2290001 3.7980001 -0.773 255 207 170
9.243 3.8080001 -0.76899999 71 34 16
9.2379999 3.868 -0.85600001 253 246 227
9.2390003 3.8570001 -0.866 108 76 61
9.2460003 3.869 -0.86400002 112 81 50
9.2469997 3.872 -0.85699999 36 11 6
9.243 3.8740001 -0.85299999 38 18 7
9.2370005 3.849 -0.83499998 98 71 60
9.2449999 3.849 -0.81999999 70 41 27
9.2360001 3.8540001 -0.83200002 139 106 87
9.2480001 3.802 -0.60699999 58 37 34
9.25 3.799 -0.602 75 54 51
9.2200003 3.8369999 -0.55800003 72 38 29
9.3319998 3.79 -0.861 52 34 24
9.323 3.7909999 -0.847 79 57 43
9.3310003 3.796 -0.85299999 173 162 166
9.3000002 3.7709999 -0.84600002 141 107 79
9.3079996 3.747 -0.55599999 124 102 81
9.3000002 3.7460001 -0.56099999 155 119 83
9.3000002 3.7479999 -0.56699997 83 64 57
9.2840004 3.7650001 -0.57300001 165 90 33
9.2810001 3.767 -0.56599998 144 95 54
9.2700005 3.7709999 -0.55400002 72 36 10
9.2849998 3.8199999 -0.76700002 75 44 24
9.2559996 3.819 -0.62599999 213 188 217
9.2819996 3.7980001 -0.73000002 68 25 6
9.2869997 3.7839999 -0.528 149 124 120
9.2799997 3.786 -0.52499998 143 94 54
9.2869997 3.7950001 -0.51800001 65 44 43
9.2799997 3.79 -0.523 170 114 67
9.2329998 3.8529999 -0.54100001 240 206 178
9.2460003 3.845 -0.53600001 145 63 13
9.243 3.8499999 -0.551 64 45 41
9.2539997 3.842 -0.53799999 193 113 44
9.2229996 3.8529999 -0.53899997 84 36 0
9.2279997 3.848 -0.53500003 169 119 70
9.2220001 3.8440001 -0.53799999 193 109 45
9.2209997 3.852 -0.54500002 107 63 28
9.2259998 3.855 -0.54500002 110 61 18
9.224 3.8540001 -0.55299997 161 116 83
9.2159996 3.846 -0.55000001 60 27 8
9.224 3.839 -0.54799998 128 84 37
9.2600002 3.79 -0.71399999 47 23 13
9.2659998 3.7880001 -0.722 95 62 55
9.2629995 3.7909999 -0.72100002 72 49 43
9.2620001 3.7909999 -0.72899997 69 42 33
9.2440004 3.7980001 -0.74299997 254 251 242
9.2460003 3.8 -0.741 183 171 171
9.2460003 3.793 -0.74299997 147 114 95
9.2449999 3.7909999 -0.74800003 66 25 0
9.2489996 3.7909999 -0.76099998 63 38 31
9.2410002 3.7920001 -0.75999999 121 86 66
9.2639999 3.7850001 -0.66799998 94 54 28
9.2650003 3.7909999 -0.671 91 70 69
9.2729998 3.783 -0.53399998 142 98 63
9.2679996 3.783 -0.54000002 79 52 41
9.2740002 3.777 -0.54500002 155 106 66
9.2580004 3.8099999 -0.588 186 131 92
9.2600002 3.8139999 -0.58499998 95 68 57
9.2589998 3.8099999 -0.588 79 55 45
9.257 3.8039999 -0.59399998 195 114 67
9.2720003 3.809 -0.51800001 134 47 0
9.2729998 3.789 -0.546 240 145 81
9.2729998 3.779 -0.55199999 95 68 57
9.25 3.802 -0.597 139 121 119
9.2530003 3.8110001 -0.59200001 67 49 35
9.2580004 3.8069999 -0.61199999 140 97 63
9.2790003 3.7950001 -0.676 80 59 40
9.2810001 3.796 -0.67799997 111 82 68
9.2609997 3.7850001 -0.639 94 48 12
9.257 3.79 -0.64300001 108 79 61
9.2559996 3.796 -0.875 77 54 40
9.2609997 3.793 -0.88099998 39 19 8
9.2609997 3.7909999 -0.87300003 84 56 42
9.2810001 3.7780001 -0.82599998 194 138 89
9.2740002 3.7750001 -0.81900001 130 104 91
9.2749996 3.7820001 -0.80699998 123 95 83
9.2559996 3.7950001 -0.75099999 159 130 112
9.2690001 3.79 -0.75599998 63 36 29
9.2729998 3.7679999 -0.64099997 109 70 37
9.2819996 3.7709999 -0.65100002 80 49 21
9.2790003 3.7750001 -0.65499997 72 40 15
9.3039999 3.7509999 -0.57499999 125 94 48
9.2989998 3.753 -0.57599998 145 114 94
9.283 3.77 -0.63800001 184 165 122
9.2849998 3.773 -0.64200002 143 107 75
9.2840004 3.777 -0.63999999 49 26 12
9.2860003 3.789 -0.62599999 141 98 63
9.2930002 3.793 -0.62900001 122 59 24
9.2679996 3.777 -0.63700002 195 159 101
9.2819996 3.796 -0.70499998 44 26 14
9.2810001 3.7969999 -0.69199997 65 39 24
9.2700005 3.7920001 -0.73900002 66 25 5
9.2720003 3.7909999 -0.75199997 62 34 23
9.2749996 3.7939999 -0.73900002 73 53 18
9.2720003 3.8670001 -0.76899999 70 46 34
9.2489996 3.8529999 -0.82200003 124 118 122
9.2720003 3.8570001 -0.764 22 6 7
9.2770004 3.8559999 -0.76999998 115 97 93
9.2939997 3.859 -0.78200001 51 23 1
9.2449999 3.7950001 -0.77499998 98 70 23
9.2629995 3.7969999 -0.78100002 161 116 83
9.2530003 3.7980001 -0.77200001 115 81 53
9.224 3.8080001 -0.759 59 22 3
9.2309999 3.8139999 -0.76099998 121 69 45
9.2799997 3.8080001 -0.75 45 18 0
9.2419996 3.849 -0.86500001 56 24 9
9.2469997 3.8529999 -0.86900002 63 44 40
9.2419996 3.8559999 -0.86199999 182 163 157
9.2480001 3.806 -0.875 113 87 72
9.29 3.8069999 -0.86000001 82 53 37
9.2779999 3.8239999 -0.86699998 47 23 11
9.276 3.8050001 -0.86699998 105 82 66
9.2679996 3.799 -0.62699997 217 198 217
9.2270002 3.8269999 -0.55299997 184 123 66
9.2279997 3.825 -0.55900002 124 90 81
9.2489996 3.8169999 -0.53899997 153 118 96
9.2530003 3.8340001 -0.54400003 182 83 150
9.3280001 3.806 -0.85699999 90 58 45
9.3260002 3.789 -0.86500001 46 17 1
9.3129997 3.7969999 -0.86000001 45 22 14
9.2849998 3.773 -0.84200001 160 128 115
9.2869997 3.773 -0.85100001 80 51 37
9.2849998 3.7739999 -0.84500003 90 67 59
9.3190002 3.826 -0.84500003 89 66 50
9.3059998 3.8310001 -0.84899998 62 35 28
9.316 3.8239999 -0.847 71 44 35
9.3120003 3.8110001 -0.85100001 112 109 118
9.2510004 3.8469999 -0.85799998 255 250 234
9.2399998 3.855 -0.84899998 82 59 45
9.2709999 3.8670001 -0.75800002 228 161 108
9.2670002 3.8559999 -0.73699999 69 33 9
9.309 3.7479999 -0.56199998 125 106 92
9.3059998 3.7460001 -0.55599999 226 150 101
9.2880001 3.757 -0.55900002 36 16 7
9.29 3.7579999 -0.54799998 171 111 51
9.2880001 3.7679999 -0.54500002 92 51 21
9.2860003 3.7679999 -0.546 93 54 25
9.2720003 3.7720001 -0.54900002 215 147 84
9.2989998 3.756 -0.54299998 77 53 29
9.2819996 3.776 -0.56 100 79 74
9.2910004 3.7709999 -0.56800002 149 109 60
9.276 3.803 -0.76200002 73 45 33
9.2399998 3.8150001 -0.764 116 70 46
9.2370005 3.812 -0.76200002 84 49 30
9.2360001 3.816 -0.74800003 63 30 11
9.2510004 3.8340001 -0.74900001 114 78 62
9.2390003 3.8199999 -0.759 86 36 9
9.2469997 3.8210001 -0.755 125 53 0
9.2650003 3.8169999 -0.65399998 156 103 71
9.2650003 3.8239999 -0.662 48 30 28
9.2670002 3.8210001 -0.653 93 50 15
9.2609997 3.8110001 -0.66500002 116 62 26
9.2639999 3.812 -0.65100002 95 62 29
9.2880001 3.7969999 -0.72600001 56 28 16
9.2779999 3.7950001 -0.72000003 68 36 15
9.2690001 3.7920001 -0.72100002 47 25 11
9.2410002 3.7950001 -0.74800003 169 154 157
9.2889996 3.8559999 -0.76800001 76 36 1
9.2709999 3.826 -0.67799997 110 54 17
9.2690001 3.8239999 -0.65499997 64 48 48
9.2700005 3.8269999 -0.65799999 141 98 66
9.276 3.8099999 -0.51499999 134 98 46
9.2810001 3.8080001 -0.51599997 177 140 88
9.2790003 3.813 -0.51499999 90 48 10
9.2969999 3.789 -0.52499998 138 104 67
9.2700005 3.7980001 -0.523 209 154 98
9.2259998 3.848 -0.56400001 143 122 121
9.2390003 3.8399999 -0.57300001 149 117 92
9.2399998 3.8499999 -0.56800002 74 54 53
9.243 3.845 -0.57200003 136 70 18
9.2519999 3.832 -0.579 164 110 76
9.2489996 3.8469999 -0.57099998 89 54 35
9.2700005 3.8269999 -0.648 101 60 28
9.2379999 3.8269999 -0.565 170 106 45
9.2299995 3.8329999 -0.56699997 61 42 36
9.2580004 3.819 -0.58600003 105 77 55
9.2449999 3.8429999 -0.56900001 111 67 38
9.2419996 3.852 -0.56099999 194 98 38
9.2440004 3.832 -0.56099999 181 90 20
9.2460003 3.832 -0.57499999 75 54 49
9.2309999 3.8529999 -0.56 160 119 91
9.2340002 3.8599999 -0.55400002 107 68 39
9.2290001 3.8570001 -0.54500002 178 118 84
9.2589998 3.8010001 -0.70300001 123 105 93
9.2519999 3.789 -0.74299997 178 166 168
9.2690001 3.7909999 -0.671 68 36 25
9.2639999 3.8280001 -0.62699997 73 45 31
9.257 3.8269999 -0.61900002 53 27 12
9.2709999 3.8080001 -0.51999998 193 154 121
9.2670002 3.796 -0.54500002 125 86 55
9.2639999 3.78 -0.63599998 113 89 79
9.2550001 3.8080001 -0.59200001 94 44 11
9.2600002 3.779 -0.64300001 136 81 40
9.257 3.78 -0.64499998 99 66 49
9.2679996 3.776 -0.66299999 153 126 109
9.276 3.779 -0.65600002 67 40 21
9.2600002 3.7909999 -0.64099997 114 73 43
9.2950001 3.806 -0.62800002 192 121 69
9.2980003 3.8099999 -0.634 127 97 69
9.2930002 3.7969999 -0.63499999 73 50 34
9.2650003 3.796 -0.676 117 62 31
9.2659998 3.78 -0.63599998 93 57 31
9.2600002 3.766 -0.65399998 88 70 70
9.3100004 3.7739999 -0.86299998 45 27 7
9.309 3.7850001 -0.86400002 64 31 12
9.3210001 3.7920001 -0.85900003 53 26 17
9.2770004 3.773 -0.63999999 108 68 32
9.2779999 3.7679999 -0.64600003 49 35 32
9.2790003 3.78 -0.63700002 192 152 116
9.2810001 3.796 -0.71600002 47 19 8
9.2840004 3.7969999 -0.699 52 34 24
9.29 3.8 -0.69800001 82 54 43
9.2770004 3.7939999 -0.74400002 79 43 29
9.2589998 3.8050001 -0.78600001 152 100 60
9.2700005 3.7969999 -0.80400002 255 253 241
9.2740002 3.8069999 -0.80400002 167 99 60
9.2600002 3.8 -0.76599997 119 70 30
9.2589998 3.8 -0.77499998 161 107 69
9.2580004 3.799 -0.77999997 154 102 63
9.2609997 3.799 -0.78299999 140 120 121
9.2729998 3.79 -0.79699999 198 155 120
9.2510004 3.802 -0.78200001 110 68 46
9.2440004 3.803 -0.77899998 141 97 58
9.2379999 3.7920001 -0.77499998 126 73 33
9.2700005 3.8099999 -0.79100001 247 240 232
9.2629995 3.7969999 -0.88099998 110 67 32
9.2550001 3.8080001 -0.86900002 95 63 50
9.276 3.7980001 -0.87800002 57 38 24
9.2729998 3.819 -0.86199999 134 113 96
9.2629995 3.8099999 -0.86500001 158 135 119
9.2539997 3.802 -0.86900002 80 54 39
9.2539997 3.8069999 -0.861 97 65 52
9.2600002 3.799 -0.85799998 79 50 32
9.2889996 3.8239999 -0.861 38 16 5
9.2860003 3.8299999 -0.86000001 96 66 42
9.2559996 3.8039999 -0.60799998 90 41 9
9.2690001 3.8050001 -0.60000002 103 88 65
9.2290001 3.829 -0.54799998 94 52 12
9.2270002 3.8329999 -0.55000001 60 37 31
9.2320004 3.8329999 -0.53500003 113 65 17
9.2399998 3.8380001 -0.55400002 77 38 7
9.3120003 3.8050001 -0.85399997 81 58 50
9.3290005 3.79 -0.861 200 153 99
9.3199997 3.7969999 -0.85600001 86 54 39
9.2930002 3.773 -0.84600002 39 11 0
9.2670002 3.8210001 -0.68000001 102 72 38
9.3260002 3.809 -0.83899999 72 39 22
9.323 3.8039999 -0.83499998 62 37 17
9.3149996 3.823 -0.82099998 113 74 43
9.3179998 3.816 -0.83099997 134 94 68
9.3219995 3.7980001 -0.84200001 149 140 145
9.3149996 3.826 -0.82999998 99 62 36
9.3190002 3.799 -0.82800001 105 62 27
9.3129997 3.8080001 -0.82700002 104 77 70
9.2950001 3.7820001 -0.82999998 47 22 2
9.2930002 3.777 -0.829 100 63 34
9.2930002 3.783 -0.82499999 86 46 10
9.2729998 3.822 -0.861 77 37 2
9.2440004 3.8499999 -0.86199999 107 86 83
9.2449999 3.8659999 -0.84899998 32 8 6
9.2399998 3.859 -0.84299999 71 49 36
9.2989998 3.8340001 -0.84899998 153 151 162
9.29 3.757 -0.57300001 86 62 58
9.2910004 3.7550001 -0.57300001 99 66 33
9.2679996 3.8139999 -0.78899997 91 67 57
9.2919998 3.809 -0.77899998 136 97 68
9.2849998 3.813 -0.77499998 95 69 54
9.2889996 3.813 -0.78200001 151 124 105
9.2449999 3.813 -0.77200001 129 92 66
9.2489996 3.8099999 -0.77399999 160 111 79
9.2480001 3.8199999 -0.76999998 82 41 23
9.2480001 3.8169999 -0.73199999 148 121 110
9.2480001 3.823 -0.76099998 124 112 114
9.2489996 3.822 -0.76800001 140 75 21
9.2349997 3.8210001 -0.75999999 102 67 47
9.2810001 3.8499999 -0.80500001 59 31 7
9.2860003 3.8380001 -0.801 81 27 0
9.2709999 3.8469999 -0.80400002 53 27 4
9.2790003 3.826 -0.75599998 98 39 0
9.2729998 3.8340001 -0.75400001 101 56 35
9.2329998 3.7950001 -0.76499999 177 116 61
9.2720003 3.793 -0.74400002 48 19 3
9.2629995 3.8180001 -0.63999999 90 61 43
9.276 3.7969999 -0.699 84 44 19
9.2679996 3.802 -0.69499999 48 25 19
9.2690001 3.802 -0.69 117 99 85
9.2650003 3.803 -0.71499997 77 41 17
9.2659998 3.7980001 -0.71700001 63 31 18
9.2790003 3.796 -0.73000002 110 55 16
9.3039999 3.882 -0.79100001 91 46 17
9.316 3.8770001 -0.77600002 43 20 4
9.3120003 3.885 -0.773 120 63 33
9.3050003 3.8870001 -0.78200001 60 35 30
9.3140001 3.803 -0.81800002 91 64 43
9.3140001 3.7969999 -0.81599998 126 105 100
9.3280001 3.796 -0.76499999 88 52 28
9.3310003 3.789 -0.76700002 68 54 45
9.3330002 3.7980001 -0.75700003 166 110 77
9.3100004 3.7820001 -0.838 103 69 41
9.3269997 3.7869999 -0.74400002 94 68 53
9.3260002 3.7920001 -0.74000001 84 51 32
9.3290005 3.7880001 -0.764 61 41 30
9.3120003 3.7609999 -0.56599998 92 62 34
9.2959995 3.823 -0.745 43 22 5
9.3269997 3.7939999 -0.74299997 53 26 9
9.302 3.7650001 -0.57599998 52 27 20
9.302 3.7550001 -0.57499999 87 60 51
9.3059998 3.753 -0.57099998 219 158 113
9.2700005 3.8239999 -0.68000001 41 20 15
9.2690001 3.823 -0.68900001 156 98 58
9.302 3.8139999 -0.61799997 136 91 60
9.2989998 3.8110001 -0.61199999 107 81 58
9.283 3.79 -0.653 101 73 61
9.2779999 3.8 -0.51899999 196 119 65
9.2810001 3.8139999 -0.56900001 71 32 1
9.2679996 3.8099999 -0.55500001 43 23 14
9.2709999 3.8199999 -0.54900002 128 72 35
9.2740002 3.8069999 -0.56199998 139 114 84
9.2559996 3.8169999 -0.55299997 62 39 31
9.302 3.7869999 -0.53399998 78 58 51
9.2299995 3.8469999 -0.565 171 85 150
9.2740002 3.832 -0.588 69 48 43
9.29 3.836 -0.588 80 44 18
9.2860003 3.839 -0.59200001 133 101 80
9.2860003 3.8310001 -0.58700001 118 77 47
9.2530003 3.832 -0.60600001 65 37 16
9.2510004 3.8329999 -0.602 41 16 9
9.2690001 3.829 -0.66600001 72 35 8
9.2720003 3.829 -0.66000003 151 96 39
9.2729998 3.8299999 -0.65100002 157 102 48
9.2709999 3.8299999 -0.634 73 47 30
9.2869997 3.8340001 -0.63 144 101 66
9.2819996 3.8299999 -0.63700002 122 96 81
9.2519999 3.825 -0.61199999 71 55 22
9.2370005 3.822 -0.55299997 74 54 47
9.257 3.8150001 -0.58899999 202 149 109
9.2629995 3.8169999 -0.588 188 139 98
9.2449999 3.8340001 -0.57599998 76 55 54
9.2399998 3.8570001 -0.565 130 92 71
9.2320004 3.8599999 -0.54799998 148 111 84
9.2659998 3.8039999 -0.69999999 84 35 5
9.2620001 3.8010001 -0.70899999 255 252 243
9.2510004 3.7909999 -0.741 91 56 50
9.2609997 3.7909999 -0.73799998 52 23 15
9.2609997 3.7920001 -0.741 105 68 42
9.2620001 3.7969999 -0.73400003 76 37 8
9.2539997 3.7909999 -0.745 66 39 32
9.2690001 3.8340001 -0.61000001 124 78 45
9.2519999 3.8429999 -0.53500003 86 66 67
9.2650003 3.8380001 -0.53600001 146 95 48
9.2679996 3.802 -0.55000001 85 60 55
9.2480001 3.7750001 -0.64600003 163 145 145
9.2659998 3.809 -0.588 85 67 67
9.2620001 3.8069999 -0.59299999 74 27 0
9.2709999 3.8069999 -0.59500003 71 32 1
9.2650003 3.7679999 -0.63999999 96 70 69
9.2670002 3.799 -0.639 255 247 255
9.2889996 3.7980001 -0.62599999 115 43 3
9.29 3.8099999 -0.61500001 51 32 26
9.2860003 3.7909999 -0.67400002 52 32 21
9.2620001 3.796 -0.676 124 100 90
9.2720003 3.7920001 -0.63200003 87 48 9
9.2819996 3.7980001 -0.62699997 115 81 56
9.2749996 3.786 -0.63499999 130 82 44
9.2740002 3.7880001 -0.87599999 50 32 18
9.2989998 3.779 -0.86299998 53 26 19
9.3079996 3.747 -0.56599998 104 72 57
9.3100004 3.78 -0.86400002 41 17 7
9.2740002 3.789 -0.87 79 60 46
9.2720003 3.7869999 -0.86400002 112 93 79
9.283 3.7980001 -0.86699998 74 45 27
9.2740002 3.79 -0.866 116 84 59
9.2799997 3.803 -0.86400002 114 85 69
9.2770004 3.776 -0.833 137 73 45
9.2849998 3.8 -0.78100002 252 217 189
9.2620001 3.8069999 -0.85699999 112 81 60
9.2729998 3.7809999 -0.63599998 118 78 43
9.2840004 3.7950001 -0.72399998 106 75 70
9.2770004 3.7950001 -0.71399999 81 61 26
9.2869997 3.799 -0.704 67 47 40
9.2770004 3.8 -0.75 64 24 0
9.2790003 3.796 -0.824 59 23 0
9.2609997 3.8199999 -0.81400001 131 128 135
9.2749996 3.8210001 -0.81800002 120 61 19
9.2670002 3.822 -0.824 55 22 7
9.2670002 3.803 -0.85799998 125 71 33
9.2530003 3.8329999 -0.824 254 250 241
9.2449999 3.836 -0.833 130 91 52
9.2460003 3.8429999 -0.82700002 77 41 25
9.243 3.845 -0.829 74 52 38
9.2600002 3.8 -0.76999998 69 38 20
9.2709999 3.796 -0.79900002 167 123 86
9.276 3.7880001 -0.80400002 154 105 64
9.2799997 3.79 -0.80400002 215 150 110
9.2799997 3.7969999 -0.78899997 125 89 57
9.2639999 3.8010001 -0.77999997 101 59 34
9.2650003 3.8529999 -0.75300002 146 92 64
9.2659998 3.8429999 -0.74400002 153 102 73
9.2720003 3.855 -0.759 66 28 9
9.2729998 3.8429999 -0.75300002 121 77 48
9.2670002 3.7980001 -0.87699997 65 43 29
9.2670002 3.8 -0.87 105 62 28
9.2539997 3.809 -0.86500001 74 43 25
9.2919998 3.8180001 -0.85399997 74 50 38
9.2639999 3.8080001 -0.60900003 95 51 16
9.2290001 3.825 -0.55800003 104 84 77
9.2259998 3.836 -0.54299998 133 81 34
9.2539997 3.826 -0.52999997 116 76 41
9.2679996 3.835 -0.52700001 110 71 40
9.2550001 3.832 -0.53399998 150 92 55
9.2469997 3.8380001 -0.53299999 83 53 27
9.25 3.826 -0.53200001 181 114 46
9.2489996 3.816 -0.55400002 84 47 38
9.3269997 3.7969999 -0.84799999 79 45 33
9.3079996 3.7780001 -0.84899998 62 42 33
9.3210001 3.8180001 -0.84500003 40 17 0
9.243 3.839 -0.84399998 105 53 16
9.2530003 3.8329999 -0.84600002 80 66 63
9.2410002 3.848 -0.84200001 143 117 102
9.2539997 3.8570001 -0.829 63 36 19
9.2639999 3.859 -0.83099997 107 76 56
9.2580004 3.8540001 -0.82200003 72 49 41
9.2580004 3.8469999 -0.85100001 99 75 63
9.2849998 3.816 -0.85900003 125 98 77
9.2679996 3.849 -0.73900002 59 26 9
9.302 3.7709999 -0.54000002 119 89 87
9.3100004 3.7809999 -0.54900002 198 171 164
9.3109999 3.77 -0.55500001 93 62 57
9.2860003 3.7639999 -0.54799998 175 117 79
9.2889996 3.7579999 -0.551 213 179 169
9.2930002 3.777 -0.56 54 37 30
9.2889996 3.773 -0.56199998 53 22 2
9.2639999 3.803 -0.76499999 95 65 41
9.2729998 3.8069999 -0.76800001 128 67 22
9.2799997 3.825 -0.78200001 149 106 71
9.2720003 3.823 -0.80299997 110 47 14
9.243 3.8169999 -0.74000001 78 41 14
9.2670002 3.852 -0.824 255 249 231
9.2639999 3.8469999 -0.81800002 146 117 99
9.2770004 3.8429999 -0.80500001 149 93 56
9.2539997 3.8139999 -0.77700001 83 52 32
9.2580004 3.8099999 -0.77899998 58 17 0
9.2390003 3.793 -0.76999998 154 99 60
9.2620001 3.8150001 -0.662 254 244 242
9.2629995 3.809 -0.708 125 90 68
9.2690001 3.7920001 -0.73400003 71 49 38
9.2629995 3.799 -0.73199999 97 66 61
9.2969999 3.825 -0.75300002 45 24 7
9.302 3.8859999 -0.76700002 251 236 155
9.3079996 3.8859999 -0.77700001 96 68 57
9.3070002 3.8729999 -0.78799999 77 44 25
9.3120003 3.8599999 -0.76700002 42 20 6
9.302 3.8640001 -0.77899998 110 75 37
9.2600002 3.8570001 -0.86400002 127 107 100
9.2480001 3.8740001 -0.84500003 100 78 65
9.2480001 3.8629999 -0.84500003 253 247 231
9.2539997 3.869 -0.84299999 51 26 21
9.2589998 3.859 -0.838 118 71 19
9.2670002 3.858 -0.83099997 110 78 53
9.3249998 3.796 -0.76800001 63 35 23
9.309 3.7869999 -0.83200002 89 64 42
9.3009996 3.7939999 -0.824 43 16 0
9.302 3.796 -0.81999999 85 57 33
9.3240004 3.7839999 -0.74599999 151 132 115
9.3290005 3.7939999 -0.76499999 53 29 17
9.2939997 3.819 -0.736 37 15 1
9.2849998 3.849 -0.76300001 101 42 10
9.2690001 3.822 -0.54699999 119 86 71
9.2790003 3.803 -0.59500003 119 71 35
9.276 3.8050001 -0.59600002 125 93 68
9.2860003 3.7850001 -0.64499998 186 112 63
9.283 3.7969999 -0.70599997 94 67 56
9.2799997 3.8180001 -0.51700002 143 102 50
9.2869997 3.8050001 -0.51999998 186 150 118
9.2659998 3.8 -0.53399998 197 108 174
9.2200003 3.8399999 -0.565 181 97 172
9.2950001 3.839 -0.588 109 56 12
9.2650003 3.8340001 -0.59500003 120 66 32
9.2530003 3.8269999 -0.59500003 73 45 21
9.2910004 3.8380001 -0.611 134 99 77
9.2799997 3.839 -0.61000001 161 79 23
9.2869997 3.8329999 -0.61799997 64 38 23
9.2720003 3.829 -0.65499997 251 196 139
9.2869997 3.8269999 -0.65100002 54 28 37
9.2469997 3.825 -0.61000001 37 11 10
9.2489996 3.8239999 -0.59100002 127 117 118
9.2799997 3.8429999 -0.59799999 82 42 16
9.2720003 3.8340001 -0.59500003 130 72 26
9.2639999 3.796 -0.65600002 73 34 19
9.2629995 3.8010001 -0.64600003 76 35 7
9.2510004 3.819 -0.616 92 47 14
9.2720003 3.836 -0.60900003 107 77 41
9.2670002 3.826 -0.59200001 104 58 24
9.2539997 3.813 -0.54799998 73 39 29
9.2629995 3.8239999 -0.62699997 84 42 18
9.2670002 3.7980001 -0.68000001 109 69 43
9.2639999 3.8239999 -0.69599998 67 42 38
9.2679996 3.825 -0.708 255 252 242
9.2650003 3.8210001 -0.71499997 140 113 102
9.3149996 3.776 -0.86299998 33 16 9
9.2700005 3.793 -0.85799998 104 82 69
9.2709999 3.8010001 -0.85900003 84 62 48
9.2770004 3.8 -0.86000001 101 54 24
9.2819996 3.786 -0.84600002 61 42 36
9.3009996 3.789 -0.86299998 115 80 58
9.3030005 3.7839999 -0.86199999 107 59 23
9.2600002 3.8299999 -0.829 162 131 113
9.2969999 3.8050001 -0.80000001 55 30 10
9.2880001 3.8069999 -0.787 68 30 9
9.2910004 3.8150001 -0.79299998 118 85 54
9.2880001 3.8 -0.787 92 72 61
9.2790003 3.7690001 -0.64499998 84 49 17
9.2740002 3.793 -0.75199997 87 68 38
9.2860003 3.816 -0.82499999 61 33 22
9.276 3.8239999 -0.824 49 22 13
9.2840004 3.7850001 -0.838 80 60 62
9.2860003 3.7950001 -0.838 160 144 147
9.2550001 3.832 -0.82200003 117 84 67
9.2559996 3.8410001 -0.81400001 144 107 78
9.2589998 3.8369999 -0.815 193 149 102
9.2889996 3.826 -0.792 255 251 241
9.2860003 3.8340001 -0.80400002 64 28 12
9.2770004 3.846 -0.755 251 243 224
9.2720003 3.8099999 -0.85799998 138 110 88
9.2799997 3.8080001 -0.85799998 60 34 11
9.2880001 3.802 -0.847 104 54 21
9.2650003 3.8069999 -0.61400002 123 101 90
9.2700005 3.8080001 -0.61500001 107 57 24
9.2580004 3.806 -0.59799999 101 78 62
9.2379999 3.8239999 -0.55500001 186 131 75
9.2279997 3.8329999 -0.542 84 59 52
9.2259998 3.8380001 -0.53799999 149 100 68
9.2410002 3.8369999 -0.53100002 154 105 64
9.3000002 3.806 -0.84899998 71 34 7
9.2889996 3.813 -0.833 107 63 36
9.29 3.803 -0.84200001 101 63 40
9.2889996 3.8169999 -0.83899999 94 75 58
9.2810001 3.786 -0.80800003 85 42 8
9.2779999 3.7820001 -0.81599998 71 39 26
9.2770004 3.7869999 -0.81599998 66 31 12
9.2950001 3.7750001 -0.83399999 63 40 22
9.2959995 3.7750001 -0.84100002 51 29 15
9.2489996 3.846 -0.85000002 111 78 63
9.2460003 3.8540001 -0.83600003 92 56 40
9.2869997 3.803 -0.81900001 120 45 6
9.2539997 3.869 -0.85000002 49 24 20
9.257 3.8540001 -0.84600002 118 85 54
9.2580004 3.8540001 -0.85799998 79 55 43
9.2589998 3.8570001 -0.861 81 48 33
9.2889996 3.812 -0.85399997 77 48 32
9.2609997 3.842 -0.84500003 90 68 54
9.2729998 3.845 -0.83999997 145 126 122
9.2919998 3.8329999 -0.84799999 61 31 7
9.2910004 3.8299999 -0.83999997 158 134 122
9.2919998 3.832 -0.83499998 62 38 28
9.2880001 3.8269999 -0.85100001 73 30 0
9.2510004 3.8599999 -0.86299998 86 55 24
9.2720003 3.862 -0.75199997 208 137 83
9.2749996 3.858 -0.74299997 133 96 69
9.276 3.859 -0.745 129 82 54
9.2690001 3.846 -0.73000002 153 103 76
9.3100004 3.7579999 -0.55000001 208 173 131
9.2969999 3.7620001 -0.57499999 129 97 48
9.2910004 3.763 -0.57599998 55 31 27
9.2880001 3.766 -0.57300001 130 97 62
9.2950001 3.7690001 -0.57099998 40 21 14
9.2980003 3.767 -0.56800002 46 33 27
9.3000002 3.779 -0.55800003 59 39 28
9.2790003 3.8069999 -0.77100003 141 98 64
9.2749996 3.816 -0.79000002 82 57 50
9.2810001 3.825 -0.78500003 76 49 38
9.283 3.826 -0.79500002 100 76 66
9.2670002 3.8329999 -0.80500001 95 63 42
9.2679996 3.823 -0.81800002 54 22 11
9.276 3.8199999 -0.81199998 43 23 16
9.3210001 3.7920001 -0.75999999 65 33 20
9.3179998 3.8010001 -0.75400001 84 48 12
9.3190002 3.79 -0.75099999 127 91 75
9.2370005 3.8050001 -0.74699998 163 151 151
9.257 3.829 -0.74299997 47 23 11
9.2580004 3.8110001 -0.72899997 122 63 31
9.25 3.813 -0.736 118 88 62
9.2519999 3.8269999 -0.74900001 128 74 46
9.2609997 3.8310001 -0.76300001 109 68 36
9.2609997 3.8210001 -0.778 130 103 84
9.2539997 3.8210001 -0.76999998 125 74 43
9.2889996 3.8139999 -0.78899997 90 70 61
9.2679996 3.7920001 -0.74599999 56 34 23
9.2969999 3.8269999 -0.74800003 58 15 0
9.2889996 3.846 -0.75300002 88 39 9
9.3030005 3.8829999 -0.77399999 93 60 41
9.2980003 3.868 -0.787 172 128 103
9.2939997 3.882 -0.78600001 86 50 26
9.2980003 3.881 -0.79000002 91 38 6
9.309 3.8800001 -0.78200001 87 37 12
9.2980003 3.8840001 -0.78500003 98 52 16
9.3260002 3.8310001 -0.60399997 99 67 52
9.3269997 3.825 -0.59600002 111 94 84
9.3290005 3.8310001 -0.59200001 142 110 87
9.3129997 3.789 -0.727 126 94 71
9.3149996 3.7909999 -0.727 134 113 92
9.3199997 3.7880001 -0.74199998 173 125 85
9.3140001 3.79 -0.73299998 120 98 77
9.3179998 3.793 -0.73299998 65 33 12
9.2889996 3.799 -0.69 71 55 39
9.2889996 3.7980001 -0.66799998 92 74 70
9.2869997 3.7650001 -0.57800001 64 47 37
9.2869997 3.8069999 -0.60799998 48 24 14
9.3050003 3.8139999 -0.611 141 78 35
9.2729998 3.8269999 -0.68300003 105 73 52
9.2729998 3.8310001 -0.69499999 118 53 0
9.2679996 3.822 -0.64300001 250 203 173
9.3000002 3.836 -0.63200003 141 97 60
9.2919998 3.8310001 -0.62300003 50 31 25
9.3009996 3.796 -0.53500003 131 105 88
9.2889996 3.8050001 -0.52200001 100 71 63
9.2770004 3.809 -0.588 103 90 55
9.2659998 3.8099999 -0.53200001 93 52 32
9.2810001 3.7920001 -0.551 102 69 62
9.2790003 3.7939999 -0.55000001 190 122 61
9.2250004 3.8329999 -0.55800003 58 39 33
9.2279997 3.8369999 -0.565 171 123 83
9.2329998 3.8410001 -0.56699997 177 157 156
9.2980003 3.825 -0.62800002 91 32 0
9.2749996 3.842 -0.537 159 82 28
9.2679996 3.835 -0.602 52 20 0
9.276 3.8269999 -0.64099997 101 51 14
9.2849998 3.8269999 -0.64099997 90 60 52
9.2819996 3.825 -0.662 179 131 83
9.2700005 3.7920001 -0.727 59 37 23
9.2519999 3.8010001 -0.741 68 37 34
9.2749996 3.8180001 -0.58700001 189 155 130
9.2609997 3.8099999 -0.54699999 62 34 31
9.2629995 3.799 -0.67900002 62 29 10
9.2690001 3.8099999 -0.69 80 49 29
9.2849998 3.7839999 -0.85399997 49 27 6
9.3070002 3.7850001 -0.86299998 45 28 21
9.2799997 3.7750001 -0.838 147 126 131
9.3059998 3.8050001 -0.80900002 82 54 33
9.3039999 3.7980001 -0.80800003 76 51 31
9.2880001 3.8 -0.79500002 133 98 78
9.3219995 3.796 -0.76800001 63 36 25
9.2740002 3.796 -0.75300002 58 36 23
9.2840004 3.7850001 -0.829 106 60 27
9.2840004 3.79 -0.82700002 123 66 21
9.2530003 3.8380001 -0.82099998 39 21 19
9.243 3.848 -0.82800001 111 48 17
9.2860003 3.7980001 -0.792 65 43 29
9.2889996 3.7909999 -0.80000001 179 145 110
9.2959995 3.8529999 -0.76700002 92 73 69
9.2919998 3.8529999 -0.75999999 93 30 0
9.2989998 3.858 -0.77700001 72 31 13
9.3039999 3.8599999 -0.76899999 134 128 132
9.2709999 3.8570001 -0.74900001 67 34 15
9.276 3.8269999 -0.83200002 101 62 31
9.2690001 3.832 -0.829 145 120 115
9.2849998 3.8239999 -0.85100001 32 4 0
9.243 3.8180001 -0.55000001 112 39 0
9.2889996 3.8050001 -0.83200002 169 96 55
9.2810001 3.78 -0.83700001 122 82 46
9.276 3.7820001 -0.81400001 133 85 47
9.2959995 3.776 -0.838 197 155 117
9.29 3.7750001 -0.83399999 149 121 109
9.3039999 3.822 -0.82300001 109 65 28
9.3059998 3.8239999 -0.82999998 157 132 110
9.2480001 3.8380001 -0.84200001 85 59 46
9.2449999 3.8510001 -0.84899998 131 103 92
9.2749996 3.8469999 -0.81 124 96 74
9.2559996 3.852 -0.82099998 90 60 32
9.2550001 3.859 -0.83499998 246 240 226
9.2770004 3.855 -0.83600003 255 217 165
9.2729998 3.852 -0.82999998 87 57 33
9.2720003 3.839 -0.83700001 69 36 21
9.2700005 3.8610001 -0.75700003 206 135 81
9.2729998 3.8499999 -0.72799999 142 95 43
9.2700005 3.846 -0.72799999 134 129 123
9.2679996 3.8410001 -0.713 66 38 35
9.2749996 3.8469999 -0.72000003 160 128 103
9.2690001 3.842 -0.727 58 35 27
9.3260002 3.825 -0.59299999 144 91 49
9.3210001 3.8199999 -0.597 191 105 54
9.2969999 3.7880001 -0.55199999 111 63 41
9.2959995 3.7809999 -0.55500001 159 111 91
9.3059998 3.7739999 -0.55699998 106 75 57
9.3109999 3.7579999 -0.55800003 195 163 125
9.2620001 3.839 -0.81099999 128 79 38
9.2650003 3.8410001 -0.80699998 139 89 52
9.2799997 3.829 -0.79900002 144 93 50
9.3170004 3.8069999 -0.745 107 61 27
9.323 3.8110001 -0.74599999 52 22 11
9.3059998 3.8069999 -0.72799999 72 41 21
9.3290005 3.793 -0.75999999 66 42 30
9.3269997 3.7939999 -0.75400001 51 31 20
9.3290005 3.7969999 -0.75999999 39 16 2
9.2519999 3.8269999 -0.74699998 160 75 18
9.2440004 3.8080001 -0.74400002 56 27 19
9.2609997 3.8310001 -0.71499997 146 103 50
9.2670002 3.8329999 -0.708 128 79 36
9.2799997 3.812 -0.75599998 135 72 21
9.2860003 3.845 -0.80400002 65 34 16
9.2700005 3.8099999 -0.69700003 255 249 243
9.3000002 3.882 -0.77999997 112 62 29
9.3070002 3.8729999 -0.77600002 99 44 13
9.2969999 3.872 -0.78500003 62 33 15
9.3269997 3.7869999 -0.74400002 94 68 53
9.3170004 3.8180001 -0.60799998 161 110 63
9.323 3.8239999 -0.59799999 63 34 18
9.3140001 3.878 -0.76800001 110 45 3
9.3109999 3.8770001 -0.76099998 42 14 0
9.316 3.8340001 -0.59799999 131 64 21
9.316 3.8410001 -0.60900003 118 81 62
9.3070002 3.7920001 -0.72799999 67 41 28
9.2729998 3.836 -0.69999999 175 106 47
9.2770004 3.8429999 -0.70700002 191 121 62
9.2880001 3.826 -0.662 121 89 78
9.2860003 3.8139999 -0.66100001 54 28 15
9.2880001 3.8180001 -0.65399998 71 19 0
9.2919998 3.826 -0.71700001 90 41 9
9.2969999 3.8080001 -0.72100002 57 38 24
9.2969999 3.826 -0.73900002 173 161 165
9.2910004 3.8299999 -0.73400003 75 27 5
9.2969999 3.845 -0.736 151 94 51
9.2880001 3.8010001 -0.68400002 91 59 36
9.2869997 3.799 -0.67299998 55 28 21
9.2889996 3.8039999 -0.67699999 92 56 34
9.3059998 3.8169999 -0.60100001 139 96 64
9.2980003 3.8150001 -0.60500002 58 30 18
9.2840004 3.8039999 -0.64999998 123 71 34
9.2860003 3.8050001 -0.64200002 79 36 0
9.2810001 3.8369999 -0.611 107 54 22
9.2969999 3.796 -0.53100002 173 122 77
9.2959995 3.7980001 -0.52999997 141 92 59
9.2720003 3.803 -0.52100003 192 161 143
9.2880001 3.8110001 -0.57599998 182 98 51
9.2819996 3.8099999 -0.57599998 64 51 17
9.2840004 3.8150001 -0.574 83 38 5
9.2609997 3.8180001 -0.523 161 108 58
9.3009996 3.7920001 -0.54500002 147 95 71
9.2259998 3.8310001 -0.55699998 95 57 44
9.2720003 3.8380001 -0.53899997 121 77 52
9.2729998 3.8399999 -0.52600002 125 75 40
9.2729998 3.8269999 -0.52200001 170 113 58
9.2910004 3.8299999 -0.58600003 98 68 57
9.2969999 3.836 -0.58499998 174 121 79
9.3070002 3.8440001 -0.579 139 105 80
9.2700005 3.8329999 -0.61299998 83 55 44
9.2749996 3.826 -0.588 211 157 111
9.2840004 3.8150001 -0.58899999 72 25 0
9.2810001 3.806 -0.55699998 74 42 31
9.2810001 3.809 -0.55599999 107 66 36
9.283 3.8039999 -0.55199999 245 167 101
9.2650003 3.8 -0.542 115 85 77
9.2790003 3.8050001 -0.61299998 58 28 17
9.2939997 3.806 -0.63700002 99 58 28
9.2930002 3.8180001 -0.64300001 81 42 9
9.2840004 3.8099999 -0.64700001 82 30 0
9.3050003 3.7750001 -0.85500002 44 25 18
9.3210001 3.796 -0.759 53 25 13
9.2889996 3.7909999 -0.80500001 72 36 4
9.2869997 3.7869999 -0.815 143 121 107
9.2869997 3.799 -0.71100003 60 37 29
9.29 3.819 -0.796 109 53 16
9.2880001 3.825 -0.80299997 76 48 24
9.2530003 3.8429999 -0.81599998 102 80 67
9.2869997 3.8269999 -0.84399998 57 33 23
9.2799997 3.8239999 -0.833 43 16 7
9.2460003 3.8169999 -0.551 50 31 16
9.2889996 3.8010001 -0.84100002 79 47 32
9.3190002 3.7969999 -0.838 57 23 13
9.2969999 3.7780001 -0.83399999 119 71 23
9.2810001 3.848 -0.82300001 113 76 60
9.2939997 3.835 -0.829 188 156 135
9.2980003 3.829 -0.83700001 66 38 16
9.2950001 3.8310001 -0.83600003 56 29 20
9.3059998 3.8310001 -0.84500003 55 28 19
9.2849998 3.8369999 -0.82800001 122 79 44
9.2690001 3.839 -0.72399998 144 71 16
9.2679996 3.832 -0.72600001 106 46 18
9.2700005 3.8410001 -0.73299998 65 42 28
9.2849998 3.8410001 -0.722 76 44 31
9.2810001 3.835 -0.70200002 119 54 0
9.309 3.78 -0.551 130 97 52
9.2880001 3.7590001 -0.55299997 157 94 59
9.2819996 3.8139999 -0.81199998 88 44 17
9.316 3.7980001 -0.74400002 118 81 63
9.3190002 3.8050001 -0.73799998 110 82 71
9.323 3.79 -0.75400001 40 13 2
9.3219995 3.806 -0.745 60 31 17
9.3249998 3.7969999 -0.75 45 16 2
9.2510004 3.822 -0.74199998 115 83 45
9.2530003 3.8180001 -0.736 124 92 69
9.2600002 3.8299999 -0.77200001 112 89 75
9.2810001 3.862 -0.74000001 234 168 107
9.2749996 3.855 -0.73100001 92 47 18
9.2819996 3.858 -0.72399998 229 155 92
9.276 3.842 -0.60100001 147 65 15
9.3030005 3.858 -0.75700003 252 242 193
9.3070002 3.8640001 -0.75 118 90 78
9.3059998 3.8570001 -0.745 253 247 187
9.3079996 3.882 -0.76899999 111 58 24
9.3000002 3.882 -0.75999999 148 112 88
9.2919998 3.8800001 -0.77899998 126 73 31
9.3249998 3.786 -0.74800003 53 27 12
9.3100004 3.8210001 -0.61000001 187 152 120
9.3120003 3.8380001 -0.616 38 6 0
9.3100004 3.842 -0.60500002 206 127 146
9.3059998 3.8399999 -0.60799998 36 15 14
9.3009996 3.8729999 -0.74900001 99 64 45
9.3039999 3.865 -0.74299997 79 52 45
9.3000002 3.8729999 -0.755 69 34 15
9.3070002 3.869 -0.75599998 252 239 171
9.3140001 3.842 -0.59100002 113 85 82
9.3170004 3.825 -0.60699999 54 31 23
9.2799997 3.826 -0.66399997 63 42 25
9.2969999 3.836 -0.63999999 208 161 177
9.2889996 3.835 -0.69800001 141 79 30
9.2860003 3.8340001 -0.70599997 162 117 96
9.323 3.803 -0.72899997 53 22 2
9.316 3.8010001 -0.722 209 190 173
9.2969999 3.8080001 -0.68300003 60 38 25
9.2910004 3.8440001 -0.74699998 110 64 40
9.2919998 3.868 -0.75800002 133 94 65
9.2869997 3.8659999 -0.75599998 125 58 5
9.2840004 3.809 -0.667 43 25 21
9.3030005 3.8369999 -0.611 94 53 25
9.2840004 3.8299999 -0.66900003 196 150 116
9.3009996 3.829 -0.67900002 80 46 36
9.2770004 3.8099999 -0.57300001 171 89 41
9.2629995 3.8110001 -0.537 166 99 57
9.2709999 3.802 -0.523 255 238 181
9.2969999 3.835 -0.61299998 87 59 38
9.2679996 3.832 -0.54100001 64 35 29
9.2889996 3.826 -0.583 177 96 51
9.2749996 3.842 -0.53200001 128 78 51
9.2930002 3.8150001 -0.51800001 90 70 71
9.2790003 3.8269999 -0.51999998 81 46 6
9.2880001 3.816 -0.58399999 59 35 23
9.2989998 3.8169999 -0.588 80 45 23
9.2889996 3.813 -0.59500003 162 79 27
9.2939997 3.8429999 -0.59299999 165 79 20
9.2810001 3.8380001 -0.53500003 104 63 33
9.3149996 3.8399999 -0.58200002 100 54 18
9.3079996 3.8469999 -0.58200002 135 102 69
9.2989998 3.845 -0.58999997 125 95 57
9.3030005 3.849 -0.59100002 89 46 12
9.2910004 3.825 -0.52100003 84 49 7
9.2950001 3.8239999 -0.51999998 155 99 62
9.2670002 3.803 -0.65799999 102 59 27
9.2770004 3.8010001 -0.55699998 109 63 27
9.2790003 3.799 -0.55500001 63 43 34
9.2770004 3.8069999 -0.60100001 80 53 34
9.2690001 3.8269999 -0.62599999 93 52 24
9.2799997 3.8280001 -0.62 97 64 57
9.29 3.7809999 -0.85399997 92 64 52
9.3009996 3.7720001 -0.85100001 175 126 86
9.3269997 3.799 -0.75800002 61 34 25
9.2880001 3.7850001 -0.82200003 92 64 42
9.2989998 3.802 -0.71600002 46 18 4
9.3030005 3.799 -0.72100002 77 45 24
9.2550001 3.8440001 -0.815 149 86 55
9.2869997 3.826 -0.84799999 212 212 220
9.2819996 3.8239999 -0.84200001 42 13 5
9.2919998 3.835 -0.81099999 104 72 47
9.283 3.845 -0.82499999 106 65 33
9.2620001 3.8239999 -0.73500001 118 54 16
9.2659998 3.832 -0.73299998 130 99 81
9.2779999 3.8429999 -0.713 63 41 30
9.29 3.8469999 -0.73199999 127 79 43
9.2770004 3.852 -0.72100002 139 91 51
9.3140001 3.796 -0.74199998 46 23 7
9.3129997 3.8039999 -0.73000002 102 74 52
9.2740002 3.8239999 -0.801 95 41 13
9.2690001 3.829 -0.773 93 83 84
9.2840004 3.846 -0.60100001 88 56 41
9.29 3.8429999 -0.597 68 45 39
9.3030005 3.8540001 -0.74800003 99 48 19
9.3050003 3.8599999 -0.75 59 23 11
9.2969999 3.8559999 -0.73900002 110 68 43
9.2910004 3.881 -0.76499999 107 61 27
9.3059998 3.8469999 -0.59899998 96 63 30
9.2880001 3.8640001 -0.74000001 144 103 81
9.3100004 3.8670001 -0.76599997 84 43 15
9.3079996 3.7969999 -0.722 105 69 47
9.3039999 3.8069999 -0.72600001 138 60 21
9.2889996 3.829 -0.71700001 181 125 78
9.3219995 3.8010001 -0.73500001 83 55 34
9.2930002 3.8340001 -0.70099998 82 43 12
9.2930002 3.8269999 -0.69800001 119 73 40
9.2939997 3.8039999 -0.69400001 94 61 54
9.3039999 3.823 -0.63999999 108 66 41
9.2919998 3.865 -0.75300002 56 19 1
9.2670002 3.823 -0.63999999 50 21 3
9.3070002 3.8369999 -0.61299998 87 45 21
9.283 3.8299999 -0.671 145 123 109
9.2779999 3.8239999 -0.546 158 105 55
9.2980003 3.825 -0.57999998 140 100 64
9.2910004 3.8199999 -0.57999998 121 82 49
9.2950001 3.803 -0.52899998 255 228 202
9.3039999 3.8010001 -0.53899997 255 176 123
9.2799997 3.8239999 -0.588 97 69 66
9.2930002 3.812 -0.60299999 87 61 48
9.2959995 3.8210001 -0.523 73 54 47
9.316 3.829 -0.58099997 122 93 61
9.3249998 3.8269999 -0.58999997 133 103 79
9.3070002 3.793 -0.54100001 114 91 77
9.2969999 3.799 -0.54500002 121 74 54
9.3039999 3.8139999 -0.58200002 126 54 4
9.3039999 3.8180001 -0.58999997 135 80 49
9.2849998 3.8299999 -0.62199998 91 48 16
9.2799997 3.8010001 -0.55599999 196 113 43
9.2819996 3.799 -0.55500001 149 88 34
9.2810001 3.8280001 -0.62199998 97 68 38
9.2910004 3.79 -0.81 81 49 36
9.2950001 3.786 -0.81400001 76 59 52
9.3269997 3.7980001 -0.75999999 56 30 17
9.2840004 3.813 -0.667 58 28 17
9.2930002 3.835 -0.81999999 89 44 11
9.2980003 3.822 -0.81199998 85 50 22
9.2650003 3.823 -0.71899998 110 78 55
9.2779999 3.8440001 -0.71399999 127 88 57
9.276 3.8540001 -0.727 205 131 70
9.2869997 3.819 -0.69599998 83 42 20
9.2880001 3.7590001 -0.55500001 254 205 162
9.3179998 3.7950001 -0.74800003 49 22 5
9.3269997 3.7939999 -0.75099999 48 22 7
9.2650003 3.8310001 -0.76999998 138 73 31
9.2939997 3.8469999 -0.60000002 197 165 142
9.2790003 3.8440001 -0.60399997 124 94 70
9.2969999 3.849 -0.745 252 248 210
9.3109999 3.8440001 -0.58999997 100 76 64
9.3120003 3.842 -0.602 73 42 37
9.3129997 3.7950001 -0.72299999 94 62 41
9.3120003 3.8039999 -0.72799999 146 127 110
9.3030005 3.806 -0.72100002 104 81 73
9.2959995 3.8080001 -0.71399999 61 41 30
9.3079996 3.802 -0.72100002 166 147 132
9.2910004 3.816 -0.704 84 48 16
9.2910004 3.8269999 -0.68800002 112 75 48
9.2930002 3.8239999 -0.67400002 118 71 29
9.2889996 3.832 -0.70899999 122 80 55
9.2770004 3.826 -0.68900001 107 71 45
9.2959995 3.835 -0.68599999 85 49 15
9.2910004 3.803 -0.68800002 64 46 34
9.29 3.809 -0.67900002 53 38 35
9.302 3.8269999 -0.64600003 116 51 0
9.3059998 3.8269999 -0.63700002 127 95 80
9.2819996 3.826 -0.52399999 167 111 60
9.2919998 3.812 -0.52200001 110 81 75
9.309 3.832 -0.57800001 148 97 44
9.2969999 3.806 -0.537 161 129 108
9.2799997 3.8469999 -0.81300002 125 98 71
9.2869997 3.839 -0.81599998 180 128 91
9.302 3.8210001 -0.81699997 109 68 38
9.283 3.846 -0.72000003 59 31 10
9.2770004 3.849 -0.71700001 216 144 85
9.3190002 3.7869999 -0.74699998 49 21 9
9.2930002 3.8469999 -0.59899998 90 56 28
9.2980003 3.8469999 -0.741 87 43 18
9.2869997 3.8640001 -0.74599999 71 30 12
9.2969999 3.8069999 -0.70599997 35 11 0
9.2959995 3.8280001 -0.68199998 90 54 30
9.3000002 3.8299999 -0.62699997 74 33 3
9.2799997 3.813 -0.546 101 47 1
9.3059998 3.832 -0.579 80 46 21
9.2849998 3.8099999 -0.54500002 116 74 49
9.2939997 3.816 -0.59500003 75 39 13
9.3140001 3.8210001 -0.59100002 149 109 74
9.2930002 3.7939999 -0.55199999 216 139 71
9.2950001 3.8380001 -0.815 76 43 28
9.2629995 3.829 -0.736 131 98 57
9.3219995 3.803 -0.74400002 68 41 24
9.2600002 3.8299999 -0.75099999 117 71 35
9.3120003 3.8 -0.722 102 64 43
9.3009996 3.803 -0.71399999 90 72 62
9.2959995 3.829 -0.68199998 111 73 37
9.2939997 3.8239999 -0.67500001 255 243 238
9.3109999 3.832 -0.61199999 84 51 44
9.2910004 3.825 -0.52499998 105 85 78
9.3129997 3.8410001 -0.58200002 131 101 67
9.323 3.8280001 -0.58700001 142 105 78
9.3120003 3.8269999 -0.57999998 111 72 41
9.316 3.825 -0.588 88 66 52
9.316 3.822 -0.58999997 144 96 56
9.3079996 3.8670001 -0.76099998 97 43 17
9.309 3.7969999 -0.72100002 90 51 20
9.2819996 3.8180001 -0.53399998 181 88 145
9.2869997 3.8139999 -0.53899997 188 134 87
9.2889996 3.8110001 -0.537 155 105 70
0 0 0 1 0 0 0 1 0 0 0 1 0 0 0 0 0 1129 1 0 0
