ply
format ascii 1.0
comment PCL generated
element vertex 52
property float x
property float y
property float z
property uchar red
property uchar green
property uchar blue
element camera 1
property float view_px
property float view_py
property float view_pz
property float x_axisx
property float x_axisy
property float x_axisz
property float y_axisx
property float y_axisy
property float y_axisz
property float z_axisx
property float z_axisy
property float z_axisz
property float focal
property float scalex
property float scaley
property float centerx
property float centery
property int viewportx
property int viewporty
property float k1
property float k2
end_header
-11.756 11.817 -0.71600002 88 65 51
-11.748 11.811 -0.71200001 168 124 87
-11.752 11.823 -0.71499997 162 103 43
-11.742 11.817 -0.71100003 106 63 28
-11.766 11.81 -0.71799999 214 148 87
-11.782 11.807 -0.708 213 150 106
-11.77 11.813 -0.713 234 148 73
-11.773 11.798 -0.71799999 169 108 45
-11.766 11.829 -0.71499997 158 99 41
-11.775 11.833 -0.71399999 246 171 103
-11.763 11.798 -0.727 159 88 36
-11.767 11.791 -0.708 183 109 44
-11.785 11.802 -0.70099998 237 173 101
-11.761 11.786 -0.71700001 228 174 130
-11.746 11.783 -0.69199997 149 104 85
-11.75 11.796 -0.685 208 138 86
-11.757 11.801 -0.68900001 198 127 61
-11.746 11.78 -0.69199997 172 104 55
-11.74 11.779 -0.68800002 231 187 148
-11.758 11.799 -0.69599998 89 32 3
-11.764 11.831 -0.70200002 102 54 5
-11.778 11.803 -0.704 209 140 73
-11.774 11.802 -0.704 188 130 84
-11.776 11.806 -0.69599998 144 82 35
-11.778 11.811 -0.69199997 200 129 75
-11.771 11.807 -0.69599998 159 101 63
-11.76 11.804 -0.72100002 237 167 116
-11.763 11.802 -0.722 157 91 31
-11.755 11.795 -0.71799999 157 105 58
-11.754 11.789 -0.722 116 78 42
-11.753 11.789 -0.71899998 112 58 22
-11.757 11.779 -0.70700002 188 119 62
-11.753 11.774 -0.70499998 195 117 42
-11.744 11.778 -0.69199997 149 85 37
-11.757 11.809 -0.69499999 175 111 65
-11.761 11.822 -0.70200002 146 89 46
-11.746 11.814 -0.699 180 103 59
-11.754 11.813 -0.69800001 207 135 63
-11.774 11.83 -0.71100003 135 75 21
-11.77 11.828 -0.70700002 249 169 98
-11.771 11.803 -0.69800001 224 154 102
-11.771 11.798 -0.71200001 170 119 74
-11.778 11.813 -0.69999999 178 82 22
-11.749 11.799 -0.69 167 81 22
-11.748 11.803 -0.70700002 140 74 16
-11.765 11.814 -0.71399999 228 173 116
-11.769 11.8 -0.72000003 174 95 38
-11.75 11.781 -0.704 136 72 28
-11.746 11.805 -0.69599998 212 138 75
-11.757 11.826 -0.70499998 205 130 73
-11.745 11.809 -0.70300001 160 105 64
-11.746 11.809 -0.70700002 141 98 64
0 0 0 1 0 0 0 1 0 0 0 1 0 0 0 0 0 52 1 0 0
