ply
format ascii 1.0
comment PCL generated
element vertex 807
property float x
property float y
property float z
property uchar red
property uchar green
property uchar blue
element camera 1
property float view_px
property float view_py
property float view_pz
property float x_axisx
property float x_axisy
property float x_axisz
property float y_axisx
property float y_axisy
property float y_axisz
property float z_axisx
property float z_axisy
property float z_axisz
property float focal
property float scalex
property float scaley
property float centerx
property float centery
property int viewportx
property int viewporty
property float k1
property float k2
end_header
3.1600001 9.1219997 -0.66600001 163 139 129
3.158 9.1129999 -0.66600001 36 12 2
3.1500001 9.1070004 -0.67299998 75 47 23
3.158 9.1169996 -0.66799998 133 114 100
3.1670001 9.1070004 -0.66000003 77 57 50
3.161 9.099 -0.662 97 68 38
3.1619999 9.1129999 -0.66399997 107 75 60
3.1789999 9.073 -0.91100001 32 8 0
3.1900001 9.0670004 -0.90899998 26 6 0
3.194 9.0670004 -0.917 61 42 35
3.112 9.0559998 -0.78500003 43 14 6
3.112 9.0559998 -0.77999997 135 71 46
3.102 9.0509996 -0.77600002 81 47 22
3.171 9.052 -0.79100001 127 78 45
3.1719999 9.0550003 -0.78399998 38 20 18
3.1760001 9.0570002 -0.79000002 106 70 44
3.177 9.052 -0.80199999 111 70 48
3.158 9.1129999 -0.67400002 66 24 10
3.1389999 9.0670004 -0.68599999 120 75 42
3.1500001 9.0810003 -0.67000002 121 95 82
3.154 9.0609999 -0.68099999 59 36 30
3.138 9.1049995 -0.90499997 122 117 121
3.1400001 9.1000004 -0.91299999 75 35 10
3.1270001 9.099 -0.91100001 11 2 3
3.135 9.0970001 -0.91500002 27 3 3
3.177 9.0600004 -0.92000002 30 7 1
3.1889999 9.0570002 -0.91799998 25 1 0
3.191 9.0640001 -0.91600001 23 4 0
3.191 9.0649996 -0.90399998 91 63 51
3.1960001 9.0640001 -0.89300001 88 44 9
3.1960001 9.0670004 -0.88999999 39 13 0
3.191 9.0640001 -0.912 33 14 7
3.1459999 9.0270004 -0.889 128 113 110
3.1530001 9.0270004 -0.89499998 119 106 100
3.1570001 9.0349998 -0.87900001 103 76 59
3.151 9.0240002 -0.69700003 184 131 79
3.152 9.0179996 -0.70300001 152 95 50
3.1329999 9.0209999 -0.713 197 140 97
3.1110001 9.0489998 -0.76300001 93 57 31
3.1070001 9.0410004 -0.76700002 149 107 82
3.1199999 9.0360003 -0.76099998 238 172 124
3.118 9.0349998 -0.76300001 147 79 34
3.122 9.0539999 -0.88300002 68 31 12
3.122 9.0419998 -0.88300002 42 14 0
3.122 9.0530005 -0.87 184 144 118
3.1210001 9.0579996 -0.88 116 76 50
3.1300001 9.0530005 -0.71799999 73 36 7
3.1340001 9.0620003 -0.71499997 141 107 82
3.1300001 9.0690002 -0.72000003 110 81 67
3.128 9.0509996 -0.70700002 50 20 10
3.164 9.1090002 -0.85000002 168 146 132
3.1559999 9.1129999 -0.85699999 163 145 131
3.1689999 9.1110001 -0.847 27 2 0
3.1630001 9.1129999 -0.861 21 3 3
3.151 9.0340004 -0.69199997 235 173 124
3.1530001 9.0319996 -0.68099999 137 123 114
3.168 9.118 -0.66600001 117 72 49
3.171 9.1160002 -0.66399997 104 58 34
3.1659999 9.1140003 -0.66299999 36 12 2
3.168 9.1219997 -0.671 159 114 81
3.1700001 9.1210003 -0.671 74 29 6
3.1670001 9.1230001 -0.67299998 69 24 0
3.168 9.118 -0.86699998 24 9 6
3.1730001 9.1160002 -0.87599999 45 17 5
3.178 9.1129999 -0.87400001 39 14 9
3.1700001 9.1129999 -0.87400001 101 64 35
3.1670001 9.1169996 -0.87599999 23 5 3
3.1600001 9.1129999 -0.86299998 170 152 140
3.158 9.1129999 -0.86400002 47 26 21
3.1630001 9.1160002 -0.86799997 20 2 0
3.1849999 9.0299997 -0.69400001 189 116 65
3.181 9.0229998 -0.69199997 42 22 13
3.1700001 9.026 -0.68300003 112 76 60
3.1530001 9.033 -0.68199998 123 109 98
3.171 9.1099997 -0.66399997 38 15 7
3.1789999 9.1140003 -0.67000002 152 110 86
3.1489999 9.0780001 -0.676 148 121 110
3.174 9.0710001 -0.92000002 58 34 22
3.1760001 9.0740004 -0.90899998 40 25 20
3.174 9.0699997 -0.91600001 61 33 21
3.1470001 9.0360003 -0.90499997 126 104 93
3.1530001 9.0299997 -0.89700001 14 0 0
3.187 9.0500002 -0.90399998 42 22 13
3.1819999 9.0550003 -0.91399997 22 2 0
3.1819999 9.0550003 -0.91799998 31 10 7
3.119 9.0530005 -0.89099997 41 14 7
3.1210001 9.059 -0.87699997 165 124 96
3.1860001 9.0710001 -0.889 35 12 0
3.1849999 9.1029997 -0.88999999 74 42 21
3.1500001 9.0270004 -0.89499998 120 109 105
3.141 9.0279999 -0.89700001 154 113 95
3.132 9.0369997 -0.70999998 168 116 77
3.128 9.0229998 -0.72600001 148 90 44
3.132 9.0349998 -0.713 166 111 72
3.1300001 9.0380001 -0.72000003 82 54 43
3.1289999 9.0469999 -0.70200002 109 94 87
3.1070001 9.0410004 -0.77600002 67 26 4
3.1070001 9.0419998 -0.77200001 102 61 29
3.1029999 9.0439997 -0.773 133 90 55
3.1059999 9.0469999 -0.76999998 179 137 99
3.1059999 9.0459995 -0.78600001 165 127 106
3.1070001 9.0410004 -0.77999997 80 42 21
3.128 9.0649996 -0.88200003 29 11 11
3.1900001 9.1099997 -0.77700001 121 97 87
3.1860001 9.1099997 -0.76999998 149 134 131
3.1900001 9.1079998 -0.76899999 136 117 110
3.1630001 9.085 -0.79799998 139 103 89
3.1760001 9.0699997 -0.792 75 52 38
3.1600001 9.0839996 -0.78899997 30 7 1
3.1659999 9.0740004 -0.78500003 173 122 91
3.152 9.1160002 -0.741 52 22 11
3.151 9.1169996 -0.73500001 45 23 12
3.152 9.1120005 -0.73799998 144 112 89
3.154 9.1239996 -0.74699998 105 70 51
3.1530001 9.1230001 -0.74800003 64 24 12
3.1589999 9.132 -0.75199997 126 97 79
3.1849999 9.085 -0.75800002 113 104 105
3.1830001 9.0810003 -0.76099998 38 10 0
3.1849999 9.0780001 -0.75400001 80 44 18
3.1730001 9.0900002 -0.759 173 142 122
3.131 9.0410004 -0.72600001 42 9 2
3.1340001 9.0620003 -0.736 152 120 99
3.1329999 9.0609999 -0.72600001 136 106 82
3.1559999 9.0860004 -0.71100003 22 1 0
3.1500001 9.0889997 -0.70899999 37 8 4
3.1619999 9.0880003 -0.71100003 15 0 0
3.165 9.0889997 -0.73199999 35 16 10
3.141 9.0799999 -0.71899998 68 37 32
3.141 9.0799999 -0.713 27 0 0
3.1359999 9.073 -0.71799999 144 121 113
3.175 9.0459995 -0.82499999 58 28 20
3.1700001 9.0439997 -0.824 140 131 136
3.171 9.0439997 -0.81900001 129 87 65
3.1789999 9.0459995 -0.84299999 123 99 87
3.177 9.0509996 -0.87199998 121 105 105
3.184 9.0430002 -0.889 141 115 100
3.175 9.04 -0.88599998 30 2 0
3.1900001 9.0530005 -0.87900001 67 24 8
3.191 9.0509996 -0.88300002 36 12 0
3.191 9.0559998 -0.90899998 103 72 54
3.194 9.0600004 -0.89499998 125 78 48
3.1719999 9.0719995 -0.73400003 35 15 8
3.1730001 9.0889997 -0.74800003 160 127 108
3.1719999 9.092 -0.736 31 3 0
3.175 9.0760002 -0.71399999 31 0 0
3.178 9.0690002 -0.72899997 90 50 25
3.171 9.1110001 -0.87199998 47 19 7
3.1570001 9.1110001 -0.86799997 26 2 0
3.1600001 9.1149998 -0.87 21 3 1
3.1670001 9.1090002 -0.87099999 156 131 124
3.174 9.0229998 -0.68900001 95 58 40
3.168 9.0200005 -0.68800002 164 144 133
3.168 9.1120005 -0.66299999 114 69 40
3.1570001 9.0290003 -0.68800002 74 25 8
3.1359999 9.0649996 -0.70499998 146 109 80
3.141 9.0780001 -0.68400002 58 34 0
3.1470001 9.085 -0.68300003 83 44 15
3.1389999 9.073 -0.69599998 55 30 0
3.135 9.0900002 -0.91399997 40 9 4
3.1229999 9.0889997 -0.90700001 212 168 143
3.1340001 9.0769997 -0.91399997 84 43 25
3.184 9.0679998 -0.91100001 67 43 33
3.1849999 9.0570002 -0.91799998 35 14 11
3.1300001 9.0410004 -0.898 148 113 94
3.1300001 9.0419998 -0.88200003 73 36 18
3.1210001 9.0649996 -0.89700001 77 40 24
3.125 9.0699997 -0.90399998 83 44 27
3.1210001 9.0830002 -0.90499997 176 138 119
3.125 9.0830002 -0.90100002 186 136 103
3.119 9.0500002 -0.91000003 150 130 123
3.1700001 9.0439997 -0.89700001 155 143 145
3.1789999 9.052 -0.90100002 69 41 30
3.142 9.0810003 -0.83499998 52 28 24
3.135 9.0769997 -0.85600001 27 7 0
3.1440001 9.0790005 -0.85399997 48 26 13
3.191 9.0649996 -0.89600003 114 86 72
3.1860001 9.1049995 -0.89099997 75 42 27
3.187 9.1040001 -0.89399999 79 60 46
3.1689999 9.0869999 -0.89099997 35 14 9
3.1830001 9.0810003 -0.87599999 66 43 25
3.155 9.099 -0.89899999 92 64 43
3.151 9.0979996 -0.81999999 27 3 0
3.145 9.0939999 -0.81800002 50 19 0
3.142 9.1000004 -0.824 56 19 0
3.132 9.0229998 -0.71799999 222 161 117
3.1389999 9.0240002 -0.73699999 160 94 46
3.145 9.0249996 -0.73400003 113 33 6
3.138 9.0229998 -0.73400003 167 93 64
3.154 9.0380001 -0.80800003 95 84 88
3.1329999 9.0200005 -0.73199999 129 66 23
3.1530001 9.0229998 -0.73400003 85 28 1
3.119 9.0299997 -0.77200001 126 64 17
3.1440001 9.04 -0.87599999 122 112 111
3.1340001 9.04 -0.87699997 156 105 74
3.1140001 9.0550003 -0.79900002 155 106 74
3.1159999 9.0389996 -0.79900002 70 28 14
3.1199999 9.0410004 -0.80400002 87 49 36
3.1530001 9.1040001 -0.82999998 21 1 0
3.1600001 9.1070004 -0.833 42 7 1
3.155 9.1049995 -0.82200003 60 31 25
3.168 9.059 -0.75599998 24 5 1
3.1659999 9.059 -0.76899999 118 95 79
3.1689999 9.0550003 -0.75300002 23 12 16
3.1470001 9.0220003 -0.704 123 71 31
3.1440001 9.0340004 -0.704 106 58 12
3.138 9.0419998 -0.75400001 97 65 42
3.1400001 9.0340004 -0.745 86 43 26
3.1459999 9.0340004 -0.745 59 5 0
3.135 9.033 -0.741 63 14 0
3.128 9.0389996 -0.764 38 10 0
3.128 9.0249996 -0.73000002 180 119 75
3.128 9.0249996 -0.73400003 188 132 95
3.1689999 9.1210003 -0.67299998 81 39 15
3.165 9.0970001 -0.77600002 24 3 0
3.1659999 9.1000004 -0.77499998 22 2 1
3.1700001 9.1110001 -0.84100002 32 5 0
3.1760001 9.0640001 -0.79299998 97 78 71
3.1600001 9.0900002 -0.80599999 24 5 7
3.165 9.0900002 -0.80599999 188 136 96
3.154 9.1009998 -0.79100001 15 0 0
3.161 9.1199999 -0.68199998 99 81 69
3.1589999 9.1090002 -0.68599999 95 78 71
3.1630001 9.1160002 -0.685 108 66 44
3.1059999 9.0570002 -0.76899999 221 178 144
3.118 9.0609999 -0.78200001 48 4 0
3.1559999 9.1260004 -0.74699998 39 15 11
3.174 9.0600004 -0.78799999 191 142 109
3.164 9.0970001 -0.77100003 107 62 41
3.1289999 9.0410004 -0.72100002 132 120 120
3.1329999 9.0380001 -0.73299998 56 14 0
3.1340001 9.0439997 -0.72799999 108 61 33
3.1270001 9.0310001 -0.73400003 100 65 43
3.132 9.0319996 -0.73900002 63 22 4
3.1440001 9.0839996 -0.70999998 117 85 72
3.141 9.085 -0.81599998 45 17 5
3.1400001 9.0830002 -0.81 42 12 1
3.1440001 9.0869999 -0.81099999 51 20 15
3.1329999 9.0790005 -0.77600002 49 18 0
3.135 9.0790005 -0.792 56 24 3
3.1370001 9.085 -0.77499998 62 26 4
3.1429999 9.0869999 -0.78600001 33 2 0
3.1140001 9.0570002 -0.78600001 86 25 4
3.1199999 9.0620003 -0.78600001 71 29 15
3.1259999 9.0670004 -0.78899997 46 12 2
3.191 9.0620003 -0.88099998 103 44 14
3.1919999 9.0629997 -0.87199998 141 79 42
3.1789999 9.0530005 -0.80900002 176 133 114
3.187 9.0509996 -0.89999998 22 2 0
3.154 9.0369997 -0.68900001 200 135 93
3.1589999 9.0480003 -0.69099998 148 80 45
3.165 9.118 -0.86900002 165 148 138
3.1689999 9.0159998 -0.69300002 134 116 106
3.1670001 9.0159998 -0.69300002 123 106 98
3.1689999 9.0089998 -0.70300001 80 45 17
3.1670001 9.007 -0.70300001 230 163 118
3.1600001 9.0050001 -0.70300001 128 66 25
3.1689999 9.0129995 -0.69999999 240 168 109
3.177 9.0410004 -0.69199997 152 92 58
3.1819999 9.0500002 -0.69999999 156 115 109
3.1789999 9.0360003 -0.69199997 144 66 27
3.164 9.0270004 -0.68300003 98 57 35
3.165 9.0279999 -0.68300003 171 152 145
3.1619999 9.0340004 -0.68400002 85 44 22
3.1359999 9.0649996 -0.71100003 125 91 81
3.1359999 9.0570002 -0.69800001 62 35 28
3.1359999 9.0480003 -0.69999999 123 108 101
3.1470001 9.0719995 -0.68300003 109 66 24
3.152 9.0710001 -0.68199998 199 154 115
3.1500001 9.0909996 -0.685 119 99 92
3.1440001 9.0819998 -0.70200002 114 94 85
3.1389999 9.0810003 -0.70499998 134 116 106
3.155 9.1009998 -0.68300003 33 9 0
3.142 9.0749998 -0.69499999 79 42 16
3.161 9.0699997 -0.91000003 45 30 25
3.1259999 9.0550003 -0.91500002 72 43 35
3.1229999 9.0509996 -0.91399997 60 36 26
3.1619999 9.0459995 -0.90100002 123 81 57
3.151 9.1059999 -0.84500003 22 4 4
3.148 9.0939999 -0.833 36 16 7
3.152 9.1009998 -0.85100001 20 0 0
3.1500001 9.1000004 -0.83200002 19 3 3
3.155 9.0979996 -0.85000002 39 12 3
3.161 9.0889997 -0.86299998 33 9 0
3.1670001 9.0839996 -0.87599999 40 5 0
3.165 9.0860004 -0.86400002 21 0 0
3.1619999 9.1140003 -0.87099999 31 7 0
3.158 9.1079998 -0.86699998 34 7 0
3.1530001 9.1040001 -0.824 29 1 0
3.131 9.0220003 -0.72399998 58 31 20
3.1400001 9.0450001 -0.80699998 179 127 106
3.135 9.0489998 -0.81999999 149 112 96
3.1440001 9.0489998 -0.81800002 45 12 7
3.151 9.04 -0.80800003 83 31 9
3.1700001 9.0459995 -0.81099999 148 139 142
3.1700001 9.0439997 -0.80400002 136 124 126
3.132 9.0340004 -0.796 94 38 13
3.1259999 9.0319996 -0.79000002 130 69 48
3.1340001 9.0310001 -0.77899998 85 40 21
3.145 9.0459995 -0.80199999 108 68 42
3.141 9.0480003 -0.82999998 133 100 81
3.1600001 9.0419998 -0.81900001 164 118 103
3.155 9.0450001 -0.82499999 62 17 0
3.152 9.0249996 -0.74000001 135 70 42
3.171 9.0170002 -0.71499997 103 65 44
3.1389999 9.026 -0.741 176 119 92
3.1229999 9.0310001 -0.77999997 146 70 36
3.1289999 9.0220003 -0.72799999 65 39 26
3.1199999 9.033 -0.78500003 113 34 4
3.145 9.0270004 -0.88999999 20 7 1
3.131 9.0489998 -0.86799997 176 137 106
3.1300001 9.0509996 -0.85699999 105 64 34
3.128 9.0480003 -0.87599999 58 12 0
3.151 9.0530005 -0.86000001 147 125 114
3.1470001 9.0340004 -0.85399997 95 59 35
3.1470001 9.0530005 -0.86199999 125 78 60
3.1440001 9.0439997 -0.85299999 143 100 68
3.1659999 9.0459995 -0.83999997 80 48 35
3.1240001 9.0600004 -0.81199998 85 49 33
3.1240001 9.0600004 -0.80800003 121 85 61
3.1140001 9.0550003 -0.792 138 95 79
3.115 9.0550003 -0.79500002 50 13 5
3.1359999 9.0760002 -0.80699998 48 23 18
3.1289999 9.073 -0.80599999 46 15 12
3.1700001 9.0609999 -0.78200001 107 38 0
3.1559999 9.092 -0.69199997 50 28 17
3.151 9.0839996 -0.70200002 23 3 2
3.1600001 9.1070004 -0.68699998 40 7 2
3.151 9.0889997 -0.68000001 47 25 12
3.174 9.085 -0.708 92 44 8
3.178 9.0860004 -0.704 124 74 41
3.1700001 9.0959997 -0.70599997 15 7 5
3.1630001 9.0500002 -0.75700003 38 5 0
3.1600001 9.0489998 -0.75800002 29 0 0
3.1600001 9.0489998 -0.78100002 127 108 102
3.1589999 9.0209999 -0.71200001 71 43 31
3.1210001 9.0360003 -0.76800001 96 20 0
3.1389999 9.0469999 -0.741 44 11 2
3.187 9.1020002 -0.74599999 35 10 6
3.1860001 9.1129999 -0.741 118 79 48
3.1889999 9.1059999 -0.74699998 29 0 0
3.1489999 9.0830002 -0.71700001 68 32 16
3.175 9.1070004 -0.66900003 54 30 20
3.1689999 9.0839996 -0.66100001 66 42 8
3.175 9.0830002 -0.66799998 59 36 28
3.1589999 9.1199999 -0.76200002 143 114 108
3.151 9.1120005 -0.778 60 23 4
3.161 9.1120005 -0.76800001 33 4 0
3.1559999 9.1129999 -0.76300001 187 154 147
3.1559999 9.1079998 -0.77700001 71 38 29
3.1530001 9.1040001 -0.78399998 48 23 18
3.142 9.1049995 -0.77700001 35 12 6
3.1459999 9.1070004 -0.77600002 51 22 14
3.1530001 9.1210003 -0.75300002 164 149 142
3.1440001 9.1029997 -0.78100002 23 2 0
3.1470001 9.0950003 -0.78799999 44 15 11
3.1600001 9.0979996 -0.78899997 22 1 0
3.1589999 9.0979996 -0.78299999 37 9 5
3.1589999 9.0889997 -0.773 34 11 5
3.154 9.1009998 -0.82099998 40 12 8
3.151 9.1029997 -0.787 18 0 0
3.1570001 9.1120005 -0.68000001 39 2 0
3.1670001 9.1219997 -0.73699999 70 41 25
3.161 9.1090002 -0.72799999 92 75 68
3.1719999 9.1300001 -0.74400002 143 95 55
3.1760001 9.1260004 -0.74199998 187 142 101
3.1819999 9.1230001 -0.741 150 103 59
3.1659999 9.1140003 -0.69199997 60 18 6
3.1700001 9.1169996 -0.69700003 116 80 64
3.1700001 9.1210003 -0.68800002 124 80 53
3.1400001 9.085 -0.75300002 29 10 6
3.138 9.0790005 -0.74900001 26 1 0
3.142 9.0889997 -0.74900001 52 24 0
3.1389999 9.0830002 -0.736 94 65 35
3.1370001 9.0790005 -0.73299998 45 12 0
3.1199999 9.0609999 -0.773 80 51 37
3.1329999 9.0769997 -0.76999998 45 17 0
3.131 9.0690002 -0.77700001 73 30 14
3.125 9.0629997 -0.76999998 32 7 2
3.115 9.0579996 -0.77999997 97 42 21
3.115 9.0570002 -0.77399999 85 29 6
3.1429999 9.0959997 -0.75099999 114 82 57
3.1459999 9.0880003 -0.74800003 12 3 6
3.1830001 9.0979996 -0.75099999 115 97 85
3.1370001 9.0419998 -0.73400003 147 92 62
3.1600001 9.0279999 -0.68699998 207 187 176
3.1489999 9.0880003 -0.80500001 17 0 0
3.1470001 9.0819998 -0.79900002 66 36 26
3.171 9.0699997 -0.79500002 151 103 65
3.1830001 9.0740004 -0.88 230 191 152
3.1789999 9.0600004 -0.83099997 53 23 12
3.1830001 9.066 -0.829 80 69 67
3.177 9.0570002 -0.82800001 59 25 0
3.1819999 9.066 -0.82599998 63 29 4
3.177 9.0489998 -0.89499998 41 14 3
3.1900001 9.0559998 -0.889 30 3 0
3.175 9.0570002 -0.736 82 50 27
3.168 9.0419998 -0.68599999 50 22 1
3.175 9.0380001 -0.69099998 98 27 0
3.171 9.0480003 -0.68900001 151 112 105
3.1259999 9.0780001 -0.90700001 89 48 28
3.1289999 9.0609999 -0.90899998 33 12 7
3.1359999 9.0970001 -0.90200001 49 20 12
3.131 9.0950003 -0.90700001 27 2 0
3.1210001 9.0459995 -0.89200002 150 123 116
3.125 9.0459995 -0.90399998 101 72 56
3.1289999 9.0679998 -0.88099998 65 29 15
3.1340001 9.0640001 -0.912 36 3 0
3.161 9.0389996 -0.89600003 14 0 0
3.164 9.0410004 -0.89499998 116 103 97
3.168 9.0500002 -0.90200001 107 64 47
3.1589999 9.1059999 -0.84899998 18 0 0
3.1370001 9.0710001 -0.87099999 127 127 137
3.1459999 9.0769997 -0.86400002 20 0 0
3.1370001 9.0900002 -0.88800001 23 1 3
3.132 9.0679998 -0.87699997 180 160 151
3.1340001 9.0699997 -0.85699999 25 6 2
3.151 9.0769997 -0.84799999 44 10 1
3.142 9.0780001 -0.83700001 20 4 4
3.154 9.0860004 -0.86500001 113 102 100
3.1559999 9.1079998 -0.86199999 158 138 127
3.171 9.1070004 -0.85900003 66 34 21
3.1700001 9.0719995 -0.89200002 110 92 78
3.178 9.0880003 -0.875 59 26 11
3.184 9.0869999 -0.87 230 192 156
3.1830001 9.0869999 -0.87 82 50 29
3.1689999 9.0839996 -0.884 17 0 0
3.1459999 9.0950003 -0.89200002 81 40 22
3.151 9.0950003 -0.89399999 162 131 111
3.138 9.0719995 -0.87599999 51 15 1
3.145 9.0310001 -0.89899999 62 14 0
3.1670001 9.0430002 -0.80699998 161 103 66
3.1289999 9.04 -0.801 113 78 59
3.1619999 9.0459995 -0.78299999 186 142 105
3.1589999 9.0509996 -0.78899997 183 139 102
3.1589999 9.0500002 -0.78399998 211 168 136
3.155 9.0500002 -0.75999999 36 8 4
3.138 9.0419998 -0.78299999 69 40 26
3.1210001 9.0310001 -0.77600002 119 44 2
3.112 9.0380001 -0.77899998 73 28 5
3.1240001 9.0340004 -0.79000002 147 78 47
3.1270001 9.0500002 -0.87300003 116 75 47
3.1400001 9.0389996 -0.85299999 66 34 11
3.1700001 9.0480003 -0.84500003 103 94 99
3.174 9.0480003 -0.847 37 10 3
3.1700001 9.0500002 -0.84799999 24 3 0
3.1719999 9.0469999 -0.83600003 91 50 32
3.1140001 9.0469999 -0.79299998 47 3 0
3.1259999 9.0699997 -0.80800003 38 3 0
3.1689999 9.099 -0.833 19 1 1
3.168 9.0679998 -0.76999998 140 110 100
3.1619999 9.0749998 -0.773 148 113 91
3.1689999 9.059 -0.78100002 176 140 108
3.1340001 9.0439997 -0.704 171 156 149
3.1470001 9.04 -0.69700003 144 123 106
3.158 9.1000004 -0.68599999 80 41 24
3.155 9.099 -0.67199999 74 30 3
3.1689999 9.0930004 -0.708 15 4 2
3.171 9.1000004 -0.73400003 92 74 70
3.1600001 9.0530005 -0.77899998 136 99 72
3.125 9.066 -0.78600001 43 5 4
3.1300001 9.0690002 -0.78299999 69 20 5
3.138 9.0790005 -0.75999999 95 68 59
3.1389999 9.0869999 -0.76599997 135 102 85
3.118 9.0579996 -0.76899999 59 12 2
3.131 9.0649996 -0.75999999 55 27 5
3.1199999 9.0559998 -0.76499999 65 27 4
3.142 9.0550003 -0.74699998 134 103 83
3.1700001 9.0719995 -0.74800003 54 31 25
3.1530001 9.0869999 -0.73699999 33 8 1
3.152 9.1079998 -0.73900002 38 9 3
3.1270001 9.059 -0.75999999 94 61 42
3.174 9.0159998 -0.70300001 133 58 16
3.1719999 9.0129995 -0.70599997 111 81 70
3.1730001 9.0209999 -0.71499997 95 42 8
3.154 9.0170002 -0.70499998 67 21 5
3.1530001 9.052 -0.76200002 28 0 0
3.1470001 9.0500002 -0.75999999 100 60 35
3.1530001 9.0500002 -0.759 53 26 19
3.1329999 9.0349998 -0.787 106 54 30
3.1159999 9.0509996 -0.76099998 64 32 9
3.1229999 9.0509996 -0.76300001 67 38 30
3.1589999 9.0939999 -0.69999999 27 4 0
3.1670001 9.0979996 -0.70200002 11 1 0
3.1619999 9.1059999 -0.69400001 42 22 13
3.181 9.0970001 -0.74299997 51 26 22
3.1429999 9.0839996 -0.73199999 71 31 6
3.1530001 9.085 -0.73299998 19 0 0
3.171 9.0979996 -0.67299998 52 26 13
3.1719999 9.1049995 -0.66900003 75 27 7
3.1760001 9.1040001 -0.67299998 117 65 41
3.165 9.0620003 -0.67799997 60 30 19
3.1630001 9.0710001 -0.67699999 86 42 13
3.1389999 9.092 -0.77399999 53 25 13
3.1400001 9.092 -0.76999998 169 135 110
3.141 9.0939999 -0.76300001 54 23 18
3.1689999 9.1099997 -0.847 16 1 0
3.1689999 9.1099997 -0.847 16 1 0
3.158 9.1129999 -0.67799997 75 52 44
3.135 9.0769997 -0.73500001 134 115 109
3.1359999 9.0749998 -0.75400001 34 11 3
3.141 9.0719995 -0.74599999 79 44 25
3.161 9.1230001 -0.74199998 45 6 0
3.158 9.1169996 -0.73699999 149 120 106
3.142 9.0889997 -0.75400001 26 7 3
3.1689999 9.1140003 -0.76099998 124 104 95
3.1789999 9.1079998 -0.74800003 55 41 40
3.1689999 9.1099997 -0.73699999 64 26 7
3.1719999 9.1160002 -0.736 163 115 77
3.1589999 9.1090002 -0.77200001 32 4 1
3.1500001 9.0830002 -0.69 33 4 0
3.171 9.0830002 -0.708 92 48 23
3.142 9.0830002 -0.83200002 46 19 10
3.135 9.0769997 -0.815 25 0 0
3.152 9.0950003 -0.81599998 20 0 0
3.152 9.092 -0.81300002 77 56 51
3.1530001 9.0900002 -0.81 155 136 132
3.1860001 9.0579996 -0.87199998 84 27 0
3.1789999 9.0609999 -0.86000001 61 13 0
3.177 9.059 -0.85500002 164 131 96
3.1789999 9.0530005 -0.83399999 100 57 38
3.171 9.0579996 -0.84200001 97 82 75
3.168 9.0539999 -0.86799997 159 141 131
3.1849999 9.0679998 -0.861 67 30 11
3.1800001 9.0699997 -0.85500002 57 24 5
3.1819999 9.0799999 -0.85699999 98 64 39
3.181 9.0609999 -0.86500001 101 65 43
3.178 9.0500002 -0.82999998 43 5 2
3.1789999 9.0220003 -0.69400001 209 142 89
3.1719999 9.059 -0.72899997 101 63 54
3.177 9.0620003 -0.70899999 80 29 0
3.181 9.0699997 -0.70300001 92 52 27
3.1800001 9.0600004 -0.69999999 80 49 28
3.168 9.0570002 -0.68800002 93 55 34
3.174 9.0740004 -0.67900002 65 39 24
3.177 9.0299997 -0.69099998 158 80 31
3.174 9.0480003 -0.70599997 158 100 80
3.1800001 9.0360003 -0.69800001 154 120 108
3.135 9.0600004 -0.70700002 65 29 5
3.1289999 9.0640001 -0.87699997 102 71 53
3.1300001 9.0900002 -0.898 61 38 30
3.151 9.0719995 -0.91500002 75 34 14
3.125 9.0459995 -0.89600003 38 6 0
3.132 9.0690002 -0.88099998 17 3 2
3.132 9.0450001 -0.90700001 49 13 0
3.132 9.0459995 -0.875 117 68 36
3.1700001 9.0389996 -0.88700002 34 9 5
3.164 9.0389996 -0.89099997 19 0 0
3.168 9.0410004 -0.88999999 20 0 0
3.1570001 9.0369997 -0.88999999 20 0 1
3.164 9.0530005 -0.90700001 150 109 89
3.165 9.0480003 -0.90100002 78 33 12
3.141 9.0740004 -0.861 119 86 55
3.155 9.0909996 -0.889 65 38 31
3.1559999 9.0939999 -0.889 37 8 0
3.151 9.092 -0.88999999 43 13 2
3.1589999 9.0950003 -0.89899999 22 0 0
3.151 9.0830002 -0.85900003 43 19 7
3.155 9.099 -0.852 27 7 6
3.158 9.1070004 -0.866 30 3 0
3.1659999 9.0860004 -0.861 26 6 0
3.1730001 9.0810003 -0.85799998 163 127 95
3.1659999 9.085 -0.84500003 45 29 30
3.1830001 9.0810003 -0.861 73 56 40
3.1830001 9.0749998 -0.86799997 62 27 7
3.1589999 9.0579996 -0.86199999 38 11 2
3.164 9.0539999 -0.86799997 44 24 13
3.138 9.0909996 -0.89399999 21 0 0
3.1659999 9.0430002 -0.88200003 75 47 33
3.1400001 9.033 -0.90200001 93 56 37
3.132 9.0469999 -0.81199998 83 44 29
3.131 9.0500002 -0.81599998 73 35 22
3.154 9.052 -0.778 164 126 105
3.108 9.0389996 -0.787 169 134 112
3.1429999 9.0319996 -0.89399999 125 113 113
3.152 9.0570002 -0.84200001 63 16 0
3.145 9.0539999 -0.83600003 178 128 95
3.1500001 9.0570002 -0.84200001 139 116 102
3.1400001 9.0469999 -0.85100001 113 64 31
3.125 9.0570002 -0.87199998 208 168 142
3.1259999 9.0559998 -0.86900002 59 36 22
3.1570001 9.0360003 -0.87800002 144 126 122
3.142 9.0389996 -0.852 141 98 66
3.1359999 9.0469999 -0.87099999 119 76 44
3.128 9.0609999 -0.85600001 97 54 20
3.128 9.0600004 -0.87199998 32 8 4
3.174 9.0469999 -0.84299999 119 96 82
3.178 9.0500002 -0.83600003 120 78 62
3.1229999 9.0600004 -0.79900002 46 9 3
3.1300001 9.0679998 -0.815 123 98 91
3.135 9.0649996 -0.82099998 40 12 0
3.1370001 9.0559998 -0.82200003 127 89 70
3.1340001 9.0629997 -0.84200001 37 9 0
3.1359999 9.0600004 -0.81900001 113 72 54
3.1340001 9.0539999 -0.81699997 61 22 7
3.1600001 9.1059999 -0.83999997 19 5 2
3.152 9.1029997 -0.833 15 0 0
3.1719999 9.0769997 -0.83700001 30 6 0
3.175 9.066 -0.82800001 53 42 38
3.168 9.0780001 -0.81400001 169 115 79
3.1719999 9.0609999 -0.81199998 150 120 94
3.171 9.0830002 -0.84299999 166 137 121
3.1670001 9.0950003 -0.83899999 51 30 25
3.165 9.0889997 -0.81300002 154 100 54
3.1659999 9.099 -0.83099997 30 10 9
3.1670001 9.0710001 -0.77999997 187 143 116
3.1670001 9.0710001 -0.76999998 41 11 3
3.164 9.0740004 -0.76300001 44 19 15
3.154 9.0200005 -0.699 65 37 36
3.164 9.0559998 -0.77899998 211 140 94
3.132 9.0699997 -0.77200001 40 5 1
3.1359999 9.0780001 -0.75400001 19 3 4
3.1270001 9.0489998 -0.76300001 45 2 0
3.1340001 9.0550003 -0.76099998 68 32 8
3.1830001 9.0240002 -0.69800001 235 151 81
3.164 9.0270004 -0.71799999 81 58 50
3.1470001 9.0419998 -0.75099999 72 37 15
3.1359999 9.0430002 -0.76599997 100 70 59
3.1329999 9.0349998 -0.78799999 106 54 30
3.1170001 9.0369997 -0.78899997 123 93 69
3.131 9.0299997 -0.72399998 44 6 0
3.1659999 9.1059999 -0.69999999 28 3 0
3.165 9.1029997 -0.699 20 0 0
3.1700001 9.1099997 -0.70099998 40 10 0
3.1630001 9.1099997 -0.69 45 4 0
3.152 9.1079998 -0.73299998 110 84 71
3.1570001 9.1120005 -0.73299998 38 14 10
3.1670001 9.1029997 -0.66799998 50 28 17
3.174 9.0889997 -0.68199998 112 89 83
3.168 9.0810003 -0.67299998 72 46 9
3.161 9.0790005 -0.67400002 151 129 118
3.1500001 9.1169996 -0.74800003 201 179 166
3.152 9.1160002 -0.75300002 30 0 0
3.1440001 9.0939999 -0.78100002 50 22 11
3.178 9.0550003 -0.80800003 83 48 26
3.1459999 9.0959997 -0.76300001 28 0 0
3.152 9.1099997 -0.759 35 7 6
3.161 9.1129999 -0.73299998 150 130 119
3.1830001 9.1079998 -0.76499999 104 94 95
3.181 9.1110001 -0.74199998 73 36 20
3.1789999 9.1140003 -0.73900002 130 90 55
3.1489999 9.0810003 -0.69099998 67 40 31
3.1489999 9.0340004 -0.74400002 102 56 30
3.1600001 9.0170002 -0.69400001 96 38 14
3.1400001 9.0799999 -0.82700002 74 43 15
3.1389999 9.0790005 -0.82999998 154 127 120
3.138 9.0760002 -0.829 37 14 8
3.191 9.0679998 -0.87800002 109 78 60
3.174 9.0690002 -0.84399998 96 67 49
3.1760001 9.0450001 -0.89099997 126 115 119
3.184 9.0539999 -0.87300003 194 144 121
3.1760001 9.0530005 -0.70300001 61 12 0
3.164 9.0530005 -0.68400002 97 49 26
3.171 9.0480003 -0.722 206 172 160
3.1689999 9.0489998 -0.72899997 165 116 99
3.1689999 9.0389996 -0.72799999 99 42 13
3.1700001 9.0459995 -0.72299999 73 39 30
3.178 9.0419998 -0.69599998 130 66 28
3.1589999 9.0279999 -0.68800002 80 33 5
3.131 9.092 -0.91000003 150 144 148
3.125 9.0880003 -0.903 55 32 24
3.1570001 9.0640001 -0.91500002 66 35 17
3.148 9.0679998 -0.91299999 112 74 53
3.135 9.0740004 -0.88499999 112 103 106
3.132 9.0790005 -0.89700001 30 10 1
3.1300001 9.0790005 -0.89899999 131 76 37
3.1459999 9.052 -0.903 176 154 143
3.1530001 9.052 -0.90399998 138 96 74
3.1240001 9.0469999 -0.90100002 124 93 73
3.1259999 9.0550003 -0.91100001 90 58 43
3.1670001 9.0539999 -0.90700001 126 84 68
3.158 9.1059999 -0.86400002 26 3 0
3.145 9.0869999 -0.89899999 23 3 5
3.141 9.0240002 -0.71499997 241 181 147
3.1429999 9.0220003 -0.71899998 165 110 71
3.1459999 9.0249996 -0.72399998 147 105 81
3.1689999 9.0410004 -0.884 24 0 0
3.154 9.0819998 -0.88599998 37 15 4
3.1500001 9.0810003 -0.88800001 142 139 148
3.1559999 9.0530005 -0.90700001 173 155 141
3.1559999 9.0509996 -0.79699999 127 96 76
3.128 9.059 -0.84799999 222 177 146
3.1389999 9.0419998 -0.77899998 100 18 4
3.1370001 9.0389996 -0.74299997 142 114 92
3.108 9.04 -0.78600001 160 128 103
3.112 9.0380001 -0.79400003 74 27 11
3.1389999 9.0369997 -0.89600003 76 35 15
3.165 9.0480003 -0.84200001 32 7 2
3.168 9.0459995 -0.838 43 7 0
3.1229999 9.0600004 -0.80199999 31 2 0
3.1359999 9.0760002 -0.83700001 132 114 114
3.1340001 9.0710001 -0.85100001 52 25 4
3.1359999 9.0690002 -0.84100002 126 125 133
3.141 9.0530005 -0.83200002 127 79 56
3.132 9.0500002 -0.81699997 24 5 1
3.1470001 9.0469999 -0.82599998 81 39 15
3.164 9.099 -0.84500003 30 12 10
3.1670001 9.1059999 -0.84899998 25 6 2
3.168 9.1059999 -0.84600002 19 1 0
3.1630001 9.0959997 -0.82700002 19 1 1
3.158 9.0950003 -0.66900003 155 115 80
3.1570001 9.0930004 -0.67199999 68 38 12
3.155 9.0900002 -0.676 45 18 9
3.1600001 9.0439997 -0.75 67 25 11
3.1340001 9.0710001 -0.764 68 36 25
3.132 9.0419998 -0.764 120 53 10
3.158 9.0270004 -0.722 118 64 30
3.1340001 9.0290003 -0.71499997 138 79 39
3.1140001 9.0380001 -0.773 136 76 48
3.178 9.0959997 -0.69400001 64 31 12
3.158 9.092 -0.73900002 34 7 0
3.158 9.0710001 -0.67900002 35 7 0
3.151 9.0950003 -0.79100001 9 0 0
3.1659999 9.0860004 -0.83700001 146 119 110
3.1530001 9.1090002 -0.745 29 2 0
3.1500001 9.1160002 -0.74699998 34 5 1
3.1470001 9.099 -0.76899999 143 103 93
3.154 9.1110001 -0.76099998 21 2 0
3.165 9.1239996 -0.75099999 123 92 74
3.158 9.1219997 -0.759 36 9 0
3.1689999 9.066 -0.69 123 73 40
3.171 9.0740004 -0.69599998 84 39 8
3.171 9.0769997 -0.68599999 77 19 0
3.165 9.0760002 -0.80500001 223 173 122
3.165 9.0880003 -0.80900002 231 178 136
3.1689999 9.0869999 -0.81599998 176 127 95
3.184 9.0780001 -0.87400001 69 38 20
3.135 9.0839996 -0.89499998 138 136 147
3.1459999 9.0880003 -0.89099997 73 31 9
3.1429999 9.0740004 -0.91399997 53 17 3
3.1389999 9.0740004 -0.88 178 144 119
3.148 9.0579996 -0.91000003 104 67 51
3.1270001 9.0450001 -0.89999998 41 16 11
3.1240001 9.0480003 -0.90899998 69 41 27
3.168 9.0670004 -0.91500002 140 102 89
3.131 9.0629997 -0.87199998 173 150 144
3.1340001 9.0640001 -0.86900002 29 1 0
3.1429999 9.0220003 -0.72799999 125 51 12
3.1270001 9.0749998 -0.81300002 135 117 115
3.1270001 9.0629997 -0.85299999 212 167 134
3.1370001 9.066 -0.83999997 43 20 4
3.138 9.0469999 -0.76999998 254 170 97
3.1240001 9.0419998 -0.76300001 51 12 5
3.112 9.0380001 -0.79100001 97 43 31
3.1689999 9.0459995 -0.83700001 82 59 45
3.161 9.0830002 -0.76700002 48 13 0
3.175 9.0319996 -0.70300001 131 105 90
3.1689999 9.0360003 -0.71200001 97 52 29
3.155 9.04 -0.74599999 47 24 18
3.131 9.0389996 -0.76999998 30 2 0
3.1700001 9.033 -0.72100002 87 35 14
3.171 9.0340004 -0.71899998 62 9 0
3.1689999 9.0430002 -0.71899998 55 32 24
3.174 9.0179996 -0.69999999 214 120 59
3.1670001 9.1090002 -0.69800001 70 36 24
3.178 9.0939999 -0.69300002 95 58 31
3.1730001 9.1029997 -0.69599998 25 0 0
3.177 9.1090002 -0.67799997 54 29 25
3.1730001 9.0819998 -0.66900003 117 85 86
3.178 9.1239996 -0.74299997 125 82 47
3.1489999 9.0550003 -0.69 145 83 46
3.178 9.0710001 -0.708 191 139 100
3.178 9.0719995 -0.708 64 32 11
3.141 9.0799999 -0.80400002 34 6 2
3.161 9.0279999 -0.72000003 83 30 0
3.151 9.0889997 -0.88999999 47 20 11
3.1630001 9.059 -0.90799999 53 31 20
3.128 9.0620003 -0.87400001 28 0 0
3.1300001 9.0600004 -0.86799997 52 22 11
3.148 9.052 -0.87099999 52 20 9
3.145 9.073 -0.87199998 84 56 45
3.1389999 9.0600004 -0.83899999 135 86 54
3.138 9.052 -0.84799999 117 67 30
3.1329999 9.0679998 -0.85000002 170 150 139
3.1719999 9.0640001 -0.801 154 122 97
3.1600001 9.0959997 -0.69800001 51 28 22
3.1689999 9.0480003 -0.741 95 66 52
3.178 9.0799999 -0.68099999 85 54 34
3.1719999 9.0760002 -0.69700003 91 49 27
3.1800001 9.0760002 -0.70499998 220 165 126
3.1730001 9.1000004 -0.67799997 113 61 37
3.1630001 9.1269999 -0.74900001 127 82 59
3.154 9.059 -0.68599999 137 92 53
3.1689999 9.0690002 -0.68400002 114 57 28
3.161 9.0240002 -0.69099998 198 176 162
3.151 9.0780001 -0.91000003 42 24 20
3.1530001 9.0780001 -0.90399998 131 81 56
3.1589999 9.0579996 -0.90899998 109 71 50
3.131 9.066 -0.85500002 22 0 0
3.135 9.0670004 -0.86000001 32 7 3
3.141 9.0209999 -0.72100002 99 35 0
3.141 9.0209999 -0.72399998 112 43 2
3.1589999 9.033 -0.72899997 225 155 104
3.1589999 9.0360003 -0.74199998 32 16 16
3.138 9.0530005 -0.84100002 195 146 113
3.174 9.0270004 -0.704 181 134 92
3.168 9.0459995 -0.74599999 48 22 9
3.1570001 9.0369997 -0.745 57 33 21
3.1730001 9.1070004 -0.68699998 126 86 60
3.155 9.0570002 -0.68800002 74 49 29
3.1630001 9.0240002 -0.68800002 126 76 51
3.1619999 9.0790005 -0.89899999 64 42 31
3.145 9.0760002 -0.88499999 17 1 1
3.165 9.0349998 -0.72899997 91 45 19
3.1789999 9.1000004 -0.68900001 64 19 0
3.1600001 9.0459995 -0.75199997 68 26 12
3.1760001 9.0979996 -0.68400002 72 29 10
3.1689999 9.0419998 -0.73699999 64 55 60
0 0 0 1 0 0 0 1 0 0 0 1 0 0 0 0 0 807 1 0 0
