ply
format ascii 1.0
comment PCL generated
element vertex 503
property float x
property float y
property float z
property uchar red
property uchar green
property uchar blue
element camera 1
property float view_px
property float view_py
property float view_pz
property float x_axisx
property float x_axisy
property float x_axisz
property float y_axisx
property float y_axisy
property float y_axisz
property float z_axisx
property float z_axisy
property float z_axisz
property float focal
property float scalex
property float scaley
property float centerx
property float centery
property int viewportx
property int viewporty
property float k1
property float k2
end_header
-9.7700005 -2.0840001 -1.03 122 68 24
-9.7690001 -2.0799999 -1.03 107 62 31
-9.7790003 -2.085 -1.052 190 134 75
-9.7279997 -1.916 -0.94499999 172 118 72
-9.7329998 -1.909 -0.94400001 218 176 138
-9.7379999 -1.921 -0.92900002 100 64 40
-9.7379999 -1.921 -0.93900001 76 40 16
-9.8330002 -2.056 -1.044 187 124 55
-9.835 -2.0569999 -1.044 165 79 30
-9.8369999 -2.0510001 -1.05 243 198 131
-9.8479996 -1.9299999 -1.016 114 34 0
-9.8579998 -1.924 -1.017 208 143 75
-9.8500004 -1.925 -1.0190001 206 126 65
-9.7819996 -2.085 -1.04 163 108 51
-9.7799997 -2.098 -1.033 162 76 19
-9.7860003 -2.1010001 -1.0369999 97 44 10
-9.7749996 -2.0829999 -1.018 133 85 37
-9.7399998 -1.962 -1.0369999 177 115 68
-9.7440004 -1.9529999 -1.0319999 211 147 83
-9.7340002 -1.962 -1.016 207 133 68
-9.743 -1.962 -1.048 157 99 62
-9.7880001 -1.977 -1 168 127 95
-9.7889996 -1.978 -0.995 128 75 31
-9.783 -1.974 -0.99299997 126 84 46
-9.7720003 -1.971 -1 196 134 73
-9.7629995 -1.949 -0.93599999 146 93 39
-9.7639999 -1.9529999 -0.93400002 199 144 87
-9.7609997 -1.95 -0.93300003 159 103 46
-9.8549995 -1.919 -1.0420001 78 67 63
-9.8669996 -1.929 -1.029 90 75 68
-9.8669996 -1.924 -1.035 176 88 24
-9.835 -2.056 -1.044 171 124 56
-9.8369999 -2.036 -1.041 230 130 44
-9.7849998 -2.0999999 -1.039 125 71 35
-9.7869997 -2.092 -1.043 207 156 101
-9.8660002 -1.933 -1.049 216 164 106
-9.8850002 -1.936 -1.0549999 105 59 25
-9.8879995 -1.934 -1.053 238 152 75
-9.8570004 -1.923 -1.0470001 197 113 43
-9.8889999 -1.947 -1.05 199 107 40
-9.8900003 -1.9450001 -1.054 113 47 15
-9.7670002 -2.0840001 -1.023 157 102 63
-9.7349997 -2.0439999 -1.011 174 106 57
-9.7340002 -2.043 -1.017 77 37 2
-9.7480001 -2.0510001 -1.015 145 101 72
-9.8800001 -1.989 -1.0470001 207 110 33
-9.8839998 -1.989 -1.041 242 177 111
-9.8859997 -1.998 -1.044 167 122 101
-9.8409996 -2.006 -1.036 166 114 57
-9.8520002 -2.0039999 -1.034 215 122 52
-9.8439999 -2.027 -1.03 150 109 89
-9.8529997 -2.0109999 -1.035 190 87 10
-9.7259998 -2.0220001 -1.007 190 130 80
-9.7320004 -2.02 -1.011 212 156 105
-9.7189999 -2.0139999 -1.011 189 130 74
-9.7180004 -2.017 -1.008 155 97 33
-9.7729998 -1.929 -1.0420001 169 106 39
-9.7729998 -1.927 -1.038 179 119 65
-9.7639999 -1.932 -1.034 232 160 84
-9.7390003 -1.9529999 -1.013 159 75 31
-9.7460003 -1.948 -1.0190001 175 123 76
-9.7399998 -1.961 -1.0089999 150 92 42
-9.7700005 -1.965 -1 149 100 67
-9.7849998 -1.966 -1.002 205 135 75
-9.8360004 -2.026 -1.056 186 145 123
-9.8280001 -2.029 -1.057 121 82 51
-9.8149996 -1.9450001 -1.0089999 241 199 141
-9.8149996 -1.9579999 -1.017 124 76 30
-9.8109999 -1.946 -1.008 221 175 116
-9.8369999 -1.966 -0.99699998 175 119 62
-9.842 -1.973 -1.011 159 105 35
-9.8459997 -1.978 -0.99699998 169 114 58
-9.8409996 -1.972 -1.012 166 106 43
-9.7440004 -1.921 -0.935 220 151 92
-9.783 -1.921 -0.99199998 146 108 89
-9.79 -1.918 -0.99699998 183 106 54
-9.7840004 -1.921 -0.98299998 146 76 24
-9.776 -1.926 -0.995 206 153 99
-9.7399998 -2.04 -1.025 196 132 71
-9.75 -2.039 -1.033 213 166 98
-9.7480001 -2.036 -1.031 150 100 39
-9.7460003 -2.036 -1.012 185 122 55
-9.7489996 -2.0239999 -1.012 220 118 33
-9.743 -2.0320001 -1.016 255 204 138
-9.8050003 -2.03 -1.031 153 102 39
-9.8039999 -2.029 -1.0420001 207 114 45
-9.8149996 -2.023 -1.034 154 113 91
-9.7510004 -2.043 -1.0089999 78 45 26
-9.7449999 -2.0439999 -1.013 239 186 146
-9.8100004 -1.943 -1.006 251 205 146
-9.7910004 -1.955 -1.01 180 127 75
-9.8179998 -1.933 -1.007 146 102 65
-9.8120003 -1.9299999 -1.003 134 85 42
-9.809 -1.9400001 -1.015 180 101 35
-9.8559999 -1.92 -1.0420001 130 86 59
-9.8500004 -1.974 -1.01 183 134 68
-9.8520002 -1.983 -1.015 228 173 108
-9.8459997 -1.972 -0.99900001 200 157 112
-9.8549995 -1.931 -1.021 161 90 44
-9.868 -1.938 -1.0369999 171 139 98
-9.849 -1.925 -1.024 186 141 100
-9.7810001 -2.0869999 -1.044 128 105 71
-9.868 -1.9349999 -1.0369999 111 70 40
-9.8629999 -1.934 -1.0470001 135 96 67
-9.8640003 -1.937 -1.043 162 123 92
-9.7709999 -2.0780001 -1.024 116 72 43
-9.75 -2.052 -1.012 171 87 23
-9.8780003 -1.992 -1.05 193 150 55
-9.8739996 -1.999 -1.053 178 142 54
-9.8660002 -1.995 -1.05 188 142 119
-9.8319998 -2.0079999 -1.036 218 128 50
-9.8369999 -2.029 -1.026 184 97 28
-9.835 -2.017 -1.04 146 95 48
-9.8450003 -1.983 -1.029 223 145 62
-9.835 -1.974 -1.0369999 198 125 72
-9.8439999 -1.9910001 -1.033 191 104 35
-9.8459997 -2.0309999 -1.035 202 112 34
-9.8400002 -2.03 -1.034 205 108 29
-9.8590002 -2.0050001 -1.036 122 94 80
-9.8290005 -1.97 -1.033 138 95 50
-9.8219995 -1.972 -1.034 191 112 55
-9.823 -1.965 -1.033 211 155 106
-9.8459997 -1.977 -1.0039999 169 118 63
-9.7700005 -1.977 -1.016 231 130 48
-9.79 -1.976 -1.0140001 90 58 37
-9.783 -1.979 -1.0190001 175 126 93
-9.7309999 -2.017 -1.008 195 113 65
-9.7259998 -2.013 -1 215 155 95
-9.7299995 -2.0109999 -1.002 109 52 7
-9.7379999 -1.96 -1.022 195 132 65
-9.7609997 -1.97 -1.052 160 114 90
-9.7449999 -1.98 -1.049 242 180 121
-9.7519999 -1.988 -1.052 252 178 103
-9.743 -1.97 -1.048 188 125 81
-9.7629995 -1.969 -1.015 176 120 61
-9.7379999 -1.969 -1.04 229 146 68
-9.8280001 -2.026 -1.054 212 114 23
-9.8389997 -2.0079999 -1.057 219 117 42
-9.7860003 -1.9680001 -1.057 149 95 57
-9.783 -1.961 -1.056 196 130 70
-9.7770004 -1.97 -1.053 171 101 42
-9.8450003 -1.971 -0.995 150 113 68
-9.7959995 -1.971 -1.017 156 105 48
-9.7869997 -1.974 -1.001 188 134 88
-9.7910004 -1.96 -1.0089999 200 128 52
-9.8310003 -1.948 -1.022 163 110 58
-9.8409996 -1.932 -1.016 212 144 71
-9.7880001 -1.973 -0.995 232 185 129
-9.7530003 -1.936 -0.935 187 139 93
-9.7620001 -1.948 -0.93800002 163 112 59
-9.7620001 -1.955 -0.93199998 129 71 34
-9.7539997 -1.946 -0.94999999 167 87 24
-9.7790003 -1.927 -1.033 172 111 57
-9.776 -1.928 -1.035 107 67 42
-9.7790003 -1.934 -1.045 152 100 50
-9.7770004 -1.923 -0.98799998 174 105 50
-9.7449999 -2.026 -1.023 149 88 43
-9.7519999 -2.05 -1.0190001 216 160 109
-9.743 -2.0420001 -1.024 105 52 2
-9.8260002 -2.0220001 -1.027 126 68 28
-9.823 -2.0179999 -1.027 167 110 67
-9.7969999 -2.023 -1.029 181 120 55
-9.7950001 -2.026 -1.033 189 123 65
-9.802 -2.0280001 -1.0319999 136 97 40
-9.8120003 -1.956 -1.017 238 171 101
-9.7869997 -1.962 -1.007 161 81 22
-9.7720003 -1.951 -1.012 110 63 19
-9.8520002 -1.9220001 -1.0369999 206 155 92
-9.8310003 -1.925 -1.034 125 81 34
-9.802 -1.9400001 -1.046 230 120 35
-9.8009996 -1.931 -1.038 162 85 31
-9.809 -1.9349999 -1.0319999 217 146 90
-9.823 -1.934 -1.033 184 133 76
-9.7989998 -1.928 -1.043 143 76 31
-9.8290005 -1.948 -1.033 170 117 67
-9.8850002 -1.938 -1.05 205 122 54
-9.8380003 -1.966 -0.99900001 164 108 51
-9.7690001 -2.0799999 -1.027 148 98 63
-9.7720003 -2.086 -1.026 128 70 32
-9.8809996 -1.992 -1.0470001 215 181 81
-9.875 -1.998 -1.05 254 215 124
-9.8640003 -2.0039999 -1.053 239 133 49
-9.8549995 -1.999 -1.045 158 108 55
-9.8629999 -1.999 -1.044 189 106 40
-9.8660002 -1.9960001 -1.041 198 112 51
-9.8459997 -1.972 -1.021 177 91 44
-9.8479996 -1.982 -1.017 211 166 98
-9.8439999 -1.973 -1.011 133 78 24
-9.7320004 -1.915 -0.94800001 139 95 66
-9.7340002 -1.9170001 -0.95300001 107 64 32
-9.7370005 -1.916 -0.958 214 113 45
-9.7250004 -2.01 -0.99800003 221 163 99
-9.7390003 -1.925 -0.954 156 85 33
-9.7469997 -1.941 -0.94400001 165 105 69
-9.7250004 -2.0150001 -1.002 175 113 64
-9.7189999 -2.01 -0.99000001 220 158 99
-9.7229996 -2.0020001 -0.991 177 106 52
-9.7460003 -1.921 -0.97799999 111 74 48
-9.7449999 -1.927 -0.977 176 126 67
-9.7390003 -1.92 -0.97299999 116 88 76
-9.757 -1.928 -0.98199999 193 134 76
-9.7659998 -1.9220001 -0.977 213 156 101
-9.7530003 -1.923 -0.97899997 170 121 65
-9.7869997 -1.976 -0.99599999 115 70 31
-9.7639999 -1.977 -1.026 193 138 73
-9.7510004 -1.969 -1.027 239 179 107
-9.7639999 -1.97 -1.02 209 113 36
-9.7460003 -1.969 -1.024 189 128 81
-9.7690001 -1.9680001 -1.0039999 192 136 77
-9.7279997 -2.016 -1.006 183 118 64
-9.7679996 -1.9579999 -1.045 182 121 74
-9.7740002 -1.9400001 -1.05 111 93 79
-9.7840004 -1.936 -1.051 206 125 60
-9.7279997 -2.007 -1.01 195 134 71
-9.7320004 -1.999 -1.0140001 116 63 11
-9.7399998 -1.967 -1.018 201 134 82
-9.7370005 -1.966 -1.016 206 144 95
-9.7259998 -2.006 -0.99599999 208 152 91
-9.7379999 -1.969 -1.035 142 90 30
-9.7489996 -1.966 -1.021 255 209 144
-9.8260002 -2.026 -1.046 202 101 11
-9.7880001 -1.974 -0.99800003 134 86 50
-9.8299999 -1.937 -1.029 191 117 54
-9.7650003 -1.951 -0.94700003 176 96 35
-9.7650003 -1.947 -0.97100002 196 135 90
-9.7550001 -1.943 -0.96100003 165 109 62
-9.7690001 -1.937 -1.029 178 116 59
-9.7709999 -1.928 -0.972 173 127 91
-9.7720003 -1.927 -0.977 198 158 109
-9.7410002 -1.92 -0.93800002 249 174 107
-9.7349997 -1.913 -0.94599998 255 228 189
-9.783 -1.925 -1.03 175 99 47
-9.7840004 -1.932 -1.03 212 149 95
-9.7620001 -1.961 -1.016 137 95 73
-9.7810001 -1.9299999 -0.99199998 127 57 8
-9.7729998 -1.927 -0.986 244 186 122
-9.7639999 -1.928 -0.98100001 118 78 52
-9.7779999 -2.079 -1.046 155 102 48
-9.7989998 -2.03 -1.035 185 89 15
-9.7950001 -1.989 -1.061 204 147 94
-9.7980003 -1.9859999 -1.059 179 79 4
-9.7930002 -1.975 -1.056 210 143 75
-9.79 -1.985 -1.027 116 72 33
-9.7910004 -1.984 -1.027 244 145 64
-9.7740002 -1.998 -1.026 228 165 98
-9.7770004 -1.979 -1.022 166 86 27
-9.743 -1.978 -1.044 194 125 60
-9.7370005 -2.0020001 -1.023 186 123 56
-9.7370005 -1.972 -1.031 188 124 62
-9.7399998 -1.974 -1.027 173 105 44
-9.7360001 -2.0039999 -1.015 150 124 107
-9.835 -2.0309999 -1.041 166 106 54
-9.8190002 -2.0150001 -1.0470001 214 144 75
-9.8030005 -2.017 -1.0420001 67 30 3
-9.7799997 -1.987 -1.0549999 197 94 19
-9.7919998 -1.943 -1.02 215 107 32
-9.79 -1.937 -1.02 213 103 24
-9.8509998 -1.925 -1.025 214 172 134
-9.8470001 -1.926 -1.021 192 151 105
-9.8149996 -1.9299999 -1.01 185 131 71
-9.8120003 -1.938 -1.03 178 97 44
-9.8640003 -1.932 -1.033 255 193 119
-9.8649998 -1.938 -1.038 187 116 60
-9.8430004 -1.972 -1.027 182 98 38
-9.8559999 -1.942 -1.036 183 98 33
-9.8500004 -1.9450001 -1.036 179 128 71
-9.8280001 -1.952 -1.04 191 132 76
-9.823 -1.948 -1.0420001 187 117 48
-9.8190002 -1.952 -1.0420001 167 120 100
-9.8210001 -1.957 -1.043 207 151 94
-9.8500004 -1.948 -1.035 140 103 58
-9.842 -1.936 -1.031 215 111 38
-9.7670002 -2.0810001 -1.024 136 78 38
-9.8570004 -2.0050001 -1.0470001 201 150 93
-9.8380003 -2.006 -1.054 203 141 82
-9.8590002 -2.0090001 -1.0470001 186 137 68
-9.8509998 -1.982 -1.027 172 109 55
-9.8400002 -1.99 -1.034 147 57 5
-9.8299999 -1.989 -1.054 161 115 91
-9.8470001 -2.006 -1.041 214 106 16
-9.7950001 -1.9299999 -1.045 225 120 28
-9.7959995 -1.9299999 -1.04 241 130 40
-9.8079996 -1.9450001 -1.054 202 124 62
-9.8149996 -1.995 -1.034 252 165 88
-9.8070002 -1.992 -1.0319999 171 117 55
-9.8050003 -1.999 -1.026 147 92 38
-9.8470001 -1.978 -1.007 178 122 61
-9.8459997 -1.977 -1.012 252 197 130
-9.7349997 -1.919 -0.94800001 255 240 203
-9.7360001 -1.9170001 -0.95899999 123 82 50
-9.7399998 -1.9220001 -0.95999998 98 61 42
-9.7620001 -1.934 -0.95099998 122 83 42
-9.7589998 -1.9220001 -0.954 143 75 40
-9.7510004 -1.929 -0.93800002 118 83 45
-9.7659998 -1.948 -0.97399998 145 92 52
-9.7770004 -1.9450001 -0.97500002 164 120 91
-9.7709999 -1.946 -0.96799999 137 88 48
-9.7779999 -1.943 -0.977 236 194 156
-9.7220001 -2.01 -0.99400002 218 160 96
-9.7419996 -1.938 -0.958 140 98 74
-9.7460003 -1.939 -0.954 165 114 69
-9.7530003 -1.942 -0.95499998 191 119 69
-9.7449999 -1.924 -0.97000003 207 128 72
-9.7440004 -1.9299999 -0.954 194 113 60
-9.7559996 -1.942 -1.023 167 102 34
-9.7559996 -1.951 -1.035 182 123 65
-9.7489996 -1.949 -1.023 175 116 58
-9.7530003 -1.944 -1.02 192 131 74
-9.7510004 -1.932 -0.98299998 181 122 62
-9.7580004 -1.939 -0.97600001 180 118 57
-9.823 -1.97 -1.043 220 129 46
-9.7399998 -1.9680001 -1.043 209 116 36
-9.7440004 -1.959 -1.04 170 122 99
-9.7469997 -1.96 -1.044 211 129 71
-9.7729998 -1.9630001 -1.048 158 105 61
-9.7650003 -1.936 -1.0420001 223 141 67
-9.7329998 -2.0109999 -1.022 240 179 112
-9.7419996 -2.0039999 -1.027 243 197 145
-9.7410002 -2.01 -1.023 180 128 80
-9.7410002 -1.975 -1.027 203 103 17
-9.7410002 -1.965 -1.017 167 101 51
-9.7399998 -1.962 -1.034 195 132 78
-9.743 -1.9579999 -1.031 170 122 99
-9.7449999 -1.956 -1.013 208 136 64
-9.8210001 -1.983 -1.0650001 155 107 59
-9.8070002 -1.983 -1.051 141 89 52
-9.7969999 -1.956 -1.052 195 126 69
-9.8149996 -2.016 -1.0369999 204 105 22
-9.8030005 -2 -1.028 80 45 17
-9.8100004 -2.0209999 -1.0369999 137 74 21
-9.816 -1.987 -1.0369999 207 125 41
-9.8330002 -1.938 -1.035 204 104 29
-9.8339996 -1.9299999 -1.027 214 146 85
-9.7639999 -1.9450001 -0.94499999 189 89 29
-9.7600002 -1.946 -0.94499999 225 146 87
-9.7889996 -1.938 -0.995 156 104 56
-9.7749996 -1.9299999 -0.97399998 131 87 40
-9.79 -1.936 -1.021 144 83 26
-9.7860003 -2.01 -1.028 62 26 0
-9.7749996 -2.0239999 -1.03 210 101 16
-9.7880001 -1.984 -1.027 153 103 68
-9.75 -2.027 -1.015 177 126 60
-9.7539997 -2.039 -1.027 188 126 65
-9.7539997 -2.0469999 -1.024 192 139 73
-9.7740002 -2.0569999 -1.0470001 211 164 84
-9.7709999 -2.0599999 -1.048 189 103 30
-9.7819996 -2.053 -1.057 191 130 47
-9.7419996 -1.977 -1.04 206 132 67
-9.7399998 -2.003 -1.023 228 173 109
-9.8249998 -2.026 -1.0420001 119 79 54
-9.7980003 -1.994 -1.029 155 103 43
-9.8030005 -2.0050001 -1.056 217 122 32
-9.823 -2.0220001 -1.046 162 95 43
-9.8269997 -2.0150001 -1.045 200 107 48
-9.8170004 -1.995 -1.058 143 106 77
-9.79 -1.978 -1.056 219 150 83
-9.8079996 -1.955 -1.028 130 79 34
-9.802 -1.962 -1.034 171 110 55
-9.842 -1.928 -1.035 191 150 120
-9.8599997 -1.925 -1.03 225 119 43
-9.8310003 -1.932 -1.035 201 132 57
-9.842 -1.978 -1.023 238 166 82
-9.8430004 -2.013 -1.0420001 210 113 36
-9.8559999 -1.997 -1.035 148 61 7
-9.8140001 -1.947 -1.04 169 98 36
-9.7410002 -1.914 -0.95899999 159 121 108
-9.7460003 -1.923 -0.94 216 140 78
-9.7460003 -1.926 -0.94599998 183 111 52
-9.757 -1.926 -0.94999999 74 30 5
-9.7580004 -1.941 -0.97000003 177 116 61
-9.7399998 -1.921 -0.96499997 129 90 61
-9.7650003 -1.942 -0.963 202 140 89
-9.7650003 -1.9450001 -1.02 203 133 71
-9.7620001 -1.951 -1.0190001 213 106 26
-9.7519999 -1.929 -0.97600001 145 90 33
-9.7539997 -1.9299999 -0.97399998 160 116 71
-9.8299999 -1.995 -1.049 233 143 65
-9.8389997 -2.007 -1.051 254 159 79
-9.7650003 -1.934 -1.039 174 122 62
-9.7309999 -2.0090001 -1.016 174 104 44
-9.7440004 -1.96 -1.012 241 165 87
-9.7679996 -1.951 -1.015 235 158 78
-9.7989998 -1.944 -1.048 184 132 82
-9.8210001 -1.979 -1.057 144 110 82
-9.8219995 -1.985 -1.061 211 141 69
-9.7550001 -1.933 -0.94400001 191 129 80
-9.7709999 -1.9400001 -0.96799999 156 110 77
-9.7720003 -1.934 -0.972 177 135 97
-9.7670002 -1.931 -0.98100001 114 88 71
-9.7580004 -1.944 -0.95300001 151 89 42
-9.7790003 -1.932 -0.98000002 153 107 55
-9.7539997 -2.027 -1.025 177 85 34
-9.7639999 -2.0079999 -1.034 161 100 35
-9.7580004 -2.0409999 -1.033 148 93 39
-9.7530003 -2.0239999 -1.0190001 231 123 32
-9.7819996 -2.046 -1.057 244 188 101
-9.7799997 -2.0450001 -1.056 206 158 82
-9.7779999 -2.03 -1.033 193 128 70
-9.7770004 -2.0220001 -1.0369999 202 151 98
-9.7959995 -2.0109999 -1.061 229 175 87
-9.7799997 -1.994 -1.054 153 83 34
-9.7860003 -2.0090001 -1.045 216 123 45
-9.7969999 -2.0039999 -1.0599999 229 132 51
-9.7950001 -1.998 -1.058 205 133 61
-9.7869997 -2.027 -1.04 89 67 53
-9.7530003 -2.049 -1.022 241 179 120
-9.7559996 -2.0420001 -1.0319999 221 161 107
-9.7709999 -2.053 -1.048 167 106 43
-9.823 -2.0209999 -1.03 146 74 16
-9.8070002 -2.003 -1.052 245 134 45
-9.8290005 -1.9910001 -1.059 221 118 39
-9.8199997 -1.988 -1.061 182 134 111
-9.8070002 -1.995 -1.059 160 114 90
-9.8240004 -1.947 -1.028 153 74 15
-9.7950001 -1.975 -1.035 129 82 38
-9.8050003 -1.983 -1.0470001 255 180 105
-9.8330002 -1.928 -1.036 192 101 48
-9.8439999 -1.933 -1.035 192 123 64
-9.8509998 -1.99 -1.028 171 139 80
-9.7959995 -1.932 -1.029 230 161 83
-9.7639999 -1.921 -0.97500002 194 112 62
-9.7650003 -1.928 -0.96899998 120 58 0
-9.7419996 -1.9220001 -0.93699998 180 105 37
-9.7589998 -1.927 -0.95300001 149 132 122
-9.75 -1.927 -0.972 105 67 46
-9.7770004 -1.946 -1.018 170 129 109
-9.7550001 -1.9809999 -1.04 183 120 53
-9.823 -1.994 -1.04 204 117 48
-9.8210001 -2 -1.038 164 91 36
-9.7880001 -1.937 -1.049 182 118 54
-9.7889996 -1.942 -1.05 226 146 75
-9.7679996 -1.943 -1.04 204 137 69
-9.7580004 -1.952 -1.035 143 96 50
-9.7589998 -1.985 -1.048 206 129 61
-9.776 -1.993 -1.041 213 143 71
-9.7329998 -2.0120001 -1.012 225 162 109
-9.7419996 -1.972 -1.044 172 102 50
-9.8140001 -1.979 -1.051 247 171 96
-9.8050003 -1.962 -1.048 131 81 48
-9.8120003 -1.954 -1.0470001 225 146 71
-9.7530003 -1.936 -0.93699998 248 197 152
-9.7539997 -1.937 -0.94099998 159 107 60
-9.7869997 -1.933 -0.98900002 202 148 84
-9.783 -1.939 -0.98500001 220 165 101
-9.7810001 -1.939 -0.97899997 157 111 88
-9.7779999 -1.934 -0.99199998 162 112 51
-9.7620001 -1.942 -0.94999999 175 98 42
-9.7469997 -1.929 -0.94300002 193 119 58
-9.7460003 -1.915 -0.96899998 151 112 97
-9.7519999 -2.0179999 -1.0190001 223 121 39
-9.7749996 -2.0009999 -1.028 225 153 81
-9.7700005 -2.053 -1.034 126 79 35
-9.7589998 -2.046 -1.031 216 155 92
-9.7910004 -1.997 -1.053 188 126 75
-9.7930002 -2.027 -1.041 180 129 66
-9.8000002 -2.006 -1.054 229 126 49
-9.8269997 -1.993 -1.0549999 184 123 66
-9.8179998 -1.954 -1.021 208 129 62
-9.8039999 -1.965 -1.041 109 77 52
-9.7720003 -1.947 -1.015 162 82 29
-9.7860003 -1.946 -1.017 174 122 65
-9.7419996 -1.954 -1.023 144 91 60
-9.7510004 -1.962 -1.0420001 169 80 38
-9.75 -1.9809999 -1.049 136 78 38
-9.7510004 -1.975 -1.031 204 112 29
-9.7449999 -1.975 -1.03 187 118 59
-9.7440004 -1.976 -1.034 193 93 8
-9.8039999 -2.0039999 -1.0549999 181 123 59
-9.7580004 -1.939 -0.94599998 220 162 114
-9.7840004 -1.932 -0.98500001 173 122 57
-9.7799997 -1.938 -0.98500001 95 44 23
-9.7749996 -1.9400001 -0.97899997 177 138 99
-9.7589998 -2.0239999 -1.025 176 113 44
-9.7700005 -2.003 -1.0319999 203 106 35
-9.7700005 -2.0020001 -1.0319999 145 84 37
-9.7659998 -1.982 -1.028 209 129 66
-9.7779999 -2.0539999 -1.041 185 158 129
-9.7679996 -2.0510001 -1.043 151 99 52
-9.7729998 -2.0599999 -1.039 175 124 71
-9.7860003 -2.0009999 -1.048 161 103 57
-9.7849998 -2.0009999 -1.045 181 92 26
-9.7639999 -1.936 -0.96200001 123 78 39
-9.7559996 -1.967 -1.048 171 110 56
-9.7489996 -1.977 -1.033 200 126 65
-9.7720003 -1.933 -0.98199999 178 121 76
-9.7819996 -2.0109999 -1.033 196 110 27
-9.7690001 -1.9859999 -1.029 163 101 52
-9.7770004 -2.056 -1.039 151 120 92
-9.7939997 -2.0320001 -1.04 125 91 63
-9.7720003 -2.046 -1.05 162 112 53
-9.7690001 -2.0539999 -1.0420001 212 153 97
-9.7939997 -2.0120001 -1.0470001 197 106 23
-9.809 -1.966 -1.049 252 206 144
-9.7539997 -1.982 -1.049 126 71 32
-9.7580004 -1.969 -1.049 161 109 51
-9.7530003 -1.979 -1.039 173 103 51
-9.7969999 -2.007 -1.035 213 117 43
-9.7690001 -2.0039999 -1.036 112 71 39
-9.7580004 -1.985 -1.041 239 154 64
-9.7779999 -1.992 -1.029 157 121 97
-9.757 -1.983 -1.048 164 111 77
-9.7939997 -1.952 -1.052 199 107 40
-9.7489996 -1.977 -1.036 157 85 26
0 0 0 1 0 0 0 1 0 0 0 1 0 0 0 0 0 503 1 0 0
