ply
format ascii 1.0
comment PCL generated
element vertex 1097
property float x
property float y
property float z
property uchar red
property uchar green
property uchar blue
element camera 1
property float view_px
property float view_py
property float view_pz
property float x_axisx
property float x_axisy
property float x_axisz
property float y_axisx
property float y_axisy
property float y_axisz
property float z_axisx
property float z_axisy
property float z_axisz
property float focal
property float scalex
property float scaley
property float centerx
property float centery
property int viewportx
property int viewporty
property float k1
property float k2
end_header
-4.1220002 0.68400002 -0.94999999 121 111 112
-4.118 0.68599999 -0.94999999 53 3 0
-4.1259999 0.67299998 -0.94499999 42 10 0
-3.9530001 0.764 -1.035 29 6 0
-3.961 0.76099998 -1.038 29 4 0
-3.9660001 0.76700002 -1.036 85 50 28
-3.947 0.75999999 -1.041 57 36 19
-4.1170001 0.68800002 -0.96700001 152 103 73
-4.1199999 0.68699998 -0.95200002 126 83 64
-3.898 0.66500002 -0.921 41 27 27
-3.8959999 0.662 -0.92699999 81 69 73
-3.892 0.66900003 -0.92400002 72 58 57
-3.8840001 0.66900003 -0.94700003 74 55 40
-3.8889999 0.67199999 -0.93599999 106 88 88
-3.891 0.67199999 -0.93300003 68 52 52
-3.9189999 0.73100001 -1.038 11 4 0
-3.9170001 0.736 -1.038 13 2 0
-3.921 0.745 -1.044 131 104 85
-3.918 0.727 -1.0369999 40 18 4
-4.1240001 0.68400002 -0.95300001 25 4 0
-4.1259999 0.67500001 -0.95099998 245 151 79
-4.1420002 0.66000003 -0.954 191 110 63
-4.1409998 0.67199999 -0.96499997 192 120 62
-4.1440001 0.67000002 -0.97000003 50 24 11
-4.1129999 0.68099999 -0.96399999 133 101 80
-4.0320001 0.72799999 -1.036 56 36 29
-4.0279999 0.72899997 -1.031 50 16 4
-4.0380001 0.73500001 -1.025 87 34 3
-4.1350002 0.67000002 -0.98699999 34 18 19
-4.1350002 0.68099999 -0.97100002 216 127 59
-4.1370001 0.66799998 -0.97899997 253 191 116
-3.902 0.736 -1.005 191 160 139
-3.904 0.74199998 -1.005 105 88 81
-3.9059999 0.745 -1.01 92 73 67
-3.925 0.69199997 -1.0369999 98 92 92
-3.931 0.67699999 -1.0369999 13 0 0
-3.9330001 0.68699998 -1.05 12 2 3
-3.891 0.68199998 -0.94999999 124 91 72
-3.8889999 0.68199998 -0.95499998 95 85 84
-3.973 0.70499998 -0.90499997 95 72 41
-3.9619999 0.722 -0.90600002 109 78 58
-3.9679999 0.70200002 -0.898 71 32 17
-4.1160002 0.648 -0.94099998 136 111 104
-4.1209998 0.648 -0.93800002 144 127 120
-4.119 0.64999998 -0.94 144 126 122
-4.118 0.64099997 -0.94400001 94 72 58
-4.1149998 0.64200002 -0.94300002 94 74 63
-4.1129999 0.64600003 -0.94199997 255 199 123
-4.1020002 0.66399997 -0.93699998 142 124 112
-3.9170001 0.73799998 -1.027 43 17 2
-3.9649999 0.75300002 -1.038 36 16 9
-3.927 0.736 -1.04 32 9 1
-3.9590001 0.74000001 -1.04 58 18 6
-3.9679999 0.74299997 -1.036 66 35 15
-4.1350002 0.685 -0.96200001 80 44 32
-4.132 0.66299999 -0.94400001 152 81 29
-4.1479998 0.64899999 -0.95099998 69 16 0
-4.1209998 0.65499997 -0.93900001 122 102 93
-4.1290002 0.65100002 -0.94 192 121 65
-4.1240001 0.64700001 -0.94199997 134 115 108
-4.1440001 0.64899999 -0.958 92 73 40
-4.1469998 0.64300001 -0.96200001 61 28 11
-4.1199999 0.68400002 -0.96799999 39 11 7
-3.9860001 0.676 -1.059 31 10 7
-3.987 0.68400002 -1.058 90 59 41
-3.983 0.676 -1.0599999 45 17 13
-3.987 0.68099999 -1.058 49 16 9
-3.9809999 0.66900003 -1.0549999 41 14 5
-4 0.65499997 -1.059 107 51 16
-3.99 0.67500001 -1.054 36 9 2
-4.0960002 0.69499999 -1.064 37 4 0
-4.0929999 0.69199997 -1.0650001 62 19 0
-4.098 0.69499999 -1.0650001 86 41 20
-4.1240001 0.685 -0.97799999 52 22 11
-4.1059999 0.69 -0.97899997 181 99 13
-4.1069999 0.68800002 -0.991 108 48 0
-4.1409998 0.66000003 -0.97500002 61 41 32
-4.0949998 0.69099998 -0.99199998 154 114 89
-4.1059999 0.70300001 -1.001 96 37 0
-4.1020002 0.68599999 -0.98400003 75 26 0
-3.9809999 0.75800002 -1.02 109 83 68
-3.9909999 0.74299997 -1.025 101 84 77
-3.9909999 0.74199998 -1.031 120 105 102
-3.904 0.67900002 -0.91900003 81 69 71
-3.904 0.676 -0.91500002 71 59 61
-3.987 0.78899997 -0.97399998 40 6 0
-3.9879999 0.79000002 -0.97500002 117 80 62
-3.9860001 0.787 -0.97399998 43 8 2
-3.974 0.69599998 -0.90700001 126 76 49
-4.1170001 0.67299998 -0.949 173 97 48
-4.1090002 0.67199999 -0.95300001 132 103 87
-4.1139998 0.639 -0.949 203 140 61
-3.9719999 0.70999998 -0.91000003 167 120 76
-3.9100001 0.73000002 -0.98400003 134 89 56
-3.901 0.72799999 -0.98400003 181 157 121
-3.9100001 0.73900002 -0.98799998 87 67 56
-3.902 0.72899997 -0.98900002 115 95 58
-3.915 0.74000001 -1.026 82 51 31
-3.9330001 0.68300003 -1.04 4 0 0
-3.934 0.68400002 -1.0420001 161 125 101
-3.9860001 0.68199998 -1.058 51 19 8
-3.987 0.68000001 -1.053 31 5 4
-3.9860001 0.67799997 -1.053 27 3 0
-4.0240002 0.72600001 -1.034 121 103 101
-3.921 0.73199999 -1.038 22 3 0
-3.954 0.745 -1.04 29 9 2
-4.132 0.67299998 -0.95599997 216 132 60
-4.1139998 0.65799999 -0.94099998 33 14 8
-4.118 0.66399997 -0.94700003 79 32 4
-4.125 0.63999999 -0.95999998 222 145 75
-4.1209998 0.63999999 -0.94800001 153 124 106
-4.1170001 0.63700002 -0.958 140 110 102
-4.1360002 0.671 -0.97399998 30 1 0
-4.1240001 0.64300001 -0.94499999 138 65 20
-4.0489998 0.68900001 -1.0650001 46 27 21
-4.0500002 0.68800002 -1.066 31 14 7
-4.052 0.68800002 -1.067 7 3 2
-4.0479999 0.69 -1.064 56 37 31
-4.0479999 0.68599999 -1.067 28 8 1
-4.0479999 0.68199998 -1.0650001 45 20 13
-4.0479999 0.68300003 -1.067 37 16 11
-4.0580001 0.69199997 -1.061 5 1 0
-4.0710001 0.68900001 -1.062 97 42 11
-4.0549998 0.68900001 -1.064 4 0 0
-4.0279999 0.73000002 -1.02 98 70 58
-4.0300002 0.73199999 -1.016 185 126 84
-3.994 0.722 -1.013 50 10 0
-3.994 0.72100002 -1.016 45 5 0
-4.0320001 0.70999998 -1.039 33 12 7
-4.0440001 0.72399998 -1.0369999 136 117 111
-3.9890001 0.79100001 -0.98299998 78 39 22
-3.9909999 0.792 -0.98400003 121 83 62
-3.9909999 0.79100001 -0.98199999 115 74 52
-3.9879999 0.78799999 -0.98199999 111 73 50
-3.9820001 0.65600002 -0.99000001 55 19 0
-3.9719999 0.63999999 -0.991 108 74 62
-3.9890001 0.65499997 -0.98100001 52 21 0
-3.987 0.65600002 -1 142 100 60
-4.0570002 0.67799997 -1.024 132 70 33
-4.04 0.67699999 -1.028 118 94 82
-4.0609999 0.66399997 -1.033 120 118 119
-4.0580001 0.671 -1.035 40 9 0
-4.0549998 0.68300003 -1.021 134 111 105
-3.911 0.66299999 -0.92500001 92 47 26
-3.9119999 0.67199999 -0.92199999 130 92 81
-3.9219999 0.671 -0.91900003 20 0 0
-3.9000001 0.66000003 -0.93300003 10 2 0
-3.891 0.66600001 -0.95200002 32 12 1
-3.928 0.69599998 -1.036 87 83 82
-3.927 0.69199997 -1.039 78 40 27
-3.9289999 0.68900001 -1.039 13 2 0
-3.931 0.685 -1.038 9 0 0
-3.9449999 0.75800002 -1.035 103 90 84
-3.9330001 0.75199997 -1.0369999 99 73 60
-4.0999999 0.68099999 -1.022 61 19 5
-4.0960002 0.671 -1.024 56 27 19
-4.105 0.68099999 -1.013 74 37 10
-4.0939999 0.66600001 -1.035 50 13 4
-4.098 0.67699999 -1.022 46 19 8
-4.1290002 0.68099999 -0.98400003 84 69 62
-4.1069999 0.68599999 -0.986 85 57 33
-4.1399999 0.66500002 -0.96100003 235 160 93
-4.1399999 0.65799999 -0.95700002 128 53 11
-4.0640001 0.65600002 -1.018 133 110 96
-4.0770001 0.66299999 -1.003 87 69 59
-4.066 0.65200001 -1.018 164 140 128
-4.0780001 0.65700001 -0.99800003 97 73 69
-4.0760002 0.66500002 -0.99299997 48 36 24
-4.0890002 0.67199999 -0.97399998 49 26 12
-4.1020002 0.68300003 -0.98100001 183 131 92
-4.098 0.67000002 -0.96700001 114 95 80
-4.0929999 0.68900001 -1.041 100 64 48
-4.0900002 0.69499999 -1.054 183 122 94
-4.0910001 0.69499999 -1.056 75 17 0
-4.0949998 0.69499999 -1.0369999 24 9 6
-4.0939999 0.70099998 -1.036 15 1 0
-4.1030002 0.704 -1.007 8 0 0
-4.0939999 0.70499998 -1.021 80 27 0
-4.0999999 0.69800001 -1.0190001 176 118 72
-4.0549998 0.69 -1.058 10 0 0
-3.904 0.68800002 -0.93000001 60 37 21
-3.898 0.68199998 -0.935 40 15 8
-3.8959999 0.676 -0.93099999 67 55 55
-3.891 0.67699999 -0.94199997 42 22 23
-3.9590001 0.71399999 -0.90200001 38 16 5
-3.9549999 0.69400001 -0.89399999 178 139 98
-3.9649999 0.708 -0.90100002 125 88 61
-3.957 0.708 -0.90200001 98 39 5
-3.9489999 0.69599998 -0.89399999 148 119 89
-3.9549999 0.70099998 -0.90100002 94 65 47
-3.895 0.72100002 -1 80 65 44
-3.901 0.71700001 -0.98500001 26 5 2
-3.895 0.722 -1.005 44 26 22
-3.8970001 0.699 -0.95599997 26 2 0
-3.898 0.68300003 -0.93699998 21 7 6
-3.9820001 0.72899997 -0.93599999 46 19 0
-3.9790001 0.72600001 -0.94800001 21 1 0
-3.9809999 0.73500001 -0.93400002 19 4 1
-3.9860001 0.72299999 -0.94800001 60 43 23
-4.0159998 0.70999998 -0.958 98 88 89
-4.026 0.71799999 -0.95999998 76 20 0
-4.0139999 0.713 -0.95999998 95 71 59
-4.007 0.71899998 -0.95700002 36 8 0
-4.0100002 0.73199999 -0.96399999 83 73 63
-4.0040002 0.72000003 -0.95300001 72 42 32
-3.9979999 0.72600001 -0.95700002 19 3 3
-3.9790001 0.727 -0.95200002 18 3 0
-3.97 0.73100001 -0.949 22 3 0
-3.973 0.73400003 -0.93400002 69 52 42
-3.964 0.72799999 -0.92299998 36 11 6
-3.9560001 0.72799999 -0.91000003 18 0 0
-3.9530001 0.73400003 -0.926 116 85 65
-3.9860001 0.78799999 -0.98100001 134 96 73
-3.9949999 0.71399999 -0.94300002 127 68 34
-3.9790001 0.70899999 -0.93699998 44 20 8
-3.961 0.76899999 -1.03 74 44 33
-3.984 0.77999997 -1.005 15 0 0
-3.9809999 0.77499998 -1.011 18 4 1
-3.9660001 0.77399999 -1.008 35 15 8
-3.984 0.773 -1.011 24 5 0
-3.973 0.78100002 -0.99199998 66 41 34
-3.9860001 0.78799999 -0.98299998 107 67 42
-3.99 0.792 -0.99199998 47 30 23
-3.9879999 0.78899997 -0.98799998 48 8 0
-3.9849999 0.78200001 -1 25 7 3
-3.9890001 0.79000002 -0.98900002 113 81 66
-3.915 0.69599998 -0.92000002 21 2 0
-3.9549999 0.71799999 -0.90100002 25 4 1
-3.9389999 0.70499998 -0.89499998 55 28 1
-3.9690001 0.70099998 -0.90100002 62 21 0
-4.118 0.68000001 -0.95099998 33 15 11
-3.9879999 0.704 -0.93000001 55 32 18
-3.9089999 0.72100002 -0.98299998 177 161 146
-3.9100001 0.73100001 -1.0140001 41 10 0
-3.915 0.74000001 -1.018 61 41 34
-3.918 0.72500002 -1.017 97 58 41
-4.0120001 0.68900001 -1.045 64 44 37
-4.0149999 0.69300002 -1.051 47 13 3
-4.0120001 0.69099998 -1.058 64 31 14
-3.9260001 0.68699998 -1.026 8 0 0
-3.938 0.68199998 -1.043 103 69 44
-3.941 0.67400002 -1.035 24 3 0
-3.9460001 0.74599999 -1.041 55 36 22
-3.957 0.75300002 -1.038 17 7 6
-4.138 0.67000002 -0.958 47 29 17
-3.9949999 0.73100001 -0.97600001 108 84 80
-3.9779999 0.72000003 -0.96399999 93 76 68
-3.974 0.727 -0.97600001 23 5 3
-3.99 0.68599999 -1.054 78 47 29
-4.0120001 0.67799997 -1.052 41 18 2
-4.1290002 0.64099997 -0.97000003 104 57 15
-4.1329999 0.63700002 -0.97100002 110 60 27
-4.132 0.67699999 -0.97600001 198 122 70
-4.0949998 0.685 -0.98900002 119 79 53
-4.0960002 0.68800002 -0.99800003 116 76 50
-4.092 0.68199998 -0.99800003 151 82 41
-4.1339998 0.66100001 -0.94499999 121 51 2
-4.132 0.64600003 -0.94499999 206 136 66
-4.1259999 0.64399999 -0.94999999 152 133 126
-4.125 0.64300001 -0.95099998 142 105 87
-4.0250001 0.68900001 -1.011 93 65 51
-4.0110002 0.68199998 -1 162 133 117
-4.0120001 0.68000001 -1.008 35 12 4
-4.0240002 0.68199998 -1.018 25 5 0
-4.0339999 0.68199998 -1.061 49 9 0
-4.033 0.68099999 -1.0599999 52 16 4
-4.027 0.67699999 -1.0599999 75 31 6
-4 0.66000003 -1.057 131 83 61
-4.0029998 0.66799998 -1.049 58 12 0
-4.0539999 0.676 -1.044 140 114 99
-4.0349998 0.68599999 -1.045 74 35 6
-4.026 0.67000002 -1.043 57 9 0
-4.0640001 0.69499999 -1.058 17 3 3
-4.073 0.69099998 -1.059 129 75 41
-4.0570002 0.69099998 -1.058 5 0 0
-4.0580001 0.69300002 -1.052 10 0 0
-4.02 0.71600002 -1.036 51 31 22
-4.0310001 0.72100002 -1.035 20 0 0
-3.9860001 0.65899998 -0.98699999 148 109 76
-3.9960001 0.65600002 -1.005 85 51 24
-4 0.66299999 -1 100 83 76
-4 0.65700001 -1.011 98 65 34
-4.0999999 0.70200002 -1.001 160 99 32
-4.0219998 0.72000003 -1.022 25 5 0
-4.026 0.69999999 -1 53 36 26
-4.0139999 0.68699998 -0.98299998 115 95 88
-3.9719999 0.64600003 -0.98199999 22 1 0
-3.9579999 0.64099997 -0.972 47 29 19
-3.9619999 0.64399999 -0.97600001 36 17 11
-3.9549999 0.64300001 -0.97299999 50 24 9
-4.0040002 0.67299998 -0.995 57 37 28
-4.0669999 0.66399997 -1.018 65 44 15
-3.9779999 0.65200001 -0.97600001 141 106 78
-3.9030001 0.68199998 -0.926 42 28 27
-3.902 0.68199998 -0.92799997 39 20 6
-3.9030001 0.66399997 -0.93900001 94 89 86
-3.911 0.66399997 -0.94300002 45 11 1
-3.9530001 0.69 -0.89200002 153 109 70
-3.9200001 0.68000001 -0.917 120 59 28
-3.8929999 0.67000002 -0.94400001 32 7 2
-3.954 0.63499999 -0.96700001 119 96 78
-4.098 0.63700002 -0.96600002 110 59 12
-3.9430001 0.70200002 -1.043 19 0 0
-3.9460001 0.70599997 -1.041 19 1 1
-3.9519999 0.70700002 -1.04 17 0 0
-3.931 0.68699998 -1.04 3 0 0
-4.138 0.662 -0.98000002 48 28 17
-4.1329999 0.66500002 -0.98500001 54 32 18
-4.1020002 0.68000001 -1.016 48 12 0
-4.1069999 0.68900001 -1.008 39 6 0
-4.119 0.67500001 -0.99000001 32 5 0
-4.1279998 0.676 -0.986 93 71 57
-4.118 0.67199999 -0.99199998 172 115 86
-4.1100001 0.68400002 -0.98100001 61 8 0
-4.1240001 0.64999998 -0.991 29 15 14
-4.0929999 0.67299998 -0.96100003 69 57 59
-4.0949998 0.65399998 -0.96600002 55 32 16
-4.0929999 0.65200001 -0.96100003 136 83 41
-4.0939999 0.64999998 -0.95700002 54 24 13
-4.0900002 0.64399999 -0.95999998 114 54 2
-4.112 0.676 -0.95899999 88 49 20
-4.1090002 0.676 -0.963 69 33 9
-4.0159998 0.69999999 -0.97600001 67 23 0
-4.0310001 0.70300001 -0.98000002 24 15 16
-4.0149999 0.69499999 -0.97100002 205 179 162
-3.997 0.699 -0.95499998 100 55 26
-4.0879998 0.66900003 -0.98199999 92 70 56
-4.0819998 0.66900003 -0.986 25 3 0
-4.052 0.69199997 -1.05 52 13 0
-4.0469999 0.69 -1.0470001 163 98 40
-3.8940001 0.67900002 -0.94 124 102 89
-3.8970001 0.68199998 -0.94199997 34 9 4
-3.8889999 0.67699999 -0.94999999 29 20 15
-3.904 0.667 -0.94300002 17 2 0
-3.891 0.67500001 -0.958 41 1 0
-3.9430001 0.70700002 -0.89999998 42 16 0
-3.9449999 0.70999998 -0.89999998 48 30 0
-4.0050001 0.72100002 -0.95599997 47 25 14
-3.97 0.77399999 -0.97600001 18 0 0
-3.9690001 0.77399999 -0.97500002 28 1 0
-3.9719999 0.77499998 -0.977 22 4 4
-3.9679999 0.77100003 -0.97799999 24 0 0
-3.971 0.77399999 -0.98100001 29 8 3
-3.971 0.77399999 -0.98299998 101 76 69
-3.9690001 0.76899999 -0.98699999 31 16 9
-3.9619999 0.72799999 -0.94099998 33 15 5
-3.98 0.76599997 -1.011 133 110 104
-3.983 0.773 -1.0039999 53 30 22
-3.9879999 0.79000002 -0.98299998 108 67 47
-4.0339999 0.73400003 -0.963 53 23 13
-4.0359998 0.73500001 -0.95899999 44 10 1
-4.0300002 0.72600001 -0.96899998 35 1 0
-4.0310001 0.72100002 -0.97500002 66 39 30
-4.033 0.71499997 -0.986 110 90 81
-4.0300002 0.72500002 -0.98299998 47 15 2
-3.984 0.71899998 -0.96700001 105 85 78
-3.915 0.73900002 -0.99800003 83 40 23
-3.987 0.74400002 -1.021 98 79 73
-3.9909999 0.73199999 -1.002 19 1 0
-3.9059999 0.68000001 -0.91799998 62 36 21
-3.947 0.70700002 -0.89899999 104 75 45
-3.9519999 0.71399999 -0.90899998 67 20 4
-3.9560001 0.722 -0.90799999 19 0 0
-3.973 0.699 -0.91100001 113 55 31
-3.987 0.69700003 -0.92900002 57 18 1
-3.971 0.70499998 -0.91600001 62 45 29
-3.9619999 0.69499999 -0.89999998 103 65 29
-4.1149998 0.67900002 -0.95599997 75 24 5
-4.0999999 0.63800001 -0.96700001 131 114 104
-3.9059999 0.727 -1.01 59 27 16
-3.925 0.71799999 -1.0140001 36 11 7
-3.9419999 0.68199998 -1.03 45 15 5
-3.951 0.66500002 -1.025 24 6 2
-3.9790001 0.68300003 -1.039 93 75 71
-3.9760001 0.69300002 -1.035 105 42 11
-3.993 0.68699998 -1.0369999 32 4 0
-4.0300002 0.69499999 -1.038 34 7 0
-4.02 0.69800001 -1.038 41 21 10
-4.0320001 0.70499998 -1.039 39 27 13
-4.039 0.68800002 -1.046 57 28 14
-4.0159998 0.70200002 -1.04 31 19 3
-4.0320001 0.70999998 -1.039 33 12 7
-3.9619999 0.74599999 -1.0369999 111 91 90
-3.9330001 0.74299997 -1.041 51 29 16
-3.9360001 0.73400003 -1.038 40 32 11
-3.9560001 0.75999999 -1.0369999 32 10 0
-3.95 0.75 -1.039 129 118 116
-4.138 0.662 -0.954 59 21 8
-4.0110002 0.73000002 -0.972 16 0 1
-4.0320001 0.73199999 -0.972 44 21 15
-3.954 0.71100003 -1.038 22 3 0
-3.961 0.713 -1.036 149 117 104
-4.1220002 0.63999999 -0.95499998 150 113 95
-4.125 0.64099997 -0.958 107 49 1
-4.132 0.67699999 -0.95899999 138 62 10
-4.131 0.65200001 -0.94 142 69 18
-4.1440001 0.65200001 -0.94999999 155 107 85
-4.1350002 0.65700001 -0.94700003 156 86 37
-4.0209999 0.662 -1.049 131 84 56
-4.013 0.66000003 -1.036 102 66 50
-4.0190001 0.66299999 -1.0369999 31 0 0
-4.0669999 0.653 -1.023 136 114 103
-4.0320001 0.67699999 -1.03 81 73 71
-4.0320001 0.685 -1.023 125 106 102
-4.027 0.67799997 -1.0549999 78 33 10
-4.0289998 0.67900002 -1.054 97 55 30
-4.033 0.68300003 -1.063 85 31 5
-3.9949999 0.65499997 -1.03 76 39 20
-3.9890001 0.65700001 -1.036 64 22 0
-3.99 0.64899999 -1.028 100 47 16
-4.006 0.65499997 -1.0420001 158 93 51
-4.026 0.671 -1.045 63 15 0
-4.0349998 0.68099999 -1.059 50 20 9
-3.97 0.72399998 -1.0319999 61 8 0
-3.9560001 0.73299998 -1.035 38 0 0
-4.0370002 0.71200001 -1.035 64 36 24
-4.0760002 0.69300002 -1.0549999 129 69 33
-4.085 0.69 -1.058 112 65 45
-4.0780001 0.69499999 -1.05 138 78 44
-4.0879998 0.69400001 -1.053 200 146 118
-4.0289998 0.713 -1.0369999 25 9 9
-3.9749999 0.648 -1.0039999 102 62 26
-3.9960001 0.662 -1 147 112 74
-3.9949999 0.67000002 -0.99000001 25 5 0
-4.0359998 0.73500001 -0.963 65 31 21
-4.1040001 0.69300002 -1.0039999 62 31 13
-4.033 0.727 -1.011 190 122 73
-4.0279999 0.72500002 -1.005 149 87 40
-4.0430002 0.727 -1.0039999 105 88 80
-4.0469999 0.73199999 -1.022 187 146 100
-4.0409999 0.727 -1.011 68 32 6
-4.0609999 0.68400002 -1.015 88 49 18
-4.0900002 0.66000003 -1.023 94 39 8
-4.0809999 0.65899998 -1.03 95 77 65
-4.0149999 0.71399999 -1.02 97 80 73
-4.0409999 0.68699998 -1.0369999 110 106 105
-4.0430002 0.68599999 -1.02 33 13 6
-4.0409999 0.685 -1.023 53 32 31
-4.013 0.69 -1.003 223 152 86
-4.0139999 0.69199997 -1.003 161 91 40
-4.0120001 0.69199997 -0.99900001 132 77 36
-4.0029998 0.68599999 -0.98100001 125 105 98
-3.9749999 0.65200001 -0.99400002 21 6 0
-3.9660001 0.64600003 -0.98699999 129 91 68
-3.948 0.63200003 -0.99599999 28 18 17
-4.007 0.68199998 -0.986 60 28 13
-4.0650001 0.66299999 -1.023 77 56 29
-4.1020002 0.64099997 -0.95999998 140 85 31
-4.1009998 0.66000003 -0.94400001 105 85 78
-4.1090002 0.65100002 -0.94999999 179 152 133
-3.8940001 0.67500001 -0.935 7 1 1
-3.941 0.69400001 -0.898 99 76 58
-3.9389999 0.75300002 -1.035 24 16 14
-3.9419999 0.75599998 -1.028 37 18 4
-3.921 0.74699998 -1.013 57 43 17
-3.9219999 0.741 -1.006 34 2 0
-4.1209998 0.671 -0.99000001 57 38 21
-4.118 0.68099999 -0.98199999 100 51 21
-4.1059999 0.68099999 -1.001 68 20 0
-4.0929999 0.65399998 -0.99299997 85 64 59
-4.085 0.66299999 -0.99000001 39 21 21
-4.0809999 0.65899998 -0.99699998 118 103 96
-4.086 0.66299999 -1.003 111 96 89
-4.0819998 0.66299999 -0.98000002 106 67 34
-4.1240001 0.66600001 -0.99000001 65 44 25
-4.0250001 0.70899999 -0.96399999 53 25 13
-3.9979999 0.69800001 -0.958 91 54 35
-4.0029998 0.69499999 -0.97100002 94 84 83
-4.0840001 0.676 -0.99599999 184 124 88
-4.0539999 0.72299999 -1.02 106 76 52
-4.0890002 0.685 -1.049 43 20 14
-4.1020002 0.685 -1.017 92 50 28
-4.1009998 0.685 -1.023 83 37 13
-4.098 0.68199998 -1.026 36 6 0
-3.891 0.67400002 -0.93699998 60 33 16
-3.9070001 0.73299998 -0.99800003 81 53 41
-3.927 0.74199998 -1.0039999 67 32 2
-3.8929999 0.68400002 -0.95300001 105 78 71
-3.8900001 0.67900002 -0.954 36 28 26
-3.8970001 0.67000002 -0.958 20 2 2
-3.9560001 0.65799999 -1.008 16 8 6
-3.9549999 0.65600002 -1.001 20 15 9
-3.957 0.65399998 -1.006 11 2 3
-3.957 0.662 -1.013 38 20 10
-3.9560001 0.65799999 -1.0140001 14 4 2
-3.9530001 0.648 -1.018 32 23 24
-3.9449999 0.63599998 -1.007 44 35 36
-3.954 0.65399998 -0.99400002 32 12 13
-3.9489999 0.63700002 -0.99900001 18 6 6
-3.9519999 0.64700001 -0.97799999 106 87 89
-3.957 0.727 -0.94199997 99 70 54
-3.954 0.72899997 -0.949 24 12 12
-3.934 0.70999998 -0.91900003 66 35 14
-3.947 0.73100001 -0.93199998 103 99 100
-3.9349999 0.71899998 -0.93099999 116 90 77
-3.925 0.71799999 -0.921 92 71 68
-3.9219999 0.713 -0.93300003 18 0 0
-3.924 0.71200001 -0.94099998 7 0 0
-3.99 0.70200002 -0.93300003 95 72 58
-4.0050001 0.708 -0.958 46 12 0
-3.9960001 0.70599997 -0.94800001 51 21 13
-4.0029998 0.70999998 -0.95599997 198 164 137
-3.9990001 0.70999998 -0.95200002 27 0 0
-3.97 0.773 -0.977 19 3 6
-3.974 0.764 -0.99000001 60 37 29
-3.971 0.77999997 -0.99299997 61 40 35
-3.9630001 0.76999998 -1.001 28 0 0
-3.977 0.73100001 -0.93099999 24 6 4
-3.9630001 0.77100003 -1.005 21 0 0
-3.961 0.76800001 -1.007 25 1 0
-3.9719999 0.78100002 -0.99299997 25 2 0
-4.0300002 0.72799999 -0.96899998 31 1 0
-3.993 0.73000002 -1.002 71 44 27
-3.9849999 0.727 -0.99000001 61 41 32
-3.9949999 0.73100001 -0.98100001 130 104 89
-4.0029998 0.72799999 -0.98500001 49 22 15
-4.0219998 0.72500002 -0.99000001 35 6 0
-4.0250001 0.71700001 -0.96399999 57 7 0
-3.9749999 0.722 -0.92400002 34 13 10
-3.9749999 0.713 -0.92799997 88 55 46
-3.993 0.72000003 -0.96600002 49 2 0
-3.984 0.773 -0.99599999 38 18 9
-3.9749999 0.75700003 -0.99900001 27 7 0
-3.974 0.741 -1.0089999 109 86 72
-3.9690001 0.755 -0.99000001 48 26 15
-3.9560001 0.741 -0.98199999 71 60 58
-3.9630001 0.74199998 -0.99699998 218 182 146
-3.967 0.75199997 -1.034 91 74 67
-3.9649999 0.76099998 -1.034 108 77 56
-3.9100001 0.68699998 -0.92299998 17 2 0
-3.9130001 0.69400001 -0.926 84 74 73
-3.918 0.70200002 -0.92799997 126 90 58
-3.924 0.699 -0.91799998 84 75 70
-3.9549999 0.71200001 -0.90200001 114 95 78
-3.9579999 0.71700001 -0.903 105 92 86
-3.927 0.71100003 -0.949 93 64 48
-3.9360001 0.71499997 -0.94999999 47 25 12
-3.9330001 0.713 -0.94800001 20 1 0
-3.9319999 0.71100003 -0.95300001 59 37 23
-3.9360001 0.713 -0.94099998 44 26 14
-3.9860001 0.69400001 -0.93000001 35 5 0
-3.9590001 0.68400002 -0.935 65 46 40
-3.9560001 0.68699998 -0.91799998 26 6 0
-3.9389999 0.68199998 -0.93199998 153 113 61
-3.9630001 0.68000001 -0.93699998 80 51 37
-3.9400001 0.685 -0.92400002 29 7 0
-3.941 0.67299998 -0.94400001 27 13 12
-3.96 0.699 -0.89999998 109 79 45
-4.112 0.67400002 -0.954 86 49 23
-4.0960002 0.63700002 -0.96899998 144 117 70
-3.944 0.70499998 -0.90799999 29 6 0
-3.9059999 0.72600001 -1.0039999 131 100 72
-3.9000001 0.722 -0.99900001 45 18 7
-3.96 0.67199999 -1.0140001 72 45 34
-3.9590001 0.685 -0.99900001 96 76 67
-3.964 0.676 -1.011 17 5 5
-3.96 0.671 -1.015 18 0 0
-3.951 0.66399997 -0.99000001 42 16 1
-3.9030001 0.71700001 -0.995 99 68 39
-3.9809999 0.67199999 -1.039 85 39 15
-3.944 0.69300002 -1.031 170 132 85
-3.9389999 0.69300002 -1.028 87 45 7
-3.9319999 0.68900001 -1.029 183 138 107
-3.96 0.69300002 -1.036 9 4 0
-3.96 0.67699999 -1.0319999 44 14 4
-3.9560001 0.67400002 -1.0369999 31 1 0
-4.0190001 0.70700002 -1.0369999 14 0 0
-4 0.71100003 -1.0319999 69 49 42
-3.9920001 0.71899998 -1.017 52 16 0
-3.918 0.73799998 -1.0369999 78 60 46
-3.921 0.74400002 -1.0369999 60 28 15
-3.9430001 0.75099999 -1.04 65 39 24
-3.9549999 0.74000001 -1.0369999 17 3 2
-3.9489999 0.741 -1.036 11 1 0
-3.951 0.72899997 -1.036 6 0 2
-4.1300001 0.66900003 -0.94999999 22 6 6
-4.0009999 0.72799999 -0.97399998 21 11 10
-3.9890001 0.69 -1.023 26 5 0
-3.9990001 0.69400001 -1.025 55 42 26
-4.1339998 0.64099997 -0.96399999 122 59 26
-4.1389999 0.64300001 -0.96799999 87 61 28
-4.098 0.68000001 -0.986 84 38 14
-4.1350002 0.64600003 -0.958 183 116 63
-4.0339999 0.69300002 -1.0190001 57 35 24
-4.039 0.699 -1.021 79 52 33
-3.9949999 0.653 -1.022 118 75 33
-4.0630002 0.662 -1.036 97 93 94
-4.0019999 0.66600001 -1.01 65 24 6
-4.0170002 0.69 -1.058 73 49 47
-4.0029998 0.65899998 -1.056 103 56 28
-3.9990001 0.65600002 -1.053 99 35 0
-3.9960001 0.662 -1.043 78 31 3
-4.0599999 0.67900002 -1.046 140 118 104
-4.0510001 0.68599999 -1.062 22 1 0
-4.0609999 0.68900001 -1.058 15 0 0
-4.0679998 0.66799998 -1.049 168 106 81
-4.0770001 0.667 -1.044 69 24 0
-4.0869999 0.67799997 -1.059 29 8 5
-4.0679998 0.66799998 -1.049 168 106 81
-4.0359998 0.68199998 -1.0599999 44 5 0
-4.0539999 0.68800002 -1.063 6 0 0
-4.0700002 0.68699998 -1.062 73 21 0
-4.073 0.68199998 -1.052 39 19 12
-4.0830002 0.685 -1.064 118 73 52
-4.0089998 0.69 -1.038 25 13 0
-4.0040002 0.68599999 -1.0369999 71 39 28
-3.967 0.70700002 -1.035 15 0 0
-4.0250001 0.72100002 -1.016 66 36 26
-4.0359998 0.73199999 -1.02 231 161 89
-4.0310001 0.71499997 -1.036 22 1 0
-3.9790001 0.65200001 -1.031 83 40 5
-3.977 0.66399997 -1.041 47 29 17
-3.971 0.65700001 -1.0319999 59 41 31
-3.974 0.648 -1.007 91 48 13
-3.9779999 0.65200001 -1.0089999 69 32 3
-3.9679999 0.64700001 -1.0089999 68 28 0
-3.9860001 0.65600002 -1.0039999 24 10 0
-4.0650001 0.71600002 -1.0420001 37 10 0
-4.0710001 0.71499997 -1.0420001 86 70 57
-4.066 0.69499999 -1.051 17 1 1
-4.0430002 0.72000003 -1.005 109 88 85
-4.0440001 0.713 -1.007 101 51 24
-4.0939999 0.66399997 -1.023 124 96 72
-4.0219998 0.66399997 -1.05 118 71 43
-4.0300002 0.713 -0.99000001 189 135 99
-3.9790001 0.65200001 -0.98400003 55 21 0
-3.967 0.64899999 -0.97399998 115 87 65
-3.99 0.65799999 -0.97799999 220 187 156
-3.9760001 0.65600002 -0.95899999 100 69 49
-3.9790001 0.65799999 -0.97000003 97 73 61
-3.9790001 0.662 -0.96499997 105 81 69
-3.987 0.67299998 -0.96600002 46 12 2
-3.983 0.67299998 -0.94999999 151 108 76
-4.1100001 0.64300001 -0.95300001 127 94 77
-3.9059999 0.68400002 -0.92400002 118 91 36
-3.934 0.68300003 -0.921 127 103 101
-3.9319999 0.68300003 -0.917 66 24 2
-3.9489999 0.69 -0.91600001 122 69 29
-3.9630001 0.65499997 -0.963 44 26 26
-3.9619999 0.65200001 -0.96399999 95 67 53
-3.9549999 0.65399998 -0.954 53 30 16
-3.9159999 0.66600001 -0.93099999 96 59 30
-3.9159999 0.66299999 -0.93800002 61 33 9
-3.9260001 0.66600001 -0.94099998 43 21 10
-3.904 0.66000003 -0.93099999 14 0 0
-3.908 0.662 -0.93099999 53 21 8
-3.9460001 0.70899999 -1.0369999 18 0 0
-3.9360001 0.722 -1.0319999 78 47 29
-3.931 0.74900001 -1.022 64 38 15
-3.9230001 0.745 -1.0319999 82 37 18
-3.9330001 0.74699998 -1.013 60 44 21
-3.941 0.75400001 -1.034 35 16 2
-3.928 0.74800003 -1.0420001 98 74 50
-4.0879998 0.70300001 -1.017 121 62 28
-4.1360002 0.653 -0.97100002 75 10 0
-4.105 0.68099999 -1.0089999 129 89 53
-4.0879998 0.662 -0.99000001 74 61 45
-4.1240001 0.66000003 -0.98900002 54 22 0
-4.132 0.67199999 -0.986 57 36 19
-4.1059999 0.67000002 -0.95700002 143 114 96
-4.0809999 0.67900002 -1.005 120 55 15
-4.0640001 0.68699998 -1.0089999 15 0 0
-4.0760002 0.68400002 -1.011 136 73 30
-4.0970001 0.69300002 -1.013 131 72 32
-4.1009998 0.66500002 -0.99699998 24 6 4
-4.1030002 0.65100002 -0.98900002 28 3 0
-4.0879998 0.68900001 -1.062 229 174 144
-4.0949998 0.67199999 -1.028 59 27 14
-3.9960001 0.69300002 -0.96200001 81 66 63
-3.9890001 0.69 -0.95899999 97 60 33
-3.902 0.68599999 -0.93699998 54 30 30
-3.9030001 0.68699998 -0.93699998 21 3 3
-3.898 0.68699998 -0.95300001 15 0 0
-3.8959999 0.67799997 -0.96499997 27 3 0
-3.9030001 0.67699999 -0.96700001 21 2 0
-3.895 0.685 -0.95700002 25 6 0
-3.9070001 0.69300002 -0.96799999 40 31 32
-3.948 0.653 -0.96700001 98 79 75
-3.9519999 0.65499997 -0.97399998 46 27 20
-3.95 0.63499999 -1.002 91 79 79
-3.9630001 0.64999998 -0.99699998 78 76 79
-3.9389999 0.69800001 -1.021 22 7 4
-3.9419999 0.69400001 -1.002 15 3 3
-3.9489999 0.69700003 -1.008 21 1 0
-3.941 0.71399999 -0.92500001 47 33 22
-3.9319999 0.71600002 -0.92699999 95 68 51
-3.8970001 0.69599998 -0.963 17 11 11
-3.8970001 0.699 -0.96200001 51 23 20
-3.994 0.704 -0.94 34 5 0
-3.9849999 0.69099998 -0.93099999 23 0 0
-4.0089998 0.70499998 -0.96600002 130 103 86
-3.9719999 0.76700002 -1.018 50 13 4
-3.9949999 0.72100002 -1.0089999 78 40 21
-4.006 0.71600002 -1.007 109 90 86
-4.0310001 0.73100001 -0.97600001 28 3 0
-4.0149999 0.699 -0.98000002 49 14 0
-3.9460001 0.71700001 -0.92400002 26 8 8
-3.944 0.713 -0.92199999 113 82 61
-3.9590001 0.67900002 -0.94300002 48 30 30
-3.9809999 0.68099999 -0.94 99 63 51
-3.973 0.67000002 -0.94099998 65 31 6
-3.983 0.68599999 -0.935 38 7 2
-3.9890001 0.78899997 -0.98299998 86 48 25
-3.984 0.78100002 -0.986 36 13 7
-3.98 0.77999997 -0.98299998 42 8 0
-3.9749999 0.77499998 -0.99900001 37 3 0
-3.9790001 0.727 -0.97899997 91 35 2
-3.9779999 0.727 -0.99299997 52 25 16
-3.9679999 0.72899997 -0.96499997 16 4 4
-3.971 0.75099999 -0.99800003 32 12 5
-3.973 0.741 -1.028 55 27 5
-3.9760001 0.72899997 -1.023 50 3 0
-3.97 0.72399998 -1.026 81 35 19
-3.961 0.76800001 -1.001 34 1 0
-3.9590001 0.76499999 -1.003 59 26 11
-3.931 0.699 -0.912 74 35 2
-3.9300001 0.708 -0.921 85 73 73
-3.911 0.727 -0.98299998 109 83 48
-3.9170001 0.72299999 -0.98699999 29 13 13
-3.9289999 0.70200002 -0.97000003 32 18 9
-3.928 0.74000001 -1 255 223 188
-3.9690001 0.69599998 -0.90499997 135 97 84
-3.967 0.75800002 -0.98900002 68 43 36
-3.951 0.74800003 -0.98100001 255 235 187
-3.9530001 0.71499997 -0.91000003 34 17 9
-3.9630001 0.68599999 -1.021 78 31 5
-3.95 0.70300001 -1.021 34 7 0
-3.9549999 0.66100001 -1.021 42 15 6
-3.96 0.66799998 -1.008 22 1 0
-3.96 0.671 -1.002 32 12 5
-3.954 0.65700001 -0.98199999 14 3 1
-3.9519999 0.66600001 -0.99299997 30 6 0
-3.924 0.72000003 -1.01 43 21 8
-3.9189999 0.71600002 -1 46 32 5
-3.927 0.72399998 -1.0369999 34 8 7
-3.921 0.727 -1.036 89 71 57
-3.9590001 0.699 -1.036 95 65 39
-4.0040002 0.699 -1.034 61 35 20
-4.1329999 0.64399999 -0.95899999 144 72 22
-4.099 0.65700001 -0.954 71 33 10
-4.0320001 0.704 -1.012 40 24 24
-4.0180001 0.66799998 -1.0319999 101 71 60
-4.006 0.65899998 -1.029 54 15 0
-4.0749998 0.66399997 -1.038 52 28 16
-4.066 0.67299998 -1.046 137 123 112
-3.967 0.71799999 -1.031 61 14 0
-3.974 0.70499998 -1.031 58 24 0
-3.974 0.699 -1.031 81 27 3
-4.046 0.73000002 -1.018 56 21 1
-3.9879999 0.66600001 -1.0420001 47 33 20
-3.9849999 0.653 -1.016 168 115 71
-3.9530001 0.66799998 -1.036 43 12 7
-3.9579999 0.67000002 -1.033 25 0 0
-4.0440001 0.69400001 -1.0420001 78 33 12
-4.0450001 0.72799999 -1.034 99 59 23
-4.0640001 0.70700002 -1.04 21 2 0
-4.0370002 0.722 -1.0039999 88 51 32
-4.0749998 0.685 -1.013 52 14 1
-4.066 0.69400001 -1.017 24 6 2
-4.0960002 0.671 -1.0190001 148 97 50
-4.0929999 0.66399997 -1.0190001 88 55 22
-4.1009998 0.67699999 -1.015 87 53 18
-4.0190001 0.71899998 -1.006 42 27 20
-4.0209999 0.66299999 -1.046 84 37 11
-4.0279999 0.71399999 -1 88 34 0
-4.0120001 0.69499999 -0.99199998 123 64 22
-3.97 0.65399998 -0.97100002 32 9 1
-4.1040001 0.64499998 -0.95700002 108 88 81
-3.898 0.67799997 -0.93000001 75 49 14
-3.914 0.68599999 -0.92000002 58 34 22
-3.9289999 0.68400002 -0.91600001 43 20 12
-3.9400001 0.69199997 -0.90200001 98 72 57
-3.9349999 0.68800002 -0.917 37 13 1
-3.925 0.67400002 -0.93099999 78 42 30
-3.9260001 0.676 -0.926 68 27 7
-3.9170001 0.66900003 -0.92500001 70 41 25
-3.915 0.66299999 -0.926 60 23 4
-3.9560001 0.63800001 -0.96399999 130 104 87
-3.973 0.667 -0.94400001 75 44 23
-3.96 0.65899998 -0.958 115 83 58
-4 0.67500001 -0.98400003 50 21 13
-3.938 0.73299998 -1.036 32 13 7
-3.9360001 0.74800003 -1.016 119 111 109
-3.918 0.74599999 -1.026 52 30 9
-4.0830002 0.662 -1.0319999 153 136 126
-4.112 0.68599999 -0.97399998 116 62 28
-4.1139998 0.68000001 -0.986 133 83 60
-4.105 0.68300003 -1.005 133 107 90
-4.1030002 0.69099998 -1.01 30 3 0
-4.1160002 0.66399997 -0.99199998 41 8 0
-4.0929999 0.68599999 -1.008 59 31 10
-4.1069999 0.67000002 -0.99900001 53 17 3
-4.105 0.66500002 -0.995 31 12 8
-4.1090002 0.66600001 -0.995 70 40 29
-4.1030002 0.67199999 -1.001 83 29 3
-4.0929999 0.67000002 -1.006 46 7 0
-4.0970001 0.67299998 -1.005 102 47 16
-4.0599999 0.72399998 -1.031 79 52 31
-4.0890002 0.67799997 -1.036 36 13 5
-4.0900002 0.68699998 -1.045 32 4 3
-3.99 0.68099999 -0.96499997 195 160 130
-3.9909999 0.68199998 -0.96600002 63 24 7
-3.99 0.69 -0.96100003 92 61 33
-3.974 0.70599997 -0.92500001 50 26 14
-3.993 0.69800001 -0.95599997 107 60 32
-3.9260001 0.72000003 -0.99400002 209 178 149
-3.9389999 0.71499997 -0.98100001 12 0 0
-3.924 0.72399998 -0.991 71 51 27
-3.9219999 0.66600001 -0.94499999 43 18 0
-3.9360001 0.69099998 -1.029 122 78 41
-3.937 0.70300001 -1.025 161 148 142
-3.937 0.70300001 -1.031 20 6 3
-3.95 0.639 -1.01 89 79 78
-3.9649999 0.64600003 -1.022 184 137 93
-3.967 0.648 -1.016 111 80 60
-3.951 0.71600002 -0.91799998 36 7 3
-3.95 0.72399998 -0.94999999 119 115 116
-3.944 0.72000003 -0.958 25 6 0
-3.902 0.685 -0.96399999 62 52 51
-3.914 0.70099998 -0.95499998 31 17 17
-4.006 0.72500002 -0.96100003 115 72 40
-3.9749999 0.764 -1.0190001 14 3 1
-4.0040002 0.713 -1.022 22 1 0
-4.0100002 0.708 -1.029 29 10 3
-3.9990001 0.71700001 -1.003 71 33 12
-3.983 0.73000002 -1.006 58 28 18
-4.02 0.72600001 -0.99299997 37 14 8
-4.0180001 0.72299999 -0.98900002 169 98 36
-3.983 0.685 -0.93800002 35 6 0
-3.9809999 0.68099999 -0.95099998 69 28 10
-3.983 0.68699998 -0.93900001 35 10 3
-3.9779999 0.77999997 -0.98000002 43 10 1
-3.973 0.77399999 -0.98199999 44 24 17
-3.984 0.78399998 -0.986 129 91 70
-3.9790001 0.77700001 -0.991 41 7 0
-3.9590001 0.72799999 -0.95999998 122 113 114
-3.948 0.73199999 -0.97799999 120 83 56
-3.9449999 0.741 -0.97600001 144 122 65
-3.9579999 0.75599998 -1.002 12 0 2
-3.9660001 0.73400003 -0.995 78 56 45
-3.984 0.74699998 -1.028 75 55 46
-3.977 0.73199999 -1.02 86 43 27
-3.9489999 0.759 -1.026 49 21 9
-3.918 0.736 -0.98500001 109 82 35
-3.9319999 0.73100001 -0.99000001 138 112 79
-3.924 0.73000002 -0.98900002 49 27 16
-3.9300001 0.73799998 -0.99900001 107 88 46
-3.9400001 0.74699998 -0.995 142 97 66
-3.927 0.69800001 -0.91500002 23 3 2
-3.918 0.69800001 -0.97000003 31 17 8
-3.9419999 0.71799999 -0.93800002 47 36 30
-3.9630001 0.67699999 -0.94099998 66 38 27
-3.951 0.67500001 -0.94999999 63 42 11
-4.0949998 0.65100002 -0.97000003 136 117 110
-4.098 0.64899999 -0.97000003 145 128 120
-3.9519999 0.65700001 -0.977 53 35 25
-3.9360001 0.67500001 -0.97000003 127 103 91
-3.9519999 0.685 -0.99699998 20 2 0
-3.9579999 0.66799998 -0.99800003 15 0 0
-3.9360001 0.66500002 -0.95999998 76 68 66
-3.9319999 0.699 -0.98699999 111 92 85
-3.934 0.70700002 -1.003 77 77 79
-3.9400001 0.69400001 -0.98900002 15 5 0
-3.9319999 0.68800002 -0.977 76 48 24
-3.924 0.69400001 -0.977 45 23 12
-3.9260001 0.713 -1.006 35 8 1
-3.925 0.72500002 -1.021 23 0 0
-3.9319999 0.72799999 -1.036 55 44 16
-3.9300001 0.72500002 -1.036 27 2 0
-3.9419999 0.708 -1.035 30 12 2
-3.9430001 0.69599998 -1.029 18 6 6
-3.9679999 0.69499999 -1.033 64 27 9
-4.039 0.68699998 -1.0369999 59 32 21
-4.0139999 0.704 -1.0369999 53 36 26
-4.1269999 0.64300001 -0.954 179 144 122
-4.138 0.64399999 -0.96100003 111 81 70
-4.1149998 0.64499998 -0.96799999 144 121 79
-4.1009998 0.66299999 -0.99400002 143 76 33
-4.0159998 0.66600001 -1.028 96 71 64
-4.0139999 0.662 -1.035 61 39 18
-3.9979999 0.65600002 -1.025 111 56 15
-4.0050001 0.66600001 -1.016 155 89 41
-4.006 0.67699999 -1.015 19 1 0
-4.0710001 0.65899998 -1.031 104 66 29
-4.0710001 0.66100001 -1.034 55 13 0
-4.0650001 0.67199999 -1.046 133 87 64
-4.0830002 0.676 -1.04 55 7 0
-3.9890001 0.72600001 -1.007 83 39 14
-3.964 0.653 -1.027 31 6 1
-3.9719999 0.67299998 -1.035 16 1 0
-3.984 0.64999998 -1.022 147 103 66
-3.96 0.67000002 -1.021 18 0 0
-4.0479999 0.69300002 -1.045 100 42 2
-4.0840001 0.70999998 -1.0369999 77 45 24
-4.0809999 0.70700002 -1.034 56 25 7
-4.0549998 0.70700002 -1.041 44 24 17
-4.0320001 0.722 -1.003 29 12 5
-4.0599999 0.69 -1.0190001 177 113 78
-4.0700002 0.708 -1.02 31 15 15
-4.073 0.69400001 -1.052 76 24 0
-4.0939999 0.66900003 -1.028 57 20 2
-4.0700002 0.67000002 -1.0140001 57 40 20
-3.9849999 0.68199998 -0.958 77 41 25
-3.948 0.68699998 -0.93099999 33 8 1
-3.928 0.68000001 -0.92199999 61 20 0
-3.954 0.64099997 -0.96799999 69 46 30
-3.997 0.68099999 -0.97600001 161 130 102
-3.9949999 0.67199999 -0.97899997 67 46 41
-4.1020002 0.69099998 -1.026 102 59 40
-4.0970001 0.68900001 -1.034 112 81 60
-4.0929999 0.68099999 -1.03 28 18 17
-4.0879998 0.66299999 -1.029 22 3 0
-4.1339998 0.65399998 -0.97500002 77 19 0
-4.132 0.653 -0.97799999 89 37 15
-4.131 0.65200001 -0.98299998 93 49 22
-4.1090002 0.676 -0.97100002 211 133 59
-4.0910001 0.66100001 -0.98799998 68 45 27
-4.1040001 0.67199999 -0.96700001 51 31 22
-4.112 0.66799998 -0.99599999 32 2 0
-4.119 0.65100002 -0.98900002 21 2 0
-4.1129999 0.66399997 -0.99299997 30 0 0
-4.112 0.65899998 -0.99000001 54 36 26
-4.1079998 0.662 -0.991 106 47 13
-4.0910001 0.66600001 -1.0039999 26 8 4
-4.0840001 0.66299999 -1.0190001 88 45 13
-4.052 0.72799999 -1.028 32 8 8
-4.0929999 0.69400001 -1.059 67 20 0
-4.0890002 0.68599999 -1.045 114 87 78
-3.902 0.67000002 -0.94700003 82 56 33
-3.921 0.72600001 -0.98699999 20 2 0
-3.9400001 0.72399998 -0.97899997 117 102 99
-3.9449999 0.73799998 -0.98100001 116 75 53
-3.8989999 0.685 -0.94800001 47 27 28
-3.914 0.66500002 -0.94499999 47 14 5
-3.937 0.70700002 -1.01 101 102 104
-3.97 0.64700001 -1.02 173 128 87
-3.9579999 0.65799999 -1.022 41 14 5
-3.9070001 0.68400002 -0.96600002 34 10 0
-3.904 0.69499999 -0.94199997 41 21 12
-3.9089999 0.69700003 -0.94 32 13 6
-3.911 0.69700003 -0.94999999 96 82 82
-3.971 0.76499999 -1.022 67 29 18
-4.0009999 0.72000003 -0.98900002 38 13 6
-3.997 0.72899997 -0.97500002 70 24 8
-3.9879999 0.77999997 -0.99699998 33 10 2
-3.9349999 0.704 -0.98000002 16 1 0
-3.9560001 0.66900003 -0.95700002 86 63 49
-3.9449999 0.671 -0.95099998 90 64 39
-3.9960001 0.72000003 -0.95200002 247 197 138
-3.9430001 0.73900002 -0.98500001 129 84 55
-3.9749999 0.77700001 -0.98000002 48 21 14
-3.9749999 0.778 -0.98100001 70 40 32
-3.9749999 0.77600002 -0.98299998 30 1 0
-3.9760001 0.72299999 -0.97399998 15 0 0
-3.9530001 0.73100001 -0.977 87 78 79
-3.957 0.72899997 -0.94999999 13 3 1
-3.9460001 0.75 -0.98000002 30 11 5
-3.938 0.75599998 -0.99900001 93 47 23
-3.971 0.73000002 -0.99599999 38 11 4
-3.941 0.713 -0.972 18 4 1
-3.9560001 0.75700003 -1.013 52 27 20
-3.9219999 0.68699998 -0.91900003 84 72 72
-3.9360001 0.70499998 -0.97399998 77 58 52
-3.98 0.68599999 -0.94599998 48 9 0
-3.9809999 0.69 -0.94700003 102 42 5
-3.984 0.68599999 -0.95700002 75 39 15
-3.9660001 0.67400002 -0.94499999 91 56 34
-3.9579999 0.68800002 -0.91900003 18 3 0
-3.964 0.69099998 -0.90700001 45 16 0
-3.96 0.69099998 -0.91100001 30 9 4
-3.9619999 0.68800002 -0.93000001 69 53 17
-3.9649999 0.69300002 -0.91299999 41 22 15
-3.9530001 0.69300002 -1.038 75 52 46
-3.9579999 0.648 -0.98000002 62 33 19
-3.9530001 0.65899998 -0.98100001 18 7 3
-3.948 0.68300003 -0.98699999 100 93 85
-3.9300001 0.67699999 -0.96499997 135 109 94
-3.9170001 0.69 -0.97299999 68 46 35
-3.9089999 0.68199998 -0.96600002 23 2 1
-3.9200001 0.71600002 -0.995 39 28 10
-3.925 0.70899999 -1 63 36 19
-3.9319999 0.71899998 -1.033 106 71 51
-3.954 0.68000001 -1.034 29 1 0
-4.1290002 0.64700001 -0.977 110 54 21
-4.0040002 0.66299999 -1.02 155 89 39
-4.0120001 0.66900003 -1.027 28 17 13
-4.0869999 0.68099999 -1.05 45 10 6
-3.984 0.70700002 -1.024 93 55 36
-3.961 0.65899998 -1.025 22 0 0
-3.967 0.64999998 -1.023 106 63 28
-4.0500002 0.713 -1.028 149 85 47
-4.066 0.71499997 -1.036 39 13 0
-4.0479999 0.72600001 -1.036 42 12 1
-4.0489998 0.72100002 -1.034 30 1 0
-4.0609999 0.71899998 -1.034 26 8 4
-4.0500002 0.69999999 -1.0420001 18 0 0
-4.0489998 0.71200001 -1.036 124 105 91
-4.0300002 0.71799999 -0.99699998 79 29 2
-4.0640001 0.68900001 -1.015 61 33 21
-4.0580001 0.68900001 -1.02 185 116 75
-4.0770001 0.69199997 -1.022 155 88 7
-4.0679998 0.70499998 -1.04 18 0 0
-3.9849999 0.67900002 -0.96100003 24 0 0
-3.993 0.68000001 -0.96799999 53 20 1
-4.0739999 0.70499998 -1.026 24 9 6
-3.9189999 0.70200002 -0.93599999 14 2 2
-3.9579999 0.68900001 -0.90399998 36 13 5
-3.9289999 0.68099999 -0.92000002 91 49 27
-3.957 0.64600003 -0.96600002 51 28 12
-3.98 0.66799998 -0.95999998 34 4 0
-3.9949999 0.69 -0.96899998 45 27 23
-4.0939999 0.67500001 -1.028 72 42 32
-4.1009998 0.64999998 -0.98699999 107 78 64
-4.105 0.67299998 -1.002 50 6 0
-4.1160002 0.66600001 -0.99199998 49 9 0
-4.0929999 0.68800002 -1.013 59 31 19
-4.0840001 0.66299999 -1.011 79 39 13
-4.0900002 0.69099998 -1.061 175 125 92
-3.984 0.69099998 -0.93699998 49 17 4
-3.901 0.67400002 -0.95899999 11 0 0
-3.9119999 0.67299998 -0.95599997 16 2 0
-3.938 0.70499998 -1.015 107 102 106
-3.961 0.65200001 -1.022 34 7 0
-3.9679999 0.64899999 -1.0039999 15 0 0
-3.921 0.70700002 -0.94499999 25 2 0
-3.974 0.75800002 -1.022 55 38 31
-3.9560001 0.76300001 -1.023 27 3 0
-4.0149999 0.72000003 -0.99699998 55 18 9
-4.0219998 0.72299999 -0.98199999 116 71 30
-3.9449999 0.667 -0.958 87 60 33
-3.9860001 0.69700003 -0.93900001 75 51 39
-3.9449999 0.74199998 -0.97799999 15 0 0
-3.9419999 0.75599998 -0.991 87 59 48
-3.9549999 0.759 -1.0190001 30 6 2
-3.9449999 0.75199997 -1.0140001 28 19 20
-3.9489999 0.75300002 -1.013 104 86 74
-3.9219999 0.69099998 -0.92000002 48 29 15
-3.941 0.71899998 -0.94599998 105 101 102
-3.97 0.671 -0.94199997 61 30 10
-3.9879999 0.699 -0.94400001 134 92 42
-3.984 0.69199997 -0.93800002 88 43 22
-3.9690001 0.69300002 -0.921 22 6 6
-3.9489999 0.68699998 -1.041 29 4 0
-3.9519999 0.662 -0.98199999 15 4 0
-3.9530001 0.66600001 -0.98100001 37 7 0
-3.948 0.68099999 -0.97799999 16 1 0
-3.9059999 0.71700001 -0.98799998 109 96 88
-3.9400001 0.70499998 -1.0369999 27 13 10
-4.1069999 0.648 -0.98000002 138 119 112
-4.0029998 0.66299999 -1.017 149 91 45
-4.0869999 0.67799997 -1.056 31 0 0
-4.0549998 0.699 -1.025 123 63 29
-4.053 0.722 -1.034 35 8 0
-4.0489998 0.70499998 -1.038 52 33 18
-4.0440001 0.71399999 -1.023 42 18 14
-4.073 0.704 -1.039 28 9 3
-4.0640001 0.667 -1.0190001 40 17 9
-4.0149999 0.699 -0.98799998 110 55 24
-3.9949999 0.67000002 -0.98000002 18 0 0
-4.0780001 0.704 -1.024 27 7 0
-3.914 0.69300002 -0.92299998 30 17 9
-3.961 0.69199997 -0.903 143 114 98
-3.9530001 0.69300002 -0.90200001 81 71 69
-3.957 0.64899999 -0.96200001 81 61 62
-3.994 0.68300003 -0.97000003 142 111 80
-3.984 0.68199998 -0.95700002 144 105 76
-3.9430001 0.74199998 -0.99000001 96 52 23
-3.918 0.671 -0.95099998 13 0 0
-4.0089998 0.72500002 -0.97799999 107 39 0
-3.937 0.67299998 -0.94999999 16 6 0
-3.9530001 0.72000003 -0.96799999 101 67 42
-3.9590001 0.72799999 -0.96899998 17 8 9
-3.9400001 0.75199997 -0.99299997 60 18 0
-3.9849999 0.69599998 -0.94300002 141 98 53
-3.9419999 0.69199997 -1.041 9 0 0
-3.9460001 0.676 -0.972 14 0 0
-3.9430001 0.685 -0.977 75 35 10
-3.9219999 0.68599999 -0.96799999 6 0 0
-3.9059999 0.71700001 -0.986 13 0 0
-4.013 0.68099999 -1.022 52 34 20
-4.0479999 0.70599997 -1.026 50 32 28
-4.0619998 0.68800002 -1.016 97 61 29
-4.0840001 0.70599997 -1.038 62 33 17
-3.9100001 0.69199997 -0.93099999 28 10 0
-3.9070001 0.69400001 -0.93800002 27 8 4
-3.96 0.69199997 -0.90100002 78 39 8
-3.9430001 0.67199999 -0.96200001 64 58 58
-3.902 0.671 -0.95099998 46 25 24
-3.8970001 0.68300003 -0.94700003 123 95 83
-3.9530001 0.75700003 -1.017 48 20 9
-3.947 0.72100002 -0.94400001 62 38 28
-3.925 0.68699998 -0.96899998 56 34 23
-4.1170001 0.64200002 -0.97600001 98 63 44
-4.0609999 0.69800001 -1.024 102 43 1
-3.9389999 0.74199998 -0.99599999 119 115 114
-3.937 0.70599997 -0.95899999 38 8 0
-4.1170001 0.64899999 -0.98900002 96 49 23
0 0 0 1 0 0 0 1 0 0 0 1 0 0 0 0 0 1097 1 0 0
