ply
format ascii 1.0
comment PCL generated
element vertex 395
property float x
property float y
property float z
property uchar red
property uchar green
property uchar blue
element camera 1
property float view_px
property float view_py
property float view_pz
property float x_axisx
property float x_axisy
property float x_axisz
property float y_axisx
property float y_axisy
property float y_axisz
property float z_axisx
property float z_axisy
property float z_axisz
property float focal
property float scalex
property float scaley
property float centerx
property float centery
property int viewportx
property int viewporty
property float k1
property float k2
end_header
9.0410004 -4.3049998 -0.60900003 35 13 0
9.0369997 -4.3200002 -0.61900002 158 131 104
9.052 -4.309 -0.60699999 14 0 0
9.0480003 -4.3179998 -0.61699998 220 142 78
9.0139999 -4.303 -0.85000002 43 20 2
9.0150003 -4.2979999 -0.847 75 43 30
9.0129995 -4.3049998 -0.85500002 162 127 108
9.0200005 -4.3109999 -0.85100001 79 62 52
9.0550003 -4.3099999 -0.83399999 40 15 8
9.0459995 -4.3109999 -0.85299999 54 29 22
9.0579996 -4.3000002 -0.85000002 29 11 0
9.0620003 -4.302 -0.838 82 66 66
9.0410004 -4.2870002 -0.61199999 79 42 13
9.0310001 -4.2930002 -0.616 76 35 3
9.0299997 -4.2950001 -0.61000001 100 70 44
9.0620003 -4.3249998 -0.70300001 36 15 0
9.0649996 -4.3169999 -0.71200001 71 55 39
9.059 -4.3280001 -0.708 16 0 0
9.0629997 -4.3379998 -0.70300001 150 90 62
9.0629997 -4.3150001 -0.69300002 51 23 11
9.0559998 -4.3369999 -0.69700003 112 41 55
9.0530005 -4.3439999 -0.69300002 121 53 14
9.0620003 -4.3319998 -0.68300003 55 37 27
9.066 -4.3169999 -0.68099999 58 32 17
9.0740004 -4.296 -0.72299999 28 10 0
9.0640001 -4.283 -0.71899998 26 8 0
9.0690002 -4.2880001 -0.72500002 31 13 3
9.0249996 -4.3080001 -0.61799997 159 124 96
9.033 -4.3150001 -0.61900002 123 93 67
9.0480003 -4.2930002 -0.86199999 50 17 2
9.0509996 -4.2800002 -0.861 59 23 1
9.0539999 -4.2979999 -0.85399997 14 0 0
9.0430002 -4.3049998 -0.861 43 23 16
9.0740004 -4.2379999 -0.662 150 63 72
9.0719995 -4.2329998 -0.64700001 146 55 64
9.0629997 -4.2309999 -0.65200001 166 139 122
9.0830002 -4.2379999 -0.65399998 84 43 11
9.0559998 -4.276 -0.84899998 67 35 0
9.0579996 -4.2779999 -0.84500003 79 48 4
9.0579996 -4.277 -0.84100002 85 58 11
9.0719995 -4.2950001 -0.736 22 3 0
9.0649996 -4.2969999 -0.833 54 31 25
9.0869999 -4.2410002 -0.64200002 75 39 5
9.0900002 -4.2519999 -0.64200002 65 36 18
9.0830002 -4.2379999 -0.64999998 135 94 50
9.0150003 -4.2989998 -0.85399997 63 31 20
9.0179996 -4.2979999 -0.83499998 15 0 0
9.0209999 -4.2870002 -0.84399998 36 19 12
9.0270004 -4.2880001 -0.81999999 105 84 65
9.0719995 -4.2389998 -0.639 180 142 95
9.0769997 -4.2379999 -0.63999999 128 89 48
9.0710001 -4.2379999 -0.64300001 255 217 155
9.0450001 -4.335 -0.792 81 51 51
9.0530005 -4.3270001 -0.79400003 33 14 10
9.0500002 -4.3319998 -0.78799999 63 38 33
9.052 -4.277 -0.84799999 48 24 0
9.0609999 -4.2969999 -0.81900001 147 118 104
9.0609999 -4.29 -0.81900001 24 10 9
9.0670004 -4.3070002 -0.76300001 219 196 165
9.0670004 -4.3109999 -0.745 37 17 10
9.0679998 -4.3140001 -0.75999999 56 38 18
9.0279999 -4.309 -0.62400001 101 74 55
9.0419998 -4.3239999 -0.62599999 66 35 7
9.0310001 -4.3099999 -0.62800002 204 132 82
9.0509996 -4.342 -0.69800001 116 64 76
9.0430002 -4.3379998 -0.69300002 51 12 0
9.0579996 -4.3390002 -0.70700002 59 31 19
9.0600004 -4.329 -0.704 32 10 0
9.0579996 -4.3080001 -0.61199999 110 78 40
9.0500002 -4.3200002 -0.62199998 111 48 5
9.0769997 -4.2470002 -0.65899998 202 185 169
9.0710001 -4.2519999 -0.66500002 86 58 44
9.0389996 -4.289 -0.61199999 173 109 61
9.0690002 -4.2800002 -0.61900002 79 50 34
9.0670004 -4.2930002 -0.61900002 74 43 15
9.0690002 -4.2919998 -0.60799998 46 27 20
9.0559998 -4.29 -0.852 54 31 23
9.0830002 -4.2379999 -0.64499998 168 129 86
9.0249996 -4.3010001 -0.78100002 61 46 39
9.0310001 -4.2909999 -0.77100003 73 52 33
9.0249996 -4.3010001 -0.76800001 23 4 0
9.0200005 -4.3039999 -0.838 24 9 6
9.04 -4.3330002 -0.78399998 63 22 0
9.0690002 -4.237 -0.65600002 210 165 126
9.0530005 -4.2779999 -0.80900002 136 111 54
9.0369997 -4.2800002 -0.801 68 49 7
9.0480003 -4.2839999 -0.80400002 148 127 80
9.04 -4.283 -0.79299998 196 176 126
9.0279999 -4.2800002 -0.79799998 47 25 12
9.0530005 -4.2779999 -0.84399998 64 41 10
9.0550003 -4.2859998 -0.81 170 148 98
9.0380001 -4.3169999 -0.62599999 66 36 2
9.0349998 -4.3150001 -0.62300003 58 31 12
9.0299997 -4.3070002 -0.625 55 21 0
9.0620003 -4.3039999 -0.61900002 113 67 77
9.0640001 -4.296 -0.62400001 87 66 49
9.0570002 -4.2810001 -0.62599999 55 24 0
9.0629997 -4.2820001 -0.62199998 83 51 26
9.0550003 -4.29 -0.634 77 51 36
9.0649996 -4.276 -0.61299998 84 57 40
9.0310001 -4.2930002 -0.62199998 249 188 99
9.0290003 -4.3150001 -0.78399998 135 64 78
9.0249996 -4.303 -0.79100001 61 35 22
9.0270004 -4.3239999 -0.79000002 85 75 66
9.0340004 -4.3369999 -0.792 38 7 2
9.0319996 -4.3369999 -0.79699999 80 70 60
9.0240002 -4.3330002 -0.79100001 37 9 5
9.0579996 -4.3379998 -0.71399999 145 95 60
9.0579996 -4.3249998 -0.69700003 60 31 15
9.0570002 -4.2979999 -0.69400001 50 31 16
9.0570002 -4.2919998 -0.70099998 69 51 37
9.0609999 -4.2969999 -0.70700002 67 49 37
9.059 -4.2940001 -0.676 84 66 56
9.0570002 -4.2919998 -0.67900002 46 26 15
9.0609999 -4.3070002 -0.69 102 84 80
9.059 -4.3049998 -0.69499999 31 9 0
9.059 -4.3049998 -0.708 79 63 47
9.0550003 -4.3169999 -0.62599999 137 84 50
9.0550003 -4.3140001 -0.62800002 157 112 71
9.033 -4.2919998 -0.78500003 50 29 10
9.033 -4.2930002 -0.77600002 52 31 14
9.0690002 -4.2529998 -0.63599998 69 41 19
9.0500002 -4.2519999 -0.63999999 104 75 45
9.066 -4.2639999 -0.64399999 105 73 58
9.0570002 -4.2810001 -0.84100002 56 33 0
9.0570002 -4.2839999 -0.84399998 151 122 92
9.0200005 -4.2940001 -0.85399997 48 19 11
9.0229998 -4.289 -0.852 53 16 0
9.0780001 -4.2480001 -0.65100002 98 81 65
9.0790005 -4.2550001 -0.64700001 143 83 46
9.0179996 -4.3010001 -0.84100002 169 145 121
9.026 -4.29 -0.801 38 17 22
9.0279999 -4.2880001 -0.79699999 51 29 8
9.0290003 -4.2940001 -0.815 41 22 8
9.0240002 -4.29 -0.83999997 23 6 0
9.0539999 -4.2849998 -0.83200002 65 42 8
9.0579996 -4.3070002 -0.829 125 55 65
9.0530005 -4.302 -0.81999999 115 82 51
9.059 -4.237 -0.64899999 86 55 26
9.0649996 -4.2389998 -0.64499998 85 44 14
9.0430002 -4.3260002 -0.79900002 99 90 85
9.0340004 -4.3309999 -0.79699999 93 84 75
9.0489998 -4.323 -0.79400003 88 50 29
9.0469999 -4.3109999 -0.84600002 46 21 14
9.0410004 -4.3150001 -0.83200002 30 11 4
9.0450001 -4.2820001 -0.80800003 84 62 21
9.04 -4.283 -0.81099999 65 49 26
9.0369997 -4.2800002 -0.80599999 87 71 38
9.0480003 -4.2800002 -0.84399998 46 26 2
9.0489998 -4.2859998 -0.80000001 191 171 121
9.0439997 -4.2909999 -0.79100001 216 193 151
9.0480003 -4.2950001 -0.77100003 59 36 5
9.0559998 -4.2979999 -0.76800001 86 64 25
9.0579996 -4.2989998 -0.773 68 46 9
9.0629997 -4.2930002 -0.73400003 49 32 24
9.0539999 -4.3369999 -0.70700002 56 33 27
9.0679998 -4.2859998 -0.611 48 22 5
9.0299997 -4.2989998 -0.62099999 128 107 88
9.0369997 -4.3309999 -0.78500003 92 81 75
9.0340004 -4.3150001 -0.75599998 49 20 25
9.0340004 -4.3080001 -0.74900001 30 11 7
9.0299997 -4.309 -0.74199998 62 29 36
9.059 -4.316 -0.70099998 39 17 3
9.0670004 -4.296 -0.71700001 42 23 17
9.0620003 -4.302 -0.611 103 66 39
9.0550003 -4.3140001 -0.62 83 31 0
9.0550003 -4.3189998 -0.68400002 85 50 28
9.0459995 -4.309 -0.69 124 99 105
9.0469999 -4.3010001 -0.67500001 21 0 0
9.0469999 -4.3260002 -0.69099998 56 34 23
9.0509996 -4.2979999 -0.69 33 13 4
9.0509996 -4.2969999 -0.67799997 25 2 0
9.0450001 -4.2550001 -0.64499998 154 105 65
9.0439997 -4.25 -0.64600003 86 41 12
9.0340004 -4.3000002 -0.62900001 255 220 130
9.0369997 -4.3060002 -0.63499999 237 199 124
9.0450001 -4.329 -0.69099998 69 40 45
9.0550003 -4.329 -0.68099999 79 51 37
9.0579996 -4.2459998 -0.64099997 47 20 1
9.0679998 -4.2389998 -0.65700001 138 107 86
9.0620003 -4.2410002 -0.65700001 174 107 62
9.073 -4.2420001 -0.662 58 23 3
9.0609999 -4.3179998 -0.676 66 42 30
9.059 -4.3109999 -0.67400002 72 50 36
9.0539999 -4.296 -0.67500001 33 13 2
9.0600004 -4.3049998 -0.67900002 91 72 66
9.0539999 -4.25 -0.66399997 41 15 2
9.0480003 -4.2449999 -0.64899999 69 47 26
9.0670004 -4.257 -0.66299999 123 42 49
9.0310001 -4.3039999 -0.741 26 8 4
9.0310001 -4.3049998 -0.73199999 45 7 4
9.0319996 -4.3099999 -0.73799998 38 20 10
9.0340004 -4.2930002 -0.78100002 49 28 11
9.0719995 -4.25 -0.63599998 93 63 35
9.0740004 -4.2589998 -0.64499998 126 67 35
9.0760002 -4.256 -0.65100002 51 31 30
9.0489998 -4.2849998 -0.86000001 34 14 3
9.0209999 -4.3000002 -0.85900003 37 14 8
9.0349998 -4.3000002 -0.85699999 28 3 0
9.0270004 -4.3099999 -0.85399997 91 48 13
9.0190001 -4.2930002 -0.847 41 12 4
9.0270004 -4.3119998 -0.84399998 111 67 38
9.0489998 -4.2810001 -0.83899999 49 27 3
9.0310001 -4.2989998 -0.82700002 130 92 69
9.0559998 -4.289 -0.83600003 74 35 4
9.0530005 -4.2839999 -0.81900001 73 47 12
9.0469999 -4.3049998 -0.81199998 25 5 0
9.0319996 -4.3150001 -0.83099997 192 164 153
9.0319996 -4.2859998 -0.80900002 95 58 49
9.0500002 -4.2969999 -0.81 153 122 91
9.0500002 -4.2969999 -0.76700002 73 52 21
9.0690002 -4.3150001 -0.736 44 22 9
9.0609999 -4.3070002 -0.71399999 50 36 23
9.0279999 -4.3140001 -0.72100002 55 36 21
9.0340004 -4.302 -0.73000002 101 83 79
9.0469999 -4.3099999 -0.69700003 51 26 32
9.0500002 -4.316 -0.69700003 103 53 65
9.0620003 -4.2859998 -0.62300003 92 58 21
9.0380001 -4.3249998 -0.76999998 22 4 0
9.0360003 -4.3189998 -0.77100003 47 27 26
9.026 -4.329 -0.78600001 88 70 66
9.0380001 -4.323 -0.773 37 21 24
9.0340004 -4.3169999 -0.77700001 42 23 19
9.052 -4.3210001 -0.76700002 26 8 0
9.0469999 -4.322 -0.74900001 149 131 117
9.0469999 -4.3280001 -0.77700001 205 182 151
9.0389996 -4.323 -0.74900001 117 72 43
9.0609999 -4.296 -0.71200001 36 19 11
9.0579996 -4.3000002 -0.62599999 110 61 21
9.0539999 -4.3070002 -0.62699997 121 88 53
9.0609999 -4.303 -0.62199998 73 44 46
9.0539999 -4.2940001 -0.63200003 153 109 74
9.0480003 -4.3070002 -0.63599998 84 65 58
9.0450001 -4.2940001 -0.63300002 119 91 70
9.059 -4.3070002 -0.62099999 126 38 50
9.0579996 -4.3249998 -0.68800002 67 38 24
9.0559998 -4.2969999 -0.68900001 56 34 20
9.0419998 -4.2880001 -0.63300002 124 97 70
9.0489998 -4.3340001 -0.68599999 117 84 53
9.0620003 -4.2639999 -0.65600002 98 71 54
9.0570002 -4.2509999 -0.66299999 62 34 12
9.0570002 -4.2519999 -0.65200001 68 39 21
9.0570002 -4.2529998 -0.64999998 111 49 8
9.0480003 -4.2470002 -0.64600003 118 95 89
9.0629997 -4.3200002 -0.68099999 71 42 26
9.0570002 -4.3249998 -0.68000001 71 42 26
9.0480003 -4.303 -0.68900001 35 15 8
9.0570002 -4.2329998 -0.65499997 101 60 30
9.0450001 -4.3000002 -0.70899999 35 18 10
9.0310001 -4.3039999 -0.77499998 35 14 9
9.0389996 -4.2930002 -0.77700001 59 37 16
9.085 -4.2540002 -0.639 144 99 57
9.0860004 -4.2470002 -0.63800001 55 18 0
9.0500002 -4.2810001 -0.84899998 49 31 11
9.0439997 -4.29 -0.85000002 34 11 0
9.0279999 -4.3109999 -0.85000002 40 19 2
9.0360003 -4.3119998 -0.84100002 18 0 0
9.0749998 -4.2529998 -0.65700001 105 77 63
9.0310001 -4.2909999 -0.78899997 48 23 3
9.0319996 -4.2870002 -0.79299998 102 79 45
9.0509996 -4.2820001 -0.82200003 95 68 39
9.0439997 -4.309 -0.81300002 73 51 38
9.0299997 -4.2950001 -0.81 41 23 19
9.0310001 -4.302 -0.83099997 51 26 6
9.04 -4.2940001 -0.75300002 114 92 81
9.0509996 -4.2940001 -0.74299997 55 28 33
9.0600004 -4.2849998 -0.72100002 88 70 60
9.0419998 -4.2880001 -0.727 25 11 8
9.0539999 -4.296 -0.71100003 91 76 73
9.0570002 -4.2930002 -0.736 23 13 12
9.0530005 -4.2940001 -0.73199999 108 92 77
9.0299997 -4.3070002 -0.78100002 29 11 9
9.0430002 -4.2969999 -0.76599997 69 49 25
9.0579996 -4.3000002 -0.76499999 112 90 53
9.0570002 -4.3039999 -0.76099998 101 81 57
9.0649996 -4.3109999 -0.755 37 15 1
9.0570002 -4.329 -0.722 39 2 0
9.0690002 -4.2989998 -0.722 48 29 23
9.0509996 -4.323 -0.69999999 95 42 2
9.0389996 -4.3130002 -0.62900001 243 195 113
9.0419998 -4.3039999 -0.63700002 158 135 143
9.0310001 -4.3299999 -0.796 100 83 73
9.0459995 -4.3189998 -0.76499999 20 0 0
9.0489998 -4.3179998 -0.75700003 16 1 0
9.0679998 -4.2909999 -0.611 51 24 3
9.0559998 -4.2909999 -0.60900003 78 57 40
9.0500002 -4.302 -0.61000001 44 26 4
9.0489998 -4.3130002 -0.63700002 80 51 53
9.0609999 -4.3179998 -0.69300002 60 32 11
9.059 -4.3049998 -0.68699998 62 36 19
9.0469999 -4.2810001 -0.62099999 96 38 1
9.0439997 -4.3210001 -0.63099998 176 148 126
9.0459995 -4.3140001 -0.63599998 175 95 106
9.052 -4.3039999 -0.67900002 50 33 26
9.0439997 -4.3070002 -0.70300001 117 88 93
9.0710001 -4.257 -0.653 135 91 66
9.066 -4.2490001 -0.662 106 78 64
9.0629997 -4.2579999 -0.64499998 124 51 8
9.0649996 -4.3200002 -0.73900002 84 32 11
9.0550003 -4.329 -0.73100001 48 8 0
9.0790005 -4.2459998 -0.63700002 54 20 0
9.0389996 -4.2930002 -0.85299999 52 16 2
9.0459995 -4.2909999 -0.85699999 45 22 8
9.0299997 -4.2940001 -0.85299999 45 15 4
9.0290003 -4.2870002 -0.84600002 55 19 3
9.033 -4.296 -0.83200002 158 108 75
9.0489998 -4.2849998 -0.83999997 35 17 0
9.0600004 -4.2989998 -0.829 92 53 22
9.0349998 -4.3000002 -0.81800002 18 6 6
9.0509996 -4.2820001 -0.82700002 72 47 16
9.0419998 -4.2880001 -0.81599998 86 60 45
9.0310001 -4.2979999 -0.80699998 12 0 0
9.0299997 -4.2950001 -0.80000001 48 25 11
9.0290003 -4.2930002 -0.801 35 16 12
9.04 -4.2940001 -0.76899999 52 30 6
9.0340004 -4.3000002 -0.736 41 10 7
9.0340004 -4.2989998 -0.741 45 26 20
9.0430002 -4.296 -0.73900002 34 14 5
9.0340004 -4.289 -0.815 74 51 37
9.0539999 -4.296 -0.69999999 76 61 56
9.0439997 -4.2969999 -0.75199997 41 12 6
9.0550003 -4.3010001 -0.764 74 53 26
9.0579996 -4.3039999 -0.74800003 34 16 6
9.0539999 -4.3169999 -0.76300001 38 15 9
9.0699997 -4.2940001 -0.73100001 25 6 2
9.052 -4.323 -0.77600002 66 14 3
9.0559998 -4.2979999 -0.611 70 51 34
9.0550003 -4.283 -0.61199999 76 40 8
9.0500002 -4.2859998 -0.61199999 246 223 189
9.0530005 -4.3000002 -0.61000001 63 45 21
9.0430002 -4.2950001 -0.61199999 73 40 7
9.04 -4.29 -0.62699997 126 75 32
9.0450001 -4.303 -0.634 222 181 135
9.0450001 -4.3319998 -0.69300002 60 17 0
9.0419998 -4.3130002 -0.63599998 128 82 20
9.059 -4.3049998 -0.68199998 39 16 2
9.0469999 -4.302 -0.70200002 33 14 7
9.066 -4.2529998 -0.66299999 87 45 31
9.0640001 -4.2620001 -0.64600003 95 64 33
9.0340004 -4.3099999 -0.722 44 21 13
9.0629997 -4.3150001 -0.74800003 95 38 18
9.0299997 -4.2950001 -0.78899997 77 53 43
9.0749998 -4.2470002 -0.63599998 77 46 17
9.0430002 -4.2979999 -0.85799998 37 13 3
9.0439997 -4.2930002 -0.829 15 3 5
9.0530005 -4.3049998 -0.82700002 66 37 19
9.0530005 -4.2839999 -0.81400001 65 41 0
9.0380001 -4.3060002 -0.80900002 66 37 31
9.04 -4.3099999 -0.82499999 160 134 109
9.0469999 -4.3000002 -0.78899997 43 22 0
9.0469999 -4.3099999 -0.78600001 37 14 0
9.0459995 -4.3109999 -0.78799999 21 3 0
9.0469999 -4.3200002 -0.79299998 99 89 80
9.0340004 -4.2930002 -0.76800001 68 47 28
9.0349998 -4.2989998 -0.74900001 36 8 0
9.0469999 -4.2940001 -0.73799998 26 3 0
9.0480003 -4.2950001 -0.80800003 17 3 2
9.0600004 -4.323 -0.72500002 29 12 4
9.0450001 -4.3200002 -0.713 31 16 11
9.0380001 -4.3010001 -0.63300002 120 90 64
9.0480003 -4.3189998 -0.78500003 110 44 56
9.0439997 -4.296 -0.72000003 47 27 16
9.0550003 -4.283 -0.61299998 76 40 8
9.0389996 -4.2940001 -0.63300002 129 103 80
9.0699997 -4.2620001 -0.64899999 127 42 49
9.0500002 -4.2820001 -0.83499998 49 28 1
9.0430002 -4.3119998 -0.81699997 64 37 28
9.0439997 -4.3109999 -0.79500002 23 0 0
9.0439997 -4.3060002 -0.79400003 47 21 4
9.0480003 -4.2940001 -0.73500001 26 15 11
9.0439997 -4.2989998 -0.80299997 115 95 86
9.0509996 -4.323 -0.77399999 19 0 0
9.0539999 -4.3130002 -0.773 36 19 12
9.052 -4.3369999 -0.71399999 54 33 38
9.0489998 -4.3319998 -0.713 23 4 0
9.0459995 -4.3299999 -0.71799999 70 35 41
9.0389996 -4.3249998 -0.72799999 39 18 23
9.0340004 -4.323 -0.73299998 56 33 15
9.0349998 -4.3150001 -0.72399998 89 27 6
9.0340004 -4.3210001 -0.74299997 110 71 74
9.0450001 -4.3150001 -0.71200001 42 28 25
9.0489998 -4.3280001 -0.70300001 42 22 13
9.0500002 -4.2930002 -0.727 38 15 21
9.0410004 -4.3249998 -0.79299998 26 8 6
9.0319996 -4.3179998 -0.74199998 33 14 18
9.0620003 -4.3189998 -0.72500002 43 21 10
9.0450001 -4.3080001 -0.71200001 39 16 22
9.0480003 -4.3330002 -0.70499998 74 42 47
9.0469999 -4.3260002 -0.71499997 21 2 0
9.0419998 -4.2950001 -0.73400003 97 78 63
9.052 -4.323 -0.73699999 28 5 0
9.0489998 -4.289 -0.61199999 89 53 17
9.04 -4.2989998 -0.72600001 71 49 36
9.0640001 -4.3060002 -0.72500002 46 22 12
9.0480003 -4.3200002 -0.74000001 107 35 47
0 0 0 1 0 0 0 1 0 0 0 1 0 0 0 0 0 395 1 0 0
