ply
format ascii 1.0
comment PCL generated
element vertex 1216
property float x
property float y
property float z
property uchar red
property uchar green
property uchar blue
element camera 0
property float view_px
property float view_py
property float view_pz
property float x_axisx
property float x_axisy
property float x_axisz
property float y_axisx
property float y_axisy
property float y_axisz
property float z_axisx
property float z_axisy
property float z_axisz
property float focal
property float scalex
property float scaley
property float centerx
property float centery
property int viewportx
property int viewporty
property float k1
property float k2
end_header
-13.368 -2.023 -0.65799999 241 177 67
-13.374 -2.016 -0.65600002 107 67 31
-13.366 -2.04 -0.66299999 162 121 89
-13.367 -2.033 -0.65799999 255 193 87
-13.379 -2.0309999 -0.653 74 55 38
-13.343 -2.0350001 -0.67000002 100 82 72
-13.35 -2.036 -0.65899998 255 218 149
-13.352 -2.0650001 -0.671 128 98 74
-13.363 -2.066 -0.66799998 127 105 82
-13.403 -2.036 -0.63800001 86 43 0
-13.377 -1.992 -0.65600002 224 138 61
-13.369 -2.003 -0.648 171 121 52
-13.373 -2.0120001 -0.64600003 168 128 77
-13.357 -2.0209999 -0.65499997 97 66 38
-13.348 -2.017 -0.65799999 105 94 72
-13.356 -2.0869999 -0.67199999 100 68 45
-13.333 -2.0840001 -0.67000002 235 135 57
-13.34 -2.0769999 -0.66799998 218 177 115
-13.388 -2.109 -0.648 168 98 13
-13.342 -1.962 -0.66500002 188 148 89
-13.357 -1.967 -0.66900003 195 143 86
-13.38 -1.976 -0.653 165 137 90
-13.317 -2.0599999 -0.68400002 211 138 46
-13.319 -2.05 -0.68400002 170 93 3
-13.319 -2.0450001 -0.676 216 178 116
-13.292 -2.049 -0.68699998 111 79 64
-13.293 -2.052 -0.68699998 185 155 121
-13.326 -1.974 -0.68300003 192 131 76
-13.351 -2.006 -0.67500001 157 117 66
-13.34 -1.98 -0.662 211 141 89
-13.38 -2.0050001 -0.64300001 162 152 117
-13.379 -2.0090001 -0.64399999 120 98 74
-13.373 -2.0220001 -0.63999999 192 106 45
-13.382 -2.013 -0.65100002 250 185 117
-13.384 -2.01 -0.64999998 201 168 163
-13.396 -1.975 -0.63800001 249 205 132
-13.384 -2.003 -0.65100002 220 155 87
-13.38 -2.007 -0.65100002 220 159 94
-13.326 -1.9630001 -0.68699998 198 148 99
-13.332 -1.96 -0.68199998 126 102 58
-13.356 -1.943 -0.67799997 152 101 48
-13.355 -1.95 -0.67799997 131 93 70
-13.365 -2.244 -0.64499998 170 140 88
-13.368 -2.256 -0.64399999 118 85 44
-13.278 -2.1440001 -0.69999999 166 131 91
-13.267 -2.148 -0.70499998 201 151 102
-13.27 -2.1559999 -0.70099998 198 170 146
-13.285 -2.1429999 -0.69499999 162 129 86
-13.284 -2.138 -0.69800001 166 128 81
-13.256 -2.165 -0.70599997 206 155 108
-13.196 -2.2620001 -0.70700002 154 122 71
-13.231 -2.165 -0.71399999 107 60 16
-13.213 -2.184 -0.70700002 153 98 42
-13.212 -2.188 -0.708 192 149 81
-13.393 -2.3929999 -0.63200003 178 130 66
-13.408 -2.3110001 -0.60900003 168 119 43
-13.4 -2.302 -0.611 185 165 112
-13.421 -2.3329999 -0.61400002 179 142 98
-13.117 -2.1170001 -0.76499999 244 182 69
-13.119 -2.125 -0.764 222 164 101
-13.121 -2.1229999 -0.76099998 235 173 60
-13.12 -2.1289999 -0.76300001 189 154 90
-13.072 -2.2049999 -0.77999997 233 162 58
-13.046 -2.1240001 -0.80299997 254 184 89
-13.042 -2.1700001 -0.79900002 249 187 76
-13.041 -2.1329999 -0.79699999 207 162 120
-13.119 -1.618 -0.79299998 122 55 3
-13.114 -1.617 -0.79100001 152 119 74
-13.079 -1.584 -0.78899997 104 66 19
-13.159 -1.5930001 -0.78600001 175 132 97
-13.161 -1.584 -0.787 69 34 6
-13.164 -1.59 -0.77899998 249 182 114
-13.167 -1.579 -0.78799999 60 26 0
-13.165 -1.609 -0.76800001 253 174 79
-13.167 -1.5779999 -0.78899997 152 82 33
-13.215 -1.531 -0.78399998 103 63 37
-13.168 -1.5470001 -0.77100003 130 94 70
-13.157 -1.5420001 -0.77600002 200 157 102
-13.178 -1.5420001 -0.76899999 234 194 145
-13.18 -1.553 -0.764 142 128 83
-13.172 -1.5319999 -0.78600001 170 129 83
-13.183 -1.53 -0.78600001 86 36 1
-13.221 -1.545 -0.76300001 221 125 41
-13.151 -1.569 -0.78899997 115 71 26
-13.071 -1.54 -0.80599999 166 125 81
-13.055 -1.539 -0.79500002 197 153 90
-13.045 -1.545 -0.79900002 245 206 127
-13.047 -1.551 -0.79900002 246 209 131
-13.199 -1.61 -0.74400002 192 151 85
-13.19 -1.6390001 -0.74199998 119 87 48
-13.188 -1.603 -0.75099999 82 46 12
-13.198 -1.693 -0.73100001 199 150 91
-13.157 -1.625 -0.77200001 252 171 80
-13.151 -1.618 -0.787 168 135 92
-13.174 -1.663 -0.764 154 123 95
-13.182 -1.6440001 -0.76099998 159 126 95
-13.222 -1.604 -0.74599999 188 147 103
-13.184 -1.599 -0.76999998 131 103 56
-13.186 -1.676 -0.76899999 86 19 0
-13.04 -1.648 -0.80800003 194 122 48
-13.036 -1.652 -0.80000001 178 137 73
-13.107 -1.766 -0.778 111 60 7
-13.146 -1.723 -0.76599997 156 125 94
-13.128 -1.7359999 -0.77600002 100 57 15
-13.186 -1.7589999 -0.73699999 168 131 112
-13.185 -1.762 -0.73799998 237 177 81
-13.164 -1.7539999 -0.75599998 140 105 86
-13.16 -1.747 -0.759 176 117 73
-13.172 -1.767 -0.74900001 174 149 119
-13.156 -1.768 -0.77200001 182 154 114
-13.187 -1.715 -0.76200002 91 60 40
-13.388 -1.9220001 -0.65700001 250 199 144
-13.401 -1.911 -0.65399998 185 155 105
-13.385 -1.906 -0.66100001 175 103 31
-13.373 -1.895 -0.65899998 151 106 73
-13.371 -1.891 -0.66000003 192 148 85
-13.342 -1.904 -0.67500001 209 166 98
-13.347 -1.913 -0.66799998 209 119 31
-13.34 -1.8789999 -0.67000002 194 150 85
-13.289 -2.2539999 -0.671 176 105 13
-13.285 -2.2490001 -0.676 202 151 85
-13.296 -2.25 -0.67299998 206 134 62
-13.293 -1.893 -0.70700002 172 129 76
-13.296 -1.891 -0.704 249 169 84
-13.291 -1.89 -0.70599997 230 148 66
-13.289 -1.891 -0.708 157 129 117
-13.284 -1.886 -0.71200001 195 136 80
-13.304 -1.883 -0.69700003 181 124 55
-13.354 -2.4330001 -0.62699997 95 87 40
-13.359 -2.431 -0.62400001 163 118 61
-13.361 -2.424 -0.62199998 150 120 86
-13.33 -2.4389999 -0.64399999 250 174 88
-13.345 -2.421 -0.63300002 194 154 92
-13.363 -2.4579999 -0.62599999 173 88 21
-13.352 -2.464 -0.63 151 131 94
-13.364 -2.4489999 -0.625 142 107 65
-13.372 -2.336 -0.625 228 183 115
-13.371 -2.3559999 -0.63700002 229 154 63
-13.409 -2.339 -0.61000001 176 141 85
-13.399 -2.3740001 -0.63200003 177 105 29
-13.409 -2.3729999 -0.62699997 204 171 164
-13.394 -2.401 -0.63 229 151 69
-13.381 -2.398 -0.639 211 134 54
-13.372 -2.4070001 -0.639 230 152 77
-13.339 -2.4159999 -0.653 143 66 0
-13.343 -2.483 -0.62800002 153 107 55
-13.358 -2.48 -0.63200003 225 149 71
-13.346 -2.471 -0.63200003 143 69 4
-13.271 -2.4549999 -0.67199999 126 84 60
-13.27 -2.487 -0.676 199 127 53
-13.268 -2.4879999 -0.67000002 115 63 13
-13.266 -2.4849999 -0.67199999 93 72 77
-13.276 -2.4909999 -0.66500002 144 105 48
-13.262 -2.4660001 -0.67299998 152 116 58
-13.258 -2.4460001 -0.67500001 210 134 46
-13.291 -2.4560001 -0.67400002 237 207 157
-13.279 -2.4460001 -0.671 141 91 42
-13.289 -2.4449999 -0.67900002 150 80 18
-13.283 -2.4460001 -0.67699999 203 126 44
-13.281 -2.4349999 -0.67299998 164 140 94
-13.287 -2.4319999 -0.67199999 162 121 57
-13.273 -2.4419999 -0.67900002 167 136 89
-13.269 -2.438 -0.67900002 176 137 82
-13.271 -2.4349999 -0.67500001 194 178 126
-13.273 -2.4289999 -0.67699999 161 84 16
-13.279 -2.513 -0.66600001 207 165 140
-13.286 -2.5250001 -0.66299999 161 117 90
-13.27 -2.539 -0.66600001 168 126 78
-13.272 -2.536 -0.66299999 222 167 77
-13.274 -2.53 -0.66500002 237 201 149
-13.295 -2.51 -0.66799998 157 98 18
-13.298 -2.5 -0.66399997 117 99 85
-13.295 -2.516 -0.65899998 169 118 65
-13.314 -2.51 -0.65899998 154 90 16
-13.28 -2.533 -0.65899998 188 127 70
-13.323 -2.4649999 -0.63499999 146 92 46
-13.321 -2.4619999 -0.65100002 156 103 59
-13.315 -2.4779999 -0.65100002 84 36 0
-13.313 -2.4790001 -0.653 163 97 36
-13.325 -2.428 -0.648 136 101 69
-13.318 -2.392 -0.64999998 169 133 111
-13.322 -2.405 -0.65799999 199 113 40
-13.325 -2.4059999 -0.65600002 89 44 2
-13.315 -2.3900001 -0.65100002 252 213 108
-13.315 -2.3940001 -0.65600002 214 127 50
-13.326 -2.395 -0.64499998 128 102 89
-13.309 -2.3859999 -0.65100002 255 220 114
-13.302 -2.4849999 -0.65600002 87 56 25
-13.304 -2.5020001 -0.65499997 115 80 48
-13.306 -2.5039999 -0.653 159 127 102
-13.321 -2.4879999 -0.63800001 168 117 74
-13.307 -2.487 -0.64399999 105 82 40
-13.276 -2.48 -0.67400002 100 69 40
-13.346 -2.4979999 -0.62599999 210 148 91
-13.295 -2.3959999 -0.68300003 166 134 111
-13.308 -2.401 -0.66399997 114 92 55
-13.313 -2.404 -0.66299999 120 95 65
-13.303 -2.454 -0.66000003 129 88 66
-13.303 -2.4619999 -0.65700001 137 86 43
-13.304 -2.464 -0.65600002 129 96 45
-13.337 -2.4619999 -0.64099997 162 92 30
-13.355 -2.49 -0.634 100 48 0
-13.348 -2.4909999 -0.634 204 160 95
-13.356 -2.5009999 -0.64200002 174 104 35
-13.343 -2.487 -0.63300002 197 144 76
-13.362 -2.494 -0.64099997 103 51 0
-13.349 -2.4649999 -0.63499999 99 68 22
-13.349 -2.421 -0.64399999 150 107 72
-13.371 -2.4100001 -0.63499999 196 146 93
-13.365 -2.4119999 -0.63499999 124 81 36
-13.361 -2.447 -0.63599998 140 99 55
-13.361 -2.451 -0.63499999 178 133 92
-13.333 -2.4960001 -0.63599998 182 145 90
-13.261 -2.4289999 -0.68099999 184 142 82
-13.295 -2.3829999 -0.66799998 158 87 25
-13.299 -2.382 -0.66399997 80 57 23
-13.306 -2.4119999 -0.67400002 167 94 15
-13.297 -2.3970001 -0.67299998 121 95 60
-13.299 -2.3989999 -0.671 142 116 101
-13.305 -2.414 -0.667 235 166 73
-13.296 -2.427 -0.66799998 146 71 14
-13.301 -2.4360001 -0.66399997 150 129 84
-13.304 -2.428 -0.66600001 252 179 85
-13.295 -2.424 -0.68300003 195 154 110
-13.294 -2.431 -0.67900002 168 100 37
-13.287 -2.4089999 -0.68300003 182 106 30
-13.328 -2.402 -0.66100001 236 162 87
-13.32 -2.3829999 -0.65600002 158 126 85
-13.328 -2.392 -0.66100001 251 181 96
-13.353 -2.346 -0.64600003 210 139 57
-13.375 -2.358 -0.63499999 236 162 67
-13.372 -2.3770001 -0.64099997 234 170 73
-13.338 -2.3699999 -0.64300001 226 174 72
-13.347 -2.4000001 -0.639 155 55 0
-13.349 -2.3900001 -0.653 165 94 6
-13.352 -2.411 -0.64700001 174 112 51
-13.349 -2.402 -0.65399998 165 89 14
-13.316 -2.3889999 -0.66299999 132 51 0
-13.312 -2.3840001 -0.66000003 248 181 94
-13.291 -2.595 -0.667 203 127 39
-13.246 -2.55 -0.69199997 71 62 19
-13.256 -2.526 -0.69199997 178 107 53
-13.252 -2.585 -0.69099998 180 110 50
-13.246 -2.5810001 -0.69400001 110 67 24
-13.249 -2.5780001 -0.69300002 149 84 26
-13.246 -2.576 -0.69499999 106 78 54
-13.24 -2.5739999 -0.69800001 133 112 121
-13.227 -2.5699999 -0.69400001 102 59 16
-13.179 -2.523 -0.704 231 201 77
-13.087 -2.5539999 -0.74800003 163 125 86
-13.127 -2.5550001 -0.72399998 177 145 122
-13.135 -2.5650001 -0.71899998 196 164 126
-13.12 -2.585 -0.72799999 134 108 95
-13.154 -2.5450001 -0.70999998 157 110 64
-13.284 -2.575 -0.66900003 170 121 54
-13.295 -2.5710001 -0.648 98 65 20
-13.287 -2.493 -0.66799998 131 68 0
-13.197 -2.464 -0.70899999 183 143 91
-13.186 -2.46 -0.71499997 107 47 0
-13.187 -2.474 -0.708 236 155 63
-13.245 -2.4430001 -0.67699999 210 174 114
-13.251 -2.444 -0.67699999 221 152 59
-13.233 -2.4330001 -0.68599999 119 92 75
-13.158 -2.3629999 -0.72100002 142 119 101
-13.061 -2.329 -0.77700001 173 93 4
-13.08 -2.3139999 -0.77100003 151 119 94
-13.092 -2.3150001 -0.76300001 228 177 111
-13.088 -2.3139999 -0.76499999 224 146 63
-13.086 -2.3239999 -0.76499999 229 152 64
-13.043 -2.348 -0.77700001 164 120 57
-13.089 -2.454 -0.74599999 250 205 140
-13.073 -2.454 -0.755 150 79 25
-13.103 -2.2839999 -0.76499999 100 70 32
-13.121 -2.273 -0.75999999 224 165 95
-13.071 -2.326 -0.77100003 188 156 131
-13.071 -2.3199999 -0.77200001 162 84 1
-13.074 -2.3150001 -0.773 175 105 43
-13.124 -2.293 -0.74699998 240 197 128
-13.066 -2.23 -0.78799999 179 109 14
-13.065 -2.24 -0.78799999 174 107 20
-13.073 -2.224 -0.78600001 186 112 25
-13.087 -2.2309999 -0.77200001 116 88 74
-13.06 -2.237 -0.79000002 244 194 107
-13.042 -2.256 -0.79900002 233 168 64
-13.045 -2.1849999 -0.79799998 120 86 48
-13.045 -2.1860001 -0.79100001 189 147 89
-13.047 -2.178 -0.79100001 173 121 73
-13.046 -2.1700001 -0.79000002 217 173 112
-13.05 -2.151 -0.792 159 110 69
-13.032 -2.1559999 -0.79699999 226 145 64
-13.025 -2.352 -0.792 228 148 61
-13.029 -2.352 -0.79100001 208 130 48
-12.999 -2.3859999 -0.81 106 75 31
-12.875 -2.2980001 -0.85900003 171 135 83
-12.895 -2.2820001 -0.85299999 203 118 37
-12.861 -2.2880001 -0.85500002 196 148 99
-12.878 -2.2939999 -0.85699999 197 119 34
-13.243 -2.52 -0.69700003 110 67 24
-13.239 -2.5220001 -0.70099998 185 129 54
-13.24 -2.5150001 -0.69599998 164 102 27
-13.238 -2.51 -0.69599998 142 78 4
-13.229 -2.5150001 -0.69999999 139 71 10
-13.238 -2.53 -0.70499998 171 106 24
-13.224 -2.52 -0.699 114 58 0
-13.219 -2.53 -0.704 156 133 115
-13.218 -2.5109999 -0.70099998 205 137 52
-13.208 -2.5050001 -0.70099998 159 100 34
-13.212 -2.5020001 -0.69999999 170 96 11
-13.217 -2.4990001 -0.70099998 172 96 8
-13.235 -2.4560001 -0.68599999 119 92 75
-13.232 -2.47 -0.69300002 170 118 35
-13.168 -2.4749999 -0.70899999 196 155 93
-13.163 -2.4719999 -0.71100003 217 150 71
-13.16 -2.46 -0.71700001 191 140 85
-13.183 -2.493 -0.70999998 225 149 53
-13.192 -2.4849999 -0.699 99 68 22
-13.262 -2.586 -0.67400002 172 121 76
-13.27 -2.5669999 -0.69 126 96 58
-13.262 -2.5769999 -0.67500001 144 106 67
-13.252 -2.5910001 -0.69099998 89 61 22
-13.24 -2.596 -0.685 171 101 41
-13.234 -2.585 -0.68599999 167 137 109
-13.259 -2.5969999 -0.671 148 122 89
-13.252 -2.586 -0.67699999 174 106 57
-13.259 -2.595 -0.671 148 109 80
-13.194 -2.5450001 -0.69999999 149 128 85
-13.202 -2.5680001 -0.699 133 99 51
-13.247 -2.5079999 -0.68900001 235 169 95
-13.264 -2.5079999 -0.68199998 201 161 99
-13.238 -2.4990001 -0.68300003 209 169 100
-13.22 -2.4920001 -0.69 118 104 57
-13.247 -2.4920001 -0.68199998 151 122 92
-13.248 -2.484 -0.69099998 191 127 55
-13.244 -2.47 -0.69199997 203 124 32
-13.27 -2.4990001 -0.67400002 117 83 48
-13.271 -2.507 -0.67500001 165 97 24
-13.276 -2.6029999 -0.66000003 231 140 67
-13.323 -2.5050001 -0.64099997 203 100 23
-13.293 -2.4949999 -0.667 127 59 0
-13.311 -2.474 -0.65700001 193 145 96
-13.337 -2.4809999 -0.64099997 65 47 27
-13.304 -2.4319999 -0.671 137 94 49
-13.306 -2.431 -0.66900003 165 106 46
-13.302 -2.434 -0.67500001 150 109 77
-13.328 -2.4319999 -0.65499997 157 129 105
-13.33 -2.4389999 -0.653 171 100 44
-13.325 -2.4400001 -0.65700001 92 55 13
-13.33 -2.448 -0.65100002 136 76 24
-13.324 -2.4189999 -0.662 142 104 59
-13.328 -2.4189999 -0.65899998 146 83 16
-13.324 -2.4230001 -0.66000003 131 57 0
-13.309 -2.444 -0.66900003 192 119 42
-13.311 -2.427 -0.65799999 175 109 59
-13.307 -2.428 -0.66399997 76 60 44
-13.32 -2.4330001 -0.66000003 173 101 27
-13.317 -2.4319999 -0.66299999 177 100 28
-13.312 -2.457 -0.662 192 118 47
-13.286 -2.5350001 -0.65499997 248 207 145
-13.223 -2.7090001 -0.67699999 173 141 82
-13.229 -2.7119999 -0.67400002 250 199 82
-13.245 -2.6689999 -0.66000003 255 185 97
-13.262 -2.6670001 -0.65700001 250 203 123
-13.152 -2.6849999 -0.70200002 133 98 66
-13.151 -2.681 -0.70499998 190 149 83
-13.179 -2.697 -0.69 145 111 84
-13.325 -2.0799999 -0.67199999 168 144 98
-13.346 -2.076 -0.66500002 211 145 71
-13.347 -2.148 -0.66500002 250 171 68
-13.349 -2.1359999 -0.65799999 213 120 43
-13.344 -2.059 -0.676 224 186 124
-13.282 -2.161 -0.68699998 197 138 72
-13.273 -2.1659999 -0.68900001 202 118 46
-13.276 -2.175 -0.68699998 174 115 49
-13.292 -2.164 -0.69 245 160 69
-13.298 -2.1670001 -0.68599999 185 117 36
-13.314 -2.2019999 -0.67199999 255 185 83
-13.211 -2.187 -0.71499997 210 161 105
-13.221 -2.161 -0.71600002 212 140 68
-13.285 -1.993 -0.70200002 230 162 79
-13.277 -1.999 -0.70099998 223 184 129
-13.255 -1.988 -0.72799999 90 45 4
-13.249 -1.9910001 -0.73100001 59 36 2
-13.251 -1.988 -0.72899997 139 71 10
-13.345 -1.995 -0.67900002 178 126 69
-13.328 -2.029 -0.68099999 140 113 84
-13.323 -2.0350001 -0.68199998 225 165 105
-13.351 -2.0179999 -0.67000002 103 84 67
-13.336 -2.0109999 -0.67000002 206 166 97
-13.339 -2 -0.66799998 188 146 121
-13.369 -1.995 -0.66000003 233 172 107
-13.364 -2.0039999 -0.66000003 237 176 109
-13.373 -1.9960001 -0.65700001 108 59 1
-13.292 -2.0439999 -0.68599999 154 134 99
-13.298 -1.995 -0.685 165 140 109
-13.294 -2.023 -0.70300001 55 39 26
-13.292 -2.0369999 -0.70599997 147 119 98
-13.298 -2.039 -0.69400001 172 142 106
-13.3 -1.998 -0.69499999 211 165 103
-13.269 -2.0090001 -0.71499997 68 45 11
-13.278 -1.904 -0.71200001 223 139 49
-13.231 -1.872 -0.73500001 174 133 79
-13.24 -1.872 -0.72299999 243 166 74
-13.247 -1.882 -0.713 122 101 70
-13.258 -1.893 -0.70700002 174 107 55
-13.248 -1.903 -0.722 210 177 126
-13.24 -1.902 -0.71700001 172 141 97
-13.255 -1.904 -0.70999998 158 79 4
-13.195 -2.02 -0.73699999 55 33 0
-13.198 -2.0090001 -0.73900002 154 76 27
-13.217 -2.0039999 -0.74199998 102 64 28
-13.209 -2.0039999 -0.74299997 62 46 47
-13.215 -2.0109999 -0.74199998 82 48 13
-13.137 -2.033 -0.75 98 58 0
-13.122 -2.0109999 -0.75999999 255 223 140
-13.121 -2.0139999 -0.76099998 242 177 75
-13.288 -2.0929999 -0.69 150 133 89
-13.319 -2.0350001 -0.68400002 155 124 96
-13.323 -2.049 -0.68300003 213 154 94
-13.298 -2.0539999 -0.69400001 185 155 119
-13.281 -2.046 -0.72100002 76 48 26
-13.183 -1.9859999 -0.74299997 196 162 101
-13.172 -1.987 -0.74699998 122 108 97
-13.18 -1.993 -0.74299997 206 171 113
-13.19 -2.0020001 -0.74000001 48 20 8
-13.193 -1.997 -0.741 136 98 62
-13.279 -2.073 -0.69700003 232 188 127
-13.308 -2.1199999 -0.68599999 161 110 55
-13.306 -2.1170001 -0.68800002 164 125 96
-13.312 -2.1059999 -0.68900001 216 172 135
-13.31 -2.1010001 -0.69099998 238 159 64
-13.317 -2.0940001 -0.69099998 229 152 64
-13.218 -2.052 -0.73400003 191 131 71
-13.226 -2.062 -0.736 95 41 0
-13.238 -2.0680001 -0.72100002 87 70 26
-13.279 -2.0539999 -0.71899998 122 92 64
-13.253 -2.0610001 -0.70899999 234 199 169
-13.253 -2.0639999 -0.70899999 82 56 33
-13.244 -2.1029999 -0.713 157 131 82
-13.243 -2.099 -0.71499997 138 116 67
-13.278 -2.1170001 -0.69700003 183 140 105
-13.306 -2.086 -0.68599999 197 133 72
-13.227 -2.1340001 -0.72100002 190 172 110
-13.232 -2.1340001 -0.72100002 191 156 100
-13.23 -2.142 -0.72100002 166 131 75
-13.233 -2.1459999 -0.70899999 172 132 96
-13.229 -2.148 -0.72299999 162 115 71
-13.254 -2.03 -0.73500001 50 18 0
-13.188 -2.0179999 -0.74699998 110 74 26
-13.166 -2.03 -0.75099999 231 173 73
-13.245 -2.1670001 -0.70899999 200 131 64
-13.248 -2.161 -0.70700002 166 146 139
-13.13 -2.2720001 -0.74800003 229 167 80
-13.135 -2.276 -0.745 223 147 89
-13.134 -2.2650001 -0.74699998 214 170 109
-13.167 -2.2509999 -0.72399998 194 156 133
-13.166 -2.2620001 -0.71899998 106 76 42
-13.148 -2.28 -0.72500002 100 77 63
-13.175 -2.286 -0.713 148 108 82
-13.162 -2.276 -0.71899998 203 178 148
-13.174 -2.2620001 -0.71600002 253 177 93
-13.172 -2.2739999 -0.71600002 255 184 90
-13.191 -2.257 -0.71200001 148 127 100
-13.179 -2.247 -0.71899998 146 129 83
-13.141 -2.2149999 -0.74400002 154 127 82
-13.152 -2.2049999 -0.74699998 248 167 85
-13.155 -2.2060001 -0.74299997 198 159 104
-13.139 -2.2320001 -0.75599998 201 123 41
-13.139 -2.243 -0.74900001 212 150 75
-13.144 -2.2349999 -0.74900001 202 120 44
-13.167 -2.2309999 -0.73699999 156 81 0
-13.265 -2.171 -0.69999999 177 140 87
-13.261 -2.1670001 -0.70200002 152 133 119
-13.274 -2.2 -0.68900001 197 143 83
-13.26 -2.2030001 -0.69099998 81 39 1
-13.26 -2.201 -0.69099998 148 124 120
-13.312 -2.1919999 -0.67400002 137 92 50
-13.31 -2.198 -0.67500001 179 118 63
-13.304 -2.197 -0.67699999 215 167 93
-13.323 -2.243 -0.66399997 217 180 128
-13.271 -2.3280001 -0.68699998 147 77 7
-13.268 -2.332 -0.69099998 191 147 76
-13.255 -2.332 -0.69700003 137 102 70
-13.299 -2.1989999 -0.68099999 172 122 63
-13.281 -2.2490001 -0.68000001 161 117 54
-13.259 -2.2579999 -0.68699998 254 179 86
-13.283 -2.2349999 -0.67699999 202 138 74
-13.303 -2.233 -0.67299998 149 97 39
-13.305 -2.2290001 -0.67299998 176 97 28
-13.259 -2.2179999 -0.685 166 110 51
-13.258 -2.2309999 -0.685 189 133 76
-13.247 -2.25 -0.69599998 202 126 38
-13.238 -2.2320001 -0.68900001 227 168 110
-13.244 -2.2349999 -0.69199997 184 112 40
-13.257 -2.2490001 -0.68699998 248 173 82
-13.256 -2.1900001 -0.69700003 213 143 71
-13.249 -2.201 -0.68699998 229 185 114
-13.241 -2.257 -0.68900001 114 102 50
-13.25 -2.2639999 -0.68000001 121 98 67
-13.161 -2.1919999 -0.73299998 237 196 132
-13.175 -2.1989999 -0.722 155 111 76
-13.167 -2.1889999 -0.73000002 193 116 44
-13.171 -2.204 -0.73299998 169 139 111
-13.192 -2.168 -0.727 255 204 118
-13.205 -2.2160001 -0.71899998 128 104 66
-13.208 -2.2679999 -0.70899999 185 112 44
-13.192 -2.21 -0.722 148 134 123
-13.187 -2.223 -0.71799999 155 114 52
-13.222 -2.233 -0.704 246 169 79
-13.134 -2.253 -0.74000001 126 105 62
-13.148 -2.224 -0.73900002 106 78 56
-13.121 -2.2539999 -0.75 125 111 66
-13.107 -2.2539999 -0.759 157 131 106
-13.128 -2.2379999 -0.75 140 126 79
-13.119 -2.2249999 -0.75800002 191 118 41
-13.129 -2.2460001 -0.75700003 137 68 0
-13.131 -2.2650001 -0.74900001 244 186 104
-13.183 -2.2 -0.71899998 165 125 66
-13.176 -2.175 -0.73100001 151 128 112
-13.174 -2.1800001 -0.727 208 157 100
-13.161 -2.1630001 -0.73299998 198 137 72
-13.181 -2.1700001 -0.73000002 215 142 39
-13.194 -2.118 -0.72600001 152 142 133
-13.167 -2.1110001 -0.73299998 230 191 112
-13.195 -2.0940001 -0.72899997 155 129 140
-13.204 -2.138 -0.72899997 219 145 48
-13.147 -2.122 -0.74800003 252 200 82
-13.227 -2.1059999 -0.72100002 187 148 83
-13.244 -2.105 -0.722 171 130 68
-13.22 -2.1010001 -0.72799999 156 128 106
-13.223 -2.098 -0.72899997 172 126 76
-13.165 -2.125 -0.73299998 185 146 69
-13.244 -2.0840001 -0.71200001 154 99 42
-13.194 -2.2309999 -0.713 143 121 74
-13.19 -2.23 -0.71700001 212 168 107
-13.204 -2.2420001 -0.71899998 144 122 85
-13.146 -2.2980001 -0.73299998 242 196 119
-13.199 -2.257 -0.70499998 167 134 89
-13.236 -2.253 -0.69800001 223 154 99
-13.189 -2.365 -0.70899999 255 187 88
-13.247 -2.28 -0.69599998 169 133 97
-13.264 -2.2980001 -0.68699998 216 143 51
-13.27 -2.293 -0.68000001 223 179 116
-13.259 -2.2969999 -0.68699998 226 155 67
-13.251 -2.3010001 -0.69 241 192 123
-13.187 -2.3039999 -0.70499998 116 94 71
-13.158 -2.289 -0.71899998 248 207 127
-13.176 -2.3039999 -0.72000003 228 185 106
-13.176 -2.3069999 -0.71899998 255 194 79
-13.155 -2.3 -0.72799999 243 177 80
-13.067 -2.283 -0.77899998 117 95 71
-13.067 -2.247 -0.77899998 178 94 30
-13.138 -2.2609999 -0.73500001 138 110 62
-13.346 -2.3940001 -0.64200002 91 62 28
-13.346 -2.3859999 -0.64200002 97 65 14
-13.331 -2.3729999 -0.64600003 159 128 64
-13.314 -2.355 -0.64300001 102 77 47
-13.248 -2.325 -0.68599999 161 95 8
-13.282 -2.2969999 -0.67299998 150 122 85
-13.277 -2.2869999 -0.67400002 243 165 80
-13.287 -2.3570001 -0.65700001 80 60 23
-13.296 -2.3570001 -0.65499997 255 217 159
-13.298 -2.345 -0.65899998 197 132 42
-13.333 -2.3410001 -0.65200001 188 119 26
-13.332 -2.332 -0.65200001 181 114 23
-13.305 -2.2090001 -0.676 207 139 66
-13.306 -2.2119999 -0.67500001 151 95 38
-13.345 -2.2490001 -0.65600002 247 160 63
-13.346 -2.26 -0.653 187 135 62
-13.355 -2.2390001 -0.64700001 181 135 76
-13.332 -2.2869999 -0.65700001 147 81 0
-13.33 -2.279 -0.65700001 113 61 1
-13.342 -2.289 -0.65399998 235 151 78
-13.336 -2.2880001 -0.648 165 131 68
-13.246 -2.2750001 -0.68199998 201 157 92
-13.237 -2.2679999 -0.68599999 121 89 74
-13.259 -2.2609999 -0.68699998 251 176 85
-13.197 -2.4319999 -0.70200002 228 159 92
-13.18 -2.4449999 -0.70599997 179 138 84
-13.196 -2.4360001 -0.69599998 227 182 115
-13.204 -2.454 -0.69400001 239 182 79
-13.2 -2.4519999 -0.69700003 172 100 28
-13.201 -2.4579999 -0.69700003 144 92 45
-13.169 -2.4749999 -0.70899999 205 157 108
-13.176 -2.474 -0.70700002 139 112 82
-13.178 -2.4849999 -0.704 156 140 91
-13.216 -2.4660001 -0.69400001 151 94 39
-13.218 -2.4679999 -0.69400001 144 101 48
-13.218 -2.473 -0.69400001 243 164 72
-13.219 -2.4200001 -0.69700003 128 94 59
-13.204 -2.4230001 -0.69999999 222 144 59
-13.215 -2.4289999 -0.68900001 177 144 91
-13.218 -2.4059999 -0.69199997 241 178 83
-13.201 -2.421 -0.69499999 218 164 104
-13.238 -2.4489999 -0.67699999 246 206 145
-13.235 -2.4449999 -0.67900002 175 153 106
-13.24 -2.421 -0.68400002 182 141 85
-13.224 -2.425 -0.685 167 140 93
-13.058 -2.3840001 -0.77600002 191 117 32
-13.057 -2.3789999 -0.77600002 177 111 24
-13.056 -2.4000001 -0.77399999 186 154 103
-13.052 -2.369 -0.78100002 181 99 17
-13.054 -2.3469999 -0.78200001 209 129 44
-13.049 -2.359 -0.78500003 213 133 46
-13.045 -2.3629999 -0.77499998 158 133 93
-13.065 -2.3570001 -0.77399999 139 103 71
-13.063 -2.358 -0.77600002 204 124 37
-13.065 -2.348 -0.77700001 233 153 66
-13.042 -2.348 -0.78500003 135 112 120
-13.067 -2.3659999 -0.77100003 226 142 56
-13.032 -2.385 -0.79000002 235 156 79
-13.026 -2.391 -0.792 233 156 76
-13.028 -2.3859999 -0.792 185 118 48
-13.067 -2.378 -0.77100003 211 138 59
-13.05 -2.385 -0.77200001 88 78 66
-13.044 -2.381 -0.77499998 171 146 106
-13.065 -2.391 -0.76800001 92 49 17
-12.987 -2.4360001 -0.79299998 218 173 114
-12.994 -2.444 -0.79100001 163 140 90
-13.077 -2.3729999 -0.755 217 145 73
-13.079 -2.3729999 -0.75300002 198 160 98
-13.242 -2.335 -0.699 240 178 69
-13.237 -2.3299999 -0.699 253 191 82
-13.22 -2.3629999 -0.69700003 215 151 63
-13.245 -2.3629999 -0.69499999 173 119 55
-13.24 -2.3629999 -0.69599998 114 94 96
-13.237 -2.375 -0.69599998 122 102 104
-13.214 -2.3529999 -0.70200002 208 143 49
-13.216 -2.3469999 -0.69599998 219 178 116
-13.256 -2.3710001 -0.68599999 106 92 79
-13.186 -2.375 -0.70300001 185 137 71
-13.112 -2.4849999 -0.72899997 220 169 106
-13.147 -2.487 -0.72399998 233 150 56
-13.159 -2.441 -0.72799999 171 95 11
-13.148 -2.4619999 -0.727 237 163 68
-13.201 -2.418 -0.70099998 255 196 93
-13.223 -2.312 -0.70300001 255 187 91
-13.22 -2.3180001 -0.70300001 204 150 86
-13.222 -2.3280001 -0.70300001 187 136 70
-13.216 -2.3039999 -0.70499998 163 116 46
-13.214 -2.3010001 -0.704 255 184 92
-13.234 -2.2709999 -0.69599998 168 141 120
-13.24 -2.2720001 -0.69499999 193 116 26
-13.175 -2.27 -0.72399998 160 134 107
-13.149 -2.243 -0.73400003 178 134 73
-13.14 -2.2379999 -0.741 148 126 85
-13.168 -2.4760001 -0.71600002 233 149 59
-13.141 -2.4809999 -0.71899998 193 142 85
-13.125 -2.477 -0.72600001 149 126 95
-13.121 -2.4890001 -0.72500002 90 60 34
-13.125 -2.4820001 -0.727 189 162 115
-13.135 -2.49 -0.71899998 204 155 96
-13.144 -2.507 -0.72399998 249 178 74
-13.149 -2.497 -0.72399998 253 175 75
-13.134 -2.5039999 -0.72000003 197 148 89
-13.188 -2.5079999 -0.70099998 255 217 106
-13.2 -2.497 -0.69400001 99 73 40
-13.214 -2.49 -0.69300002 243 164 69
-13.21 -2.493 -0.69400001 167 130 85
-13.219 -2.5009999 -0.69199997 120 93 63
-13.219 -2.3729999 -0.699 226 160 74
-13.226 -2.372 -0.69499999 255 217 109
-13.284 -2.336 -0.67799997 194 128 52
-13.236 -2.7969999 -0.66900003 244 193 114
-13.213 -2.8150001 -0.67900002 151 126 106
-13.213 -2.8269999 -0.67900002 253 196 89
-13.223 -2.8199999 -0.67400002 247 178 75
-13.219 -2.812 -0.67500001 215 154 47
-13.208 -2.806 -0.68300003 226 179 101
-13.209 -2.803 -0.68099999 205 150 86
-13.214 -2.7980001 -0.67900002 226 155 49
-13.224 -2.8080001 -0.67400002 201 130 26
-13.249 -2.8150001 -0.66500002 255 183 80
-13.229 -2.813 -0.67199999 207 152 88
-13.221 -2.802 -0.67500001 243 176 72
-13.228 -2.802 -0.67000002 179 117 14
-13.23 -2.809 -0.671 221 178 99
-13.236 -2.8050001 -0.65899998 145 129 114
-13.238 -2.8110001 -0.65899998 228 167 102
-13.25 -2.8050001 -0.65600002 209 167 95
-13.219 -2.8269999 -0.67500001 255 197 113
-13.267 -2.767 -0.65499997 243 156 59
-13.271 -2.773 -0.65700001 120 77 32
-13.271 -2.7639999 -0.64700001 137 78 22
-13.261 -2.8010001 -0.648 204 143 76
-13.255 -2.7980001 -0.65399998 61 31 7
-13.228 -2.859 -0.66000003 165 148 94
-13.233 -2.8659999 -0.662 251 199 89
-13.252 -2.8380001 -0.66500002 244 172 64
-13.246 -2.8510001 -0.66399997 235 158 54
-13.237 -2.852 -0.66799998 198 106 43
-13.234 -2.8440001 -0.67000002 232 183 106
-13.238 -2.8759999 -0.67000002 193 144 68
-13.241 -2.869 -0.65799999 255 225 109
-13.248 -2.8659999 -0.65600002 250 194 75
-13.227 -2.7809999 -0.66399997 198 147 81
-13.225 -2.7820001 -0.66500002 232 132 54
-13.251 -2.7839999 -0.662 223 153 55
-13.245 -2.7820001 -0.66500002 220 141 38
-13.224 -2.77 -0.67299998 168 138 136
-13.166 -2.776 -0.69 156 139 85
-13.219 -2.7869999 -0.66500002 145 118 88
-13.226 -2.7690001 -0.66500002 161 117 52
-13.238 -2.7290001 -0.67000002 248 200 126
-13.24 -2.72 -0.671 224 135 51
-13.278 -2.723 -0.64499998 221 106 25
-13.248 -2.75 -0.662 255 183 94
-13.255 -2.74 -0.662 255 219 92
-13.262 -2.776 -0.64899999 87 50 8
-13.277 -2.7780001 -0.64300001 210 123 44
-13.254 -2.78 -0.66100001 136 85 20
-13.255 -2.7850001 -0.66000003 211 145 69
-13.269 -2.7490001 -0.65399998 239 180 60
-13.277 -2.786 -0.65100002 237 165 91
-13.272 -2.812 -0.65499997 234 154 57
-13.265 -2.7880001 -0.64700001 172 122 85
-13.211 -2.9820001 -0.68300003 251 167 77
-13.203 -2.98 -0.68699998 204 174 172
-13.214 -2.9690001 -0.68300003 238 157 65
-13.223 -2.9649999 -0.67900002 249 165 69
-13.212 -2.9679999 -0.67000002 153 105 43
-13.23 -2.9530001 -0.66799998 215 120 26
-13.259 -2.8710001 -0.64899999 165 104 49
-13.144 -2.914 -0.70300001 164 118 82
-13.158 -2.9059999 -0.69499999 201 157 94
-13.164 -2.9119999 -0.70300001 231 154 62
-13.182 -2.8499999 -0.68300003 214 170 105
-13.214 -2.829 -0.66900003 206 141 75
-13.224 -2.8299999 -0.67400002 240 171 67
-13.217 -2.832 -0.67500001 231 163 56
-13.249 -2.846 -0.662 249 175 66
-13.245 -2.8499999 -0.66399997 197 137 77
-13.242 -2.839 -0.66500002 201 138 32
-13.242 -2.832 -0.667 191 158 104
-13.203 -2.918 -0.69 66 43 25
-13.205 -2.921 -0.69 130 69 14
-13.207 -2.921 -0.68900001 159 119 84
-13.221 -2.898 -0.67699999 245 181 91
-13.228 -2.9059999 -0.68000001 192 109 17
-13.215 -2.8640001 -0.66799998 187 138 71
-13.222 -2.8299999 -0.66500002 197 147 76
-13.179 -2.872 -0.69199997 188 137 72
-13.179 -2.8759999 -0.69099998 223 163 93
-13.193 -2.895 -0.68900001 166 106 52
-13.188 -2.8929999 -0.69099998 171 122 90
-13.184 -2.8789999 -0.69 148 102 68
-13.179 -2.8929999 -0.69300002 207 160 92
-13.199 -2.882 -0.68900001 62 43 28
-13.199 -2.8759999 -0.68699998 132 93 62
-13.227 -2.9100001 -0.66600001 139 68 4
-13.195 -2.895 -0.68000001 138 104 77
-13.184 -2.9000001 -0.68599999 156 110 50
-13.194 -2.8970001 -0.68900001 123 104 89
-13.213 -2.9170001 -0.68699998 160 95 3
-13.189 -2.9089999 -0.68599999 194 150 87
-13.195 -2.9130001 -0.685 248 189 85
-13.131 -3.006 -0.722 228 150 65
-13.122 -2.993 -0.73299998 103 81 60
-13.114 -2.997 -0.73699999 121 56 0
-13.11 -2.971 -0.72299999 105 90 47
-13.122 -2.9779999 -0.72799999 201 152 85
-13.097 -2.9790001 -0.74299997 144 96 32
-13.166 -2.977 -0.70300001 244 191 125
-13.114 -3.0179999 -0.74199998 146 77 12
-13.168 -2.964 -0.69400001 131 78 38
-13.163 -2.9660001 -0.69800001 211 150 93
-13.157 -2.964 -0.70999998 111 85 68
-13.145 -2.9170001 -0.71200001 155 101 41
-13.15 -2.9419999 -0.70099998 173 129 64
-13.144 -2.9330001 -0.704 161 116 77
-13.166 -2.9749999 -0.69400001 151 104 60
-13.159 -2.9590001 -0.70200002 171 127 64
-13.075 -2.835 -0.72799999 158 131 84
-13.105 -2.849 -0.73299998 213 137 51
-13.097 -2.846 -0.73400003 249 174 93
-13.115 -2.8280001 -0.71200001 188 145 111
-13.138 -2.8599999 -0.70700002 146 115 87
-13.138 -2.8800001 -0.70899999 207 164 96
-13.111 -2.902 -0.71499997 204 164 95
-13.117 -2.881 -0.70899999 90 63 44
-13.077 -2.9030001 -0.72899997 116 55 11
-13.068 -2.9059999 -0.73799998 226 183 89
-13.072 -2.8959999 -0.736 228 174 110
-13.087 -2.9489999 -0.73000002 149 126 84
-13.11 -2.9549999 -0.72899997 107 84 68
-13.12 -2.9330001 -0.72100002 248 209 168
-13.118 -2.9300001 -0.722 255 182 87
-13.117 -2.9260001 -0.72399998 158 106 48
-13.121 -2.915 -0.72100002 181 127 63
-13.094 -2.882 -0.73500001 235 159 83
-13.1 -2.8889999 -0.72899997 242 185 118
-13.141 -2.921 -0.704 188 138 101
-13.141 -2.947 -0.71100003 237 166 78
-13.098 -2.964 -0.73699999 192 159 128
-13.101 -2.977 -0.73699999 209 133 58
-13.104 -2.98 -0.736 125 78 34
-13.095 -2.987 -0.74599999 187 117 47
-13.113 -2.859 -0.72399998 224 180 105
-13.107 -2.855 -0.73100001 240 164 68
-13.13 -2.9030001 -0.71499997 198 130 33
-13.113 -2.9100001 -0.713 194 154 92
-13.114 -2.9200001 -0.71600002 205 154 91
-13.041 -2.7850001 -0.75099999 243 205 78
-13.077 -2.7750001 -0.73500001 248 202 82
-13.081 -2.793 -0.736 254 201 87
-13.006 -2.7420001 -0.77100003 250 205 124
-13.008 -2.744 -0.76999998 254 205 126
-13.012 -2.734 -0.76700002 233 184 63
-13.001 -2.753 -0.77499998 243 206 117
-13.006 -2.7579999 -0.77100003 255 217 132
-13.101 -2.902 -0.72899997 215 158 89
-13.007 -2.8659999 -0.76200002 127 96 76
-13.028 -2.902 -0.75700003 235 184 119
-13.028 -2.8710001 -0.755 168 126 52
-13.035 -2.8659999 -0.75599998 155 118 48
-13.014 -2.875 -0.76999998 253 186 82
-13.027 -2.8829999 -0.764 213 170 92
-13.023 -2.865 -0.764 156 131 135
-13.018 -2.865 -0.76599997 117 81 45
-13.096 -2.826 -0.73299998 199 125 40
-13.093 -2.8399999 -0.73199999 240 170 75
-13.06 -2.812 -0.73799998 247 202 83
-13.057 -2.822 -0.73500001 159 149 90
-13.07 -2.812 -0.73400003 223 178 113
-13.06 -2.779 -0.73400003 255 217 135
-13.059 -2.7820001 -0.73299998 199 158 104
-13.059 -2.7869999 -0.73500001 196 153 119
-13.065 -2.7880001 -0.73199999 249 209 139
-13.049 -2.849 -0.745 179 136 68
-13.051 -2.8039999 -0.74900001 212 153 37
-13.043 -2.806 -0.75099999 187 154 83
-13.046 -2.848 -0.75800002 159 107 0
-13.049 -2.8440001 -0.755 186 133 65
-13.035 -2.8599999 -0.75999999 255 188 87
-13.059 -2.862 -0.75300002 221 148 56
-13.082 -2.865 -0.74199998 194 112 28
-13.082 -2.8729999 -0.741 154 120 83
-13.088 -2.8699999 -0.736 212 128 38
-13.064 -2.862 -0.75199997 174 105 14
-13.061 -2.8559999 -0.75099999 202 129 35
-13.067 -2.846 -0.74900001 201 133 50
-13.068 -2.8559999 -0.74699998 189 115 26
-13.078 -2.842 -0.745 250 178 78
-13.061 -2.835 -0.75 153 118 90
-13.027 -2.832 -0.75099999 120 108 58
-13.018 -2.806 -0.76800001 255 234 97
-13.027 -2.806 -0.76300001 253 225 141
-13.022 -2.8 -0.76099998 162 119 77
-12.969 -2.8280001 -0.79000002 230 191 114
-13.006 -2.816 -0.77100003 252 206 121
-12.998 -2.835 -0.77600002 247 208 77
-12.995 -2.849 -0.76899999 111 89 52
-13.024 -2.8210001 -0.76300001 238 207 124
-13.013 -2.8150001 -0.76800001 255 231 97
-13.031 -2.8940001 -0.75599998 193 147 70
-13.045 -2.8900001 -0.759 216 169 99
-13.046 -2.8929999 -0.76099998 198 119 24
-13.039 -2.8900001 -0.75999999 175 96 40
-13.056 -2.8870001 -0.74199998 233 194 127
-13.055 -2.895 -0.745 221 182 143
-13.066 -2.8870001 -0.741 223 182 103
-13.075 -2.8729999 -0.74699998 217 158 90
-13.072 -2.8859999 -0.736 210 166 95
-13.084 -2.898 -0.727 194 155 90
-13.124 -2.9879999 -0.71399999 109 81 42
-13.094 -2.957 -0.72799999 147 120 103
-13.077 -2.9200001 -0.74299997 220 177 109
-13.097 -2.924 -0.72600001 223 179 114
-13.318 -2.6689999 -0.63999999 249 178 70
-13.315 -2.668 -0.64499998 167 147 94
-13.285 -2.675 -0.64200002 218 148 88
-13.313 -2.675 -0.64499998 255 203 117
-13.298 -2.6849999 -0.648 152 71 0
-13.3 -2.6830001 -0.64300001 234 178 95
-13.253 -2.7079999 -0.65899998 181 160 105
-13.249 -2.707 -0.662 255 210 132
-13.237 -2.711 -0.66399997 223 172 89
-13.277 -2.7060001 -0.65499997 244 166 65
-13.253 -2.675 -0.65399998 173 97 39
-13.236 -2.7390001 -0.67400002 151 103 55
-13.295 -2.6589999 -0.65799999 232 168 104
-13.309 -2.6559999 -0.65600002 196 153 121
-13.241 -2.691 -0.66299999 251 172 80
-13.257 -2.7249999 -0.66299999 249 203 81
-13.232 -2.7130001 -0.67299998 238 186 110
-13.238 -2.7049999 -0.671 184 145 80
-13.251 -2.73 -0.65899998 212 179 125
-13.28 -2.72 -0.65499997 255 220 136
-13.243 -2.648 -0.67199999 232 158 73
-13.205 -2.6400001 -0.69400001 115 98 82
-13.249 -2.641 -0.671 204 168 134
-13.237 -2.625 -0.685 127 77 28
-13.228 -2.6170001 -0.685 107 58 18
-13.239 -2.6270001 -0.68199998 166 125 63
-13.308 -2.671 -0.64899999 166 118 54
-13.308 -2.6659999 -0.64899999 226 142 46
-13.298 -2.645 -0.65700001 214 133 42
-13.278 -2.6129999 -0.67299998 159 95 33
-13.23 -2.648 -0.68300003 209 141 68
-13.242 -2.6459999 -0.67400002 219 171 105
-13.231 -2.658 -0.67900002 249 177 79
-13.232 -2.664 -0.676 182 115 34
-13.226 -2.6659999 -0.671 156 120 88
-13.226 -2.6559999 -0.68300003 199 123 37
-13.209 -2.7590001 -0.68199998 255 209 133
-13.388 -2.4260001 -0.61299998 222 145 73
-13.373 -2.424 -0.61400002 189 136 102
-13.404 -2.427 -0.61799997 178 124 77
-12.953 -3.01 -0.80500001 164 124 75
-12.955 -3.0079999 -0.80000001 194 142 105
-12.939 -3.0079999 -0.80800003 115 54 0
-12.983 -3.003 -0.80299997 66 44 30
-12.997 -3.0120001 -0.81099999 116 49 6
-12.976 -3.01 -0.80500001 103 65 16
-12.987 -2.9960001 -0.79400003 109 65 36
-13.001 -2.9790001 -0.80299997 230 163 82
-12.93 -3.0150001 -0.80800003 222 169 99
-12.938 -2.9990001 -0.80800003 116 54 0
-12.948 -3.0020001 -0.80400002 137 79 6
-12.933 -3.0009999 -0.80599999 130 74 17
-12.935 -2.9349999 -0.81 182 154 115
-12.975 -2.96 -0.79699999 129 78 23
-12.965 -2.96 -0.801 253 188 96
-13.062 -3.029 -0.773 221 173 109
-13.061 -3.0250001 -0.77100003 138 77 12
-13.064 -3.0420001 -0.78399998 110 54 3
-13.049 -3.029 -0.76999998 251 210 122
-13.047 -3.0250001 -0.76800001 255 210 132
-13.029 -2.9990001 -0.79500002 163 96 26
-12.918 -2.9990001 -0.80699998 255 197 115
-12.923 -2.974 -0.80400002 207 114 21
-12.917 -2.9860001 -0.80400002 216 119 24
-12.917 -2.9690001 -0.80800003 176 117 77
-12.929 -2.964 -0.80400002 179 88 0
-12.923 -2.957 -0.801 69 50 35
-12.916 -2.9619999 -0.80599999 189 159 125
-12.876 -2.99 -0.833 206 136 87
-12.886 -3.0020001 -0.82599998 220 161 91
-12.865 -2.9990001 -0.83200002 214 171 136
-12.949 -3.04 -0.88099998 85 32 0
-12.954 -3.039 -0.89700001 96 41 11
-12.951 -3.04 -0.89099997 139 86 54
-12.956 -3.0220001 -0.898 52 14 1
-13.065 -2.9360001 -0.74599999 243 174 71
-13.077 -2.9100001 -0.745 253 186 82
-13.068 -2.905 -0.74599999 191 141 72
-13.088 -2.9000001 -0.736 242 166 68
-13.058 -2.967 -0.75300002 224 182 122
-13.064 -2.964 -0.75700003 198 149 80
-12.67 -2.7130001 -0.91600001 197 152 87
-12.678 -2.7160001 -0.93300003 162 130 105
-12.68 -2.7219999 -0.93300003 113 66 36
-12.761 -2.4159999 -0.884 151 127 83
-12.74 -2.424 -0.90700001 187 112 31
-12.734 -2.415 -0.90600002 228 153 72
-12.732 -2.4119999 -0.90600002 189 139 86
-12.735 -2.402 -0.90200001 145 122 116
-12.721 -2.4189999 -0.92000002 150 122 101
-12.696 -2.4319999 -0.91799998 167 104 53
-12.696 -2.3859999 -0.912 162 127 107
-12.691 -2.3889999 -0.91799998 157 95 44
-12.683 -2.391 -0.92199999 130 119 74
-12.729 -2.4170001 -0.89600003 146 111 89
-12.738 -2.4230001 -0.89499998 194 155 98
-12.707 -2.3959999 -0.92400002 170 129 63
-12.701 -2.3559999 -0.92000002 171 121 68
-12.699 -2.3599999 -0.91100001 142 114 103
-12.671 -2.378 -0.93599999 219 142 52
-12.664 -2.3640001 -0.94 215 141 52
-12.67 -2.368 -0.935 227 147 58
-12.662 -2.378 -0.94099998 217 147 62
-12.708 -2.3829999 -0.91900003 236 179 112
-12.705 -2.3740001 -0.91900003 249 181 100
-12.705 -2.385 -0.92299998 141 101 75
-12.698 -2.3929999 -0.92699999 171 125 75
-12.705 -2.4030001 -0.91399997 199 158 96
-12.709 -2.431 -0.91399997 106 73 54
-12.717 -2.427 -0.912 117 86 55
-12.691 -2.382 -0.92900002 202 125 33
-12.686 -2.3789999 -0.93000001 254 184 99
-12.69 -2.4030001 -0.935 172 137 105
-12.634 -2.431 -0.94599998 108 76 53
-12.609 -2.3870001 -0.95999998 84 58 31
-12.631 -2.4560001 -0.94700003 171 133 110
-12.616 -2.4289999 -0.96100003 231 151 64
-12.614 -2.425 -0.96499997 132 75 4
-12.618 -2.438 -0.95999998 159 127 76
-12.62 -2.4389999 -0.95999998 196 130 34
-12.546 -2.448 -1.027 180 107 52
-12.591 -2.457 -0.96100003 176 153 163
-12.686 -2.474 -0.92199999 228 150 67
-12.681 -2.487 -0.92299998 250 198 138
-12.679 -2.471 -0.92000002 162 139 149
-12.684 -2.477 -0.92299998 181 130 67
-12.615 -2.418 -0.96799999 185 139 80
-12.607 -2.421 -0.96899998 175 105 35
-12.605 -2.421 -0.97000003 91 31 0
-12.629 -2.418 -0.96600002 113 69 30
-12.622 -2.4030001 -0.96899998 91 62 20
-12.597 -2.4170001 -1 72 44 23
-12.596 -2.4159999 -1.018 68 27 7
-12.638 -2.556 -0.94400001 96 64 43
-12.639 -2.552 -0.94300002 249 178 90
-12.644 -2.553 -0.94099998 95 82 73
-12.59 -2.5699999 -0.95099998 228 146 60
-12.645 -2.55 -0.93900001 169 93 9
-12.637 -2.546 -0.94199997 133 97 71
-12.573 -2.543 -0.96700001 217 170 114
-12.568 -2.54 -0.97299999 57 39 39
-12.564 -2.55 -0.972 215 136 57
-12.559 -2.552 -0.97500002 226 138 49
-12.557 -2.5610001 -0.97399998 70 48 35
-12.593 -2.7160001 -0.98500001 175 136 119
-12.592 -2.697 -0.977 155 118 91
-12.555 -2.5680001 -1.011 154 116 67
-12.579 -2.619 -0.96700001 130 116 79
-12.596 -2.6129999 -0.97799999 120 109 107
-12.604 -2.618 -0.97299999 134 90 61
-12.583 -2.6010001 -0.98299998 186 134 84
-12.613 -2.612 -0.95899999 59 38 33
-12.582 -2.675 -1.01 101 47 19
-12.57 -2.681 -0.99000001 174 108 56
-12.565 -2.698 -0.98100001 151 107 82
-12.58 -2.675 -1.035 139 76 35
-12.618 -2.7379999 -0.96399999 190 139 86
-12.64 -2.7360001 -1.011 90 52 31
-12.629 -2.7520001 -0.97399998 195 111 47
-12.638 -2.74 -0.98199999 214 139 71
-12.63 -2.743 -0.92299998 167 124 79
-12.613 -2.7119999 -0.93099999 241 154 59
-12.633 -2.6930001 -0.958 93 51 11
-12.646 -2.7060001 -0.93300003 249 167 67
-12.644 -2.72 -0.926 238 156 57
-12.631 -2.7 -0.94099998 252 180 78
-12.643 -2.7019999 -0.95300001 181 131 82
-12.646 -2.7079999 -0.94800001 184 145 104
-12.602 -2.7179999 -0.94199997 216 169 117
-12.649 -2.6830001 -0.95499998 188 109 42
-12.639 -2.7479999 -0.95700002 68 58 33
-12.65 -2.7290001 -0.93300003 192 118 23
-12.652 -2.723 -0.949 161 125 91
-12.66 -2.7149999 -0.94199997 140 89 42
-12.652 -2.714 -0.94400001 203 125 53
-12.561 -2.605 -1.023 100 61 20
-12.565 -2.6059999 -1.018 58 24 0
-12.557 -2.5829999 -1.013 140 84 25
-12.563 -2.5829999 -1.002 207 160 104
-12.605 -2.553 -0.954 59 39 32
-12.605 -2.543 -0.95099998 170 149 102
-12.569 -2.5420001 -0.98299998 189 109 38
-12.571 -2.553 -0.98900002 203 126 56
-12.578 -2.5780001 -0.98299998 251 167 81
-12.575 -2.576 -0.986 146 78 3
-12.609 -2.5780001 -0.958 177 134 81
-12.627 -2.6010001 -0.95599997 170 129 73
-12.63 -2.5450001 -0.95300001 233 199 164
-12.631 -2.546 -0.94400001 164 129 73
-12.628 -2.54 -0.94300002 199 160 101
-12.633 -2.5350001 -0.93900001 103 81 67
-12.618 -2.5120001 -0.954 245 191 129
-12.456 -2.543 -1.027 119 46 3
-12.453 -2.552 -1.027 156 78 29
-12.488 -2.49 -1.025 70 42 41
-12.69 -2.5280001 -0.91299999 216 162 64
-12.664 -2.5039999 -0.92199999 126 116 67
-12.674 -2.503 -0.92199999 80 58 44
-12.676 -2.4960001 -0.92199999 203 153 92
-12.659 -2.53 -0.92799997 131 113 93
-12.686 -2.483 -0.91399997 100 72 51
-12.686 -2.4920001 -0.91399997 184 144 82
-12.681 -2.494 -0.92000002 179 130 74
-12.677 -2.507 -0.92799997 252 165 68
-12.667 -2.493 -0.92500001 172 134 113
-12.675 -2.5239999 -0.92199999 91 69 55
-12.707 -2.5 -0.90799999 230 142 44
-12.733 -2.553 -0.89700001 146 109 54
-12.732 -2.556 -0.898 101 68 51
-12.734 -2.5409999 -0.89200002 151 103 55
-12.733 -2.5439999 -0.89300001 87 59 48
-12.739 -2.552 -0.89499998 116 82 47
-12.71 -2.5599999 -0.91799998 68 50 28
-12.637 -2.598 -0.94499999 161 110 53
-12.632 -2.6110001 -0.949 130 116 107
-12.677 -2.6170001 -0.94 163 81 0
-12.671 -2.638 -0.93000001 138 118 93
-12.651 -2.6210001 -0.94499999 172 131 77
-12.697 -2.5880001 -0.93400002 226 144 62
-12.675 -2.563 -0.93699998 165 115 66
-12.678 -2.576 -0.94499999 197 124 30
-12.672 -2.5650001 -0.93199998 135 100 60
-12.668 -2.5569999 -0.93000001 151 131 106
-12.67 -2.552 -0.92799997 203 167 109
-12.659 -2.553 -0.93199998 81 54 37
-12.682 -2.575 -0.92400002 255 185 85
-12.687 -2.579 -0.92400002 223 150 56
-12.655 -2.5580001 -0.93400002 79 57 46
-12.665 -2.543 -0.93099999 183 144 85
-12.664 -2.5420001 -0.93099999 192 159 105
-12.651 -2.5910001 -0.94499999 155 112 93
-12.65 -2.5829999 -0.94499999 162 123 66
-12.621 -2.5380001 -0.94300002 244 160 70
-12.629 -2.529 -0.94300002 179 144 88
-12.622 -2.517 -0.94199997 123 92 63
-12.612 -2.5179999 -0.94599998 189 149 90
-12.635 -2.527 -0.94 158 118 92
-12.601 -2.471 -0.96799999 202 124 42
-12.564 -2.448 -0.972 162 130 91
-12.564 -2.454 -0.98100001 152 110 85
-12.654 -2.4909999 -0.93699998 179 144 90
-12.664 -2.464 -0.93800002 120 94 81
-12.665 -2.487 -0.93199998 230 154 66
-12.652 -2.484 -0.94099998 84 72 60
-12.759 -2.898 -0.94199997 94 53 21
-12.75 -2.892 -0.95599997 130 63 20
-12.76 -2.8959999 -0.95599997 121 65 30
-12.77 -2.9189999 -0.94400001 63 31 18
-12.732 -2.8659999 -0.898 119 100 83
-12.741 -2.8469999 -0.93300003 118 64 28
-12.74 -2.846 -0.92900002 93 39 1
-12.737 -2.8599999 -0.91900003 170 116 72
-12.744 -2.865 -0.93199998 156 101 62
-12.739 -2.865 -0.90700001 120 93 74
-12.739 -2.8529999 -0.91399997 205 129 67
-12.742 -2.8570001 -0.903 183 144 101
-12.752 -2.8610001 -0.89499998 158 111 57
-12.759 -2.8510001 -0.89700001 193 154 111
-12.744 -2.862 -0.898 186 107 30
-12.753 -2.8740001 -0.94199997 99 44 23
-12.746 -2.8840001 -0.90499997 206 137 62
-12.747 -2.8729999 -0.898 206 133 54
-12.747 -2.882 -0.90200001 205 132 64
-12.72 -2.8929999 -0.89600003 208 138 76
-12.728 -2.8929999 -0.89600003 179 146 101
-12.716 -2.921 -0.90499997 193 131 54
-12.716 -2.9000001 -0.91600001 148 81 13
-12.714 -2.898 -0.92000002 77 50 33
-12.808 -2.9879999 -0.88599998 159 100 42
-13.281 -2.6589999 -0.65899998 216 142 43
-13.25 -2.6070001 -0.69199997 82 39 4
-13.257 -2.612 -0.68599999 182 154 117
-13.235 -2.6110001 -0.68099999 118 86 37
-13.313 -2.6359999 -0.64300001 231 185 110
-13.311 -2.6340001 -0.648 216 133 41
-12.829 -2.9560001 -0.87599999 122 67 10
-12.826 -2.948 -0.87199998 147 109 62
-12.782 -2.902 -0.87699997 187 153 107
-12.78 -2.9170001 -0.88300002 141 119 105
-12.749 -2.901 -0.87599999 185 102 26
-12.75 -2.9230001 -0.91299999 133 72 18
-12.747 -2.9130001 -0.91600001 101 67 39
-12.748 -2.9100001 -0.90399998 167 140 110
-13.157 -2.796 -0.704 223 143 54
-13.17 -2.8340001 -0.70099998 105 84 67
-13.197 -2.8629999 -0.68599999 227 156 68
-13.2 -2.8510001 -0.685 210 172 110
-13.191 -2.8559999 -0.68800002 181 137 98
-13.186 -2.8599999 -0.69099998 208 141 50
-12.763 -2.9460001 -0.88300002 151 114 69
-12.765 -2.9289999 -0.88099998 217 165 105
-12.828 -2.892 -0.86299998 109 48 3
-12.82 -2.872 -0.87099999 142 99 54
-12.8 -2.865 -0.86900002 229 187 137
-12.837 -2.869 -0.86400002 198 123 40
-12.832 -2.869 -0.86500001 115 53 0
-12.728 -2.9130001 -0.92000002 200 109 38
-12.737 -2.8989999 -0.88999999 235 191 126
-12.735 -2.901 -0.88999999 179 128 65
-12.746 -2.895 -0.88700002 205 145 59
-12.834 -2.9549999 -0.85699999 156 116 65
-12.793 -2.9289999 -0.87 191 166 144
-12.812 -2.9560001 -0.86699998 78 48 14
-12.81 -2.9430001 -0.87099999 114 85 51
-12.891 -2.918 -0.83499998 220 159 78
-12.822 -2.9159999 -0.875 79 55 43
-12.995 -2.8080001 -0.76499999 213 194 128
-12.985 -2.8150001 -0.76800001 195 159 125
-12.994 -2.77 -0.77600002 254 224 90
-12.997 -2.7679999 -0.77600002 234 188 66
-12.987 -2.7869999 -0.78500003 255 226 144
-12.985 -2.8 -0.76800001 218 186 127
-13.003 -2.802 -0.76099998 117 85 62
-12.981 -2.757 -0.78399998 241 204 124
-12.984 -2.7590001 -0.773 183 117 57
-12.981 -2.7579999 -0.77600002 248 214 124
-12.975 -2.7780001 -0.77999997 197 128 51
-12.97 -2.786 -0.79100001 255 202 113
-12.996 -2.925 -0.78799999 240 168 86
-12.983 -2.9030001 -0.78899997 217 141 47
-12.997 -2.9130001 -0.78299999 198 132 36
-12.98 -2.9130001 -0.79000002 198 118 67
-13.013 -2.892 -0.76999998 246 199 83
-12.999 -2.898 -0.77700001 236 184 111
-13.005 -2.911 -0.77899998 244 187 80
-12.961 -2.967 -0.80199999 206 163 48
-12.964 -2.971 -0.80199999 213 167 55
-12.959 -2.9719999 -0.80299997 126 99 88
-12.966 -2.9660001 -0.80000001 183 139 90
-12.957 -2.9549999 -0.79299998 125 84 56
-12.96 -2.9579999 -0.79699999 127 76 31
-12.956 -2.9619999 -0.801 252 206 94
-12.969 -2.964 -0.79799998 236 190 78
-12.973 -2.967 -0.796 118 78 29
-13.029 -2.9519999 -0.78100002 145 77 14
-13.022 -2.9400001 -0.778 217 145 60
-13.021 -2.947 -0.773 200 165 111
-12.856 -2.8570001 -0.84799999 246 176 88
-12.859 -2.855 -0.84399998 215 139 43
-12.863 -2.8659999 -0.84500003 247 177 81
-12.833 -2.8740001 -0.85399997 150 83 13
-12.831 -2.862 -0.85600001 156 115 59
-12.822 -2.8670001 -0.85900003 127 76 29
-12.881 -2.878 -0.82099998 164 119 80
-12.878 -2.868 -0.82300001 229 183 108
-12.844 -2.8429999 -0.852 118 98 99
-12.912 -2.8670001 -0.81599998 240 192 116
-12.92 -2.849 -0.80800003 223 178 136
-12.851 -2.904 -0.84200001 252 212 143
