ply
format ascii 1.0
comment PCL generated
element vertex 56
property float x
property float y
property float z
property uchar red
property uchar green
property uchar blue
element camera 1
property float view_px
property float view_py
property float view_pz
property float x_axisx
property float x_axisy
property float x_axisz
property float y_axisx
property float y_axisy
property float y_axisz
property float z_axisx
property float z_axisy
property float z_axisz
property float focal
property float scalex
property float scaley
property float centerx
property float centery
property int viewportx
property int viewporty
property float k1
property float k2
end_header
-7.6799998 14.182 -0.69999999 187 112 44
-7.6729999 14.181 -0.68599999 212 129 49
-7.6859999 14.178 -0.69999999 200 118 42
-7.6849999 14.184 -0.70700002 150 83 28
-7.6620002 14.154 -0.68699998 198 138 78
-7.6529999 14.16 -0.69599998 163 112 69
-7.6500001 14.15 -0.68300003 250 217 176
-7.6599998 14.141 -0.68599999 178 145 128
-7.671 14.148 -0.69199997 165 118 74
-7.6389999 14.139 -0.69599998 117 74 21
-7.6440001 14.135 -0.70499998 255 206 144
-7.631 14.15 -0.70499998 196 141 84
-7.645 14.145 -0.70499998 255 219 164
-7.665 14.136 -0.70300001 105 73 34
-7.6799998 14.14 -0.70700002 174 99 42
-7.6700001 14.132 -0.71399999 136 78 40
-7.6360002 14.148 -0.69800001 158 74 4
-7.6399999 14.151 -0.69199997 138 74 26
-7.6570001 14.135 -0.70499998 242 183 117
-7.6490002 14.135 -0.69 179 141 96
-7.6539998 14.135 -0.71499997 255 216 176
-7.6609998 14.151 -0.68699998 135 82 30
-7.651 14.151 -0.68699998 206 156 107
-7.671 14.143 -0.69599998 190 135 79
-7.6669998 14.143 -0.69499999 192 111 45
-7.6700001 14.161 -0.70999998 201 153 107
-7.6729999 14.154 -0.70599997 190 122 61
-7.6669998 14.145 -0.722 73 42 22
-7.6750002 14.176 -0.69400001 148 82 30
-7.6440001 14.14 -0.69099998 174 106 43
-7.6609998 14.153 -0.69999999 75 69 79
-7.6830001 14.175 -0.69300002 136 93 61
-7.6760001 14.18 -0.69400001 163 91 32
-7.6680002 14.141 -0.71399999 131 71 19
-7.6719999 14.146 -0.699 192 133 77
-7.671 14.149 -0.699 151 99 49
-7.6550002 14.147 -0.71700001 255 193 135
-7.658 14.144 -0.71799999 224 186 137
-7.6739998 14.157 -0.70300001 116 81 59
-7.632 14.161 -0.69800001 127 80 54
-7.6370001 14.16 -0.704 69 31 10
-7.6339998 14.154 -0.704 212 119 50
-7.638 14.16 -0.70999998 88 52 18
-7.645 14.143 -0.69099998 175 122 70
-7.6609998 14.138 -0.69599998 197 151 101
-7.652 14.157 -0.70899999 201 147 103
-7.6659999 14.138 -0.71700001 184 104 51
-7.651 14.142 -0.71499997 217 161 112
-7.6479998 14.147 -0.68699998 205 145 85
-7.664 14.138 -0.69700003 226 150 66
-7.6479998 14.163 -0.70499998 201 135 77
-7.6529999 14.148 -0.71499997 108 54 16
-7.6409998 14.153 -0.70700002 250 219 191
-7.6469998 14.135 -0.69700003 237 177 125
-7.6490002 14.151 -0.71200001 246 195 148
-7.6490002 14.141 -0.71200001 255 195 122
0 0 0 1 0 0 0 1 0 0 0 1 0 0 0 0 0 56 1 0 0
