ply
format ascii 1.0
comment PCL generated
element vertex 830
property float x
property float y
property float z
property uchar red
property uchar green
property uchar blue
element camera 1
property float view_px
property float view_py
property float view_pz
property float x_axisx
property float x_axisy
property float x_axisz
property float y_axisx
property float y_axisy
property float y_axisz
property float z_axisx
property float z_axisy
property float z_axisz
property float focal
property float scalex
property float scaley
property float centerx
property float centery
property int viewportx
property int viewporty
property float k1
property float k2
end_header
-7.8460002 -2.006 -1.029 37 3 0
-7.8449998 -2.0050001 -1.026 126 89 63
-7.8449998 -2.01 -1.033 34 6 0
-7.8270001 -2.049 -0.95300001 137 73 11
-7.8200002 -2.043 -0.95300001 115 59 0
-7.8200002 -2.053 -0.95300001 191 150 106
-7.697 -1.9680001 -1.026 83 72 76
-7.7049999 -1.967 -1.035 29 11 1
-7.6919999 -1.956 -1.027 210 139 51
-7.7080002 -1.973 -1.036 104 50 16
-7.7690001 -2.0829999 -0.99199998 113 90 82
-7.77 -2.0829999 -1 205 116 36
-7.7859998 -2.085 -0.99400002 200 117 39
-7.7610002 -2.0829999 -0.99299997 198 103 21
-7.7540002 -2.072 -0.98500001 214 143 87
-7.7470002 -2.073 -0.98900002 107 63 26
-7.7529998 -2.0710001 -0.98699999 130 88 48
-7.8039999 -2.023 -1.025 47 21 0
-7.8000002 -2.0369999 -1.027 124 94 70
-7.8119998 -2.027 -1.018 73 45 34
-7.8119998 -2.03 -1.017 18 7 0
-7.8109999 -2.0380001 -1.01 45 22 8
-7.8189998 -2.0280001 -1.005 33 4 0
-7.8150001 -2.0209999 -1.012 25 0 0
-7.7550001 -2.043 -1.067 32 2 0
-7.7529998 -2.036 -1.0700001 69 49 40
-7.7550001 -2.05 -1.074 24 0 0
-7.6929998 -1.9680001 -1.018 184 123 69
-7.691 -1.969 -1.013 175 119 70
-7.8010001 -2.0190001 -1.074 17 3 3
-7.8049998 -2.0320001 -1.074 19 5 2
-7.7859998 -2.0250001 -1.075 43 20 12
-7.7979999 -2.03 -1.073 10 0 0
-7.8470001 -2.0050001 -1.03 29 4 0
-7.822 -2.05 -0.977 56 21 1
-7.8239999 -2.0450001 -0.97399998 34 0 0
-7.8270001 -2.0339999 -0.98799998 55 41 28
-7.8439999 -1.952 -1.017 24 10 7
-7.842 -1.952 -1.017 34 9 4
-7.849 -1.952 -1.0190001 81 70 68
-7.7919998 -1.9579999 -1.059 47 27 26
-7.7989998 -1.957 -1.051 12 1 0
-7.789 -1.9529999 -1.059 17 0 0
-7.8119998 -1.952 -1.051 7 0 0
-7.7880001 -2.0420001 -1.039 51 14 8
-7.802 -2.0480001 -1.043 51 19 4
-7.796 -2.029 -1.052 94 70 46
-7.6919999 -1.955 -1.01 199 130 61
-7.6939998 -1.959 -1.022 211 143 58
-7.7639999 -2.079 -0.98400003 221 134 67
-7.7589998 -2.073 -0.98500001 123 52 8
-7.7680001 -2.0799999 -0.98799998 184 88 12
-7.8649998 -1.973 -1.011 68 32 6
-7.8720002 -1.959 -0.99800003 44 18 3
-7.8699999 -1.965 -0.991 46 28 28
-7.8179998 -2.036 -0.99900001 91 68 52
-7.8179998 -2.04 -0.99400002 18 3 0
-7.8039999 -2.053 -1.0549999 18 0 0
-7.7989998 -2.0439999 -1.063 30 12 8
-7.796 -2.049 -1.052 38 9 1
-7.8119998 -2.0220001 -1.02 53 10 3
-7.8130002 -2.03 -1.0089999 25 6 2
-7.842 -2.01 -1.03 139 98 76
-7.829 -2.01 -1.039 83 48 28
-7.8330002 -2.0090001 -1.034 47 25 14
-7.8070002 -2.052 -1.058 22 11 9
-7.8049998 -2.049 -1.057 20 6 6
-7.8000002 -2.0469999 -1.0549999 21 6 3
-7.7449999 -2.0480001 -1.0470001 71 26 5
-7.744 -2.053 -1.05 38 1 0
-7.8060002 -2.0150001 -1.074 58 38 31
-7.8299999 -1.962 -1.062 12 1 0
-7.8179998 -1.97 -1.073 48 30 26
-7.8200002 -1.9630001 -1.072 17 2 0
-7.8629999 -1.9630001 -1.021 65 37 23
-7.868 -1.983 -1.029 84 62 48
-7.8790002 -1.949 -0.99299997 37 13 3
-7.8779998 -1.948 -0.98799998 39 16 0
-7.8800001 -1.948 -0.98900002 38 15 0
-7.8769999 -1.951 -0.99000001 59 33 16
-7.783 -2.079 -1.0039999 101 40 9
-7.7909999 -2.079 -1.003 139 77 28
-7.79 -2.073 -1.0089999 166 126 91
-7.7290001 -1.975 -0.99199998 116 93 77
-7.7290001 -1.969 -0.98500001 95 55 19
-7.7129998 -1.972 -1 50 38 26
-7.7049999 -1.971 -0.99900001 103 58 27
-7.6929998 -1.9579999 -1.005 241 172 103
-7.7119999 -1.969 -1.005 33 18 23
-7.7210002 -1.966 -0.99800003 103 67 43
-7.6939998 -1.9680001 -1.011 176 125 82
-7.71 -1.974 -1.005 94 48 24
-7.7750001 -2.0780001 -0.986 69 47 24
-7.822 -2.0439999 -0.95700002 124 89 61
-7.8200002 -2.0369999 -0.95599997 144 79 0
-7.829 -2.0209999 -0.98799998 67 40 31
-7.8130002 -1.95 -1.051 17 3 2
-7.8179998 -1.948 -1.057 15 3 3
-7.7179999 -1.971 -1.045 35 23 23
-7.7080002 -1.9680001 -1.036 41 27 26
-7.8130002 -1.959 -1.058 18 0 0
-7.7950001 -1.962 -1.064 18 8 9
-7.8200002 -1.9529999 -1.063 36 12 8
-7.789 -1.956 -1.0650001 35 15 6
-7.6939998 -1.959 -1.012 189 121 48
-7.848 -1.966 -0.94700003 100 68 17
-7.8600001 -1.954 -0.95099998 139 88 43
-7.8439999 -1.95 -0.96600002 184 130 83
-7.8649998 -1.966 -1 42 15 4
-7.756 -2.052 -1.0700001 32 2 0
-7.7600002 -2.052 -1.072 22 1 0
-7.7690001 -2.0580001 -1.061 13 0 0
-7.7639999 -2.0380001 -1.067 9 0 0
-7.7620001 -2.0510001 -1.069 27 9 9
-7.7670002 -2.053 -1.067 18 4 3
-7.7839999 -2.023 -1.072 25 0 0
-7.776 -2.017 -1.064 34 12 1
-7.7090001 -1.969 -1.01 39 24 27
-7.7069998 -1.973 -1.03 127 85 60
-7.862 -1.972 -1.0039999 49 21 10
-7.8590002 -1.98 -0.98000002 55 16 1
-7.8179998 -2.0450001 -0.98199999 50 12 1
-7.8039999 -2.0469999 -1.064 19 8 6
-7.8010001 -2.053 -1.049 24 0 0
-7.7969999 -2.0580001 -1.045 54 26 14
-7.7849998 -2.0810001 -0.99299997 221 168 116
-7.7979999 -2.0239999 -1.072 7 0 0
-7.8080001 -2.0120001 -1.0369999 69 23 8
-7.8140001 -2.0190001 -1.052 47 2 0
-7.8189998 -2.03 -0.99599999 116 70 20
-7.7989998 -2.033 -1.0650001 11 2 3
-7.8060002 -2.0209999 -1.058 14 4 3
-7.7979999 -2.03 -1.0700001 8 0 0
-7.8080001 -2.02 -1.0549999 13 2 0
-7.77 -2.0380001 -1.063 21 7 6
-7.7249999 -1.992 -1.0420001 131 85 59
-7.7420001 -1.995 -1.035 11 1 0
-7.7280002 -1.993 -1.043 90 71 65
-7.7379999 -1.994 -1.045 90 52 31
-7.7449999 -2.0050001 -1.029 59 22 3
-7.757 -2.0039999 -1.045 78 37 19
-7.7600002 -2.0179999 -1.043 47 34 28
-7.7589998 -2.0139999 -1.038 21 6 1
-7.802 -2.0090001 -1.074 32 11 8
-7.803 -2.016 -1.074 16 1 0
-7.823 -1.988 -1.075 18 0 0
-7.8260002 -1.987 -1.075 26 1 0
-7.822 -1.993 -1.0700001 31 10 7
-7.8239999 -1.993 -1.0650001 59 11 0
-7.7870002 -1.962 -1.072 48 29 23
-7.8130002 -1.964 -1.0700001 67 43 31
-7.8470001 -2.0050001 -1.033 28 7 4
-7.862 -1.985 -1.029 24 5 0
-7.848 -1.999 -1.04 50 32 22
-7.855 -1.9859999 -1.03 49 27 16
-7.8460002 -2.0079999 -1.038 49 27 16
-7.829 -2 -1.0420001 51 31 20
-7.835 -2.0039999 -1.036 45 13 0
-7.7750001 -1.978 -1.073 8 0 0
-7.7719998 -1.971 -1.073 4 0 0
-7.776 -1.967 -1.073 5 1 0
-7.73 -1.983 -1.063 41 23 13
-7.7399998 -1.979 -1.048 28 13 8
-7.724 -1.973 -1.0470001 36 19 12
-7.8579998 -1.9579999 -1.022 196 132 71
-7.8559999 -1.957 -1.02 56 32 20
-7.8520002 -1.956 -1.033 4 0 0
-7.8530002 -1.983 -1.017 62 32 21
-7.8499999 -1.9859999 -1.017 31 1 0
-7.8530002 -1.985 -1.02 39 11 0
-7.7719998 -2.079 -1.006 233 168 88
-7.7740002 -2.0669999 -1.043 35 6 0
-7.7729998 -2.066 -1.05 20 1 0
-7.7670002 -2.0810001 -1.003 236 163 68
-7.7680001 -2.0739999 -1.015 66 34 11
-7.7719998 -2.072 -1.027 100 41 1
-7.757 -2.0710001 -1.0319999 75 21 0
-7.7670002 -2.0599999 -1.04 33 4 0
-7.756 -2.066 -1.0319999 56 10 0
-7.8099999 -2.0239999 -0.95899999 223 177 81
-7.8119998 -2.0220001 -0.95999998 225 165 69
-7.8169999 -2.03 -0.96700001 111 80 60
-7.743 -1.976 -0.98699999 47 24 8
-7.7360001 -1.97 -0.98699999 95 55 29
-7.7270002 -1.967 -0.98900002 49 22 1
-7.862 -1.966 -0.95300001 75 31 0
-7.8579998 -1.969 -0.94599998 143 75 14
-7.8559999 -1.964 -0.949 136 81 60
-7.776 -2.016 -0.958 98 79 72
-7.7839999 -2.027 -0.96799999 181 123 50
-7.789 -2.026 -0.96499997 81 40 8
-7.7740002 -1.998 -0.95700002 68 50 40
-7.7750001 -2.0109999 -0.95999998 249 219 191
-7.757 -2.0079999 -0.97299999 87 56 35
-7.7979999 -1.956 -1.044 50 26 14
-7.855 -1.978 -1.008 38 7 2
-7.7179999 -1.982 -1.044 90 58 35
-7.7540002 -1.993 -1.071 34 19 12
-7.757 -1.9809999 -1.067 9 0 0
-7.7579999 -1.985 -1.071 47 23 13
-7.711 -1.977 -1.035 89 62 41
-7.7340002 -1.965 -1.029 37 20 12
-7.743 -1.9809999 -1.04 41 25 10
-7.8169999 -1.959 -1.0650001 19 5 4
-7.8330002 -1.954 -1.016 83 61 50
-7.836 -1.9579999 -1.008 33 2 0
-7.6960001 -1.962 -1.016 69 43 26
-7.875 -1.948 -0.98400003 71 29 7
-7.8740001 -1.957 -0.97600001 176 111 47
-7.8460002 -1.955 -0.96200001 112 63 23
-7.8330002 -1.947 -0.97000003 55 27 13
-7.8070002 -1.9579999 -0.98699999 127 75 35
-7.7940001 -1.956 -0.98400003 43 25 11
-7.802 -1.976 -0.972 76 37 8
-7.8239999 -1.954 -0.97000003 95 50 31
-7.8260002 -1.967 -0.97299999 139 86 55
-7.8309999 -1.964 -0.97100002 88 34 6
-7.869 -1.956 -1.001 40 20 13
-7.8730001 -1.952 -0.995 38 19 4
-7.868 -1.971 -0.95499998 155 94 47
-7.8740001 -1.978 -0.95200002 162 108 61
-7.8629999 -1.974 -0.949 179 131 83
-7.8569999 -1.9809999 -0.94700003 201 135 59
-7.757 -2.043 -1.062 91 50 28
-7.7529998 -2.05 -1.051 49 18 13
-7.7579999 -2.049 -1.058 40 12 0
-7.763 -2.052 -1.0650001 19 1 1
-7.757 -2.029 -1.046 77 60 52
-7.7909999 -2.0569999 -1.043 30 6 0
-7.79 -2.056 -1.046 64 58 34
-7.7930002 -2.0610001 -0.98199999 164 111 67
-7.8639998 -1.976 -1.024 96 55 11
-7.8569999 -1.984 -1.023 118 92 75
-7.862 -1.982 -1.025 38 18 9
-7.862 -1.976 -1.0140001 82 54 40
-7.8610001 -1.9809999 -1.023 50 27 11
-7.855 -1.978 -0.995 70 37 20
-7.8130002 -2.0109999 -1.017 30 0 0
-7.802 -2.0510001 -0.96700001 62 13 0
-7.7909999 -2.056 -0.98500001 68 21 1
-7.7989998 -2.0409999 -0.96899998 95 67 53
-7.822 -2.0439999 -0.97799999 34 3 0
-7.7950001 -2.0190001 -1.072 7 0 0
-7.7680001 -2.02 -1.024 19 1 0
-7.757 -2.0280001 -1.007 99 82 75
-7.7659998 -2.027 -1.023 61 19 0
-7.8060002 -2.0209999 -1.062 10 0 0
-7.8070002 -2.0139999 -1.061 61 24 18
-7.8049998 -2.0369999 -1.015 27 11 11
-7.796 -2.0450001 -1.016 86 55 35
-7.7909999 -2.0580001 -1.023 65 37 15
-7.7969999 -2.039 -1.023 71 39 1
-7.802 -2.0179999 -1.04 122 98 88
-7.796 -2.0220001 -1.035 64 15 0
-7.803 -2.027 -1.0700001 12 2 3
-7.823 -2.027 -0.991 43 18 13
-7.8410001 -2.006 -1.028 109 72 43
-7.789 -2.04 -1.0549999 30 2 0
-7.743 -2.052 -1.0420001 97 51 28
-7.7420001 -2.0510001 -1.046 59 12 0
-7.8130002 -1.998 -1.063 22 8 7
-7.8140001 -1.974 -1.072 33 11 0
-7.783 -1.959 -1.072 22 11 7
-7.848 -2.0009999 -1.04 21 0 0
-7.8460002 -2.0079999 -1.035 40 17 9
-7.777 -1.97 -1.072 28 10 6
-7.7839999 -1.9680001 -1.073 27 10 3
-7.7839999 -1.972 -1.069 8 0 0
-7.7810001 -1.983 -1.068 27 9 5
-7.8039999 -1.9809999 -1.068 6 0 0
-7.7610002 -1.974 -1.067 21 7 4
-7.7550001 -1.965 -1.049 38 15 9
-7.7600002 -1.964 -1.053 13 8 5
-7.8639998 -1.976 -1.027 105 65 14
-7.777 -2.0769999 -1.008 184 113 71
-7.7750001 -2.0569999 -0.98199999 216 185 121
-7.7859998 -2.0339999 -0.97500002 121 62 20
-7.7459998 -2.062 -1.008 101 59 35
-7.7480001 -2.0580001 -0.99000001 107 83 59
-7.744 -2.0550001 -1.0140001 81 51 25
-7.7470002 -2.0599999 -1.02 36 7 0
-7.7480001 -1.998 -1.016 17 3 2
-7.756 -2.0009999 -1.027 68 35 18
-7.7729998 -2.0650001 -1.0470001 34 11 3
-7.7600002 -2.062 -1.034 67 25 1
-7.8070002 -2.017 -0.95899999 76 32 3
-7.7989998 -2.0139999 -0.95200002 225 190 98
-7.8000002 -2.01 -0.94999999 234 194 106
-7.7740002 -1.967 -0.98400003 61 30 2
-7.7709999 -1.971 -0.97799999 25 6 0
-7.783 -1.985 -0.97799999 59 33 20
-7.8610001 -1.97 -0.94999999 170 106 19
-7.8109999 -2.05 -0.99299997 22 2 0
-7.8049998 -2.0550001 -0.991 64 32 17
-7.8070002 -2.053 -0.991 83 32 3
-7.8140001 -2.049 -0.98900002 144 117 100
-7.7979999 -1.972 -1.0650001 31 21 20
-7.822 -1.972 -0.97399998 76 20 0
-7.8239999 -1.975 -0.96799999 95 47 0
-7.823 -2.006 -1.011 56 22 12
-7.8060002 -1.947 -1.034 26 7 1
-7.8239999 -1.947 -1.04 82 69 63
-7.8119998 -1.948 -1.04 68 30 19
-7.8639998 -1.967 -1.003 46 20 7
-7.8460002 -1.967 -1.039 11 1 2
-7.8369999 -1.955 -0.99900001 97 75 64
-7.8410001 -1.956 -0.99800003 47 19 15
-7.823 -1.952 -0.98299998 73 33 7
-7.8189998 -1.96 -0.98799998 71 50 45
-7.7220001 -1.9809999 -1.045 76 53 35
-7.802 -1.985 -0.96100003 119 100 85
-7.8049998 -1.98 -0.96600002 108 86 75
-7.8049998 -1.987 -0.95700002 89 42 0
-7.789 -1.989 -0.95499998 160 85 28
-7.7090001 -1.973 -1.008 60 22 1
-7.8460002 -1.9400001 -0.97899997 33 4 0
-7.7750001 -1.9529999 -1.02 27 5 0
-7.7789998 -1.9529999 -1.028 23 3 0
-7.79 -1.954 -1.022 107 65 27
-7.7610002 -1.951 -1.022 78 62 62
-7.7729998 -1.957 -1.01 19 9 0
-7.8540001 -1.956 -0.95700002 129 76 58
-7.8629999 -1.95 -0.97100002 46 14 0
-7.8600001 -1.95 -0.97000003 95 45 10
-7.8540001 -1.944 -0.977 26 2 0
-7.868 -1.95 -0.97799999 64 25 10
-7.8709998 -1.972 -0.97100002 89 27 0
-7.8530002 -1.994 -0.97000003 74 46 32
-7.869 -1.975 -0.96700001 148 81 13
-7.8759999 -1.952 -0.986 43 10 1
-7.7600002 -2.052 -1.069 24 0 2
-7.7600002 -2.052 -1.041 41 13 1
-7.7600002 -2.0190001 -1.052 23 12 8
-7.7620001 -2.026 -1.04 87 47 22
-7.796 -2.0550001 -1.04 237 202 162
-7.79 -2.046 -1.025 55 23 8
-7.7059999 -1.974 -1.016 117 85 72
-7.7740002 -2.075 -0.98500001 132 89 47
-7.7659998 -1.959 -1.034 14 0 2
-7.777 -1.959 -1.036 21 7 6
-7.862 -1.977 -1.017 83 56 39
-7.8449998 -1.9809999 -1.005 50 13 7
-7.8509998 -1.977 -0.99900001 125 89 65
-7.8410001 -1.985 -0.98900002 48 18 10
-7.8340001 -1.989 -0.99400002 54 26 14
-7.8299999 -1.9859999 -1.023 24 13 9
-7.8390002 -1.976 -1.0089999 146 94 54
-7.8400002 -1.978 -0.94599998 96 37 3
-7.8569999 -1.973 -0.94599998 174 104 42
-7.8470001 -1.98 -0.94999999 151 92 48
-7.8569999 -1.971 -0.94599998 106 60 11
-7.8590002 -1.978 -0.97500002 70 28 6
-7.8179998 -2.0369999 -0.96799999 91 56 34
-7.7909999 -2.017 -1.0700001 11 5 5
-7.7600002 -2.0020001 -1.026 80 42 33
-7.7420001 -2.043 -1.043 115 80 40
-7.744 -2.052 -1.039 72 26 0
-7.7550001 -2.039 -1.051 114 94 70
-7.723 -1.992 -1.045 13 4 5
-7.7690001 -2.029 -0.995 58 21 0
-7.756 -2.036 -1.008 100 55 32
-7.763 -2.0079999 -0.97399998 125 93 72
-7.7589998 -2.0020001 -0.97799999 147 106 74
-7.7810001 -2.0239999 -0.97799999 147 89 41
-7.789 -2.026 -0.98799998 46 24 1
-7.7519999 -1.9859999 -1.0599999 11 1 0
-7.803 -2.0280001 -1.073 12 1 0
-7.8010001 -2.029 -1.073 11 1 0
-7.789 -2.0250001 -1.064 17 2 0
-7.8239999 -2.0239999 -0.986 34 15 11
-7.776 -2.033 -1.063 18 0 0
-7.77 -2.0480001 -1.058 51 25 8
-7.7859998 -2.0480001 -1.046 32 1 0
-7.7290001 -1.988 -1.053 97 66 48
-7.73 -1.988 -1.061 16 6 5
-7.822 -1.98 -1.0599999 24 12 12
-7.8119998 -2.0090001 -1.052 29 10 6
-7.8239999 -1.971 -1.0599999 11 1 2
-7.8449998 -1.994 -1.0470001 34 9 5
-7.8449998 -1.995 -1.04 24 4 5
-7.8179998 -2.0090001 -1.046 45 6 1
-7.8119998 -2.0039999 -1.05 20 4 4
-7.8369999 -2.007 -1.03 109 73 39
-7.7659998 -1.969 -1.056 15 0 0
-7.7810001 -1.967 -1.073 8 0 0
-7.7800002 -1.975 -1.0700001 3 2 0
-7.783 -1.976 -1.067 22 3 0
-7.7600002 -1.975 -1.062 20 12 9
-7.8600001 -1.976 -1.012 75 46 32
-7.79 -2.05 -1.013 177 115 56
-7.7690001 -2.0699999 -1.035 149 87 40
-7.7529998 -2.072 -0.99699998 121 79 39
-7.7719998 -2.0699999 -1.018 114 50 6
-7.7740002 -2.069 -1.018 103 55 15
-7.7810001 -2.0780001 -0.99199998 136 93 50
-7.7459998 -2.0510001 -1.033 81 30 0
-7.7940001 -2.0220001 -0.96100003 137 69 22
-7.7969999 -2.0239999 -0.96200001 122 49 16
-7.803 -2.0179999 -0.958 201 157 122
-7.7579999 -2.069 -1.003 255 221 147
-7.7470002 -2.0599999 -1.0039999 115 89 76
-7.7519999 -2.0599999 -0.99400002 135 91 46
-7.7649999 -2.056 -0.99400002 183 123 73
-7.7649999 -2.0539999 -1.003 174 146 109
-7.7859998 -2.03 -0.97000003 142 100 58
-7.8000002 -2.0369999 -0.96700001 129 64 10
-7.7529998 -1.971 -0.98199999 196 144 97
-7.7909999 -2.027 -0.96499997 72 42 16
-7.7709999 -2.0009999 -0.96899998 85 55 27
-7.7719998 -2.0109999 -0.97899997 50 27 9
-7.8309999 -2.0109999 -0.97899997 28 1 0
-7.8260002 -1.995 -0.995 49 12 4
-7.8319998 -2.0139999 -0.98299998 59 11 0
-7.8299999 -2.0090001 -0.97600001 23 2 0
-7.8109999 -2.016 -0.963 55 18 0
-7.8200002 -2.0510001 -0.954 152 100 61
-7.8150001 -2.0380001 -0.95599997 175 137 56
-7.8179998 -2.043 -0.95599997 85 44 16
-7.8140001 -2.04 -0.958 136 96 61
-7.8150001 -2.0439999 -0.995 194 140 93
-7.8150001 -2.0380001 -0.99900001 44 17 6
-7.7909999 -2.0710001 -1.005 172 94 20
-7.7919998 -2.066 -1.001 122 83 44
-7.7880001 -2.0639999 -0.99000001 96 45 18
-7.8169999 -2.0339999 -1.002 115 69 33
-7.783 -1.9809999 -1.066 4 0 0
-7.7919998 -1.96 -1.001 52 29 11
-7.8249998 -1.967 -0.97899997 141 80 35
-7.8379998 -1.985 -0.98299998 75 28 8
-7.8460002 -2 -0.97100002 63 33 23
-7.8579998 -1.971 -0.99699998 35 1 0
-7.7870002 -1.96 -1.039 9 0 3
-7.796 -1.9529999 -1.038 25 6 2
-7.8559999 -1.957 -1.0190001 9 0 0
-7.7210002 -1.984 -1.041 83 47 25
-7.7280002 -1.983 -1.054 51 29 16
-7.7189999 -1.967 -1.044 29 12 5
-7.7220001 -1.965 -1.0319999 42 28 27
-7.711 -1.966 -1.03 53 28 8
-7.8109999 -1.964 -0.98900002 37 17 8
-7.7989998 -1.96 -1.0319999 37 7 0
-7.8049998 -1.961 -1.013 67 47 38
-7.8499999 -1.9450001 -0.97500002 108 52 15
-7.8590002 -1.9450001 -0.98000002 45 26 11
-7.8000002 -1.954 -0.99699998 63 39 29
-7.7719998 -1.957 -1.002 98 66 55
-7.7610002 -1.952 -1.01 38 11 0
-7.7859998 -1.9630001 -0.99800003 86 69 53
-7.75 -1.9529999 -1.01 54 21 2
-7.7509999 -1.954 -1.021 42 13 7
-7.7449999 -1.956 -1.0190001 28 1 0
-7.7449999 -1.956 -1.024 25 0 0
-7.7550001 -1.955 -1.006 60 21 6
-7.7600002 -1.9529999 -1.008 38 11 2
-7.7550001 -1.956 -1.001 54 34 25
-7.744 -1.956 -1.002 45 19 2
-7.8740001 -1.949 -0.98699999 59 24 4
-7.8299999 -1.95 -0.97000003 74 43 23
-7.7729998 -1.966 -0.98400003 25 8 0
-7.7600002 -1.962 -0.97799999 87 52 32
-7.8670001 -1.964 -0.96799999 248 177 97
-7.8629999 -1.966 -0.99299997 82 47 27
-7.8769999 -1.96 -0.97799999 221 168 88
-7.8730001 -1.976 -0.95499998 142 92 39
-7.8579998 -1.9809999 -0.96399999 250 208 150
-7.77 -2.0309999 -1.062 36 16 9
-7.7610002 -2.0150001 -1.044 172 122 85
-7.7930002 -2.0569999 -1.036 54 48 26
-7.789 -2.0550001 -1.03 70 35 15
-7.7969999 -2.046 -1.05 23 2 0
-7.7930002 -2.0450001 -0.986 137 77 41
-7.71 -1.976 -1.013 60 37 29
-7.717 -1.984 -1.0089999 89 47 23
-7.7140002 -1.978 -1.01 71 50 31
-7.7659998 -2.0710001 -0.986 145 67 18
-7.7579999 -1.955 -1.005 35 5 0
-7.77 -1.956 -1.0140001 79 45 18
-7.7969999 -1.961 -1.007 31 11 10
-7.8379998 -1.984 -0.96600002 105 47 23
-7.842 -1.989 -0.96399999 40 6 0
-7.823 -1.989 -0.95999998 94 49 8
-7.8629999 -1.971 -0.97500002 97 56 28
-7.7940001 -2.0380001 -0.98100001 104 49 28
-7.8119998 -2.052 -0.96200001 167 99 52
-7.8140001 -2.053 -0.97500002 123 64 30
-7.8280001 -2.016 -0.98299998 31 3 0
-7.8169999 -2.033 -0.97299999 109 74 52
-7.8049998 -2.0539999 -0.977 132 92 66
-7.8039999 -2.052 -0.97299999 107 61 25
-7.8210001 -2.043 -0.97500002 25 0 0
-7.7859998 -2.0350001 -1.036 12 0 0
-7.8130002 -2.006 -1.027 71 39 24
-7.7940001 -2.016 -1.0700001 5 0 0
-7.757 -1.997 -1.056 54 26 15
-7.7480001 -1.99 -1.048 36 19 9
-7.7509999 -1.9910001 -1.056 25 10 3
-7.7519999 -2.0050001 -1.031 62 40 27
-7.7459998 -2.0450001 -1.036 67 25 13
-7.7010002 -1.975 -1.02 160 106 62
-7.7080002 -1.976 -1.026 87 60 39
-7.7509999 -1.992 -1.061 145 95 68
-7.7550001 -1.995 -1.066 10 2 0
-7.8150001 -2.0339999 -1.0039999 47 22 15
-7.7680001 -2.05 -1.061 10 0 0
-7.8119998 -1.992 -1.066 15 0 0
-7.8049998 -1.9960001 -1.062 31 16 9
-7.8189998 -1.993 -1.0700001 20 2 0
-7.8309999 -1.9680001 -1.0549999 10 0 0
-7.8319998 -2.006 -1.031 30 5 0
-7.836 -1.998 -1.024 141 109 96
-7.8260002 -1.998 -1.012 80 47 28
-7.8140001 -1.96 -1.0319999 72 62 63
-7.8179998 -1.9579999 -1.03 87 72 67
-7.8200002 -1.964 -1.023 39 12 3
-7.7820001 -1.956 -1.0650001 56 39 31
-7.7579999 -1.988 -1.0700001 13 2 0
-7.7600002 -2.003 -1.056 61 26 24
-7.777 -1.982 -1.071 5 1 0
-7.862 -1.967 -1.018 48 30 26
-7.7729998 -2.0669999 -1.034 137 85 45
-7.7639999 -2.0769999 -1.0039999 255 234 148
-7.763 -2.075 -1.006 250 206 107
-7.7639999 -2.0769999 -1.008 255 235 154
-7.7649999 -2.0739999 -1.012 232 195 117
-7.7680001 -2.0710001 -1.018 130 67 23
-7.7480001 -2.0409999 -1.026 43 20 14
-7.8060002 -2.0050001 -0.95200002 105 58 50
-7.8109999 -1.9809999 -0.96499997 152 91 47
-7.7490001 -2.0550001 -1.033 74 28 2
-7.7550001 -2.059 -0.98500001 175 99 39
-7.7729998 -2.046 -1 127 105 84
-7.7979999 -1.985 -0.98299998 17 0 0
-7.7919998 -1.984 -0.98900002 139 93 67
-7.756 -1.971 -0.98000002 28 8 0
-7.7600002 -1.971 -0.97899997 247 195 148
-7.796 -1.997 -0.95300001 76 26 0
-7.796 -1.984 -0.96799999 96 47 6
-7.7810001 -2.0220001 -0.97000003 128 71 41
-7.7870002 -2.0020001 -0.95700002 137 89 41
-7.7729998 -2.017 -1 238 202 188
-7.776 -2.0190001 -0.972 152 93 53
-7.757 -1.995 -0.99699998 36 14 1
-7.7490001 -1.9809999 -0.99400002 116 90 77
-7.7490001 -1.9809999 -0.98799998 62 43 36
-7.8590002 -1.974 -0.94700003 105 57 35
-7.8309999 -2.013 -0.97799999 36 15 10
-7.8080001 -2.0079999 -0.95599997 254 199 98
-7.809 -2.0039999 -0.95999998 194 133 86
-7.7839999 -2.0680001 -1.013 132 71 4
-7.7810001 -2.062 -1.017 60 6 0
-7.7979999 -2.0610001 -0.98500001 115 79 55
-7.7989998 -2.056 -0.99199998 71 10 0
-7.7909999 -1.985 -1.062 6 1 0
-7.77 -1.969 -1.049 62 45 35
-7.776 -1.97 -1.049 15 4 0
-7.8130002 -1.966 -0.98900002 31 14 6
-7.8460002 -1.987 -0.98000002 143 97 61
-7.849 -1.992 -0.97299999 253 222 176
-7.7849998 -1.9630001 -1.0420001 26 7 3
-7.7870002 -1.962 -1.0599999 46 26 17
-7.8189998 -1.95 -1.052 11 0 0
-7.8460002 -1.959 -1.006 25 8 1
-7.8590002 -1.975 -1.008 56 28 6
-7.8319998 -1.982 -0.98299998 40 21 7
-7.8270001 -1.9809999 -0.963 117 55 34
-7.8299999 -1.988 -1.001 67 36 18
-7.7119999 -1.979 -1.026 120 92 81
-7.697 -1.961 -1.024 74 55 41
-7.7290001 -1.96 -1.018 36 13 7
-7.8249998 -1.9630001 -1.018 31 6 2
-7.803 -1.972 -0.99000001 90 70 63
-7.8080001 -1.948 -0.995 48 21 10
-7.7519999 -1.96 -0.98699999 104 81 67
-7.855 -1.952 -0.96700001 40 6 0
-7.8379998 -1.947 -0.97600001 20 6 3
-7.8629999 -1.949 -0.97500002 47 18 2
-7.7610002 -1.955 -1.002 72 42 32
-7.77 -1.957 -1.0089999 91 76 69
-7.7519999 -1.9529999 -1.012 36 21 24
-7.8740001 -1.954 -0.99000001 40 12 0
-7.7639999 -1.974 -0.98100001 188 143 112
-7.7659998 -1.96 -0.99800003 35 8 0
-7.8590002 -1.96 -0.95700002 145 84 39
-7.8699999 -1.976 -0.95599997 203 123 26
-7.7459998 -2.0539999 -1.036 72 27 0
-7.757 -2.0420001 -1.061 42 14 3
-7.7600002 -2.0280001 -1.058 19 0 0
-7.7719998 -2.013 -1.061 25 7 0
-7.7989998 -2.0550001 -1.045 45 18 9
-7.7880001 -2.053 -1.045 60 27 12
-7.7199998 -1.973 -0.99900001 28 9 0
-7.7179999 -1.983 -1.006 70 48 35
-7.7160001 -1.974 -1.002 65 26 9
-7.7270002 -1.988 -1.0039999 44 16 12
-7.7459998 -1.975 -1.025 133 88 57
-7.7550001 -1.975 -1.04 48 21 12
-7.763 -1.965 -1.04 29 2 0
-7.7880001 -1.961 -1.017 87 60 43
-7.8280001 -1.973 -0.96799999 104 42 3
-7.8390002 -1.977 -0.963 36 12 2
-7.836 -1.9809999 -0.958 96 40 3
-7.8470001 -1.965 -0.958 165 114 95
-7.822 -2.0469999 -0.97299999 85 52 33
-7.822 -2.049 -0.97500002 78 42 16
-7.8080001 -2.0220001 -0.96899998 92 50 12
-7.809 -2.0220001 -0.98000002 58 16 0
-7.8130002 -2.053 -0.96600002 139 77 40
-7.809 -2.0309999 -0.95899999 92 48 11
-7.8109999 -2.0510001 -0.963 75 27 4
-7.8070002 -2.04 -0.95999998 116 73 38
-7.7839999 -2.0079999 -1.0650001 56 37 23
-7.7670002 -2.0020001 -1.063 31 11 0
-7.7909999 -1.989 -1.056 114 98 98
-7.7729998 -2.007 -1.011 59 13 0
-7.7709999 -2.0109999 -1.007 101 87 78
-7.744 -1.984 -1.002 47 26 9
-7.7329998 -1.984 -1.005 48 30 16
-7.7470002 -2.0420001 -1.043 46 13 0
-7.8049998 -2.0179999 -1.026 15 8 0
-7.8189998 -2.027 -0.99599999 44 10 1
-7.8169999 -2.0320001 -1.003 34 3 0
-7.8340001 -1.965 -1.054 17 7 6
-7.8400002 -1.96 -1.054 64 39 32
-7.8330002 -1.99 -1.0420001 57 13 2
-7.842 -1.995 -1.051 28 3 0
-7.8299999 -1.974 -1.053 14 0 0
-7.835 -1.966 -1.05 8 0 0
-7.823 -1.995 -1.045 40 20 13
-7.8119998 -1.9859999 -1.071 19 0 0
-7.8249998 -2.0039999 -1.034 25 1 0
-7.8340001 -2.0039999 -1.029 31 8 2
-7.8530002 -1.989 -1.025 70 43 32
-7.8379998 -1.987 -1.038 27 6 3
-7.8130002 -1.948 -1.038 60 28 7
-7.7779999 -1.96 -1.064 17 0 0
-7.757 -1.9529999 -1.028 17 6 4
-7.7649999 -1.9859999 -1.069 20 2 0
-7.7600002 -2.0020001 -1.0599999 25 5 0
-7.756 -1.9809999 -1.059 12 1 0
-7.8379998 -1.956 -1.04 46 27 20
-7.8460002 -1.951 -1.044 90 59 41
-7.8260002 -1.955 -1.0470001 81 66 61
-7.823 -1.957 -1.0369999 14 0 0
-7.7740002 -2.066 -1.0369999 35 10 5
-7.7649999 -2.0710001 -1.015 96 49 5
-7.7589998 -2.033 -1.031 72 24 2
-7.8099999 -1.993 -0.95899999 81 16 0
-7.8200002 -1.9809999 -0.96100003 94 31 0
-7.7589998 -2.0680001 -1.016 255 233 166
-7.7610002 -2.0550001 -1.0089999 87 44 9
-7.777 -2.049 -0.99000001 150 122 101
-7.7729998 -2.0569999 -0.98699999 174 123 70
-7.796 -1.959 -0.98699999 123 82 50
-7.7810001 -1.989 -0.96100003 144 91 49
-7.7690001 -1.9960001 -0.977 108 85 79
-7.7979999 -2.0280001 -0.96499997 111 56 15
-7.7740002 -2.0090001 -0.96200001 167 130 86
-7.7750001 -2.013 -0.96899998 153 102 55
-7.7649999 -1.987 -0.97899997 136 93 24
-7.7789998 -1.988 -0.97000003 120 82 35
-7.7779999 -1.995 -0.96399999 75 29 14
-7.7849998 -1.998 -0.958 182 108 59
-7.7740002 -2.016 -0.97299999 142 89 19
-7.7550001 -1.983 -0.98400003 58 31 22
-7.7529998 -1.977 -0.98500001 156 86 16
-7.7729998 -2.0020001 -0.995 72 31 3
-7.756 -1.965 -0.98000002 115 75 40
-7.789 -1.977 -1.064 18 7 3
-7.855 -1.951 -0.98299998 30 9 4
-7.8569999 -1.9529999 -0.98500001 23 0 0
-7.8530002 -1.956 -1.0089999 72 43 27
-7.8499999 -1.9579999 -0.99800003 45 20 13
-7.8540001 -1.962 -1.0369999 99 57 32
-7.8470001 -1.955 -1.033 44 5 0
-7.8499999 -1.956 -1.034 2 1 0
-7.8260002 -1.959 -1.0369999 34 23 17
-7.835 -1.957 -1.0190001 58 31 22
-7.8200002 -1.976 -0.97399998 130 84 35
-7.8109999 -1.982 -0.96600002 135 115 104
-7.7189999 -1.967 -1.002 56 30 15
-7.8099999 -1.9630001 -0.98900002 101 39 0
-7.8070002 -1.965 -0.98900002 26 7 0
-7.8070002 -1.952 -0.995 37 16 13
-7.8109999 -1.954 -0.98900002 41 21 10
-7.829 -1.947 -0.97100002 133 94 51
-7.8309999 -1.949 -0.97500002 53 29 17
-7.763 -1.956 -1.003 180 135 94
-7.8699999 -1.95 -0.98500001 117 68 35
-7.7649999 -1.966 -0.991 84 38 2
-7.8460002 -1.948 -0.98100001 74 49 42
-7.8460002 -1.954 -0.98500001 19 0 0
-7.8470001 -1.956 -0.98799998 53 24 16
-7.8499999 -1.956 -0.98900002 29 9 2
-7.7490001 -2.053 -1.039 94 65 57
-7.7589998 -2.03 -1.056 72 58 57
-7.73 -1.9809999 -1.001 40 4 0
-7.7670002 -2.059 -0.98799998 195 109 50
-7.7969999 -1.964 -0.995 21 3 1
-7.8340001 -1.98 -0.96600002 94 29 1
-7.8210001 -2.0480001 -0.972 111 76 54
-7.8169999 -2.05 -0.972 103 39 4
-7.8179998 -2.0510001 -0.96399999 67 24 7
-7.822 -2 -1.006 99 66 47
-7.7750001 -1.988 -1.0650001 20 4 4
-7.77 -2.0039999 -1.008 117 61 26
-7.7600002 -1.998 -1.0089999 97 80 73
-7.7550001 -1.999 -1.0089999 36 3 0
-7.7399998 -1.9630001 -0.99299997 102 62 36
-7.783 -2.0439999 -0.99599999 125 86 47
-7.8210001 -1.999 -0.99699998 81 39 23
-7.8140001 -2.013 -0.99599999 69 46 38
-7.816 -2.0220001 -1.005 34 4 0
-7.8150001 -2.0220001 -0.99699998 56 24 3
-7.73 -1.984 -1.023 22 4 0
-7.7600002 -1.9630001 -1.027 6 0 0
-7.7610002 -1.9630001 -1.029 11 2 3
-7.8379998 -1.9579999 -1.052 65 36 20
-7.8239999 -1.957 -1.058 26 5 0
-7.8429999 -1.992 -1.0470001 14 0 0
-7.8390002 -1.9680001 -1.043 16 2 0
-7.7670002 -1.997 -1.063 20 0 1
-7.7620001 -1.98 -1.071 20 0 0
-7.7600002 -2.0020001 -1.059 29 12 5
-7.7519999 -1.975 -1.05 14 0 0
-7.7849998 -2.0580001 -1.011 63 18 0
-7.7600002 -2.0339999 -1.023 83 76 83
-7.7740002 -2.066 -1.033 29 5 5
-7.8150001 -1.994 -0.96100003 114 53 22
-7.8010001 -1.99 -0.95700002 133 74 32
-7.7820001 -1.972 -0.99699998 92 45 3
-7.783 -1.985 -0.96899998 105 78 61
-7.7779999 -1.995 -0.963 174 117 74
-7.7740002 -2.0079999 -0.99299997 74 44 10
-7.8099999 -2.0020001 -0.96399999 84 30 0
-7.8049998 -2.0020001 -0.95499998 255 209 112
-7.7839999 -2.0079999 -0.95599997 200 118 60
-7.7940001 -2.0079999 -0.95599997 134 82 35
-7.776 -1.978 -0.98500001 37 15 4
-7.7729998 -2.0050001 -1.02 89 53 31
-7.776 -2.0179999 -0.97500002 167 117 68
-7.7509999 -1.973 -0.98400003 75 26 0
-7.7800002 -2.0020001 -1.062 29 9 10
-7.8600001 -1.9680001 -0.99400002 62 26 12
-7.8400002 -1.956 -0.99599999 17 0 0
-7.8709998 -1.952 -0.99299997 47 21 6
-7.849 -1.95 -0.98199999 64 36 25
-7.8249998 -1.954 -1.05 5 0 0
-7.862 -1.966 -1.006 58 30 16
-7.8590002 -1.961 -1.0140001 212 146 85
-7.8530002 -1.9579999 -0.99900001 27 3 0
-7.8520002 -1.959 -1.0369999 9 1 0
-7.8429999 -1.957 -1.03 21 2 0
-7.8239999 -1.977 -0.98500001 106 51 10
-7.816 -1.983 -0.99000001 248 216 133
-7.7179999 -1.964 -1.025 33 19 18
-7.724 -1.965 -0.99900001 42 19 5
-7.8330002 -1.957 -1.018 15 0 0
-7.802 -1.9630001 -0.98799998 92 52 26
-7.8080001 -1.951 -0.99199998 37 16 13
-7.816 -1.947 -0.99299997 18 3 0
-7.8309999 -1.955 -0.99699998 81 46 24
-7.8319998 -1.959 -1.007 54 30 26
-7.7610002 -1.957 -1.001 42 15 0
-7.8709998 -1.965 -0.97000003 244 179 99
-7.8530002 -1.99 -0.96799999 77 46 26
-7.855 -1.9910001 -0.96499997 37 7 0
-7.8470001 -1.992 -0.963 38 11 4
-7.8449998 -1.9910001 -0.96100003 34 9 5
-7.8039999 -2.052 -0.99599999 72 40 27
-7.7909999 -2.0550001 -0.99800003 40 9 0
-7.7659998 -2.063 -0.98799998 144 90 43
-7.855 -1.978 -0.98500001 148 107 89
-7.8150001 -2.05 -0.97799999 46 12 3
-7.8119998 -2.0280001 -0.97100002 70 33 6
-7.7709999 -2.003 -1.011 63 29 19
-7.7740002 -2.033 -1 85 49 35
-7.79 -2.033 -0.995 47 28 21
-7.8060002 -2.01 -0.97899997 216 166 117
-7.8099999 -2.006 -0.99299997 175 127 63
-7.8119998 -2.0039999 -0.995 52 18 6
-7.8239999 -1.997 -0.99800003 39 21 11
-7.8140001 -2.013 -0.995 54 23 3
-7.7329998 -1.987 -1.038 65 27 16
-7.7529998 -1.969 -1.046 18 4 3
-7.777 -2.0610001 -1.021 75 22 4
-7.7639999 -2.0280001 -1.029 101 39 16
-7.7870002 -2.063 -1.005 108 85 77
-7.7649999 -2.0409999 -1.008 105 55 22
-7.7820001 -1.988 -0.963 162 109 65
-7.7600002 -1.984 -0.98100001 176 117 47
-7.8099999 -1.989 -0.95999998 144 81 48
-7.855 -1.956 -0.995 34 5 0
-7.8509998 -1.957 -0.99199998 20 2 0
-7.8340001 -1.951 -0.98199999 18 2 2
-7.8540001 -1.954 -0.98699999 20 1 0
-7.8319998 -1.972 -1.048 18 7 3
-7.8319998 -1.974 -1.044 21 7 4
-7.8309999 -1.987 -0.99199998 24 0 0
-7.7129998 -1.962 -1.016 75 49 34
-7.71 -1.977 -1.018 83 58 36
-7.8130002 -1.952 -0.99000001 37 18 12
-7.822 -1.9579999 -1.005 15 1 0
-7.7589998 -1.9579999 -1 133 92 60
-7.8600001 -1.984 -0.95899999 39 5 0
-7.8080001 -2.0420001 -0.99900001 22 0 2
-7.7740002 -2.0669999 -0.98500001 101 32 0
-7.8080001 -1.998 -0.991 101 82 76
-7.73 -1.984 -1.015 39 20 6
-7.7360001 -1.9859999 -1.031 23 5 0
-7.8270001 -1.956 -1.053 88 70 68
-7.7880001 -2.0639999 -1.0039999 64 27 1
-7.7579999 -2.0439999 -1.016 76 53 37
-7.8060002 -1.9960001 -0.977 102 78 50
-7.7849998 -2.0009999 -0.958 128 80 40
-7.7919998 -2 -0.95599997 164 108 49
-7.868 -1.9529999 -0.98900002 104 58 32
-7.8379998 -1.966 -1.0470001 79 52 35
-7.842 -1.965 -1.0420001 33 15 11
-7.7179999 -1.965 -1.011 46 13 0
-7.802 -1.9579999 -0.98699999 79 43 21
-7.8039999 -2.0420001 -1.0089999 36 1 0
-7.7849998 -2.063 -1.01 150 98 59
-7.7600002 -2.043 -1.013 46 21 14
-7.7909999 -2.0109999 -0.958 252 221 157
-7.7540002 -1.974 -0.98299998 197 145 98
-7.8670001 -1.954 -0.99299997 95 57 36
-7.848 -1.9579999 -1.0420001 4 0 0
-7.7309999 -1.965 -1.025 55 25 15
-7.8189998 -1.961 -1.007 43 25 15
-7.7249999 -1.967 -1.01 67 41 26
0 0 0 1 0 0 0 1 0 0 0 1 0 0 0 0 0 830 1 0 0
