ply
format ascii 1.0
comment PCL generated
element vertex 61
property float x
property float y
property float z
property uchar red
property uchar green
property uchar blue
element camera 1
property float view_px
property float view_py
property float view_pz
property float x_axisx
property float x_axisy
property float x_axisz
property float y_axisx
property float y_axisy
property float y_axisz
property float z_axisx
property float z_axisy
property float z_axisz
property float focal
property float scalex
property float scaley
property float centerx
property float centery
property int viewportx
property int viewporty
property float k1
property float k2
end_header
-15.477 0.85000002 -1.0319999 159 96 45
-15.484 0.847 -1.036 187 115 57
-15.476 0.84500003 -1.026 85 30 0
-15.49 0.85000002 -1.031 172 106 46
-15.529 0.85500002 -1.007 158 92 42
-15.519 0.85500002 -1.002 127 79 39
-15.523 0.85600001 -1.006 175 111 67
-15.526 0.80699998 -1.0039999 179 113 53
-15.522 0.80900002 -1.012 59 22 0
-15.508 0.81900001 -1.003 158 74 10
-15.539 0.84299999 -0.99400002 185 109 49
-15.494 0.83099997 -1.028 107 55 8
-15.495 0.83099997 -1.021 101 52 12
-15.498 0.838 -1.021 211 153 107
-15.498 0.79000002 -1.006 157 104 52
-15.496 0.78799999 -1 232 166 106
-15.496 0.787 -1.0089999 198 147 100
-15.502 0.801 -1.0089999 159 113 64
-15.507 0.80599999 -1.003 118 67 24
-15.492 0.833 -1.02 127 77 42
-15.495 0.824 -1.0140001 89 52 25
-15.498 0.82800001 -1.007 99 65 40
-15.522 0.85900003 -1.003 217 144 75
-15.541 0.85500002 -0.99199998 137 82 28
-15.541 0.85500002 -0.991 188 125 82
-15.55 0.85100001 -0.99299997 177 85 12
-15.535 0.85699999 -1.0039999 194 104 44
-15.543 0.847 -0.99900001 176 113 60
-15.534 0.85699999 -0.99800003 153 100 50
-15.548 0.83899999 -0.986 144 93 46
-15.545 0.83899999 -0.97899997 173 92 45
-15.521 0.85699999 -0.99400002 166 100 48
-15.509 0.80800003 -1.012 138 79 23
-15.52 0.80800003 -1.0039999 165 93 35
-15.512 0.80900002 -0.991 132 82 31
-15.485 0.84100002 -1.026 193 131 80
-15.546 0.838 -0.98500001 151 87 39
-15.482 0.84799999 -1.028 138 86 47
-15.546 0.847 -0.99299997 128 76 28
-15.54 0.84799999 -0.99900001 132 81 36
-15.479 0.85000002 -1.025 238 169 114
-15.51 0.86900002 -1.044 175 111 49
-15.513 0.86900002 -1.044 95 37 0
-15.51 0.87199998 -1.044 131 80 49
-15.531 0.85799998 -1.005 170 114 63
-15.51 0.81300002 -1.002 137 98 67
-15.516 0.80699998 -1.0089999 88 52 26
-15.506 0.81400001 -0.98799998 105 67 31
-15.501 0.81400001 -0.98699999 225 126 41
-15.5 0.81300002 -0.98100001 119 84 56
-15.49 0.81900001 -1.008 228 132 45
-15.493 0.81599998 -1.005 92 43 0
-15.506 0.80900002 -0.98799998 163 94 52
-15.545 0.84600002 -0.991 177 95 39
-15.512 0.80800003 -0.995 180 89 18
-15.491 0.82300001 -1.01 95 46 6
-15.504 0.81400001 -0.995 84 48 14
-15.501 0.80900002 -0.99199998 114 63 20
-15.54 0.84799999 -0.995 211 134 64
-15.495 0.824 -1.007 58 22 0
-15.51 0.80800003 -0.99199998 207 136 72
0 0 0 1 0 0 0 1 0 0 0 1 0 0 0 0 0 61 1 0 0
