ply
format ascii 1.0
comment PCL generated
element vertex 571
property float x
property float y
property float z
property uchar red
property uchar green
property uchar blue
element camera 1
property float view_px
property float view_py
property float view_pz
property float x_axisx
property float x_axisy
property float x_axisz
property float y_axisx
property float y_axisy
property float y_axisz
property float z_axisx
property float z_axisy
property float z_axisz
property float focal
property float scalex
property float scaley
property float centerx
property float centery
property int viewportx
property int viewporty
property float k1
property float k2
end_header
-10.553 3.2550001 -1.114 118 74 39
-10.561 3.256 -1.118 95 40 0
-10.563 3.25 -1.13 88 26 0
-10.562 3.25 -1.124 107 43 0
-10.552 3.28 -1.071 181 102 35
-10.561 3.2809999 -1.082 137 58 2
-10.547 3.2820001 -1.071 191 111 42
-10.568 3.2279999 -0.92500001 192 137 46
-10.566 3.2260001 -0.92900002 244 188 111
-10.579 3.2219999 -0.93900001 176 106 46
-10.567 3.2290001 -0.92299998 178 126 43
-10.568 3.2309999 -0.93199998 246 190 113
-10.56 3.25 -1.118 148 82 24
-10.569 3.2449999 -0.92799997 156 99 54
-10.569 3.234 -0.94099998 130 71 11
-10.629 3.2590001 -0.88099998 211 127 55
-10.64 3.2609999 -0.87400001 100 79 34
-10.636 3.266 -0.87 252 223 147
-10.622 3.257 -0.87900001 247 157 69
-10.565 3.2720001 -1.082 164 78 19
-10.562 3.2709999 -1.072 143 57 0
-10.567 3.2650001 -1.071 253 162 79
-10.56 3.27 -1.063 231 137 63
-10.559 3.2490001 -1.11 129 81 41
-10.57 3.2349999 -0.94 238 179 111
-10.576 3.247 -0.949 147 87 37
-10.582 3.2420001 -1.092 143 115 101
-10.574 3.2420001 -1.1 178 119 87
-10.575 3.2490001 -1.085 104 82 59
-10.563 3.2420001 -1.099 182 154 132
-10.55 3.256 -1.098 179 112 42
-10.558 3.247 -1.104 189 162 143
-10.557 3.256 -1.094 226 152 81
-10.648 3.27 -0.88999999 181 148 79
-10.648 3.279 -0.88999999 122 103 60
-10.649 3.266 -0.88300002 121 52 0
-10.632 3.2650001 -1.102 210 167 133
-10.62 3.28 -1.114 75 37 16
-10.632 3.2809999 -1.119 49 17 0
-10.569 3.2490001 -1.123 153 92 35
-10.614 3.2709999 -0.86500001 249 204 147
-10.62 3.2539999 -0.87900001 172 108 36
-10.62 3.27 -0.87400001 170 136 98
-10.624 3.27 -0.875 136 66 14
-10.601 3.2420001 -1.002 150 85 21
-10.594 3.2490001 -0.995 124 75 35
-10.6 3.2390001 -1.008 108 30 0
-10.6 3.2420001 -0.98500001 135 76 34
-10.6 3.23 -1.118 188 122 64
-10.6 3.2320001 -1.1210001 230 156 85
-10.594 3.2360001 -1.1210001 200 143 90
-10.56 3.2850001 -1.086 114 50 6
-10.551 3.2939999 -1.081 181 91 31
-10.551 3.293 -1.068 161 82 23
-10.562 3.302 -1.0650001 156 75 22
-10.56 3.3 -1.0700001 137 61 1
-10.592 3.2290001 -0.93199998 185 120 56
-10.599 3.223 -0.94 249 183 133
-10.593 3.2279999 -0.93599999 103 45 0
-10.599 3.23 -0.93099999 184 106 32
-10.573 3.2390001 -0.94300002 121 66 10
-10.646 3.276 -0.87800002 130 63 10
-10.648 3.273 -0.88800001 255 230 183
-10.643 3.2679999 -0.87300003 255 225 164
-10.556 3.2609999 -1.1 179 118 61
-10.569 3.27 -1.101 101 53 15
-10.563 3.2820001 -1.092 150 73 17
-10.566 3.2850001 -1.09 157 66 0
-10.572 3.263 -1.089 222 152 100
-10.575 3.223 -0.93900001 194 132 55
-10.578 3.227 -0.94700003 229 173 96
-10.628 3.2449999 -0.88999999 242 183 91
-10.621 3.2390001 -0.88999999 219 171 109
-10.647 3.273 -0.89499998 208 171 90
-10.602 3.2509999 -1.124 150 75 17
-10.589 3.2379999 -1.123 119 44 0
-10.591 3.2279999 -1.109 212 144 83
-10.589 3.233 -1.114 142 79 26
-10.577 3.2390001 -1.105 209 130 53
-10.569 3.243 -1.1059999 190 124 50
-10.577 3.2650001 -1.112 220 155 101
-10.593 3.2279999 -0.94800001 200 134 74
-10.605 3.2320001 -1.118 230 144 67
-10.63 3.273 -0.866 250 220 148
-10.62 3.2750001 -0.86699998 227 179 115
-10.641 3.2750001 -0.87400001 192 131 64
-10.641 3.2850001 -0.87900001 166 135 115
-10.635 3.28 -0.87 142 114 41
-10.633 3.273 -0.86699998 255 235 161
-10.552 3.289 -1.061 82 29 0
-10.569 3.286 -1.0549999 163 90 37
-10.565 3.2969999 -1.063 193 113 54
-10.558 3.29 -1.082 141 68 15
-10.576 3.2479999 -0.94099998 172 119 69
-10.579 3.2620001 -0.94599998 166 117 74
-10.576 3.247 -0.949 147 87 37
-10.575 3.2420001 -0.92000002 223 170 104
-10.573 3.2390001 -0.92299998 221 166 84
-10.59 3.2320001 -0.93000001 105 56 23
-10.59 3.2279999 -0.93599999 206 132 69
-10.6 3.2490001 -1.007 110 34 2
-10.636 3.2850001 -0.88099998 95 41 7
-10.624 3.2850001 -0.89700001 147 115 94
-10.646 3.276 -0.88099998 156 120 58
-10.646 3.28 -0.884 181 142 73
-10.569 3.2590001 -1.1059999 128 75 35
-10.614 3.2449999 -0.89600003 108 72 38
-10.624 3.2420001 -0.89600003 106 62 13
-10.616 3.2449999 -0.89099997 145 92 40
-10.605 3.2460001 -0.884 64 16 0
-10.602 3.2449999 -0.88499999 66 15 0
-10.629 3.2520001 -0.88800001 212 130 57
-10.592 3.2620001 -1.049 205 135 86
-10.598 3.2449999 -1.0549999 232 184 146
-10.594 3.257 -1.0369999 146 87 45
-10.564 3.29 -1.0700001 159 119 83
-10.567 3.2720001 -1.0650001 136 67 34
-10.599 3.2460001 -1.051 145 105 79
-10.585 3.2420001 -1.094 163 97 45
-10.586 3.2360001 -1.11 215 119 32
-10.588 3.2379999 -1.119 167 88 22
-10.59 3.2279999 -0.94199997 187 119 48
-10.614 3.28 -1.117 249 180 102
-10.622 3.2839999 -1.112 113 66 38
-10.62 3.293 -1.108 150 59 6
-10.581 3.2390001 -0.95499998 118 62 13
-10.582 3.244 -0.95899999 94 73 46
-10.611 3.237 -0.99900001 169 80 22
-10.621 3.2379999 -1.007 206 143 90
-10.613 3.233 -0.98000002 191 141 92
-10.62 3.2349999 -0.98199999 157 103 57
-10.631 3.24 -1 140 76 38
-10.632 3.243 -0.97899997 127 80 36
-10.637 3.2390001 -1.006 132 69 26
-10.632 3.279 -0.86799997 255 230 157
-10.575 3.2909999 -1.058 174 87 18
-10.571 3.2349999 -0.93400002 182 122 36
-10.582 3.2349999 -0.93300003 163 101 52
-10.577 3.2420001 -0.91799998 186 138 72
-10.593 3.2320001 -0.93000001 177 116 69
-10.63 3.2850001 -0.87599999 119 59 22
-10.634 3.2839999 -0.87800002 134 90 61
-10.584 3.256 -0.95099998 133 78 39
-10.587 3.256 -0.95499998 151 106 75
-10.607 3.2639999 -0.97600001 99 56 24
-10.595 3.263 -0.95700002 214 129 74
-10.615 3.2709999 -0.96200001 71 36 8
-10.617 3.2360001 -0.97000003 137 77 43
-10.603 3.2290001 -0.93199998 117 49 12
-10.643 3.2639999 -0.87900001 168 96 46
-10.637 3.2780001 -0.89600003 70 35 13
-10.639 3.273 -0.89700001 252 249 194
-10.644 3.28 -0.88499999 158 101 58
-10.637 3.2579999 -0.89700001 183 137 75
-10.637 3.257 -0.89399999 164 134 61
-10.636 3.2520001 -0.90100002 158 77 21
-10.636 3.2550001 -0.89600003 183 124 66
-10.634 3.2490001 -0.88999999 218 173 118
-10.631 3.256 -0.88499999 135 65 14
-10.616 3.273 -0.93199998 127 101 86
-10.615 3.2720001 -0.93300003 50 19 1
-10.613 3.2690001 -0.92799997 67 44 30
-10.618 3.2750001 -0.93900001 95 54 24
-10.631 3.276 -0.90899998 49 21 7
-10.591 3.263 -1.041 130 78 38
-10.593 3.2690001 -1.053 146 96 63
-10.601 3.2780001 -1.033 234 201 148
-10.584 3.277 -1.063 103 45 0
-10.627 3.2820001 -1.113 52 17 0
-10.631 3.2820001 -1.1109999 111 74 47
-10.632 3.276 -1.105 143 89 29
-10.633 3.2809999 -1.101 158 110 74
-10.595 3.247 -1.071 187 166 147
-10.594 3.243 -1.085 148 86 35
-10.603 3.253 -1.124 199 131 82
-10.603 3.2539999 -1.124 182 118 70
-10.612 3.2590001 -1.102 100 39 0
-10.62 3.28 -1.1109999 52 13 0
-10.582 3.2390001 -1.112 245 149 62
-10.599 3.243 -1.097 151 85 37
-10.607 3.2449999 -1.087 165 117 69
-10.602 3.2349999 -1.114 150 81 26
-10.583 3.2290001 -0.94599998 240 173 120
-10.602 3.25 -1.1109999 193 125 80
-10.603 3.2650001 -1.104 144 54 0
-10.619 3.2820001 -1.109 47 13 1
-10.618 3.2839999 -1.102 191 146 113
-10.616 3.2720001 -1.003 71 28 0
-10.606 3.2739999 -1 192 116 58
-10.616 3.27 -1.007 39 16 8
-10.613 3.2750001 -0.995 123 79 44
-10.62 3.2709999 -0.99800003 149 99 62
-10.635 3.2690001 -0.995 254 191 124
-10.624 3.267 -1.01 104 58 34
-10.622 3.27 -0.99800003 77 28 0
-10.585 3.2390001 -0.95899999 207 154 78
-10.606 3.2390001 -1.003 86 35 4
-10.629 3.243 -0.98799998 172 111 46
-10.62 3.2409999 -0.99199998 205 109 35
-10.572 3.2869999 -1.0650001 151 72 16
-10.59 3.2620001 -1.006 117 86 65
-10.556 3.2869999 -1.064 176 83 13
-10.555 3.2880001 -1.063 178 99 43
-10.626 3.276 -1.107 67 20 0
-10.574 3.247 -0.93400002 219 167 81
-10.593 3.2390001 -0.921 239 175 113
-10.617 3.276 -0.866 224 174 121
-10.615 3.2750001 -0.87599999 148 98 9
-10.616 3.276 -0.87900001 255 209 104
-10.617 3.2780001 -0.87900001 237 176 119
-10.629 3.2850001 -0.884 245 220 130
-10.625 3.283 -0.87300003 255 218 145
-10.628 3.273 -0.94300002 101 51 18
-10.627 3.27 -0.96399999 96 47 4
-10.621 3.2739999 -0.98699999 157 104 54
-10.629 3.267 -0.96799999 141 84 39
-10.613 3.2869999 -1.084 146 90 39
-10.611 3.286 -1.085 154 103 58
-10.616 3.2839999 -1.097 59 24 4
-10.588 3.2379999 -0.963 151 98 56
-10.586 3.2449999 -0.96100003 117 81 55
-10.591 3.243 -0.96700001 172 109 65
-10.607 3.253 -0.87800002 202 145 78
-10.61 3.266 -0.87300003 254 200 102
-10.608 3.2650001 -0.87400001 215 166 90
-10.646 3.277 -0.884 149 117 56
-10.647 3.276 -0.89200002 255 242 179
-10.565 3.2620001 -1.101 197 178 163
-10.57 3.2850001 -1.086 106 41 11
-10.628 3.2449999 -0.89200002 236 175 92
-10.631 3.2479999 -0.89300001 193 131 58
-10.639 3.2590001 -0.90600002 135 71 25
-10.629 3.253 -0.90499997 132 71 27
-10.641 3.263 -0.89300001 138 91 9
-10.646 3.2739999 -0.88 255 232 173
-10.635 3.256 -0.88800001 162 130 31
-10.634 3.253 -0.889 93 23 0
-10.62 3.273 -0.92400002 35 15 4
-10.622 3.28 -0.91799998 125 85 59
-10.625 3.2780001 -0.90200001 99 56 11
-10.622 3.277 -0.91299999 199 150 118
-10.616 3.2690001 -0.90799999 118 81 54
-10.621 3.277 -0.917 119 88 68
-10.575 3.244 -0.92299998 253 196 125
-10.606 3.279 -1.0549999 219 171 123
-10.602 3.2720001 -1.036 163 108 52
-10.599 3.2550001 -1.0420001 219 153 101
-10.618 3.247 -1.079 165 70 2
-10.615 3.2460001 -1.079 198 136 85
-10.626 3.247 -1.0779999 205 135 76
-10.622 3.2479999 -1.073 199 131 70
-10.563 3.2420001 -1.118 166 135 114
-10.602 3.237 -1.107 245 151 64
-10.62 3.2590001 -0.87900001 164 123 93
-10.62 3.273 -0.90100002 180 129 82
-10.611 3.2720001 -0.88700002 141 68 17
-10.617 3.276 -0.88999999 145 93 20
-10.62 3.2809999 -0.88800001 131 91 65
-10.586 3.2590001 -0.94599998 109 68 46
-10.591 3.25 -1.12 236 160 85
-10.588 3.2539999 -1.11 200 142 58
-10.592 3.25 -1.1160001 225 159 73
-10.582 3.2550001 -1.112 130 61 0
-10.614 3.273 -1.099 195 178 160
-10.614 3.2679999 -1.0089999 172 93 37
-10.617 3.2409999 -1.005 107 67 42
-10.617 3.2460001 -1.0089999 123 77 41
-10.601 3.25 -1.031 104 101 92
-10.607 3.256 -1.018 121 62 28
-10.605 3.24 -1.005 122 83 66
-10.585 3.237 -0.95599997 167 91 33
-10.58 3.2320001 -0.94999999 251 192 114
-10.6 3.2409999 -0.949 145 65 6
-10.6 3.24 -0.94599998 175 82 12
-10.63 3.243 -0.99299997 165 102 31
-10.639 3.2579999 -0.98699999 179 133 99
-10.636 3.2520001 -0.991 123 50 7
-10.643 3.2620001 -1.001 166 98 35
-10.58 3.2809999 -1.0650001 179 117 78
-10.6 3.2780001 -1.072 127 82 59
-10.597 3.2869999 -1.082 131 82 49
-10.577 3.2780001 -1.068 128 88 52
-10.614 3.2720001 -1.001 45 17 6
-10.591 3.2650001 -1.011 104 58 25
-10.599 3.2639999 -1.011 78 41 14
-10.6 3.266 -0.995 79 26 0
-10.603 3.273 -0.98699999 206 178 157
-10.592 3.256 -0.972 89 52 33
-10.627 3.2690001 -1.1 118 62 3
-10.572 3.244 -0.93199998 158 76 28
-10.582 3.2579999 -0.94 188 89 8
-10.582 3.2579999 -0.93099999 106 92 66
-10.606 3.25 -0.89099997 92 47 24
-10.605 3.2520001 -0.89200002 65 21 0
-10.584 3.243 -0.91900003 255 218 165
-10.613 3.2539999 -0.90499997 188 133 69
-10.62 3.26 -0.90799999 73 37 15
-10.608 3.244 -0.92199999 114 65 25
-10.61 3.263 -0.92500001 57 30 9
-10.62 3.279 -0.87099999 158 112 50
-10.623 3.283 -0.87400001 160 111 44
-10.612 3.2720001 -0.87099999 84 43 0
-10.621 3.266 -1.011 100 81 74
-10.629 3.2639999 -0.96100003 119 78 46
-10.615 3.244 -0.96200001 123 48 0
-10.63 3.253 -0.94800001 179 125 81
-10.622 3.2809999 -0.88099998 255 212 108
-10.626 3.2839999 -0.87599999 240 192 120
-10.623 3.283 -0.87699997 162 117 52
-10.625 3.2839999 -0.87800002 176 127 58
-10.617 3.2780001 -0.87599999 182 142 72
-10.627 3.2850001 -0.88099998 168 127 47
-10.64 3.2809999 -0.88599998 160 108 69
-10.636 3.2809999 -0.88499999 172 163 94
-10.625 3.279 -0.92000002 116 87 69
-10.634 3.2750001 -0.92699999 55 19 0
-10.636 3.2750001 -0.921 49 19 8
-10.607 3.266 -0.94599998 123 65 19
-10.598 3.29 -1.087 178 126 86
-10.633 3.2720001 -1.079 248 198 99
-10.64 3.267 -1.0700001 199 119 60
-10.628 3.2809999 -1.064 87 45 20
-10.623 3.2709999 -0.991 118 83 63
-10.634 3.2650001 -0.99299997 106 41 0
-10.608 3.2579999 -0.88 145 84 37
-10.611 3.266 -0.97600001 137 85 46
-10.607 3.2679999 -0.98299998 126 70 23
-10.62 3.2679999 -0.96600002 102 49 9
-10.611 3.237 -0.972 126 66 29
-10.593 3.2409999 -0.96899998 153 82 26
-10.593 3.2460001 -0.97100002 145 78 33
-10.603 3.2260001 -0.93800002 169 97 47
-10.631 3.25 -0.89999998 188 127 73
-10.63 3.25 -0.89999998 95 42 0
-10.579 3.2679999 -1.102 255 196 135
-10.591 3.2650001 -1.1 213 154 60
-10.577 3.267 -1.097 161 144 128
-10.589 3.2620001 -1.0930001 135 83 43
-10.574 3.27 -1.081 231 139 66
-10.572 3.283 -1.086 133 113 102
-10.607 3.2809999 -1.076 154 99 58
-10.635 3.2690001 -0.93800002 163 111 71
-10.63 3.25 -0.94499999 207 145 96
-10.63 3.2690001 -0.92900002 109 64 41
-10.63 3.247 -0.89600003 121 64 9
-10.618 3.2720001 -0.91600001 111 89 76
-10.624 3.2839999 -1.089 135 117 105
-10.63 3.2750001 -1.0930001 190 119 57
-10.635 3.267 -1.087 144 73 27
-10.636 3.2690001 -1.076 221 159 108
-10.633 3.2690001 -1.084 250 196 96
-10.633 3.2609999 -1.069 145 90 49
-10.633 3.253 -1.066 225 161 113
-10.598 3.2490001 -1.056 157 88 31
-10.629 3.2509999 -1.061 158 84 37
-10.605 3.247 -1.075 159 104 40
-10.61 3.247 -1.08 191 125 67
-10.598 3.2520001 -1.1109999 255 208 116
-10.569 3.2420001 -1.113 234 144 68
-10.602 3.2490001 -1.1160001 187 124 71
-10.581 3.257 -1.1109999 249 180 102
-10.58 3.2509999 -1.1160001 201 157 122
-10.615 3.267 -1.098 127 63 15
-10.621 3.2420001 -1.008 148 112 88
-10.624 3.2509999 -1.026 117 57 21
-10.629 3.243 -1.01 134 78 41
-10.614 3.2520001 -1.022 142 87 48
-10.612 3.2490001 -1.027 157 106 63
-10.606 3.253 -1.039 122 90 77
-10.611 3.2509999 -1.029 155 124 104
-10.635 3.253 -1.011 127 83 46
-10.639 3.257 -1.001 230 175 110
-10.635 3.2420001 -1.007 105 46 14
-10.634 3.2520001 -0.99800003 240 194 132
-10.635 3.2520001 -0.99400002 133 72 0
-10.586 3.2320001 -0.95300001 229 167 108
-10.59 3.2349999 -0.954 198 128 66
-10.625 3.2409999 -0.99400002 143 80 45
-10.596 3.2620001 -1.027 152 121 92
-10.6 3.2639999 -0.991 85 30 0
-10.597 3.2609999 -1.0089999 122 79 60
-10.596 3.26 -0.98100001 82 36 3
-10.597 3.2579999 -0.97299999 141 97 70
-10.591 3.2520001 -0.97799999 153 96 51
-10.598 3.2609999 -0.96100003 138 97 79
-10.59 3.2479999 -0.96700001 154 98 39
-10.626 3.2880001 -1.103 126 39 0
-10.631 3.2809999 -1.107 142 96 63
-10.632 3.279 -1.103 106 35 0
-10.58 3.2539999 -0.93800002 208 131 51
-10.58 3.2509999 -0.92799997 244 196 124
-10.581 3.2479999 -0.92400002 248 208 136
-10.614 3.277 -0.86799997 224 161 94
-10.617 3.276 -0.88800001 252 206 110
-10.615 3.2739999 -0.88 203 151 39
-10.611 3.2690001 -0.87699997 221 174 86
-10.613 3.266 -1.013 122 63 31
-10.616 3.2490001 -1.0599999 214 147 94
-10.614 3.2479999 -1.058 133 74 16
-10.632 3.243 -1.011 118 62 29
-10.63 3.2639999 -0.95999998 106 69 42
-10.627 3.2780001 -0.91900003 86 55 37
-10.611 3.267 -0.93000001 100 51 21
-10.616 3.2750001 -0.98900002 102 51 4
-10.615 3.267 -0.977 167 114 74
-10.633 3.2720001 -1.0700001 185 137 89
-10.63 3.2739999 -1.066 140 118 95
-10.626 3.2780001 -1.059 72 30 6
-10.626 3.2679999 -0.99800003 79 47 36
-10.607 3.266 -1.008 142 57 3
-10.611 3.2650001 -1.012 81 20 0
-10.603 3.2590001 -0.88999999 190 123 80
-10.594 3.237 -0.96899998 162 111 66
-10.601 3.2390001 -0.96100003 78 19 0
-10.6 3.24 -0.96399999 154 80 19
-10.615 3.2490001 -0.94 142 76 24
-10.606 3.2409999 -0.93900001 171 105 55
-10.605 3.233 -0.93300003 146 86 34
-10.625 3.2539999 -0.94300002 211 155 108
-10.606 3.277 -1.098 172 156 141
-10.593 3.2850001 -1.085 132 79 47
-10.617 3.277 -1.0599999 246 184 133
-10.586 3.26 -1.073 137 76 29
-10.598 3.2490001 -1.0599999 97 61 49
-10.598 3.2479999 -1.059 156 147 140
-10.619 3.2679999 -0.92699999 130 98 87
-10.623 3.2720001 -0.91799998 124 94 83
-10.618 3.266 -0.93199998 142 96 70
-10.644 3.2679999 -0.89499998 161 115 29
-10.628 3.273 -0.94 111 61 24
-10.624 3.2780001 -0.92199999 113 87 74
-10.621 3.2750001 -0.921 118 96 85
-10.619 3.2739999 -0.93099999 124 100 88
-10.632 3.266 -1.084 153 92 0
-10.634 3.267 -1.095 107 38 0
-10.607 3.279 -1.069 147 98 57
-10.616 3.2490001 -1.063 202 133 76
-10.628 3.2590001 -1.061 120 61 17
-10.611 3.253 -1.049 172 96 47
-10.609 3.247 -1.085 238 176 125
-10.615 3.253 -1.085 253 223 127
-10.607 3.2479999 -1.089 195 102 32
-10.613 3.2539999 -1.087 246 227 125
-10.614 3.2650001 -0.90700001 45 13 0
-10.622 3.2490001 -1.04 89 47 25
-10.624 3.2550001 -1.045 181 123 83
-10.637 3.2550001 -0.99400002 166 96 26
-10.634 3.2479999 -0.99199998 105 85 78
-10.601 3.2750001 -1.031 204 169 115
-10.605 3.2590001 -1.017 105 50 19
-10.595 3.253 -0.99000001 162 93 26
-10.597 3.2479999 -0.98100001 91 43 3
-10.577 3.25 -0.93699998 246 204 96
-10.596 3.256 -0.94099998 196 141 84
-10.595 3.2360001 -0.926 251 172 105
-10.616 3.2780001 -0.87300003 255 228 162
-10.621 3.2679999 -1.027 105 67 44
-10.628 3.2609999 -1.017 118 62 39
-10.63 3.283 -0.88499999 255 250 172
-10.625 3.267 -0.95999998 178 124 77
-10.613 3.2579999 -0.93400002 85 32 0
-10.617 3.2709999 -0.94199997 191 134 89
-10.615 3.2750001 -0.99000001 103 63 28
-10.622 3.2709999 -0.98400003 210 154 105
-10.619 3.27 -1.05 92 48 13
-10.63 3.2609999 -0.98699999 241 180 113
-10.629 3.26 -0.98400003 238 189 130
-10.625 3.2550001 -0.98000002 250 191 131
-10.609 3.2379999 -0.97399998 126 69 26
-10.606 3.2420001 -0.94 196 129 76
-10.604 3.2390001 -0.94 190 121 62
-10.604 3.2349999 -0.93699998 168 102 50
-10.605 3.2379999 -0.93400002 138 70 9
-10.592 3.289 -1.087 135 51 5
-10.596 3.2650001 -1.092 157 102 61
-10.604 3.2750001 -1.095 93 39 1
-10.593 3.26 -1.104 193 132 67
-10.589 3.2639999 -1.076 133 80 36
-10.603 3.247 -1.077 143 111 88
-10.641 3.266 -0.898 99 63 39
-10.63 3.263 -0.90499997 88 32 0
-10.632 3.2720001 -0.93699998 157 109 69
-10.618 3.2709999 -1.038 99 68 39
-10.602 3.2690001 -1.041 104 53 6
-10.601 3.27 -1.049 187 136 91
-10.623 3.2850001 -1.09 151 61 11
-10.627 3.276 -1.0880001 130 85 44
-10.607 3.2539999 -1.044 141 91 56
-10.618 3.2550001 -1.085 251 200 117
-10.575 3.24 -1.1210001 123 55 6
-10.607 3.247 -1.105 110 47 4
-10.608 3.256 -1.101 198 131 60
-10.604 3.2479999 -1.11 255 221 129
-10.601 3.2409999 -1.113 177 112 58
-10.603 3.2479999 -1.113 255 224 127
-10.614 3.27 -0.89600003 220 192 168
-10.618 3.2720001 -0.89600003 114 68 19
-10.619 3.277 -0.89099997 255 202 109
-10.61 3.2550001 -0.89600003 128 82 56
-10.607 3.2420001 -1.063 163 90 37
-10.61 3.253 -1.033 159 85 38
-10.633 3.247 -0.99400002 97 71 58
-10.588 3.2550001 -0.93699998 255 230 148
-10.601 3.2739999 -1.0319999 198 159 100
-10.599 3.26 -0.99199998 104 46 6
-10.613 3.267 -0.95099998 146 105 73
-10.622 3.2650001 -1.097 233 194 117
-10.632 3.276 -1.099 185 130 66
-10.58 3.253 -0.93400002 255 204 124
-10.591 3.2550001 -0.93400002 172 130 72
-10.618 3.279 -0.87099999 190 148 90
-10.613 3.2739999 -0.87 171 135 73
-10.631 3.279 -0.89499998 58 24 12
-10.619 3.273 -0.94099998 97 45 5
-10.629 3.257 -0.94400001 118 67 24
-10.624 3.27 -0.94599998 156 107 67
-10.613 3.2750001 -0.991 121 73 33
-10.604 3.2739999 -1.048 165 117 69
-10.613 3.25 -0.94300002 202 131 75
-10.605 3.234 -0.935 181 118 65
-10.612 3.28 -1.076 173 89 42
-10.638 3.2590001 -0.903 158 79 20
-10.634 3.2750001 -0.90200001 61 25 9
-10.618 3.2739999 -0.93199998 153 125 114
-10.619 3.2739999 -0.93300003 41 9 0
-10.619 3.2739999 -0.93699998 110 63 37
-10.63 3.276 -0.92199999 41 8 0
-10.616 3.273 -1.033 68 41 14
-10.616 3.277 -1.075 140 94 70
-10.629 3.2639999 -1.077 181 134 90
-10.571 3.244 -1.126 102 37 0
-10.617 3.2709999 -0.90200001 109 81 60
-10.62 3.2809999 -1.087 105 64 36
-10.633 3.2620001 -1.036 125 78 48
-10.634 3.25 -0.99400002 255 207 131
-10.607 3.2479999 -0.95200002 166 107 47
-10.601 3.27 -1.031 186 134 77
-10.616 3.267 -0.954 149 93 46
-10.626 3.266 -1.095 118 62 3
-10.606 3.257 -0.92799997 136 80 43
-10.588 3.2550001 -0.935 219 130 72
-10.615 3.2690001 -0.98299998 81 38 4
-10.621 3.2690001 -1.052 158 113 80
-10.595 3.2490001 -0.97899997 131 77 33
-10.604 3.243 -0.95099998 128 63 9
-10.601 3.2739999 -1.067 163 106 63
-10.639 3.267 -0.90399998 93 32 1
-10.622 3.2609999 -1.089 173 112 47
-10.63 3.2650001 -1.08 156 90 0
-10.612 3.2579999 -0.89600003 93 41 19
-10.625 3.257 -1.035 233 169 105
-10.626 3.2679999 -1.033 161 125 93
-10.61 3.2720001 -1.03 63 26 0
-10.64 3.26 -0.99699998 166 98 33
-10.622 3.247 -0.972 105 78 67
-10.608 3.253 -0.93099999 135 85 36
-10.611 3.256 -0.93400002 177 128 85
-10.578 3.2490001 -0.92799997 224 170 96
-10.611 3.267 -0.93900001 120 66 19
-10.628 3.2639999 -1.0549999 100 46 10
-10.608 3.2690001 -1.028 93 48 15
-10.639 3.26 -0.99400002 221 156 98
-10.589 3.247 -0.921 224 172 115
-10.608 3.244 -0.96100003 90 38 0
-10.591 3.2539999 -0.92799997 166 117 61
-10.592 3.253 -0.92799997 164 112 54
-10.625 3.257 -1.0319999 237 176 121
-10.588 3.247 -0.92000002 191 139 89
-10.604 3.2460001 -0.92699999 182 141 79
-10.62 3.267 -1.046 78 28 1
-10.62 3.2679999 -1.049 155 110 79
0 0 0 1 0 0 0 1 0 0 0 1 0 0 0 0 0 571 1 0 0
