ply
format ascii 1.0
comment PCL generated
element vertex 1164
property float x
property float y
property float z
property uchar red
property uchar green
property uchar blue
element camera 0
property float view_px
property float view_py
property float view_pz
property float x_axisx
property float x_axisy
property float x_axisz
property float y_axisx
property float y_axisy
property float y_axisz
property float z_axisx
property float z_axisy
property float z_axisz
property float focal
property float scalex
property float scaley
property float centerx
property float centery
property int viewportx
property int viewporty
property float k1
property float k2
end_header
-0.56800002 -0.25 -0.85799998 33 12 7
-0.56599998 -0.24699999 -0.852 59 31 17
-0.56099999 -0.242 -0.85000002 43 24 20
-0.56400001 -0.248 -0.84799999 46 27 13
-0.55800003 -0.214 -0.85900003 27 3 1
-0.54699999 -0.248 -0.93000001 33 4 0
-0.56300002 -0.212 -0.912 96 62 16
-0.56699997 -0.205 -0.91100001 79 36 4
-0.55599999 -0.22499999 -0.89499998 31 9 0
-0.55599999 -0.22400001 -0.89399999 97 48 16
-0.55500001 -0.229 -0.89399999 21 1 0
-0.551 -0.255 -0.89700001 118 94 82
-0.551 -0.26100001 -0.89099997 120 96 84
-0.52999997 -0.27000001 -0.87400001 120 117 124
-0.53299999 -0.27500001 -0.87599999 18 0 1
-0.56199998 -0.245 -0.866 55 42 10
-0.56800002 -0.25400001 -0.86000001 14 0 0
-0.56599998 -0.25299999 -0.847 57 49 70
-0.56999999 -0.25799999 -0.85299999 56 20 4
-0.54500002 -0.271 -0.87199998 83 36 8
-0.55800003 -0.29100001 -0.95099998 159 96 45
-0.551 -0.271 -0.94700003 61 34 39
-0.546 -0.278 -0.93699998 122 103 99
-0.56 -0.28299999 -0.91799998 144 76 11
-0.56099999 -0.28400001 -0.912 167 103 42
-0.50300002 -0.21699999 -0.986 35 13 2
-0.50700003 -0.336 -0.94599998 155 104 59
-0.51200002 -0.32300001 -0.92799997 41 12 0
-0.45899999 -0.35299999 -0.86699998 105 74 54
-0.51099998 -0.412 -0.98699999 144 130 127
-0.505 -0.41100001 -0.98900002 17 0 0
-0.523 -0.421 -0.99000001 49 22 5
-0.52100003 -0.41999999 -0.99299997 47 19 5
-0.49700001 -0.38 -1 56 26 0
-0.49599999 -0.384 -1 179 140 99
-0.50700003 -0.34 -0.95200002 92 57 35
-0.509 -0.329 -0.96600002 154 121 104
-0.50599998 -0.34200001 -0.94499999 106 82 78
-0.50099999 -0.35499999 -0.95700002 67 21 6
-0.50099999 -0.347 -0.96200001 22 6 0
-0.509 -0.36000001 -0.99900001 112 60 21
-0.50400001 -0.359 -0.98900002 51 7 4
-0.49900001 -0.37099999 -0.92000002 98 60 37
-0.50099999 -0.36899999 -0.93300003 80 48 23
-0.50800002 -0.36199999 -0.92900002 45 22 8
-0.495 -0.389 -0.91100001 52 24 3
-0.49399999 -0.38299999 -0.95899999 45 11 0
-0.51200002 -0.33199999 -0.97799999 86 60 45
-0.523 -0.32800001 -0.986 95 45 10
-0.51999998 -0.331 -0.991 84 37 7
-0.52700001 -0.33000001 -0.991 71 27 0
-0.55299997 -0.264 -0.889 111 85 68
-0.56099999 -0.28400001 -0.89999998 177 116 53
-0.56199998 -0.28400001 -0.90600002 196 133 64
-0.53799999 -0.29499999 -0.92500001 54 54 56
-0.523 -0.315 -0.94499999 137 126 122
-0.53200001 -0.26800001 -0.90499997 74 50 24
-0.52600002 -0.26100001 -0.86799997 155 113 88
-0.52899998 -0.28600001 -0.87699997 148 130 120
-0.514 -0.28799999 -0.87400001 117 100 92
-0.52399999 -0.27500001 -0.88 25 1 0
-0.509 -0.28799999 -0.86799997 114 97 89
-0.54799998 -0.301 -0.89700001 194 145 104
-0.54500002 -0.29100001 -0.90899998 57 56 38
-0.54400003 -0.29100001 -0.91100001 131 80 37
-0.54000002 -0.296 -0.90399998 21 5 5
-0.54299998 -0.29100001 -0.91500002 154 110 71
-0.53899997 -0.29300001 -0.91600001 119 84 52
-0.55800003 -0.266 -0.96200001 64 37 54
-0.54100001 -0.273 -0.97299999 89 63 48
-0.55800003 -0.26499999 -0.96399999 143 126 118
-0.55900002 -0.264 -0.96700001 50 21 7
-0.493 -0.30199999 -0.91600001 138 121 113
-0.498 -0.29899999 -0.935 35 8 0
-0.49700001 -0.30899999 -0.91500002 149 112 85
-0.56800002 -0.454 -0.93900001 48 29 15
-0.55400002 -0.23999999 -0.97299999 32 14 10
-0.52999997 -0.25799999 -0.96100003 44 21 13
-0.53600001 -0.27700001 -0.97000003 108 73 43
-0.52899998 -0.27599999 -0.95999998 20 0 0
-0.55199999 -0.24600001 -0.96799999 65 29 0
-0.54699999 -0.243 -0.95300001 32 13 0
-0.50999999 -0.223 -0.954 82 55 28
-0.50599998 -0.222 -0.95300001 54 28 1
-0.51499999 -0.193 -0.92500001 68 35 28
-0.51200002 -0.197 -0.92000002 85 49 37
-0.52200001 -0.184 -0.921 49 20 4
-0.53500003 -0.192 -0.93599999 105 70 64
-0.52600002 -0.192 -0.92400002 18 27 94
-0.54299998 -0.15899999 -0.64999998 113 80 49
-0.54400003 -0.162 -0.65700001 78 49 33
-0.54699999 -0.164 -0.65399998 200 127 72
-0.53100002 -0.182 -0.63300002 195 141 69
-0.53799999 -0.185 -0.63 50 24 11
-0.55299997 -0.192 -0.81199998 64 32 37
-0.54000002 -0.199 -0.796 7 5 42
-0.55400002 -0.185 -0.95599997 155 102 50
-0.447 -0.273 -0.778 43 24 20
-0.454 -0.27000001 -0.787 99 68 24
-0.486 -0.206 -0.74900001 98 98 132
-0.53799999 -0.19499999 -0.76999998 44 44 72
-0.523 -0.206 -0.75599998 28 5 0
-0.47600001 -0.245 -0.77100003 75 49 50
-0.465 -0.23199999 -0.77499998 89 113 173
-0.491 -0.242 -0.77899998 60 30 20
-0.49000001 -0.243 -0.79299998 33 14 7
-0.49599999 -0.214 -0.78200001 85 78 70
-0.54799998 -0.20100001 -0.82800001 65 32 15
-0.42399999 -0.28600001 -0.977 10 2 0
-0.40900001 -0.25299999 -0.97000003 187 155 117
-0.426 -0.25299999 -0.96700001 238 213 191
-0.42300001 -0.257 -0.96799999 51 17 7
-0.43200001 -0.259 -0.97100002 136 104 83
-0.44299999 -0.221 -0.96499997 127 108 102
-0.48500001 -0.222 -0.986 55 29 14
-0.493 -0.21799999 -0.99000001 80 62 76
-0.50800002 -0.214 -0.977 116 88 74
-0.52600002 -0.20900001 -0.96700001 35 8 0
-0.491 -0.22 -0.94999999 94 77 33
-0.52700001 -0.212 -0.99299997 32 8 6
-0.53500003 -0.17900001 -0.958 87 55 42
-0.565 -0.25099999 -0.96399999 167 165 176
-0.56400001 -0.25400001 -0.95700002 140 95 54
-0.53299999 -0.19 -0.91900003 173 133 108
-0.42300001 -0.19 -0.87599999 119 79 30
-0.42500001 -0.189 -0.87300003 119 73 24
-0.42500001 -0.19 -0.89099997 101 63 16
-0.43399999 -0.19400001 -0.94800001 72 29 0
-0.435 -0.214 -0.94300002 66 70 73
-0.53200001 -0.20299999 -0.96899998 16 2 0
-0.53100002 -0.20299999 -0.96499997 34 12 0
-0.54799998 -0.32699999 -1.012 240 198 96
-0.54000002 -0.31 -1.007 153 139 130
-0.53799999 -0.294 -0.98799998 146 125 120
-0.53600001 -0.30199999 -0.97500002 128 114 105
-0.53299999 -0.30000001 -0.98500001 146 127 120
-0.537 -0.317 -1.002 139 127 129
-0.53500003 -0.29800001 -1 46 19 8
-0.54299998 -0.28400001 -1.0039999 30 2 0
-0.54900002 -0.28400001 -1.0039999 26 3 0
-0.54799998 -0.315 -1.031 115 50 20
-0.54000002 -0.31200001 -1.025 34 23 31
-0.56599998 -0.25299999 -0.98699999 28 8 1
-0.55900002 -0.26499999 -0.97000003 27 8 1
-0.56999999 -0.26699999 -0.977 116 98 86
-0.55599999 -0.28400001 -1 51 30 29
-0.53799999 -0.28999999 -1.017 151 123 99
-0.542 -0.241 -1.0089999 142 90 40
-0.29300001 -0.248 -0.65499997 116 54 5
-0.315 -0.245 -0.648 104 41 0
-0.331 -0.236 -0.64700001 176 97 40
-0.322 -0.23899999 -0.64899999 193 141 68
-0.33399999 -0.23800001 -0.65600002 97 51 35
-0.32499999 -0.23800001 -0.64899999 220 164 81
-0.5 -0.21600001 -0.80199999 32 14 10
-0.51200002 -0.21600001 -0.78899997 54 11 2
-0.51999998 -0.215 -0.78399998 82 59 51
-0.51300001 -0.21600001 -0.77999997 79 60 53
-0.47299999 -0.233 -0.824 57 28 10
-0.47600001 -0.236 -0.829 62 31 10
-0.48899999 -0.222 -0.80699998 182 149 108
-0.5 -0.226 -0.815 30 20 44
-0.53600001 -0.20100001 -0.84200001 43 14 0
-0.49000001 -0.223 -0.847 54 23 0
-0.52200001 -0.192 -0.917 137 95 53
-0.51099998 -0.22 -0.79699999 76 52 40
-0.50800002 -0.221 -0.79799998 88 64 52
-0.51800001 -0.226 -0.815 11 10 44
-0.53100002 -0.20200001 -0.83099997 69 58 56
-0.53100002 -0.20299999 -0.82800001 110 74 40
-0.55699998 -0.20999999 -0.85100001 113 71 21
-0.53299999 -0.197 -0.90700001 153 106 80
-0.537 -0.19499999 -0.91399997 55 69 142
-0.542 -0.2 -0.90600002 116 110 112
-0.54000002 -0.20200001 -0.903 150 108 83
-0.54500002 -0.199 -0.90700001 24 10 9
-0.465 -0.19599999 -0.866 205 164 132
-0.463 -0.19599999 -0.86199999 101 62 29
-0.461 -0.273 -0.82999998 157 124 89
-0.463 -0.289 -0.84799999 130 93 49
-0.46700001 -0.292 -0.85299999 74 42 3
-0.472 -0.219 -0.84500003 62 25 6
-0.491 -0.22499999 -0.84100002 49 18 0
-0.50999999 -0.207 -0.838 96 85 79
-0.50400001 -0.212 -0.83200002 135 108 101
-0.48500001 -0.227 -0.83600003 155 137 133
-0.51200002 -0.271 -0.90600002 76 21 1
-0.51300001 -0.26699999 -0.90600002 48 24 22
-0.461 -0.22400001 -0.77999997 38 51 129
-0.47099999 -0.21699999 -0.77899998 82 65 110
-0.47799999 -0.223 -0.76499999 91 52 23
-0.46799999 -0.226 -0.77200001 148 119 89
-0.456 -0.198 -0.88499999 175 131 70
-0.46599999 -0.20200001 -0.89300001 119 83 49
-0.47400001 -0.199 -0.89099997 136 87 73
-0.44800001 -0.19499999 -0.87900001 102 63 66
-0.456 -0.19599999 -0.87800002 211 173 137
-0.45899999 -0.2 -0.884 216 165 82
-0.36500001 -0.28099999 -0.85699999 132 100 77
-0.37900001 -0.255 -0.85799998 114 80 53
-0.38299999 -0.25400001 -0.85600001 97 62 32
-0.36500001 -0.266 -0.86299998 145 102 47
-0.37200001 -0.271 -0.852 85 47 28
-0.36500001 -0.259 -0.87300003 62 32 21
-0.38999999 -0.25400001 -0.89300001 78 39 22
-0.39300001 -0.259 -0.89899999 125 105 98
-0.36899999 -0.25600001 -0.89700001 62 31 2
-0.40200001 -0.292 -0.903 62 38 34
-0.382 -0.28200001 -0.898 21 2 0
-0.38999999 -0.28 -0.89700001 65 37 26
-0.382 -0.292 -0.88499999 128 118 119
-0.43200001 -0.228 -0.96100003 109 58 5
-0.45199999 -0.208 -0.917 115 87 65
-0.50599998 -0.60399997 -0.995 96 48 8
-0.51200002 -0.45199999 -1.045 58 11 3
-0.50700003 -0.42699999 -1.022 164 135 117
-0.53200001 -0.58399999 -0.98900002 113 67 43
-0.53299999 -0.58399999 -0.99199998 61 22 5
-0.50599998 -0.55599999 -0.97299999 116 87 83
-0.51800001 -0.54699999 -1.003 75 40 8
-0.514 -0.546 -1.0089999 30 14 14
-0.51499999 -0.546 -1.013 67 29 20
-0.51899999 -0.55199999 -1.0039999 22 1 0
-0.514 -0.54799998 -1.025 71 42 34
-0.51599997 -0.56199998 -0.99900001 120 92 78
-0.53100002 -0.57300001 -1.011 187 172 169
-0.528 -0.574 -1.0039999 156 133 119
-0.52999997 -0.57599998 -1.005 14 0 0
-0.53200001 -0.57700002 -1.008 26 7 1
-0.53200001 -0.579 -0.98900002 140 125 130
-0.49399999 -0.53100002 -1.029 89 74 69
-0.491 -0.53399998 -1.029 238 212 115
-0.50300002 -0.52899998 -1.028 141 107 72
-0.48899999 -0.192 -0.62300003 151 89 30
-0.48699999 -0.19499999 -0.62199998 181 115 39
-0.491 -0.20100001 -0.61699998 223 151 79
-0.53200001 -0.315 -0.79900002 246 201 162
-0.54799998 -0.22499999 -0.773 43 26 18
-0.54699999 -0.219 -0.78399998 13 3 1
-0.58999997 -0.41600001 -0.79900002 234 190 127
-0.597 -0.40200001 -0.81800002 139 100 43
-0.59299999 -0.40000001 -0.815 122 71 6
-0.59799999 -0.40099999 -0.81099999 85 71 44
-0.551 -0.2 -0.71700001 121 105 89
-0.55699998 -0.198 -0.72399998 92 65 38
-0.491 -0.255 -0.67400002 137 87 50
-0.49200001 -0.24699999 -0.67900002 58 33 13
-0.49599999 -0.243 -0.67699999 71 13 0
-0.493 -0.21699999 -0.69 89 52 25
-0.49000001 -0.248 -0.68199998 103 22 0
-0.48899999 -0.24699999 -0.67400002 144 118 105
-0.54400003 -0.20200001 -0.69400001 33 11 0
-0.50599998 -0.53399998 -0.71200001 95 57 20
-0.50300002 -0.53299999 -0.71499997 113 64 23
-0.50999999 -0.56 -0.70999998 170 113 46
-0.48300001 -0.20900001 -0.71499997 18 0 0
-0.47999999 -0.20999999 -0.71799999 26 9 2
-0.498 -0.208 -0.68699998 35 3 0
-0.53100002 -0.163 -0.66100001 62 45 38
-0.537 -0.184 -0.72399998 26 8 0
-0.54799998 -0.18799999 -0.68900001 87 64 46
-0.551 -0.19499999 -0.67000002 93 69 43
-0.55900002 -0.19499999 -0.662 88 44 15
-0.47299999 -0.36399999 -0.80800003 53 11 0
-0.465 -0.375 -0.852 40 7 0
-0.44600001 -0.37200001 -0.82599998 144 103 47
-0.44600001 -0.37 -0.82599998 151 112 57
-0.44299999 -0.36500001 -0.82300001 118 71 45
-0.43000001 -0.39199999 -0.81999999 39 16 2
-0.44299999 -0.40000001 -0.81800002 78 36 20
-0.44800001 -0.35699999 -0.86799997 31 1 0
-0.449 -0.36000001 -0.86900002 151 123 102
-0.44800001 -0.37099999 -0.88 39 15 3
-0.43900001 -0.38100001 -0.85100001 24 3 0
-0.45899999 -0.38299999 -0.87900001 99 83 70
-0.44800001 -0.38699999 -0.86000001 106 81 61
-0.44800001 -0.39399999 -0.85500002 97 75 61
-0.42300001 -0.39399999 -0.838 76 48 24
-0.48899999 -0.40200001 -0.82800001 52 39 49
-0.477 -0.412 -0.81199998 102 61 31
-0.479 -0.37 -0.81699997 33 12 7
-0.48800001 -0.38 -0.82099998 76 48 34
-0.479 -0.36399999 -0.84299999 37 17 16
-0.48100001 -0.36399999 -0.85100001 51 38 32
-0.479 -0.396 -0.81 105 74 46
-0.472 -0.42399999 -0.79299998 40 7 0
-0.384 -0.29300001 -0.80500001 125 99 84
-0.38 -0.29300001 -0.79900002 106 82 70
-0.384 -0.28799999 -0.79699999 43 21 7
-0.45199999 -0.28600001 -0.81999999 62 31 10
-0.44800001 -0.27200001 -0.81 62 21 0
-0.51599997 -0.25 -0.847 109 90 73
-0.49700001 -0.28099999 -0.84200001 38 9 0
-0.50400001 -0.28400001 -0.85600001 137 102 74
-0.49599999 -0.278 -0.85000002 56 30 17
-0.5 -0.30700001 -0.83600003 69 65 62
-0.472 -0.20900001 -0.616 189 134 51
-0.46599999 -0.219 -0.61799997 217 150 69
-0.45199999 -0.18799999 -0.63300002 165 122 69
-0.44999999 -0.229 -0.63800001 88 52 36
-0.45300001 -0.206 -0.61799997 82 52 28
-0.44 -0.205 -0.62900001 89 35 0
-0.50800002 -0.22 -0.63200003 159 99 13
-0.49700001 -0.212 -0.616 159 97 50
-0.50199997 -0.22499999 -0.63200003 109 56 16
-0.55599999 -0.197 -0.63200003 233 177 100
-0.48800001 -0.22 -0.69199997 129 101 77
-0.47299999 -0.222 -0.68199998 47 20 11
-0.49000001 -0.219 -0.62 100 45 14
-0.491 -0.23100001 -0.62599999 29 14 9
-0.495 -0.234 -0.63300002 132 73 29
-0.479 -0.222 -0.61299998 125 79 43
-0.47799999 -0.23199999 -0.616 137 120 48
-0.472 -0.20900001 -0.66299999 38 24 21
-0.46799999 -0.207 -0.65700001 46 20 7
-0.491 -0.21799999 -0.65799999 29 11 1
-0.46399999 -0.243 -0.63999999 179 142 113
-0.472 -0.25299999 -0.63 160 82 20
-0.47 -0.24699999 -0.63999999 57 35 24
-0.45199999 -0.249 -0.653 100 72 51
-0.46599999 -0.252 -0.65899998 65 24 4
-0.50700003 -0.317 -0.68900001 2 0 16
-0.50800002 -0.317 -0.69099998 5 0 13
-0.505 -0.329 -0.73199999 35 2 0
-0.49900001 -0.33199999 -0.72899997 99 59 33
-0.495 -0.324 -0.73699999 139 96 61
-0.49000001 -0.27000001 -0.685 95 55 19
-0.49000001 -0.25999999 -0.67900002 166 138 127
-0.491 -0.287 -0.67500001 78 52 35
-0.48300001 -0.285 -0.69400001 87 48 33
-0.48500001 -0.24699999 -0.64399999 198 192 220
-0.48100001 -0.28200001 -0.66799998 94 50 23
-0.47999999 -0.24600001 -0.67500001 122 79 47
-0.472 -0.235 -0.68000001 35 7 4
-0.48699999 -0.26699999 -0.66299999 175 103 65
-0.486 -0.23 -0.708 149 123 96
-0.47 -0.244 -0.68800002 96 51 32
-0.48199999 -0.25 -0.68699998 172 120 72
-0.54000002 -0.21600001 -0.65200001 134 60 15
-0.509 -0.178 -0.64200002 100 60 35
-0.523 -0.221 -0.65399998 122 69 37
-0.514 -0.22400001 -0.65700001 133 69 31
-0.51200002 -0.197 -0.662 38 14 2
-0.52100003 -0.18099999 -0.66399997 102 56 33
-0.528 -0.17900001 -0.66600001 92 36 11
-0.509 -0.18000001 -0.66500002 92 55 39
-0.528 -0.212 -0.65799999 132 96 64
-0.56400001 -0.183 -0.653 85 46 3
-0.55900002 -0.178 -0.65499997 62 26 10
-0.55900002 -0.176 -0.65200001 255 205 157
-0.55800003 -0.176 -0.65499997 61 23 0
-0.56699997 -0.19400001 -0.653 93 59 34
-0.565 -0.192 -0.65600002 93 41 4
-0.56199998 -0.193 -0.71799999 20 1 0
-0.55599999 -0.19 -0.71600002 40 6 0
-0.55299997 -0.198 -0.71799999 127 108 91
-0.55400002 -0.193 -0.68199998 127 104 88
-0.56400001 -0.18799999 -0.65899998 81 41 16
-0.54699999 -0.17900001 -0.63 177 116 59
-0.50400001 -0.204 -0.69499999 47 20 3
-0.50599998 -0.204 -0.69800001 38 11 2
-0.498 -0.205 -0.69599998 39 16 8
-0.49200001 -0.213 -0.71399999 40 12 0
-0.50199997 -0.215 -0.73299998 98 81 71
-0.54699999 -0.164 -0.66000003 116 62 38
-0.54400003 -0.16599999 -0.66100001 130 89 45
-0.54100001 -0.163 -0.65799999 127 95 57
-0.48500001 -0.26199999 -1.036 160 143 133
-0.49900001 -0.248 -1.036 137 131 133
-0.523 -0.25 -1.045 95 55 29
-0.47499999 -0.271 -1.041 151 142 143
-0.458 -0.26100001 -1.034 29 11 1
-0.45699999 -0.25299999 -1.026 153 110 75
-0.46000001 -0.237 -1.018 65 43 29
-0.449 -0.249 -1.017 74 70 69
-0.46599999 -0.259 -1.049 65 27 0
-0.463 -0.26100001 -1.045 112 71 27
-0.447 -0.28299999 -1.031 138 124 124
-0.48199999 -0.34900001 -1.008 55 18 0
-0.49700001 -0.36000001 -1.011 30 13 6
-0.484 -0.34900001 -0.99900001 13 0 0
-0.48699999 -0.35499999 -0.98699999 15 1 0
-0.49200001 -0.37599999 -0.995 47 31 32
-0.472 -0.34099999 -1.045 83 48 26
-0.53100002 -0.56099999 -0.71499997 80 50 26
-0.50700003 -0.56800002 -0.70999998 110 66 39
-0.43700001 -0.52899998 -0.676 160 98 47
-0.435 -0.537 -0.67799997 179 126 76
-0.47600001 -0.56599998 -0.70999998 87 65 26
-0.48800001 -0.61199999 -0.76200002 89 52 43
-0.52899998 -0.579 -0.73900002 189 138 85
-0.52600002 -0.58099997 -0.73900002 181 129 79
-0.52100003 -0.58600003 -0.74000001 85 39 5
-0.51800001 -0.579 -0.773 70 41 27
-0.50999999 -0.59600002 -0.74800003 160 115 73
-0.54100001 -0.42699999 -0.81300002 184 132 75
-0.56400001 -0.414 -0.82200003 49 14 0
-0.50700003 -0.60500002 -0.91900003 48 20 9
-0.48899999 -0.65100002 -0.89899999 39 11 0
-0.44400001 -0.63499999 -0.94499999 65 39 22
-0.47499999 -0.56300002 -0.85000002 69 37 14
-0.49399999 -0.56699997 -0.82300001 99 44 14
-0.505 -0.60399997 -0.94099998 31 0 0
-0.47999999 -0.65899998 -0.87900001 78 46 23
-0.479 -0.65600002 -0.88700002 36 55 123
-0.479 -0.66000003 -0.87699997 77 30 2
-0.454 -0.62800002 -0.91000003 208 159 103
-0.45699999 -0.63099998 -0.90700001 41 23 9
-0.47499999 -0.65799999 -0.898 84 45 6
-0.46599999 -0.64099997 -0.93099999 40 10 0
-0.5 -0.60299999 -0.98199999 105 65 39
-0.52399999 -0.565 -0.722 100 46 8
-0.616 -0.43700001 -0.87 141 103 67
-0.61299998 -0.43799999 -0.87099999 45 10 0
-0.60399997 -0.447 -0.875 67 24 5
-0.52499998 -0.574 -0.787 32 0 1
-0.495 -0.56999999 -0.80699998 84 54 30
-0.528 -0.58499998 -0.72100002 81 47 38
-0.523 -0.58999997 -0.73100001 38 5 0
-0.51200002 -0.56300002 -0.73699999 45 16 2
-0.46900001 -0.65600002 -0.89399999 48 7 0
-0.454 -0.63300002 -0.875 48 22 5
-0.45300001 -0.639 -0.86500001 74 47 26
-0.461 -0.60900003 -0.86900002 21 2 0
-0.458 -0.62099999 -0.87699997 62 26 0
-0.44600001 -0.59899998 -0.88 144 121 105
-0.44800001 -0.625 -0.87400001 146 129 121
-0.46399999 -0.62400001 -0.85900003 71 55 39
-0.45699999 -0.60500002 -0.84399998 107 75 52
-0.449 -0.62699997 -0.85900003 95 76 36
-0.46399999 -0.64399999 -0.83600003 69 54 35
-0.45199999 -0.63 -0.77600002 180 142 103
-0.48199999 -0.583 -0.773 165 132 101
-0.47099999 -0.58999997 -0.76800001 81 30 0
-0.44600001 -0.57599998 -0.73900002 208 165 37
-0.461 -0.63200003 -0.77399999 145 114 83
-0.44999999 -0.583 -0.78399998 87 57 21
-0.48500001 -0.55699998 -0.708 149 99 28
-0.405 -0.53799999 -0.76800001 111 77 52
-0.35299999 -0.29899999 -0.704 78 40 4
-0.352 -0.30700001 -0.69400001 98 62 48
-0.32699999 -0.29100001 -0.68900001 95 52 18
-0.33199999 -0.28600001 -0.68900001 29 11 9
-0.32800001 -0.26699999 -0.69199997 20 5 0
-0.331 -0.27200001 -0.68699998 58 30 27
-0.301 -0.289 -0.648 80 49 31
-0.30599999 -0.289 -0.648 60 18 2
-0.28600001 -0.25 -0.65499997 114 80 52
-0.29300001 -0.28200001 -0.68400002 165 118 66
-0.27399999 -0.28 -0.68099999 71 31 6
-0.29100001 -0.27500001 -0.64499998 98 27 0
-0.322 -0.26800001 -0.67500001 91 24 0
-0.33199999 -0.273 -0.67199999 166 138 137
-0.317 -0.28099999 -0.66000003 123 59 15
-0.28600001 -0.266 -0.65100002 97 30 1
-0.28799999 -0.27399999 -0.648 135 52 12
-0.28799999 -0.25999999 -0.65100002 243 153 90
-0.28799999 -0.25299999 -0.699 99 63 41
-0.289 -0.25799999 -0.69800001 9 0 0
-0.273 -0.271 -0.68699998 36 9 0
-0.27900001 -0.245 -0.66600001 97 62 30
-0.33700001 -0.266 -0.64200002 133 62 20
-0.34799999 -0.289 -0.66500002 105 81 71
-0.35499999 -0.24699999 -0.66000003 92 53 24
-0.368 -0.31 -0.65899998 88 29 0
-0.37200001 -0.30500001 -0.67199999 202 178 168
-0.37 -0.30700001 -0.67500001 31 4 0
-0.435 -0.30700001 -0.67799997 68 15 0
-0.42399999 -0.30000001 -0.68300003 96 63 46
-0.41 -0.301 -0.68300003 79 65 65
-0.345 -0.255 -0.72100002 253 239 202
-0.368 -0.257 -0.72399998 67 36 18
-0.34200001 -0.25299999 -0.69199997 55 14 0
-0.33899999 -0.248 -0.69700003 178 142 120
-0.33700001 -0.25400001 -0.704 57 21 0
-0.33399999 -0.25099999 -0.69300002 93 62 18
-0.33500001 -0.25299999 -0.68699998 64 27 1
-0.31099999 -0.25799999 -0.72299999 74 57 49
-0.32499999 -0.257 -0.72799999 86 64 51
-0.505 -0.223 -0.74699998 51 46 76
-0.50300002 -0.214 -0.73400003 94 77 69
-0.49700001 -0.22499999 -0.74400002 63 22 0
-0.45199999 -0.241 -0.63700002 157 119 74
-0.49200001 -0.30899999 -0.71100003 75 77 118
-0.49399999 -0.30899999 -0.71100003 48 47 81
-0.493 -0.315 -0.71499997 27 17 16
-0.49900001 -0.33000001 -0.72299999 131 91 65
-0.49900001 -0.32800001 -0.72500002 77 52 45
-0.49599999 -0.33700001 -0.71700001 36 3 0
-0.51999998 -0.324 -0.70200002 65 55 66
-0.51700002 -0.317 -0.71600002 95 59 33
-0.368 -0.27399999 -0.77399999 52 26 13
-0.382 -0.27500001 -0.78399998 141 103 58
-0.36199999 -0.278 -0.75700003 57 26 0
-0.43399999 -0.28200001 -0.78399998 153 123 99
-0.447 -0.27399999 -0.773 128 105 89
-0.44400001 -0.278 -0.78100002 12 10 60
-0.43700001 -0.27399999 -0.73799998 76 46 20
-0.435 -0.27200001 -0.745 54 29 9
-0.43599999 -0.27700001 -0.72299999 128 98 72
-0.43799999 -0.27399999 -0.72299999 46 13 0
-0.36399999 -0.26300001 -0.75199997 28 26 75
-0.36199999 -0.26899999 -0.764 85 56 40
-0.35800001 -0.31099999 -0.74699998 54 38 41
-0.361 -0.31299999 -0.74199998 59 45 45
-0.42899999 -0.273 -0.66600001 126 97 79
-0.43599999 -0.28400001 -0.66600001 28 0 0
-0.43700001 -0.289 -0.67000002 245 202 133
-0.44100001 -0.30000001 -0.66900003 156 112 83
-0.43700001 -0.26499999 -0.70200002 139 72 43
-0.42899999 -0.26800001 -0.70099998 105 47 25
-0.42399999 -0.27000001 -0.71100003 230 181 138
-0.43599999 -0.271 -0.71100003 83 53 29
-0.391 -0.26699999 -0.68599999 214 161 93
-0.43200001 -0.26300001 -0.69700003 55 29 16
-0.40000001 -0.255 -0.68099999 85 31 0
-0.43599999 -0.27900001 -0.722 91 67 55
-0.48699999 -0.29800001 -0.62099999 88 43 10
-0.49399999 -0.301 -0.61400002 35 7 0
-0.458 -0.259 -0.65899998 98 49 19
-0.48199999 -0.324 -0.65700001 82 22 0
-0.47400001 -0.31200001 -0.67799997 71 23 3
-0.46399999 -0.31799999 -0.67900002 152 85 33
-0.44 -0.30700001 -0.69 83 48 26
-0.45300001 -0.29100001 -0.69300002 90 23 4
-0.366 -0.301 -0.79699999 55 21 11
-0.36399999 -0.301 -0.80000001 93 61 48
-0.35800001 -0.30199999 -0.79799998 91 63 42
-0.44999999 -0.317 -0.62300003 57 24 7
-0.465 -0.28999999 -0.63099998 117 58 18
-0.45899999 -0.30000001 -0.639 57 32 10
-0.46900001 -0.30399999 -0.64600003 171 167 182
-0.463 -0.301 -0.662 71 41 41
-0.45699999 -0.29699999 -0.65499997 190 161 101
-0.472 -0.287 -0.66000003 29 9 2
-0.449 -0.26699999 -0.65799999 73 52 51
-0.458 -0.26899999 -0.65899998 94 53 21
-0.45199999 -0.27200001 -0.66000003 182 137 96
-0.42699999 -0.245 -0.68000001 59 27 12
-0.447 -0.28 -0.69700003 47 22 17
-0.45199999 -0.28200001 -0.69700003 77 29 7
-0.44 -0.27599999 -0.69599998 59 12 0
-0.44499999 -0.29100001 -0.66799998 225 176 109
-0.43099999 -0.27399999 -0.67400002 146 84 43
-0.44 -0.27700001 -0.66900003 193 179 179
-0.479 -0.206 -0.64700001 97 58 41
-0.46799999 -0.18099999 -0.64399999 179 120 80
-0.45199999 -0.189 -0.63999999 154 87 45
-0.486 -0.17900001 -0.64999998 135 100 68
-0.46000001 -0.211 -0.62199998 35 21 12
-0.463 -0.25099999 -0.69199997 91 40 19
-0.45500001 -0.204 -0.65399998 74 37 10
-0.44499999 -0.20900001 -0.64999998 46 23 15
-0.45100001 -0.19499999 -0.64499998 96 56 20
-0.34200001 -0.234 -0.66500002 45 9 0
-0.33899999 -0.23800001 -0.65399998 186 146 120
-0.414 -0.24600001 -0.68300003 119 83 59
-0.48800001 -0.22 -0.67900002 109 87 74
-0.433 -0.242 -0.67900002 125 84 56
-0.44299999 -0.23899999 -0.69099998 153 118 90
-0.47099999 -0.22 -0.70999998 117 96 105
-0.384 -0.29499999 -0.875 99 89 88
-0.44600001 -0.51099998 -0.78799999 33 13 4
-0.52899998 -0.44100001 -0.86299998 93 57 33
-0.51599997 -0.43399999 -0.87400001 62 44 40
-0.51300001 -0.43900001 -0.86799997 14 3 1
-0.50400001 -0.43000001 -0.86799997 6 0 0
-0.49399999 -0.42699999 -0.85000002 11 0 0
-0.50400001 -0.42500001 -0.87099999 26 15 13
-0.5 -0.43000001 -0.86199999 20 10 8
-0.5 -0.43900001 -0.84399998 47 38 23
-0.53500003 -0.43900001 -0.85799998 91 64 47
-0.40099999 -0.54699999 -0.82999998 33 14 0
-0.41100001 -0.55500001 -0.852 6 0 0
-0.417 -0.56 -0.85799998 70 70 72
-0.317 -0.31900001 -0.67799997 81 38 22
-0.419 -0.551 -0.787 84 42 18
-0.43900001 -0.579 -0.76599997 187 145 97
-0.43000001 -0.58499998 -0.76499999 112 86 59
-0.477 -0.39899999 -0.97000003 166 125 93
-0.47799999 -0.40200001 -0.97500002 60 19 0
-0.48500001 -0.39899999 -0.98000002 136 91 62
-0.46000001 -0.391 -0.94599998 13 2 0
-0.5 -0.42300001 -0.98799998 31 23 34
-0.48300001 -0.403 -0.98500001 120 75 42
-0.48199999 -0.40099999 -1.0140001 106 71 43
-0.48300001 -0.40200001 -1.0140001 58 27 9
-0.47400001 -0.38 -1.0140001 139 103 71
-0.44600001 -0.354 -1.054 63 63 61
-0.45699999 -0.34799999 -1.073 99 99 99
-0.46200001 -0.391 -0.88499999 23 2 0
-0.46200001 -0.37799999 -0.90600002 108 82 59
-0.45500001 -0.37599999 -0.90100002 50 35 28
-0.45100001 -0.35100001 -0.89700001 17 0 0
-0.45500001 -0.352 -0.898 27 12 9
-0.45500001 -0.333 -0.88800001 10 0 0
-0.45500001 -0.34799999 -0.89099997 67 41 40
-0.456 -0.33000001 -0.921 55 56 60
-0.463 -0.336 -0.91799998 159 130 114
-0.458 -0.331 -0.92299998 44 38 38
-0.41600001 -0.54299998 -0.91799998 56 23 6
-0.41299999 -0.54100001 -0.89700001 27 8 1
-0.44600001 -0.53500003 -0.90600002 41 13 1
-0.405 -0.616 -0.92799997 8 0 0
-0.40200001 -0.61400002 -0.935 21 1 2
-0.48899999 -0.405 -1.005 23 4 0
-0.454 -0.40900001 -0.792 33 16 9
-0.46000001 -0.39399999 -0.792 226 185 139
-0.46000001 -0.398 -0.79100001 63 45 31
-0.45300001 -0.398 -0.829 29 0 0
-0.45699999 -0.403 -0.82599998 52 19 0
-0.44600001 -0.39700001 -0.83600003 54 32 18
-0.36300001 -0.30700001 -0.78500003 34 7 0
-0.36300001 -0.30700001 -0.778 30 7 0
-0.354 -0.30500001 -0.79400003 66 39 20
-0.42300001 -0.30599999 -0.91000003 123 89 64
-0.41499999 -0.29499999 -0.912 28 8 9
-0.41600001 -0.28799999 -0.90700001 127 112 115
-0.426 -0.28999999 -0.90399998 66 29 13
-0.43200001 -0.226 -0.95300001 66 46 9
-0.428 -0.233 -0.94499999 167 117 92
-0.40599999 -0.287 -0.95300001 38 13 9
-0.403 -0.23999999 -0.96700001 49 49 49
-0.40700001 -0.249 -0.97299999 160 119 97
-0.41 -0.241 -0.97500002 62 62 62
-0.414 -0.241 -0.97600001 70 43 24
-0.43599999 -0.30199999 -1.0039999 12 3 4
-0.435 -0.30399999 -1.003 40 5 0
-0.442 -0.30500001 -1.016 34 20 20
-0.442 -0.30599999 -1.0140001 95 72 66
-0.44800001 -0.31 -1.041 15 5 6
-0.45199999 -0.29899999 -1.045 24 7 0
-0.46599999 -0.34200001 -0.99800003 43 15 3
-0.46799999 -0.345 -1.006 96 77 73
-0.46599999 -0.34099999 -0.99400002 150 121 105
-0.396 -0.28299999 -0.92500001 66 23 6
-0.37900001 -0.271 -0.92299998 109 82 73
-0.36000001 -0.30500001 -0.838 16 1 0
-0.361 -0.28299999 -0.88300002 11 7 58
-0.35699999 -0.266 -0.90100002 59 21 0
-0.347 -0.31099999 -0.75400001 125 106 92
-0.31 -0.26499999 -0.73699999 50 30 19
-0.31400001 -0.257 -0.70200002 117 71 22
-0.31 -0.25799999 -0.70599997 141 100 56
-0.33700001 -0.301 -0.71700001 38 16 5
-0.35299999 -0.30899999 -0.77600002 124 83 55
-0.278 -0.30599999 -0.66299999 32 8 0
-0.41299999 -0.229 -0.88200003 54 17 1
-0.41600001 -0.227 -0.88599998 111 78 61
-0.41999999 -0.205 -0.88800001 106 37 0
-0.433 -0.207 -0.88800001 38 11 0
-0.41600001 -0.20299999 -0.87300003 248 176 102
-0.40900001 -0.198 -0.88700002 113 49 13
-0.41 -0.198 -0.88999999 108 53 33
-0.41100001 -0.211 -0.898 21 8 0
-0.42399999 -0.191 -0.89300001 89 49 0
-0.426 -0.191 -0.88800001 147 108 67
-0.43000001 -0.193 -0.89099997 130 85 43
-0.435 -0.19400001 -0.89200002 129 92 4
-0.43900001 -0.193 -0.88300002 61 28 0
-0.403 -0.28600001 -0.93400002 25 7 5
-0.398 -0.27399999 -0.93000001 141 114 103
-0.368 -0.29100001 -0.85299999 81 60 39
-0.42699999 -0.28200001 -0.85100001 96 76 69
-0.421 -0.25600001 -0.84899998 95 84 78
-0.43000001 -0.26300001 -0.84500003 63 36 19
-0.43599999 -0.28 -0.83999997 53 39 75
-0.405 -0.25299999 -0.78399998 93 57 31
-0.40099999 -0.257 -0.79299998 104 81 65
-0.382 -0.259 -0.792 113 92 73
-0.39199999 -0.25400001 -0.79000002 111 73 37
-0.382 -0.255 -0.80400002 72 54 40
-0.39399999 -0.25400001 -0.79000002 124 88 56
-0.40000001 -0.255 -0.80000001 80 50 39
-0.396 -0.259 -0.79400003 109 84 64
-0.38699999 -0.26300001 -0.796 45 27 23
-0.37400001 -0.257 -0.801 58 39 25
-0.352 -0.27399999 -0.815 72 42 31
-0.36199999 -0.26800001 -0.80400002 26 5 0
-0.36500001 -0.25999999 -0.79299998 53 29 17
-0.38299999 -0.25400001 -0.80800003 61 32 18
-0.391 -0.257 -0.80500001 49 26 12
-0.39399999 -0.28600001 -0.82300001 107 53 17
-0.403 -0.30399999 -0.82099998 45 17 5
-0.38800001 -0.292 -0.80699998 142 114 100
-0.51499999 -0.574 -0.87900001 6 6 4
-0.493 -0.597 -0.87 42 17 12
-0.495 -0.59399998 -0.88099998 122 85 59
-0.49200001 -0.59799999 -0.88200003 148 107 75
-0.498 -0.59600002 -0.898 64 32 11
-0.5 -0.60000002 -0.90200001 119 76 42
-0.46700001 -0.60000002 -0.84200001 31 10 7
-0.50800002 -0.58099997 -0.88499999 43 17 2
-0.50700003 -0.583 -0.89399999 79 46 27
-0.51700002 -0.57200003 -0.89600003 26 7 1
-0.514 -0.574 -0.89300001 38 16 3
-0.51499999 -0.46700001 -0.88499999 30 5 0
-0.514 -0.47 -0.88 42 20 9
-0.505 -0.454 -0.94499999 6 2 1
-0.56 -0.47 -0.90100002 10 0 0
-0.53100002 -0.48100001 -0.95200002 10 0 0
-0.523 -0.46700001 -0.92799997 64 42 45
-0.51899999 -0.463 -0.92000002 12 2 1
-0.51700002 -0.46200001 -0.926 45 12 5
-0.52399999 -0.44 -0.93599999 6 0 0
-0.53299999 -0.428 -0.935 31 11 10
-0.528 -0.43599999 -0.92400002 14 5 6
-0.51200002 -0.565 -0.83999997 67 17 0
-0.477 -0.662 -0.847 36 10 0
-0.479 -0.62599999 -1.0190001 221 194 173
-0.45699999 -0.58399999 -0.949 22 4 0
-0.46700001 -0.58899999 -0.95499998 36 18 4
-0.461 -0.58899999 -0.94400001 75 27 5
-0.48199999 -0.65799999 -0.87599999 70 41 25
-0.42300001 -0.59200001 -0.97600001 97 73 63
-0.41100001 -0.597 -0.96700001 34 18 18
-0.41100001 -0.58999997 -0.96499997 69 38 20
-0.405 -0.59799999 -0.96100003 99 74 52
-0.40599999 -0.59299999 -0.95599997 109 84 64
-0.39500001 -0.59299999 -0.94999999 14 0 0
-0.414 -0.62199998 -0.98699999 47 28 21
-0.414 -0.62300003 -0.98199999 43 26 19
-0.40599999 -0.60900003 -0.96600002 45 26 20
-0.41100001 -0.61400002 -0.97299999 8 0 0
-0.398 -0.60500002 -0.95899999 128 93 71
-0.47999999 -0.579 -0.95700002 82 35 17
-0.47799999 -0.56800002 -0.972 77 34 17
-0.46799999 -0.59200001 -0.94599998 23 0 0
-0.49599999 -0.61900002 -0.91399997 134 109 87
-0.495 -0.62699997 -0.91600001 48 27 8
-0.49700001 -0.61699998 -0.93000001 37 12 15
-0.491 -0.62699997 -0.92699999 26 7 1
-0.50099999 -0.61500001 -0.93900001 57 30 19
-0.41100001 -0.58899999 -0.91799998 98 67 39
-0.417 -0.60600001 -0.91399997 87 40 0
-0.419 -0.60399997 -0.91500002 62 38 12
-0.45699999 -0.53899997 -0.86900002 63 25 12
-0.442 -0.53100002 -0.87199998 49 15 3
-0.44999999 -0.52600002 -0.86400002 58 33 26
-0.44100001 -0.52399999 -0.87099999 32 3 0
-0.435 -0.52100003 -0.87300003 62 38 4
-0.44299999 -0.52100003 -0.88599998 56 18 0
-0.42899999 -0.52499998 -0.87800002 73 52 25
-0.421 -0.53600001 -0.903 152 134 124
-0.442 -0.53899997 -0.87900001 57 40 24
-0.442 -0.63 -0.93699998 161 118 86
-0.43900001 -0.625 -0.935 41 16 0
-0.46700001 -0.59600002 -0.90700001 32 2 0
-0.46799999 -0.597 -0.90700001 56 20 6
-0.49200001 -0.64499998 -0.90499997 107 72 50
-0.458 -0.63300002 -0.94400001 52 33 29
-0.465 -0.63300002 -0.94300002 53 23 15
-0.46799999 -0.64099997 -0.93599999 142 108 81
-0.493 -0.61900002 -0.94999999 31 4 0
-0.49000001 -0.61799997 -0.95899999 46 23 17
-0.45500001 -0.62199998 -0.97100002 167 136 116
-0.461 -0.62300003 -0.97100002 57 24 7
-0.495 -0.62 -1.028 106 61 40
-0.51499999 -0.40700001 -0.90499997 71 51 40
-0.50999999 -0.42199999 -0.91799998 33 37 36
-0.51700002 -0.56999999 -0.88300002 48 19 3
-0.47600001 -0.55900002 -0.86799997 62 56 44
-0.47099999 -0.55400002 -0.86500001 57 29 15
-0.47 -0.55500001 -0.85900003 69 52 34
-0.48100001 -0.55900002 -0.88700002 129 110 106
-0.48199999 -0.59399998 -0.89200002 39 15 5
-0.51999998 -0.57599998 -0.76200002 44 12 0
-0.51899999 -0.57800001 -0.76099998 52 19 0
-0.47799999 -0.64300001 -0.838 78 42 6
-0.59200001 -0.44100001 -0.90499997 11 0 0
-0.54699999 -0.461 -0.847 53 27 14
-0.528 -0.477 -0.84399998 120 63 20
-0.53100002 -0.47299999 -0.838 168 108 46
-0.51800001 -0.47999999 -0.97899997 23 12 8
-0.51599997 -0.428 -0.96700001 28 9 2
-0.52399999 -0.42300001 -0.958 23 9 9
-0.51099998 -0.426 -0.95999998 34 15 8
-0.51599997 -0.44499999 -0.97600001 21 8 2
-0.51999998 -0.44400001 -0.97299999 39 15 5
-0.51099998 -0.45899999 -0.986 5 1 0
-0.51899999 -0.46200001 -0.99199998 178 159 155
-0.50800002 -0.46700001 -0.97500002 26 7 3
-0.495 -0.456 -0.98100001 32 7 0
-0.49599999 -0.46000001 -0.98299998 141 117 105
-0.45899999 -0.61699998 -1.0190001 118 104 104
-0.42500001 -0.55900002 -0.963 74 44 20
-0.433 -0.62800002 -0.94499999 46 8 0
-0.40700001 -0.61699998 -0.93300003 18 3 0
-0.477 -0.55800003 -1.056 4 0 0
-0.53200001 -0.58700001 -0.99599999 64 26 13
-0.51800001 -0.59899998 -1.0140001 99 61 40
-0.45199999 -0.56900001 -0.99400002 21 3 3
-0.46399999 -0.57700002 -0.98500001 8 0 0
-0.47099999 -0.58099997 -0.995 11 3 1
-0.48699999 -0.58999997 -1.043 49 14 0
-0.48199999 -0.58999997 -1.044 151 122 106
-0.46799999 -0.60000002 -1.039 13 2 0
-0.458 -0.51999998 -1.067 46 30 17
-0.463 -0.523 -1.0700001 33 17 0
-0.477 -0.51300001 -1.056 15 4 2
-0.46200001 -0.53100002 -1.058 97 66 45
-0.50400001 -0.45100001 -1.0470001 4 0 1
-0.454 -0.32300001 -0.99000001 13 2 0
-0.44600001 -0.315 -0.97899997 27 8 4
-0.45199999 -0.31900001 -0.98100001 19 0 0
-0.447 -0.34599999 -1.0420001 90 88 89
-0.44999999 -0.32100001 -1.027 17 0 0
-0.447 -0.322 -1.0140001 65 45 36
-0.44499999 -0.315 -1.011 152 134 132
-0.44600001 -0.315 -1.0140001 146 116 108
-0.46799999 -0.345 -1.011 29 10 4
-0.46399999 -0.33000001 -1 11 1 0
-0.48100001 -0.32600001 -1.046 78 53 48
-0.47 -0.31900001 -1.048 53 16 0
-0.44800001 -0.35299999 -1.053 73 73 71
-0.45699999 -0.32499999 -1.044 7 1 3
-0.45699999 -0.54299998 -0.97100002 101 80 75
-0.514 -0.463 -0.98699999 5 4 2
-0.49399999 -0.46900001 -1.027 73 36 30
-0.55000001 -0.449 -0.99400002 6 0 0
-0.53299999 -0.447 -0.98400003 44 27 20
-0.48500001 -0.50700003 -1.061 33 19 16
-0.477 -0.51999998 -1.069 27 10 0
-0.49900001 -0.46599999 -1.04 6 4 5
-0.484 -0.41 -1.011 27 3 0
-0.48100001 -0.41 -1.003 75 38 12
-0.50599998 -0.491 -1.034 16 4 4
-0.51599997 -0.51300001 -1.039 17 0 0
-0.514 -0.495 -1.041 78 57 40
-0.50599998 -0.528 -1.031 140 83 30
-0.403 -0.54100001 -0.68800002 23 5 5
-0.42399999 -0.50999999 -0.66399997 109 63 30
-0.44 -0.52499998 -0.82599998 65 41 17
-0.456 -0.51800001 -0.84399998 78 18 0
-0.42199999 -0.52100003 -0.85100001 88 63 41
-0.44800001 -0.60500002 -0.90100002 33 27 11
-0.44 -0.60000002 -0.89899999 25 7 0
-0.44100001 -0.60600001 -0.90499997 101 69 46
-0.479 -0.60900003 -0.87900001 61 37 25
-0.458 -0.59100002 -0.85600001 105 65 40
-0.43399999 -0.579 -0.86699998 40 7 0
-0.43099999 -0.58099997 -0.87599999 59 32 15
-0.419 -0.56400001 -0.86500001 69 38 10
-0.42300001 -0.61400002 -0.90799999 31 5 4
-0.421 -0.62099999 -0.92500001 112 90 43
-0.42899999 -0.62099999 -0.92400002 68 37 16
-0.428 -0.62 -0.92900002 18 0 0
-0.48100001 -0.412 -0.84600002 8 0 0
-0.40900001 -0.61799997 -0.91799998 58 32 19
-0.40400001 -0.57800001 -0.94 29 2 0
-0.42399999 -0.54299998 -0.926 24 6 0
-0.41999999 -0.542 -0.921 154 116 79
-0.43000001 -0.56699997 -0.91299999 48 15 0
-0.43099999 -0.54299998 -0.90799999 35 7 0
-0.44100001 -0.54799998 -0.912 106 71 52
-0.43000001 -0.56999999 -0.89499998 75 49 36
-0.43900001 -0.57499999 -0.90499997 33 15 13
-0.426 -0.56900001 -0.898 35 7 0
-0.419 -0.56599998 -0.898 10 0 0
-0.458 -0.53200001 -0.98400003 30 14 0
-0.45199999 -0.53600001 -1.017 70 45 23
-0.42899999 -0.551 -0.94700003 54 32 8
-0.42899999 -0.54400003 -0.935 10 0 0
-0.42199999 -0.55599999 -0.94999999 60 33 6
-0.44499999 -0.52399999 -0.99299997 20 5 0
-0.45899999 -0.52999997 -0.99400002 76 50 37
-0.458 -0.52899998 -0.98900002 139 110 94
-0.43000001 -0.53299999 -0.92199999 41 8 1
-0.43200001 -0.55199999 -0.94800001 74 57 47
-0.50300002 -0.55400002 -0.74599999 109 72 28
-0.50199997 -0.55199999 -0.745 36 15 0
-0.45199999 -0.56699997 -0.759 249 232 189
-0.41800001 -0.55900002 -0.847 112 76 42
-0.45199999 -0.59200001 -0.847 100 80 69
-0.472 -0.54000002 -0.72799999 127 73 39
-0.45699999 -0.53100002 -0.727 102 79 73
-0.44999999 -0.54299998 -0.73299998 56 16 8
-0.47999999 -0.54000002 -0.727 206 149 119
-0.477 -0.53100002 -0.72399998 69 50 44
-0.45500001 -0.51899999 -0.72899997 62 35 16
-0.45500001 -0.52899998 -0.727 61 11 0
-0.44999999 -0.51300001 -0.74599999 56 31 24
-0.44999999 -0.50599998 -0.76800001 44 16 0
-0.50199997 -0.47299999 -0.84200001 112 77 55
-0.50999999 -0.46200001 -0.84799999 69 28 0
-0.50700003 -0.46200001 -0.83999997 57 27 19
-0.52200001 -0.48199999 -0.84299999 127 113 104
-0.50400001 -0.45699999 -0.83600003 199 161 138
-0.5 -0.44400001 -0.83099997 77 58 44
-0.493 -0.44800001 -0.84500003 19 4 0
-0.51599997 -0.55400002 -0.81900001 27 14 8
-0.51599997 -0.55599999 -0.82499999 42 24 14
-0.50099999 -0.56099999 -0.84299999 134 99 69
-0.50400001 -0.45699999 -0.82700002 67 24 5
-0.486 -0.435 -0.82099998 55 46 37
-0.48699999 -0.43599999 -0.81900001 46 8 0
-0.48100001 -0.43099999 -0.78799999 59 18 0
-0.54699999 -0.43799999 -0.80800003 114 48 13
-0.55199999 -0.442 -0.79299998 126 64 15
-0.47999999 -0.43000001 -0.78299999 120 83 41
-0.47600001 -0.42500001 -0.78500003 36 19 0
-0.46200001 -0.40400001 -0.77700001 23 0 0
-0.50400001 -0.43599999 -0.833 153 126 99
-0.5 -0.43900001 -0.84200001 23 8 0
-0.42199999 -0.48800001 -0.71200001 96 69 48
-0.41999999 -0.49599999 -0.72100002 37 10 1
-0.44400001 -0.51300001 -0.79900002 94 67 46
-0.46000001 -0.405 -0.73199999 47 17 7
-0.46000001 -0.405 -0.73699999 75 48 37
-0.45300001 -0.40599999 -0.71499997 75 42 23
-0.454 -0.41 -0.72299999 187 148 131
-0.40900001 -0.493 -0.68199998 103 37 2
-0.41499999 -0.49900001 -0.66600001 97 47 0
-0.42699999 -0.491 -0.66500002 136 95 67
-0.42199999 -0.435 -0.64399999 120 73 29
-0.44100001 -0.44499999 -0.64600003 73 36 20
-0.421 -0.44100001 -0.65100002 112 66 32
-0.41 -0.48800001 -0.67000002 127 92 73
-0.40400001 -0.49399999 -0.67199999 144 83 39
-0.40799999 -0.505 -0.66799998 113 47 0
-0.41 -0.49599999 -0.66799998 34 6 0
-0.41299999 -0.49900001 -0.66600001 201 171 119
-0.40900001 -0.509 -0.66399997 49 9 1
-0.41600001 -0.50300002 -0.66399997 109 55 29
-0.447 -0.40700001 -0.67900002 122 109 103
-0.44400001 -0.391 -0.67299998 113 43 18
-0.43900001 -0.40099999 -0.66900003 54 42 54
-0.449 -0.40000001 -0.667 76 20 0
-0.456 -0.412 -0.71200001 84 62 38
-0.47400001 -0.403 -0.72799999 113 74 59
-0.44800001 -0.42399999 -0.68900001 100 81 75
-0.447 -0.428 -0.69400001 151 128 112
-0.44999999 -0.428 -0.68099999 83 19 0
-0.43200001 -0.40099999 -0.667 74 24 0
-0.50300002 -0.32800001 -0.66100001 171 135 103
-0.50700003 -0.32600001 -0.662 40 8 0
-0.50199997 -0.33000001 -0.66399997 49 21 0
-0.49700001 -0.308 -0.58700001 61 26 4
-0.48899999 -0.31200001 -0.58499998 137 87 38
-0.491 -0.303 -0.58899999 87 36 9
-0.57300001 -0.41100001 -0.88599998 61 18 0
-0.56800002 -0.412 -0.884 93 48 9
-0.51800001 -0.41100001 -0.89700001 69 30 13
-0.574 -0.43700001 -0.92199999 58 18 6
-0.57200003 -0.447 -0.92699999 14 0 0
-0.58600003 -0.45899999 -0.86900002 95 72 64
-0.56999999 -0.45699999 -0.86900002 53 19 9
-0.58200002 -0.458 -0.889 83 65 51
-0.57499999 -0.40799999 -0.89499998 73 40 21
-0.58200002 -0.40799999 -0.884 103 63 38
-0.56699997 -0.412 -0.88800001 195 149 113
-0.588 -0.40700001 -0.884 67 32 4
-0.58200002 -0.40799999 -0.88300002 87 43 16
-0.57999998 -0.41 -0.866 116 73 41
-0.54400003 -0.40700001 -0.84500003 30 18 0
-0.50800002 -0.44600001 -0.81699997 48 14 13
-0.48500001 -0.39500001 -0.87400001 119 89 53
-0.54900002 -0.403 -0.82599998 15 1 0
-0.57599998 -0.40000001 -0.82800001 27 10 0
-0.579 -0.40000001 -0.82700002 34 12 0
-0.46900001 -0.47799999 -0.73199999 61 33 12
-0.51999998 -0.458 -0.82700002 255 230 163
-0.52899998 -0.46700001 -0.81900001 238 197 133
-0.49900001 -0.54699999 -0.73799998 209 176 169
-0.50700003 -0.537 -0.72600001 94 39 0
-0.479 -0.44299999 -0.73900002 83 31 7
-0.461 -0.40099999 -0.653 151 108 92
-0.454 -0.38499999 -0.653 101 37 10
-0.45300001 -0.40700001 -0.73500001 37 18 12
-0.45899999 -0.472 -0.73900002 43 20 14
-0.43599999 -0.477 -0.73199999 77 31 8
-0.426 -0.48500001 -0.722 86 68 58
-0.41999999 -0.49700001 -0.72399998 56 31 24
-0.435 -0.479 -0.71799999 93 52 32
-0.51599997 -0.55699998 -0.78399998 32 1 0
-0.43599999 -0.51800001 -0.81099999 89 64 44
-0.43399999 -0.51999998 -0.81599998 82 56 41
-0.477 -0.42199999 -0.71799999 23 2 0
-0.447 -0.43099999 -0.67900002 118 96 75
-0.44800001 -0.45899999 -0.65700001 113 59 31
-0.45899999 -0.442 -0.65499997 72 37 15
-0.34 -0.30700001 -0.66600001 108 55 11
-0.33899999 -0.301 -0.68800002 36 9 2
-0.34599999 -0.30599999 -0.66799998 223 162 82
-0.34 -0.31799999 -0.66799998 127 59 10
-0.33199999 -0.31099999 -0.66399997 122 51 7
-0.331 -0.31400001 -0.667 95 33 0
-0.30399999 -0.30599999 -0.676 104 52 2
-0.37599999 -0.28400001 -0.67699999 36 22 37
-0.35600001 -0.27900001 -0.671 110 65 46
-0.35699999 -0.30599999 -0.68699998 77 39 28
-0.35499999 -0.31099999 -0.68699998 73 36 17
-0.30700001 -0.27200001 -0.722 76 47 31
-0.30599999 -0.271 -0.72100002 83 74 95
-0.32300001 -0.27000001 -0.70999998 37 16 11
-0.31799999 -0.278 -0.72500002 80 46 19
-0.34999999 -0.31 -0.722 100 69 40
-0.36300001 -0.31099999 -0.73699999 102 83 79
-0.29300001 -0.26300001 -0.70499998 19 4 1
-0.29300001 -0.27500001 -0.69700003 59 31 10
-0.296 -0.27200001 -0.70099998 153 122 94
-0.30000001 -0.27399999 -0.70599997 79 40 9
-0.31999999 -0.28799999 -0.68300003 117 66 35
-0.31900001 -0.28299999 -0.68000001 142 104 59
-0.30399999 -0.28299999 -0.704 192 154 117
-0.32600001 -0.25999999 -0.73699999 28 11 1
-0.35699999 -0.26199999 -0.77399999 42 15 0
-0.31299999 -0.26899999 -0.75199997 38 8 0
-0.32300001 -0.28 -0.755 159 154 160
-0.31200001 -0.26899999 -0.74800003 109 80 66
-0.324 -0.28299999 -0.75400001 37 17 16
-0.426 -0.49700001 -0.66799998 146 103 87
-0.42300001 -0.50099999 -0.69099998 113 60 28
-0.442 -0.53299999 -0.73500001 136 94 69
-0.44600001 -0.498 -0.70599997 213 160 106
-0.45199999 -0.50999999 -0.704 227 180 138
-0.45300001 -0.50099999 -0.70899999 160 67 0
-0.44999999 -0.51499999 -0.68099999 160 106 34
-0.45699999 -0.55400002 -0.741 76 24 0
-0.45899999 -0.56099999 -0.75400001 24 5 0
-0.44400001 -0.54400003 -0.73900002 51 22 6
-0.419 -0.53600001 -0.72799999 80 35 16
-0.46700001 -0.52399999 -0.70200002 165 130 92
-0.47299999 -0.31900001 -0.597 252 235 179
-0.48699999 -0.31400001 -0.61799997 101 56 17
-0.477 -0.31799999 -0.59299999 121 114 106
-0.56300002 -0.38800001 -0.79699999 143 113 102
-0.58700001 -0.38499999 -0.80199999 54 50 38
-0.50800002 -0.32800001 -0.73799998 31 4 0
-0.50999999 -0.32699999 -0.68900001 150 101 58
-0.51800001 -0.32600001 -0.69099998 172 128 91
-0.50599998 -0.32499999 -0.685 100 57 25
-0.50999999 -0.32600001 -0.667 90 55 33
-0.49700001 -0.31200001 -0.80500001 59 41 37
-0.5 -0.315 -0.80299997 145 125 124
-0.498 -0.32800001 -0.84399998 29 5 0
-0.48300001 -0.39399999 -0.77899998 104 78 55
-0.505 -0.31799999 -0.792 125 101 91
-0.54299998 -0.207 -0.65899998 110 60 27
-0.56699997 -0.198 -0.63800001 168 107 50
-0.56199998 -0.207 -0.63999999 128 58 0
-0.50800002 -0.34 -0.60699999 128 72 23
-0.50999999 -0.317 -0.611 86 37 7
-0.498 -0.315 -0.588 148 110 71
-0.49399999 -0.32699999 -0.616 79 37 23
-0.47099999 -0.30599999 -0.59100002 193 134 66
-0.486 -0.301 -0.59100002 157 94 50
-0.495 -0.34299999 -0.62699997 101 79 68
-0.49900001 -0.33199999 -0.62699997 127 90 63
-0.50300002 -0.31200001 -0.66500002 23 12 18
-0.5 -0.31299999 -0.63099998 63 27 11
-0.50099999 -0.31900001 -0.63800001 7 6 22
-0.48800001 -0.30599999 -0.63599998 45 42 49
-0.54400003 -0.193 -0.63099998 137 74 31
-0.51899999 -0.204 -0.625 167 94 26
-0.52100003 -0.20100001 -0.62699997 219 160 80
-0.51499999 -0.19499999 -0.62400001 254 207 129
-0.53299999 -0.215 -0.63999999 112 64 18
-0.47 -0.28 -0.61199999 192 112 25
-0.447 -0.44800001 -0.66600001 62 27 5
-0.44400001 -0.45300001 -0.66799998 107 72 53
-0.447 -0.50300002 -0.68400002 158 103 39
-0.48500001 -0.428 -0.72299999 103 67 33
-0.55199999 -0.43599999 -0.78899997 154 109 70
-0.55699998 -0.42399999 -0.78899997 185 145 109
-0.54699999 -0.43000001 -0.79500002 84 51 34
-0.56400001 -0.428 -0.787 195 137 87
-0.463 -0.48199999 -0.73699999 104 81 67
-0.46700001 -0.47400001 -0.74299997 28 9 2
-0.45199999 -0.48500001 -0.72500002 69 39 11
-0.47 -0.336 -0.63800001 0 3 41
-0.49200001 -0.38800001 -0.99199998 128 111 103
-0.49700001 -0.37200001 -1.007 48 28 19
-0.49399999 -0.37599999 -1.001 18 4 3
-0.50300002 -0.50199997 -1.059 13 0 0
-0.484 -0.50599998 -1.052 11 0 0
-0.47799999 -0.51599997 -1.0549999 46 25 8
-0.47499999 -0.51999998 -1.056 54 29 9
-0.48100001 -0.51899999 -1.0549999 103 67 31
-0.45899999 -0.52700001 -1.059 4 0 0
-0.45699999 -0.523 -1.061 0 0 0
-0.45199999 -0.546 -1.041 27 13 12
-0.49200001 -0.50599998 -1.049 150 109 65
-0.46900001 -0.292 -0.74000001 24 3 0
-0.47 -0.34999999 -1 30 1 0
-0.414 -0.31200001 -0.94099998 154 132 121
-0.421 -0.29800001 -0.97899997 24 6 4
-0.417 -0.30199999 -0.96600002 23 12 16
-0.421 -0.30199999 -0.97100002 74 42 17
-0.43000001 -0.30199999 -0.98199999 65 41 31
-0.46599999 -0.38 -0.92900002 70 45 25
-0.477 -0.38600001 -0.90200001 27 8 1
-0.48199999 -0.30599999 -0.92000002 16 1 0
-0.52999997 -0.336 -0.87199998 44 16 2
-0.49599999 -0.36399999 -0.86699998 175 148 131
-0.51099998 -0.32800001 -0.92500001 127 120 127
-0.50400001 -0.34200001 -0.94 76 38 2
-0.50800002 -0.35299999 -0.926 46 8 0
-0.505 -0.336 -0.91900003 28 7 2
-0.505 -0.34299999 -0.92299998 71 26 7
-0.505 -0.333 -0.91000003 95 80 77
-0.46399999 -0.347 -0.89300001 85 36 19
-0.463 -0.35100001 -0.89700001 160 132 118
-0.47099999 -0.31200001 -0.89700001 39 15 5
-0.47099999 -0.32800001 -0.91299999 123 97 84
-0.479 -0.317 -0.90700001 37 14 0
-0.49200001 -0.34200001 -0.86400002 62 18 5
-0.472 -0.33700001 -0.86000001 36 16 9
-0.477 -0.34900001 -0.87199998 23 4 0
-0.48100001 -0.35499999 -0.875 51 22 8
-0.495 -0.34200001 -0.86500001 50 10 0
-0.49000001 -0.33500001 -0.85900003 91 62 44
-0.498 -0.33399999 -0.889 18 1 0
-0.51099998 -0.34299999 -0.87599999 27 7 0
-0.43000001 -0.31799999 -0.94700003 111 105 109
-0.42300001 -0.30700001 -0.949 140 130 131
-0.454 -0.33199999 -0.86699998 167 139 128
-0.44999999 -0.34099999 -0.86500001 69 42 13
-0.421 -0.29800001 -0.90700001 80 49 29
-0.41499999 -0.30199999 -0.91399997 38 18 11
-0.421 -0.301 -0.91000003 77 42 23
-0.428 -0.303 -0.89700001 24 29 33
-0.42899999 -0.303 -0.90799999 157 118 75
-0.435 -0.289 -0.866 136 100 84
-0.44499999 -0.28600001 -0.838 125 92 61
-0.44499999 -0.28200001 -0.82499999 95 80 101
-0.51300001 -0.32499999 -0.77499998 116 77 60
-0.50700003 -0.32699999 -0.75099999 48 5 0
-0.405 -0.25 -0.91500002 118 100 90
-0.41499999 -0.25799999 -0.903 95 81 78
-0.41800001 -0.233 -0.89200002 24 0 0
-0.417 -0.22 -0.89600003 11 0 0
-0.447 -0.241 -0.86000001 114 83 62
-0.47 -0.27700001 -0.80900002 91 63 41
-0.46799999 -0.27700001 -0.80699998 103 72 44
-0.48100001 -0.271 -0.81800002 26 6 0
-0.52200001 -0.236 -0.82800001 49 12 0
-0.491 -0.242 -0.81800002 36 14 1
-0.491 -0.23800001 -0.81099999 17 1 1
-0.495 -0.229 -0.81099999 43 19 7
-0.479 -0.252 -0.82200003 42 13 0
-0.484 -0.241 -0.82099998 75 43 46
-0.48500001 -0.24600001 -0.81999999 196 158 122
-0.484 -0.25400001 -0.81699997 82 43 4
-0.477 -0.20999999 -0.74599999 70 62 85
-0.47600001 -0.21699999 -0.72500002 41 11 3
-0.47499999 -0.20900001 -0.73500001 78 60 76
-0.48699999 -0.20999999 -0.73500001 123 92 74
-0.47999999 -0.226 -0.73199999 85 58 63
-0.477 -0.21600001 -0.74299997 78 70 93
-0.47299999 -0.287 -0.74599999 55 23 8
-0.46799999 -0.28099999 -0.727 87 65 51
-0.375 -0.29699999 -0.78799999 74 51 35
-0.36899999 -0.29899999 -0.77999997 123 100 84
-0.463 -0.28 -0.71899998 88 59 43
-0.46200001 -0.27200001 -0.73100001 81 58 64
-0.449 -0.27000001 -0.72299999 53 15 0
-0.46799999 -0.264 -0.73900002 110 81 65
-0.44999999 -0.27000001 -0.72600001 98 57 27
-0.45199999 -0.285 -0.72500002 41 17 7
-0.56199998 -0.214 -0.89499998 24 9 6
-0.55199999 -0.20299999 -0.898 187 166 139
-0.54400003 -0.20999999 -0.88800001 65 40 9
-0.54500002 -0.20900001 -0.89499998 133 113 63
