ply
format ascii 1.0
comment PCL generated
element vertex 958
property float x
property float y
property float z
property uchar red
property uchar green
property uchar blue
element camera 1
property float view_px
property float view_py
property float view_pz
property float x_axisx
property float x_axisy
property float x_axisz
property float y_axisx
property float y_axisy
property float y_axisz
property float z_axisx
property float z_axisy
property float z_axisz
property float focal
property float scalex
property float scaley
property float centerx
property float centery
property int viewportx
property int viewporty
property float k1
property float k2
end_header
-4.7989998 -6.8660002 -0.88300002 100 44 17
-4.803 -6.8800001 -0.88499999 119 77 37
-4.7969999 -6.8649998 -0.88099998 120 63 36
-4.7979999 -6.8769999 -0.88700002 145 83 58
-4.816 -6.8309999 -0.98699999 70 48 34
-4.8169999 -6.8179998 -0.99299997 61 26 4
-4.8270001 -6.8210001 -0.991 99 77 66
-4.803 -6.8449998 -0.91900003 67 38 22
-4.8099999 -6.8460002 -0.92699999 112 67 46
-4.796 -6.8309999 -0.93800002 42 18 8
-4.8449998 -6.9000001 -0.90899998 76 14 3
-4.8410001 -6.8920002 -0.89300001 183 107 45
-4.8379998 -6.8889999 -0.90200001 79 29 4
-4.7880001 -6.8150001 -1.0319999 75 52 38
-4.7880001 -6.8140001 -1.0319999 72 41 23
-4.7909999 -6.8239999 -1.039 5 0 1
-4.7930002 -6.8169999 -1.0369999 38 19 13
-4.8990002 -6.8210001 -1.046 46 3 0
-4.8920002 -6.8189998 -1.0470001 74 30 19
-4.9039998 -6.829 -1.045 106 68 47
-4.8899999 -6.835 -1.038 59 22 6
-4.8379998 -6.902 -0.89200002 87 30 10
-4.8330002 -6.8969998 -0.88599998 78 23 2
-4.8309999 -6.9000001 -0.88300002 82 31 10
-4.8299999 -6.8790002 -0.90200001 55 4 0
-4.829 -6.816 -0.99000001 69 32 14
-4.8140001 -6.8439999 -0.94499999 98 39 7
-4.8119998 -6.835 -0.96399999 20 6 6
-4.822 -6.8460002 -0.95200002 44 24 17
-4.8899999 -6.8010001 -1.0369999 68 42 27
-4.888 -6.8210001 -1.036 30 0 0
-4.875 -6.8049998 -1.0319999 42 20 22
-4.8940001 -6.7969999 -1.0319999 69 18 0
-4.8959999 -6.7989998 -1.04 93 36 9
-4.7969999 -6.8140001 -1.041 19 8 4
-4.7969999 -6.816 -1.045 39 10 2
-4.7979999 -6.8150001 -1.034 14 4 2
-4.8000002 -6.816 -1.05 64 18 3
-4.8049998 -6.8200002 -1.0369999 55 13 0
-4.803 -6.9000001 -1.0369999 24 6 6
-4.8140001 -6.8959999 -1.04 70 49 46
-4.8099999 -6.9070001 -1.039 28 5 0
-4.8969998 -6.8439999 -1.0369999 48 11 2
-4.8319998 -6.8590002 -0.94499999 101 71 61
-4.8470001 -6.848 -0.95999998 41 11 1
-4.8239999 -6.8509998 -0.949 33 13 6
-4.8540001 -6.8649998 -0.93300003 75 33 9
-4.8579998 -6.8670001 -0.926 125 72 40
-4.8470001 -6.8629999 -0.92799997 95 50 21
-4.8070002 -6.9050002 -1.038 14 0 0
-4.8010001 -6.9180002 -0.986 42 3 0
-4.802 -6.9190001 -0.98699999 61 23 14
-4.7989998 -6.9250002 -0.99699998 214 149 95
-4.8049998 -6.9289999 -0.991 177 118 76
-4.8010001 -6.9180002 -0.98299998 55 15 5
-4.8060002 -6.9299998 -0.99199998 130 81 40
-4.8540001 -6.8670001 -0.926 111 58 24
-4.8460002 -6.8740001 -0.93199998 98 32 6
-4.7810001 -6.8639998 -0.898 116 65 36
-4.7880001 -6.8660002 -0.889 134 73 44
-4.7810001 -6.8579998 -0.89200002 68 42 27
-4.7849998 -6.8629999 -0.89300001 105 50 20
-4.8130002 -6.8520002 -0.91900003 98 52 28
-4.8239999 -6.8569999 -0.92199999 69 33 19
-4.796 -6.8189998 -1.045 74 20 0
-4.7870002 -6.8379998 -1.041 9 0 5
-4.776 -6.8559999 -0.95599997 130 107 89
-4.7789998 -6.8600001 -0.96399999 98 39 9
-4.776 -6.8559999 -0.96499997 110 89 72
-4.7810001 -6.8660002 -0.95599997 146 106 81
-4.7719998 -6.855 -0.97399998 36 17 3
-4.8340001 -6.8130002 -0.98500001 92 55 36
-4.8400002 -6.8140001 -0.986 95 62 45
-4.8340001 -6.809 -0.98799998 115 80 58
-4.848 -6.8239999 -0.97500002 32 7 3
-4.8379998 -6.8150001 -0.99299997 92 21 0
-4.776 -6.8520002 -0.95700002 137 93 68
-4.7750001 -6.8439999 -0.94700003 29 2 0
-4.79 -6.8639998 -0.88599998 91 34 15
-4.7849998 -6.8559999 -0.88300002 151 123 109
-4.7940001 -6.8639998 -0.884 123 63 35
-4.7979999 -6.8579998 -0.88599998 152 74 10
-4.8049998 -6.8670001 -0.88700002 158 131 112
-4.7859998 -6.8559999 -0.88800001 149 104 63
-4.7859998 -6.8540001 -0.89399999 120 76 37
-4.8239999 -6.8590002 -0.926 52 23 5
-4.8280001 -6.862 -0.93699998 70 42 21
-4.829 -6.8730001 -0.91600001 37 0 0
-4.8400002 -6.8940001 -0.898 120 53 1
-4.8379998 -6.9060001 -0.90200001 57 0 0
-4.8379998 -6.9060001 -0.90399998 66 8 4
-4.8449998 -6.9050002 -0.90700001 84 35 5
-4.9219999 -6.8860002 -1.005 150 96 60
-4.9289999 -6.888 -1.0140001 126 27 0
-4.9359999 -6.8899999 -1.003 149 78 14
-4.9400001 -6.8860002 -1.013 123 85 49
-4.8119998 -6.9229999 -1.015 95 49 25
-4.816 -6.9219999 -1.012 8 0 0
-4.8959999 -6.809 -1.043 34 6 2
-4.9070001 -6.8049998 -1.0420001 131 100 82
-4.7940001 -6.8439999 -1.041 22 1 0
-4.7810001 -6.8449998 -1.036 22 1 0
-4.8070002 -6.8309999 -1.006 50 23 12
-4.8070002 -6.8249998 -1.018 56 29 20
-4.802 -6.8299999 -1.011 40 13 6
-4.8099999 -6.8860002 -1.026 12 0 0
-4.8179998 -6.8909998 -1.0319999 17 7 6
-4.8169999 -6.8759999 -1.029 21 1 0
-4.888 -6.8309999 -1.035 52 12 0
-4.8850002 -6.8309999 -1.034 57 8 0
-4.8169999 -6.9050002 -1.0369999 17 5 5
-4.8769999 -6.8239999 -1.0039999 54 2 0
-4.8769999 -6.8189998 -1.012 153 113 88
-4.8889999 -6.809 -1.0089999 118 91 80
-4.8860002 -6.816 -1.01 190 124 72
-4.8779998 -6.8080001 -1.022 115 62 30
-4.8839998 -6.8130002 -1.02 68 46 32
-4.908 -6.8470001 -1.035 77 49 25
-4.8990002 -6.8470001 -1.035 78 44 34
-4.9060001 -6.8600001 -1.021 34 0 0
-4.8969998 -6.7979999 -1.033 157 129 105
-4.8959999 -6.803 -1.03 56 7 0
-4.8920002 -6.8179998 -1.0140001 88 52 20
-4.835 -6.882 -1.028 26 2 0
-4.8390002 -6.8649998 -1.039 17 3 2
-4.8530002 -6.8730001 -1.036 17 0 0
-4.8330002 -6.8709998 -1.028 28 0 0
-4.7839999 -6.881 -1.01 26 0 0
-4.7849998 -6.8839998 -1.008 38 1 0
-4.7800002 -6.8779998 -1.013 39 2 0
-4.7849998 -6.8800001 -1.006 15 2 0
-4.8379998 -6.862 -0.94300002 75 52 36
-4.836 -6.9060001 -0.91000003 117 56 38
-4.836 -6.9229999 -0.93900001 104 44 16
-4.835 -6.9239998 -0.93900001 88 28 0
-4.8369999 -6.9200001 -0.93800002 80 22 0
-4.835 -6.927 -0.94499999 88 31 4
-4.8379998 -6.9239998 -0.94300002 98 34 7
-4.835 -6.927 -0.94400001 89 35 11
-4.842 -6.901 -0.898 136 71 31
-4.8499999 -6.8639998 -0.93599999 68 26 10
-4.8590002 -6.8709998 -0.92299998 107 51 16
-4.8299999 -6.8509998 -0.95499998 58 15 0
-4.8099999 -6.8930001 -1.027 21 0 0
-4.802 -6.9060001 -0.94099998 132 85 55
-4.8099999 -6.9039998 -0.93000001 128 98 70
-4.7979999 -6.8899999 -0.93400002 90 64 47
-4.8039999 -6.9250002 -0.99199998 94 46 23
-4.8189998 -6.8800001 -0.89300001 120 90 66
-4.816 -6.8730001 -0.90200001 67 20 14
-4.7880001 -6.8260002 -1.021 86 75 73
-4.7979999 -6.8169999 -1.027 10 0 0
-4.7849998 -6.8309999 -1.024 123 117 121
-4.7870002 -6.8299999 -1.012 25 11 8
-4.8189998 -6.9089999 -0.91299999 158 94 46
-4.8249998 -6.9060001 -0.91600001 75 18 0
-4.8299999 -6.9050002 -0.912 82 19 4
-4.776 -6.8470001 -0.99599999 91 49 24
-4.7680001 -6.8559999 -0.99900001 109 62 34
-4.776 -6.8520002 -0.98699999 14 8 12
-4.7870002 -6.8460002 -0.99400002 75 44 24
-4.789 -6.8390002 -1.007 10 0 0
-4.7849998 -6.835 -0.97899997 75 58 51
-4.7989998 -6.8429999 -0.92400002 34 14 3
-4.8049998 -6.8460002 -0.92299998 67 30 14
-4.8260002 -6.8720002 -0.90499997 71 12 8
-4.823 -6.869 -0.91299999 45 2 0
-4.8099999 -6.8649998 -0.90499997 56 6 0
-4.8109999 -6.868 -0.90399998 49 1 0
-4.809 -6.8639998 -0.90399998 71 18 2
-4.7839999 -6.8499999 -0.89999998 126 66 29
-4.777 -6.848 -0.912 108 54 16
-4.7839999 -6.8429999 -0.912 113 87 62
-4.7880001 -6.855 -0.93199998 118 88 78
-4.7909999 -6.8740001 -0.92699999 48 23 16
-4.7950001 -6.8670001 -0.926 34 1 0
-4.7930002 -6.8709998 -0.935 65 23 7
-4.7979999 -6.8520002 -0.898 145 98 78
-4.7969999 -6.8470001 -0.91299999 63 31 16
-4.7979999 -6.8509998 -0.903 37 1 0
-4.7909999 -6.8509998 -0.89999998 165 103 66
-4.803 -6.855 -0.89600003 85 40 19
-4.816 -6.8579998 -0.91500002 114 50 15
-4.8299999 -6.8049998 -1.007 55 27 15
-4.8319998 -6.8039999 -1.008 19 0 0
-4.8319998 -6.8000002 -1.029 15 4 10
-4.8179998 -6.8559999 -0.92799997 155 130 110
-4.8390002 -6.8990002 -0.89399999 149 87 30
-4.8449998 -6.902 -0.90700001 92 30 9
-4.849 -6.8769999 -0.93099999 100 37 19
-4.9159999 -6.8769999 -1.011 72 14 0
-4.9180002 -6.882 -1.013 50 2 0
-4.9130001 -6.8779998 -1.015 30 0 0
-4.9070001 -6.8660002 -1.01 83 31 7
-4.9130001 -6.8730001 -1.012 39 0 0
-4.9060001 -6.8670001 -1.0190001 40 0 0
-4.9320002 -6.8569999 -1.021 102 56 40
-4.941 -6.8649998 -1.005 167 102 62
-4.9429998 -6.8720002 -1.02 218 147 93
-4.9289999 -6.8530002 -1.0190001 101 55 22
-4.9359999 -6.8740001 -1.028 57 7 0
-4.9349999 -6.8740001 -1.029 64 12 0
-4.9299998 -6.8610001 -1.017 174 98 49
-4.9359999 -6.8670001 -1.016 103 46 26
-4.875 -6.8400002 -1.03 74 37 29
-4.8839998 -6.8410001 -1.03 146 74 36
-4.9029999 -6.8140001 -1.043 74 58 59
-4.783 -6.8410001 -1.012 78 49 45
-4.776 -6.8559999 -0.99699998 91 74 67
-4.783 -6.8400002 -1.01 35 14 9
-4.8060002 -6.8319998 -1.0369999 10 0 1
-4.8000002 -6.8200002 -1.022 30 1 0
-4.7940001 -6.8309999 -1.012 10 0 0
-4.7979999 -6.8299999 -1.015 19 5 5
-4.8130002 -6.829 -0.99900001 103 80 74
-4.8239999 -6.8260002 -1.006 112 93 79
-4.7859998 -6.8340001 -1.016 16 0 0
-4.783 -6.836 -1.028 19 3 3
-4.8200002 -6.908 -1.035 19 0 0
-4.8169999 -6.908 -1.029 67 42 37
-4.8579998 -6.875 -1.036 25 0 0
-4.868 -6.8740001 -1.033 92 36 11
-4.862 -6.8720002 -1.036 71 35 13
-4.8569999 -6.8660002 -1.036 29 0 0
-4.8850002 -6.8439999 -1.025 122 52 1
-4.881 -6.842 -1.028 97 35 0
-4.9130001 -6.875 -1.028 114 66 46
-4.816 -6.921 -1.015 11 1 0
-4.8119998 -6.9200001 -1.018 10 1 2
-4.8200002 -6.915 -1.02 16 0 0
-4.8200002 -6.9180002 -1.015 14 0 0
-4.921 -6.8839998 -1.0140001 121 45 19
-4.8520002 -6.8909998 -1.013 20 0 0
-4.8530002 -6.8889999 -1.005 58 30 8
-4.8590002 -6.881 -1.003 71 23 3
-4.8530002 -6.895 -1.02 16 0 0
-4.8559999 -6.8769999 -1.03 89 53 39
-4.8899999 -6.816 -1.0089999 107 46 15
-4.8790002 -6.835 -1.031 79 21 1
-4.8800001 -6.8070002 -1.029 90 72 62
-4.881 -6.8119998 -1.028 195 100 46
-4.881 -6.8280001 -1.029 67 9 0
-4.8499999 -6.8540001 -1.035 21 0 0
-4.8410001 -6.8579998 -1.0369999 10 0 0
-4.8039999 -6.914 -1.022 24 0 0
-4.803 -6.9060001 -1.018 28 9 2
-4.8520002 -6.875 -1.034 111 78 63
-4.8499999 -6.8870001 -1.024 55 9 0
-4.7969999 -6.8779998 -0.977 42 1 0
-4.7940001 -6.8779998 -0.96499997 20 5 2
-4.802 -6.895 -0.97600001 39 16 0
-4.8060002 -6.8889999 -0.96600002 56 19 1
-4.7930002 -6.8709998 -0.96899998 13 0 0
-4.8330002 -6.8709998 -0.93199998 75 36 19
-4.836 -6.9159999 -0.93699998 87 36 9
-4.8400002 -6.9169998 -0.94 115 98 91
-4.836 -6.901 -0.92199999 29 0 0
-4.822 -6.927 -0.98199999 79 41 22
-4.8239999 -6.9260001 -0.97799999 67 28 11
-4.8299999 -6.9229999 -0.98299998 38 11 0
-4.823 -6.927 -0.97399998 42 14 3
-4.8319998 -6.9239998 -0.95099998 93 41 19
-4.8299999 -6.9250002 -0.94800001 75 26 9
-4.8140001 -6.9299998 -0.94199997 182 137 114
-4.816 -6.9229999 -0.95599997 32 1 0
-4.8119998 -6.9229999 -0.95499998 70 42 18
-4.8210001 -6.9239998 -0.94999999 52 16 2
-4.8099999 -6.928 -0.98900002 84 40 11
-4.809 -6.9180002 -0.96399999 39 5 4
-4.869 -6.875 -0.97399998 48 20 6
-4.8629999 -6.869 -0.98299998 41 5 0
-4.8610001 -6.8730001 -0.98299998 37 8 4
-4.823 -6.8460002 -0.958 120 44 10
-4.8210001 -6.8439999 -0.958 107 32 1
-4.8299999 -6.8499999 -0.95999998 78 35 19
-4.809 -6.836 -0.95999998 60 33 16
-4.7909999 -6.8779998 -0.94499999 98 56 31
-4.7849998 -6.8639998 -0.95200002 126 80 47
-4.8340001 -6.9200001 -0.93699998 68 15 1
-4.836 -6.9250002 -0.94099998 133 73 39
-4.927 -6.8870001 -1.003 145 106 63
-4.9250002 -6.881 -0.99599999 165 110 71
-4.9369998 -6.888 -0.99699998 161 94 49
-4.835 -6.9219999 -0.94999999 68 21 3
-4.8319998 -6.9200001 -0.96799999 23 8 3
-4.8309999 -6.9219999 -0.96799999 15 1 1
-4.8470001 -6.862 -0.94700003 71 38 21
-4.8109999 -6.8439999 -0.97100002 41 13 2
-4.8150001 -6.849 -0.977 113 93 84
-4.816 -6.9229999 -0.95200002 141 108 89
-4.8179998 -6.9229999 -0.95200002 42 8 0
-4.809 -6.928 -0.99199998 65 29 3
-4.8169999 -6.9219999 -0.99599999 34 11 3
-4.8189998 -6.9239998 -0.98799998 92 56 40
-4.8169999 -6.9260001 -0.98500001 69 27 13
-4.8189998 -6.9250002 -0.98199999 64 26 13
-4.7940001 -6.8790002 -0.95899999 105 86 79
-4.8060002 -6.8870001 -0.95200002 39 19 12
-4.783 -6.8649998 -0.97100002 14 0 0
-4.8039999 -6.902 -0.977 16 1 0
-4.7940001 -6.9099998 -0.963 44 6 3
-4.7930002 -6.9029999 -0.98799998 108 85 67
-4.7989998 -6.8959999 -0.98400003 16 2 1
-4.802 -6.8990002 -0.95700002 215 149 101
-4.7969999 -6.8790002 -0.88700002 149 83 51
-4.7930002 -6.8730001 -0.88999999 191 139 89
-4.8130002 -6.881 -0.88800001 126 96 70
-4.8070002 -6.8839998 -0.88999999 59 7 0
-4.8070002 -6.8860002 -0.89099997 51 7 0
-4.8299999 -6.8759999 -0.91500002 30 0 0
-4.829 -6.8790002 -0.90499997 72 24 10
-4.8179998 -6.8600001 -0.91500002 77 12 0
-4.8049998 -6.8569999 -0.90100002 89 42 22
-4.8210001 -6.869 -0.91100001 84 29 22
-4.7969999 -6.882 -0.88599998 106 52 24
-4.796 -6.8829999 -0.889 128 73 42
-4.7950001 -6.8790002 -0.88999999 98 40 3
-4.7979999 -6.8829999 -0.88499999 126 62 26
-4.8000002 -6.9099998 -0.94400001 72 41 12
-4.7989998 -6.9159999 -0.949 111 53 16
-4.8109999 -6.9239998 -0.94 86 62 62
-4.8119998 -6.915 -0.93800002 62 19 3
-4.822 -6.9190001 -0.93900001 87 40 24
-4.8280001 -6.8130002 -0.995 72 39 24
-4.8260002 -6.8140001 -0.99599999 39 14 10
-4.7810001 -6.8670001 -0.98699999 41 0 0
-4.7919998 -6.8699999 -0.98400003 59 20 13
-4.8330002 -6.8179998 -0.98699999 91 60 40
-4.7750001 -6.8499999 -0.97000003 132 123 124
-4.7870002 -6.8369999 -0.94099998 25 0 0
-4.7919998 -6.8340001 -0.94599998 49 16 1
-4.7789998 -6.8540001 -0.95200002 111 79 41
-4.7820001 -6.849 -0.94800001 96 50 26
-4.7859998 -6.8369999 -0.926 49 24 17
-4.823 -6.8709998 -0.90799999 88 28 18
-4.7839999 -6.8439999 -0.91100001 45 20 15
-4.7909999 -6.8470001 -0.912 46 13 0
-4.7940001 -6.8530002 -0.89200002 139 108 90
-4.7839999 -6.8499999 -0.92199999 101 78 64
-4.7950001 -6.8600001 -0.92000002 151 123 111
-4.796 -6.8699999 -0.92299998 37 4 0
-4.8049998 -6.862 -0.88999999 132 91 69
-4.7940001 -6.8470001 -0.912 79 51 37
-4.8330002 -6.809 -1.003 24 0 0
-4.8769999 -6.8080001 -1.023 51 28 12
-4.8379998 -6.809 -1.0089999 17 5 5
-4.816 -6.849 -0.94099998 132 72 35
-4.8379998 -6.842 -0.972 34 20 20
-4.842 -6.8319998 -0.97899997 104 72 47
-4.842 -6.849 -0.96600002 135 88 68
-4.849 -6.8439999 -0.972 117 53 25
-4.8280001 -6.8969998 -0.88800001 87 36 7
-4.8260002 -6.9000001 -0.88999999 116 73 41
-4.8309999 -6.902 -0.89300001 71 15 0
-4.8369999 -6.9029999 -0.89399999 83 24 8
-4.8280001 -6.902 -0.89600003 55 11 0
-4.8429999 -6.8990002 -0.90799999 90 29 11
-4.8410001 -6.8990002 -0.91500002 108 46 23
-4.8400002 -6.8969998 -0.92000002 95 34 6
-4.8449998 -6.9000001 -0.91100001 86 27 13
-4.8600001 -6.8839998 -0.92900002 71 12 4
-4.862 -6.8800001 -0.93000001 133 72 25
-4.8400002 -6.8959999 -0.90899998 69 7 0
-4.8600001 -6.8740001 -0.98500001 39 6 1
-4.8600001 -6.8740001 -0.98299998 31 3 0
-4.8600001 -6.8740001 -0.98000002 34 4 2
-4.8590002 -6.875 -0.98500001 41 12 6
-4.862 -6.8829999 -0.995 74 32 20
-4.8600001 -6.881 -1 50 12 1
-4.8319998 -6.9159999 -0.97899997 48 19 11
-4.8179998 -6.914 -1.022 19 1 1
-4.9390001 -6.882 -1.003 141 103 64
-4.9120002 -6.8530002 -1.022 68 36 11
-4.9219999 -6.855 -1.023 106 32 3
-4.908 -6.8439999 -1.03 49 0 0
-4.9239998 -6.848 -1.017 122 81 51
-4.9039998 -6.816 -1.008 161 98 57
-4.8870001 -6.8249998 -1.0039999 139 98 70
-4.9320002 -6.888 -1.011 165 87 23
-4.921 -6.875 -0.99900001 137 102 64
-4.8080001 -6.8569999 -1.036 46 23 17
-4.8039999 -6.848 -1.034 27 9 9
-4.8080001 -6.8530002 -1.0369999 16 5 3
-4.8179998 -6.8499999 -1.051 52 16 2
-4.809 -6.8699999 -1.028 30 1 0
-4.7950001 -6.835 -1.04 28 0 0
-4.8239999 -6.8140001 -1.013 78 22 0
-4.8249998 -6.8039999 -1.029 94 48 33
-4.7950001 -6.8410001 -0.99900001 18 6 8
-4.8080001 -6.8400002 -1.036 55 32 26
-4.783 -6.8369999 -1.021 89 42 16
-4.789 -6.8280001 -1.036 77 66 64
-4.8470001 -6.8779998 -1.027 11 0 0
-4.8899999 -6.842 -1.029 164 85 44
-4.849 -6.8909998 -1.002 198 110 46
-4.8509998 -6.8870001 -1.001 148 57 2
-4.8520002 -6.888 -1.003 151 60 15
-4.8720002 -6.8369999 -1.012 188 111 67
-4.8540001 -6.8470001 -1.015 64 52 30
-4.875 -6.8470001 -1.015 87 45 23
-4.9120002 -6.8720002 -1.022 107 49 29
-4.875 -6.8540001 -1.011 139 104 76
-4.8569999 -6.8600001 -1.016 121 79 55
-4.8730001 -6.8559999 -1.018 108 68 42
-4.9239998 -6.8850002 -1.0140001 112 21 0
-4.8239999 -6.9130001 -1.021 21 0 0
-4.8249998 -6.9120002 -1.021 33 7 6
-4.8260002 -6.9109998 -1.021 32 6 5
-4.8499999 -6.8639998 -1.034 38 11 0
-4.8499999 -6.8909998 -1.007 88 16 0
-4.8470001 -6.8930001 -1.0089999 109 54 33
-4.8249998 -6.914 -1.015 17 3 3
-4.848 -6.8270001 -0.98500001 121 46 4
-4.8439999 -6.823 -0.98699999 115 40 8
-4.8559999 -6.8610001 -0.958 131 105 92
-4.8499999 -6.8559999 -0.96100003 104 31 0
-4.8639998 -6.8590002 -0.96100003 146 89 62
-4.8569999 -6.8639998 -0.94999999 136 61 21
-4.855 -6.8499999 -0.97299999 105 77 56
-4.8600001 -6.849 -0.97600001 85 52 37
-4.888 -6.8280001 -1.003 150 107 64
-4.8940001 -6.8260002 -1.0089999 96 56 20
-4.9169998 -6.8540001 -1.022 91 24 0
-4.9169998 -6.842 -1.013 58 22 0
-4.9039998 -6.8390002 -1.036 53 0 0
-4.8720002 -6.8280001 -1.021 135 69 0
-4.8779998 -6.8319998 -1.026 82 17 0
-4.8709998 -6.8210001 -1.024 111 79 56
-4.8670001 -6.8410001 -1.025 39 6 0
-4.9050002 -6.816 -1.04 94 67 46
-4.8390002 -6.8769999 -1.028 33 3 0
-4.842 -6.8870001 -1.023 27 5 7
-4.8189998 -6.9029999 -1.035 16 2 1
-4.8200002 -6.9060001 -1.034 8 0 0
-4.8330002 -6.8899999 -0.98000002 46 14 3
-4.8460002 -6.882 -0.97399998 35 8 1
-4.8470001 -6.8899999 -0.96799999 93 46 16
-4.8049998 -6.8899999 -0.95899999 33 16 9
-4.7930002 -6.8899999 -0.99699998 81 40 18
-4.7940001 -6.8909998 -0.991 14 0 0
-4.7839999 -6.8769999 -0.99699998 31 8 0
-4.7789998 -6.8709998 -1.006 34 1 0
-4.7950001 -6.8400002 -0.93000001 24 10 10
-4.8210001 -6.9219999 -0.95300001 53 20 5
-4.836 -6.8889999 -0.917 99 40 22
-4.8369999 -6.9219999 -0.93900001 97 37 9
-4.8309999 -6.9219999 -0.96899998 16 1 0
-4.8210001 -6.9239998 -0.96799999 46 12 2
-4.829 -6.9219999 -0.954 70 19 2
-4.7909999 -6.8720002 -0.949 63 37 20
-4.8340001 -6.9039998 -0.91500002 90 34 21
-4.835 -6.9029999 -0.91500002 58 8 1
-4.8249998 -6.9260001 -0.94 49 21 7
-4.862 -6.8740001 -0.95899999 82 59 51
-4.8649998 -6.8839998 -0.95599997 140 127 119
-4.8629999 -6.882 -0.96399999 75 43 22
-4.862 -6.8769999 -0.95599997 52 27 23
-4.829 -6.9029999 -0.96700001 67 33 21
-4.8390002 -6.9029999 -0.95700002 48 11 2
-4.842 -6.8940001 -1.007 49 3 0
-4.8400002 -6.8639998 -0.94 65 32 13
-4.8629999 -6.881 -0.93199998 81 14 0
-4.8260002 -6.849 -0.972 78 45 26
-4.8200002 -6.9250002 -0.94700003 55 11 0
-4.809 -6.9260001 -0.99299997 81 44 25
-4.8280001 -6.9219999 -0.98400003 57 24 9
-4.7940001 -6.8870001 -0.98699999 43 22 5
-4.7979999 -6.9159999 -0.98400003 85 48 29
-4.7789998 -6.8610001 -0.972 73 18 0
-4.7789998 -6.8600001 -0.97799999 13 2 0
-4.777 -6.8579998 -0.97399998 81 59 46
-4.776 -6.8559999 -0.97000003 65 25 13
-4.7810001 -6.8629999 -0.97799999 72 35 9
-4.7979999 -6.9169998 -0.95599997 43 2 0
-4.8099999 -6.9190001 -0.95999998 35 0 0
-4.8060002 -6.9159999 -0.96399999 56 19 10
-4.7870002 -6.8759999 -0.90200001 106 70 44
-4.7950001 -6.882 -0.89399999 95 50 17
-4.7969999 -6.8839998 -0.89300001 66 22 0
-4.7930002 -6.8779998 -0.90700001 42 0 1
-4.8270001 -6.8759999 -0.90600002 48 0 0
-4.8070002 -6.8590002 -0.90499997 50 0 0
-4.823 -6.8979998 -0.89700001 139 112 95
-4.823 -6.9000001 -0.90499997 79 32 26
-4.8179998 -6.8930001 -0.898 114 84 60
-4.8239999 -6.9000001 -0.903 66 9 0
-4.7989998 -6.901 -0.94499999 107 87 80
-4.8070002 -6.9200001 -0.93900001 110 74 50
-4.7859998 -6.8639998 -0.98000002 28 8 0
-4.7979999 -6.842 -0.98299998 67 47 36
-4.7950001 -6.8449998 -0.98900002 45 17 13
-4.776 -6.8520002 -0.96499997 41 1 0
-4.855 -6.8569999 -0.96700001 164 98 74
-4.803 -6.8309999 -0.97000003 112 80 65
-4.8039999 -6.8379998 -0.98100001 23 8 5
-4.796 -6.8439999 -0.91799998 49 20 6
-4.7859998 -6.855 -0.91000003 80 39 21
-4.7849998 -6.8559999 -0.90200001 68 40 26
-4.7940001 -6.8520002 -0.89700001 85 39 13
-4.7989998 -6.8540001 -0.89600003 84 37 17
-4.7880001 -6.8439999 -0.93599999 42 12 4
-4.8060002 -6.8590002 -0.90100002 87 38 21
-4.8010001 -6.8530002 -0.90200001 66 22 9
-4.802 -6.8530002 -0.89999998 95 53 31
-4.8319998 -6.8109999 -0.99699998 46 19 10
-4.8319998 -6.803 -1.015 16 2 0
-4.8720002 -6.8189998 -1.0190001 168 106 45
-4.8590002 -6.8179998 -1.012 60 42 28
-4.8379998 -6.809 -1.0140001 19 3 4
-4.842 -6.8130002 -1.021 78 65 46
-4.8379998 -6.8119998 -1.005 19 5 4
-4.8429999 -6.8189998 -0.99800003 108 38 12
-4.8390002 -6.8140001 -1.006 86 21 3
-4.8280001 -6.8860002 -0.89099997 139 106 89
-4.8369999 -6.9060001 -0.89700001 84 26 6
-4.836 -6.9060001 -0.89899999 83 21 0
-4.8319998 -6.9029999 -0.89499998 106 46 22
-4.842 -6.8959999 -0.91500002 70 13 2
-4.8509998 -6.8870001 -0.93400002 68 23 4
-4.8600001 -6.882 -0.99900001 73 22 1
-4.8579998 -6.8850002 -0.96600002 116 67 34
-4.855 -6.8839998 -0.96799999 104 67 41
-4.848 -6.8889999 -0.96700001 34 0 0
-4.8520002 -6.8920002 -0.95099998 113 56 27
-4.8099999 -6.915 -1.015 19 1 0
-4.8119998 -6.9159999 -1.021 11 0 0
-4.8169999 -6.915 -1.021 16 0 0
-4.9400001 -6.8779998 -1.003 140 73 30
-4.9349999 -6.8660002 -0.99699998 104 63 19
-4.934 -6.8790002 -0.99900001 118 75 32
-4.9250002 -6.8569999 -1.027 182 90 17
-4.9380002 -6.869 -1.017 142 87 56
-4.928 -6.8670001 -0.99699998 136 62 17
-4.8109999 -6.862 -1.036 16 0 0
-4.8210001 -6.855 -1.045 68 30 17
-4.8239999 -6.8210001 -0.99900001 68 38 30
-4.8049998 -6.8260002 -1.018 14 8 8
-4.8080001 -6.836 -0.99199998 45 19 2
-4.7950001 -6.9130001 -0.99000001 63 26 10
-4.777 -6.8590002 -0.99800003 29 0 0
-4.7880001 -6.8540001 -1.011 40 5 0
-4.9359999 -6.869 -1.0190001 109 52 9
-4.8509998 -6.8569999 -1 25 4 3
-4.849 -6.8390002 -1.015 38 7 2
-4.8449998 -6.8369999 -0.99800003 35 16 10
-4.8189998 -6.9180002 -1.007 109 68 46
-4.8239999 -6.9120002 -1.011 9 0 1
-4.816 -6.915 -0.99699998 29 1 0
-4.8189998 -6.9180002 -0.99000001 35 1 0
-4.915 -6.8800001 -1.015 34 0 0
-4.9289999 -6.8850002 -1.018 119 22 0
-4.927 -6.8850002 -1.02 120 34 11
-4.9159999 -6.8790002 -1.021 105 50 30
-4.9200001 -6.882 -1.021 117 55 34
-4.921 -6.8790002 -1.029 94 20 7
-4.915 -6.8759999 -1.0319999 106 57 42
-4.8439999 -6.8920002 -1.0190001 67 21 8
-4.8280001 -6.9099998 -1.0140001 13 0 0
-4.8270001 -6.901 -1.013 59 32 23
-4.8579998 -6.8759999 -1.028 137 96 74
-4.8629999 -6.8699999 -1.034 49 11 0
-4.8699999 -6.8730001 -1.026 71 20 1
-4.8499999 -6.8909998 -1.0039999 138 56 9
-4.8499999 -6.829 -0.98699999 116 49 22
-4.848 -6.8270001 -0.99199998 99 34 16
-4.8400002 -6.823 -0.98299998 114 78 56
-4.835 -6.8179998 -0.986 66 43 29
-4.8390002 -6.8280001 -0.98400003 81 28 10
-4.8470001 -6.8330002 -0.99299997 96 36 10
-4.848 -6.8379998 -0.99199998 67 15 0
-4.8460002 -6.8369999 -0.995 73 45 21
-4.8470001 -6.8280001 -0.99400002 82 21 3
-4.8610001 -6.8569999 -0.98199999 83 53 42
-4.8579998 -6.8670001 -0.98900002 70 41 37
-4.888 -6.842 -1.028 193 101 36
-4.9169998 -6.8460002 -1.0140001 165 109 76
-4.9089999 -6.8429999 -1.013 118 91 80
-4.9099998 -6.849 -1.0140001 94 59 29
-4.9000001 -6.8070002 -1.036 118 73 50
-4.902 -6.8200002 -1.0369999 76 48 24
-4.8530002 -6.8839998 -1.015 15 1 1
-4.8569999 -6.8790002 -1.008 72 21 2
-4.7969999 -6.8889999 -1.016 20 1 0
-4.7969999 -6.882 -1.016 8 0 0
-4.7919998 -6.8790002 -1.016 82 82 84
-4.8249998 -6.8600001 -1.033 7 2 0
-4.8270001 -6.9219999 -0.95300001 67 19 7
-4.8309999 -6.921 -0.963 14 0 0
-4.823 -6.8460002 -0.96200001 70 32 13
-4.835 -6.9159999 -0.93699998 72 18 0
-4.8340001 -6.9060001 -0.912 53 4 0
-4.8319998 -6.902 -0.91900003 59 16 7
-4.8280001 -6.9070001 -0.90100002 38 22 23
-4.8600001 -6.8649998 -0.96600002 76 15 0
-4.836 -6.9250002 -0.94499999 103 46 16
-4.8379998 -6.921 -0.94300002 102 44 24
-4.8340001 -6.9229999 -0.94999999 101 51 28
-4.835 -6.895 -0.96100003 77 45 34
-4.822 -6.9000001 -0.99800003 33 2 0
-4.8239999 -6.9070001 -1.01 14 0 0
-4.8249998 -6.9130001 -1.012 10 0 0
-4.8270001 -6.9099998 -1.021 24 0 0
-4.8260002 -6.9109998 -1.018 26 0 0
-4.836 -6.8639998 -0.93900001 67 35 14
-4.8610001 -6.8720002 -0.95300001 98 76 65
-4.8610001 -6.8730001 -0.93599999 123 44 3
-4.8610001 -6.8829999 -0.93199998 66 5 0
-4.8130002 -6.9260001 -0.98900002 75 30 11
-4.8200002 -6.9070001 -0.99199998 20 0 0
-4.802 -6.9190001 -0.98000002 58 16 2
-4.8039999 -6.9190001 -0.98100001 49 12 3
-4.8060002 -6.921 -0.98400003 49 12 4
-4.789 -6.8670001 -0.963 88 65 51
-4.809 -6.9169998 -0.96700001 29 1 0
-4.8070002 -6.9159999 -0.97399998 26 0 0
-4.8039999 -6.9159999 -0.97500002 40 10 2
-4.8000002 -6.9130001 -0.977 29 0 0
-4.7989998 -6.8870001 -0.89099997 72 24 1
-4.8049998 -6.8860002 -0.89399999 140 97 55
-4.7969999 -6.8839998 -0.89200002 85 39 6
-4.7870002 -6.8639998 -0.89999998 157 96 49
-4.8130002 -6.8499999 -0.93599999 63 33 23
-4.7839999 -6.8400002 -1.026 19 0 0
-4.8189998 -6.8969998 -0.90799999 73 23 12
-4.8169999 -6.8959999 -0.91100001 73 29 18
-4.7979999 -6.9120002 -0.95700002 64 17 9
-4.803 -6.9200001 -0.94700003 108 52 29
-4.8060002 -6.915 -0.94 127 76 49
-4.7940001 -6.881 -0.94099998 66 39 22
-4.7800002 -6.8649998 -0.98400003 72 37 17
-4.7729998 -6.8590002 -0.99199998 62 24 3
-4.7729998 -6.8600001 -0.99299997 108 65 48
-4.776 -6.862 -0.99000001 48 8 0
-4.7740002 -6.8590002 -0.991 64 20 7
-4.776 -6.8530002 -0.96100003 69 28 10
-4.777 -6.8520002 -0.96100003 171 110 56
-4.7870002 -6.8400002 -0.94599998 41 20 15
-4.789 -6.8429999 -0.954 101 97 96
-4.8309999 -6.8210001 -0.98799998 57 18 11
-4.8330002 -6.8210001 -0.986 52 10 0
-4.802 -6.8330002 -0.96399999 92 47 24
-4.8010001 -6.8379998 -0.977 86 54 41
-4.7969999 -6.8390002 -0.95599997 81 45 31
-4.802 -6.8340001 -0.963 86 38 15
-4.7969999 -6.8400002 -0.95899999 26 7 1
-4.7820001 -6.848 -0.96399999 23 2 0
-4.79 -6.8429999 -0.91799998 45 14 0
-4.7880001 -6.8429999 -0.93199998 37 4 0
-4.7880001 -6.8439999 -0.92900002 42 7 1
-4.7919998 -6.855 -0.91799998 50 33 26
-4.7989998 -6.8520002 -0.89999998 60 19 0
-4.802 -6.8540001 -0.89700001 73 22 5
-4.8070002 -6.8579998 -0.90600002 53 2 0
-4.8260002 -6.8130002 -1 20 0 0
-4.8299999 -6.8049998 -1.02 58 29 21
-4.8410001 -6.8169999 -1.008 57 36 35
-4.8439999 -6.8200002 -0.99400002 106 31 0
-4.8060002 -6.835 -0.95700002 80 28 4
-4.802 -6.8429999 -0.94999999 116 66 33
-4.8140001 -6.8520002 -0.92199999 112 67 48
-4.8119998 -6.8520002 -0.91900003 103 46 16
-4.803 -6.8530002 -0.91399997 59 3 0
-4.835 -6.9050002 -0.89700001 87 25 4
-4.8439999 -6.901 -0.91100001 105 43 20
-4.8379998 -6.8969998 -0.92500001 118 68 31
-4.836 -6.8979998 -0.93099999 82 39 23
-4.8400002 -6.8940001 -0.91500002 68 12 0
-4.8319998 -6.8829999 -0.90899998 51 11 9
-4.8600001 -6.881 -0.99299997 62 15 0
-4.8189998 -6.9180002 -1.011 5 1 0
-4.8099999 -6.9190001 -1.015 21 0 0
-4.8099999 -6.9190001 -1.02 11 1 2
-4.9299998 -6.8629999 -1.023 213 127 54
-4.9060001 -6.8239999 -1.0140001 162 115 89
-4.934 -6.8720002 -1 68 31 13
-4.9310002 -6.869 -0.99599999 112 54 16
-4.777 -6.8699999 -0.995 20 6 3
-4.7779999 -6.8629999 -0.98799998 41 3 0
-4.8330002 -6.803 -1.0140001 86 54 33
-4.8330002 -6.8049998 -1.023 75 13 2
-4.836 -6.8140001 -1.038 26 6 0
-4.8260002 -6.836 -1.048 34 6 2
-4.8260002 -6.829 -1.041 9 0 5
-4.8210001 -6.8410001 -1.043 9 0 7
-4.822 -6.8390002 -1.043 45 16 12
-4.8210001 -6.8369999 -1.04 13 2 0
-4.7839999 -6.8439999 -1.016 29 5 1
-4.796 -6.8369999 -1.003 24 0 0
-4.7909999 -6.8439999 -1.036 29 4 0
-4.789 -6.8850002 -1.008 67 31 17
-4.8969998 -6.8330002 -1.013 180 109 57
-4.9000001 -6.8410001 -1.0140001 88 54 29
-4.9050002 -6.8460002 -1.0140001 98 65 34
-4.8520002 -6.8600001 -1 46 21 17
-4.8449998 -6.848 -0.99699998 89 38 19
-4.868 -6.8280001 -1.0140001 113 67 34
-4.8759999 -6.8309999 -1.0089999 164 124 89
-4.9109998 -6.8639998 -1.02 66 16 5
-4.9180002 -6.882 -1.015 64 11 0
-4.921 -6.8829999 -1.018 89 18 0
-4.9219999 -6.8829999 -1.022 88 20 7
-4.822 -6.908 -1.029 22 1 0
-4.8260002 -6.9089999 -1.022 21 1 2
-4.823 -6.901 -1.028 14 2 2
-4.8470001 -6.8969998 -0.94800001 85 59 46
-4.8379998 -6.9039998 -0.95099998 51 13 0
-4.8410001 -6.8920002 -1.0039999 154 77 25
-4.8449998 -6.8340001 -0.97600001 45 19 6
-4.8499999 -6.835 -0.97799999 62 33 19
-4.8530002 -6.836 -0.98000002 71 29 15
-4.8280001 -6.8319998 -0.986 51 32 18
-4.8600001 -6.8600001 -0.97600001 44 9 3
-4.8600001 -6.8499999 -0.98100001 126 72 34
-4.8540001 -6.8410001 -0.98100001 100 35 5
-4.8579998 -6.8779998 -1.023 106 77 71
-4.8049998 -6.9029999 -1.027 12 1 0
-4.796 -6.8920002 -1.007 34 16 6
-4.822 -6.8790002 -1.025 29 4 0
-4.8579998 -6.8709998 -0.991 47 10 4
-4.8410001 -6.8909998 -1.002 137 62 23
-4.8319998 -6.8909998 -0.991 87 53 41
-4.8280001 -6.9120002 -0.97799999 28 0 0
-4.823 -6.9070001 -0.986 29 1 0
-4.789 -6.8379998 -0.97399998 8 0 0
-4.8179998 -6.8429999 -0.958 79 14 0
-4.8340001 -6.8870001 -0.91799998 77 18 0
-4.823 -6.9239998 -0.94800001 72 35 17
-4.8340001 -6.914 -0.958 31 0 0
-4.8330002 -6.915 -0.95999998 24 0 2
-4.8309999 -6.9120002 -0.963 30 4 3
-4.8299999 -6.9219999 -0.97000003 16 2 1
-4.8330002 -6.9180002 -0.95700002 32 1 0
-4.8340001 -6.9159999 -0.95499998 40 3 0
-4.8379998 -6.8899999 -0.921 61 2 0
-4.8239999 -6.9050002 -0.92900002 133 85 63
-4.823 -6.9050002 -0.92500001 54 11 4
-4.8210001 -6.9050002 -0.92900002 86 50 24
-4.8319998 -6.9200001 -0.96499997 11 0 0
-4.829 -6.9039998 -0.91600001 70 10 2
-4.8249998 -6.9050002 -0.92299998 70 26 15
-4.8260002 -6.9039998 -0.92500001 63 19 10
-4.8540001 -6.8850002 -0.95899999 48 13 7
-4.8379998 -6.914 -0.93900001 105 61 34
-4.829 -6.8940001 -0.97399998 44 22 11
-4.8579998 -6.8649998 -0.94599998 175 96 53
-4.8629999 -6.882 -0.954 74 42 17
-4.8600001 -6.8800001 -0.95099998 24 0 3
-4.8520002 -6.8860002 -0.94 83 37 21
-4.8559999 -6.882 -0.94700003 20 0 1
-4.8070002 -6.928 -0.99000001 85 40 9
-4.8070002 -6.9229999 -0.986 84 37 17
-4.8169999 -6.9099998 -0.995 28 4 4
-4.823 -6.9089999 -0.98799998 20 1 0
-4.789 -6.868 -0.95999998 27 8 2
-4.7810001 -6.862 -0.96700001 123 86 60
-4.8039999 -6.915 -0.96799999 45 14 11
-4.796 -6.8829999 -0.89099997 87 37 2
-4.7940001 -6.8790002 -0.90100002 48 1 0
-4.8000002 -6.8559999 -0.89300001 91 34 14
-4.8080001 -6.8179998 -1.03 105 56 23
-4.8260002 -6.8070002 -1.026 95 47 27
-4.803 -6.9180002 -0.94499999 93 35 0
-4.7930002 -6.8779998 -0.90399998 42 5 0
-4.7989998 -6.882 -0.90100002 38 0 0
-4.8169999 -6.8920002 -0.90600002 82 63 57
-4.7969999 -6.8699999 -0.921 50 19 1
-4.7930002 -6.8779998 -0.90700001 42 0 1
-4.777 -6.8590002 -0.98400003 56 36 25
-4.7719998 -6.8590002 -0.99699998 49 3 0
-4.8070002 -6.835 -0.963 98 74 64
-4.79 -6.8569999 -0.94700003 29 4 0
-4.8060002 -6.8439999 -0.93199998 67 34 25
-4.7940001 -6.8579998 -0.921 68 16 0
-4.8039999 -6.8559999 -0.89999998 75 33 17
-4.8270001 -6.8070002 -1.024 46 24 11
-4.8379998 -6.8099999 -1.013 29 0 0
-4.8520002 -6.822 -1.011 111 84 55
-4.8330002 -6.9050002 -0.898 101 40 19
-4.8379998 -6.8920002 -0.91500002 86 25 7
-4.855 -6.881 -0.97299999 56 30 17
-4.8530002 -6.8779998 -0.98400003 41 10 5
-4.8179998 -6.9190001 -1.01 8 0 0
-4.809 -6.9180002 -1.018 14 0 0
-4.9349999 -6.881 -1.018 126 55 0
-4.934 -6.8769999 -1.022 100 36 0
-4.928 -6.8699999 -1.029 242 192 97
-4.934 -6.875 -1.026 73 15 0
-4.9029999 -6.8340001 -1.022 172 119 88
-4.8990002 -6.8109999 -1.036 72 35 16
-4.8969998 -6.8119998 -1.035 133 98 76
-4.9200001 -6.862 -1.006 184 112 62
-4.8270001 -6.809 -1.023 28 0 0
-4.8390002 -6.8109999 -1.02 57 37 36
-4.8109999 -6.8239999 -1.025 127 100 91
-4.8270001 -6.8060002 -1.033 45 26 9
-4.7849998 -6.8470001 -1.021 144 97 69
-4.8439999 -6.8540001 -1.035 21 0 0
-4.8449998 -6.8800001 -1.025 81 53 39
-4.849 -6.8540001 -0.99299997 87 41 26
-4.848 -6.8460002 -0.991 105 52 20
-4.8509998 -6.8439999 -0.986 79 23 10
-4.848 -6.8429999 -0.99199998 100 55 24
-4.888 -6.835 -1.008 70 60 58
-4.901 -6.848 -1.016 120 76 41
-4.8520002 -6.8579998 -0.99599999 27 0 0
-4.8520002 -6.8629999 -1 43 10 5
-4.9120002 -6.8629999 -1.02 69 19 8
-4.9239998 -6.8850002 -1.017 122 39 23
-4.8210001 -6.908 -1.03 9 1 0
-4.8629999 -6.8699999 -1.029 58 15 0
-4.8449998 -6.8920002 -1.0039999 201 111 49
-4.8439999 -6.8909998 -1.002 226 132 70
-4.842 -6.8909998 -1.002 136 62 13
-4.8759999 -6.8439999 -1.013 178 133 114
-4.9000001 -6.8200002 -1.0140001 209 163 140
-4.8790002 -6.842 -1.027 219 149 79
-4.8759999 -6.823 -1.025 76 15 0
-4.855 -6.8800001 -1.0190001 28 0 0
-4.7930002 -6.8649998 -1.013 97 77 68
-4.7849998 -6.862 -1.0039999 39 16 10
-4.809 -6.9060001 -1.007 38 10 6
-4.8470001 -6.8800001 -0.98500001 48 29 14
-4.8470001 -6.8899999 -1 75 25 0
-4.7859998 -6.8379998 -0.97299999 79 62 55
-4.8439999 -6.9130001 -0.94199997 138 117 100
-4.8330002 -6.9159999 -0.95999998 21 0 5
-4.8330002 -6.9190001 -0.95499998 43 4 0
-4.8340001 -6.9089999 -0.93699998 49 17 4
-4.8280001 -6.8990002 -1.023 25 1 1
-4.8400002 -6.8959999 -0.94199997 130 98 83
-4.8600001 -6.8730001 -0.95200002 89 61 49
-4.8590002 -6.869 -0.94199997 177 100 56
-4.8109999 -6.9200001 -0.98100001 16 0 0
-4.7839999 -6.8639998 -0.96200001 128 108 101
-4.8150001 -6.9200001 -0.96100003 35 7 4
-4.8010001 -6.915 -0.97799999 55 23 10
-4.796 -6.881 -0.89700001 87 46 16
-4.7979999 -6.8660002 -0.91100001 64 7 0
-4.8049998 -6.8569999 -0.90600002 61 12 0
-4.8049998 -6.8569999 -0.90499997 68 18 9
-4.796 -6.8639998 -0.90799999 62 3 0
-4.8039999 -6.8210001 -1.024 12 7 4
-4.822 -6.8099999 -1.033 25 7 3
-4.8189998 -6.8109999 -1.033 23 0 0
-4.7969999 -6.862 -0.91399997 105 40 20
-4.802 -6.882 -0.93099999 74 41 24
-4.8049998 -6.882 -0.91900003 64 18 5
-4.8070002 -6.8870001 -0.90899998 54 18 0
-4.8119998 -6.8920002 -0.91600001 58 17 0
-4.7880001 -6.8410001 -0.93900001 40 20 13
-4.7820001 -6.848 -0.954 110 104 104
-4.8039999 -6.8429999 -0.93599999 91 37 13
-4.7909999 -6.8509998 -0.89999998 165 103 66
-4.796 -6.8509998 -0.90499997 55 11 0
-4.7979999 -6.8509998 -0.90700001 69 37 16
-4.8569999 -6.8210001 -1.018 86 54 31
-4.849 -6.829 -1.026 40 12 0
-4.8249998 -6.8940001 -0.89099997 127 58 1
-4.8400002 -6.8940001 -0.92000002 78 17 0
-4.8600001 -6.881 -0.995 49 5 0
-4.8579998 -6.8740001 -0.991 62 25 9
-4.9289999 -6.8829999 -1.021 146 50 0
-4.927 -6.8649998 -1.008 131 96 64
-4.9419999 -6.8740001 -1.013 147 91 66
-4.7750001 -6.8629999 -0.99599999 82 35 27
-4.8309999 -6.8039999 -1.024 18 3 0
-4.836 -6.8099999 -1.023 36 24 28
-4.8319998 -6.8540001 -1.043 57 15 1
-4.7859998 -6.8340001 -1.0319999 23 14 19
-4.803 -6.901 -1.018 13 0 0
-4.8070002 -6.8990002 -1.0319999 20 2 2
-4.8379998 -6.822 -1.031 20 2 0
-4.8449998 -6.8299999 -1.03 53 3 0
-4.8379998 -6.8249998 -1.044 46 16 16
-4.836 -6.822 -1.045 15 0 0
-4.8340001 -6.822 -1.051 16 0 0
-4.8520002 -6.8379998 -1.029 35 15 4
-4.8520002 -6.848 -1.034 21 10 8
-4.8530002 -6.862 -1.028 25 0 0
-4.888 -6.8540001 -1.017 128 81 51
-4.8520002 -6.8639998 -1.002 61 24 15
-4.8520002 -6.8660002 -1.003 55 13 0
-4.8790002 -6.836 -1.0089999 124 84 48
-4.8759999 -6.8390002 -1.012 70 33 17
-4.8239999 -6.902 -1.026 21 2 0
-4.8590002 -6.8639998 -1.023 60 26 16
-4.8400002 -6.8909998 -1.003 131 63 26
-4.8460002 -6.8930001 -1.006 158 71 26
-4.8530002 -6.8400002 -0.986 87 41 17
-4.8590002 -6.862 -0.972 80 35 4
-4.8800001 -6.8140001 -1.027 154 60 0
-4.8790002 -6.823 -1.027 111 67 40
-4.8569999 -6.8779998 -1.024 64 32 21
-4.8610001 -6.8730001 -1.015 57 32 27
-4.796 -6.8660002 -1.0140001 117 117 119
-4.8200002 -6.868 -1.027 14 3 1
-4.8429999 -6.8899999 -1.001 180 99 44
-4.835 -6.8559999 -0.954 46 9 0
-4.8340001 -6.8850002 -0.92400002 64 3 0
-4.8150001 -6.9029999 -0.92199999 141 85 52
-4.8140001 -6.895 -0.92199999 81 27 3
-4.836 -6.9180002 -0.94800001 77 24 8
-4.8319998 -6.9190001 -0.96600002 15 4 0
-4.829 -6.915 -0.97299999 27 6 1
-4.829 -6.8930001 -1.023 31 0 0
-4.802 -6.9130001 -0.96799999 57 27 19
-4.7979999 -6.881 -0.90200001 39 0 0
-4.802 -6.8579998 -0.88999999 98 47 30
-4.802 -6.8790002 -0.91500002 68 40 18
-4.8049998 -6.8569999 -0.90399998 75 26 11
-4.835 -6.816 -1.043 13 2 0
-4.809 -6.8889999 -0.921 69 26 7
-4.8559999 -6.8379998 -1.023 33 2 0
-4.9180002 -6.8769999 -1.008 71 20 3
-4.9200001 -6.868 -1.003 106 68 23
-4.8319998 -6.8080001 -1.029 17 3 2
-4.835 -6.8060002 -1.017 45 17 13
-4.8390002 -6.835 -1.041 30 2 0
-4.8520002 -6.842 -1.04 20 2 2
-4.7950001 -6.8559999 -1.025 42 7 1
-4.783 -6.8379998 -1.033 11 0 0
-4.8000002 -6.9099998 -0.99400002 23 3 0
-4.809 -6.8759999 -1.022 59 29 19
-4.8000002 -6.8979998 -1.011 55 17 0
-4.8439999 -6.829 -1.029 53 7 0
-4.835 -6.8330002 -1.0420001 9 0 5
-4.8870001 -6.8499999 -1.015 135 90 57
-4.8790002 -6.8499999 -1.0140001 57 32 12
-4.8839998 -6.8429999 -1.012 87 46 24
-4.8439999 -6.8309999 -1.008 34 9 2
-4.927 -6.8790002 -1.024 183 92 3
-4.8520002 -6.8889999 -1.01 44 0 0
-4.8509998 -6.836 -0.98699999 87 25 0
-4.8520002 -6.8400002 -0.97799999 96 32 5
-4.8720002 -6.8189998 -1.022 166 118 46
-4.8730001 -6.8200002 -1.024 210 182 85
-4.8270001 -6.9070001 -1.021 21 1 2
-4.8530002 -6.8699999 -1.005 76 33 16
-4.8600001 -6.8720002 -0.98699999 30 0 0
-4.8559999 -6.8740001 -0.99699998 63 20 1
-4.829 -6.9130001 -0.96700001 15 0 0
-4.8600001 -6.8779998 -0.93800002 84 19 1
-4.8600001 -6.8800001 -0.93599999 76 12 2
-4.8579998 -6.8740001 -0.94199997 85 20 0
-4.829 -6.914 -0.97600001 25 0 0
-4.7930002 -6.8779998 -0.90499997 44 0 0
-4.8060002 -6.8839998 -0.92000002 56 9 0
-4.8429999 -6.849 -1.034 23 5 3
-4.8449998 -6.8330002 -1.031 83 31 18
-4.802 -6.9039998 -1 24 5 1
-4.8280001 -6.9120002 -0.97100002 31 2 0
-4.8280001 -6.895 -1.023 29 3 2
-4.8590002 -6.8829999 -0.935 61 7 0
-4.823 -6.822 -1.038 10 1 2
-4.7989998 -6.902 -1 27 5 0
-4.8740001 -6.835 -1.023 253 201 92
-4.8260002 -6.9070001 -1.022 27 1 2
-4.836 -6.8210001 -1.038 19 0 0
0 0 0 1 0 0 0 1 0 0 0 1 0 0 0 0 0 958 1 0 0
