ply
format ascii 1.0
comment PCL generated
element vertex 645
property float x
property float y
property float z
property uchar red
property uchar green
property uchar blue
element camera 1
property float view_px
property float view_py
property float view_pz
property float x_axisx
property float x_axisy
property float x_axisz
property float y_axisx
property float y_axisy
property float y_axisz
property float z_axisx
property float z_axisy
property float z_axisz
property float focal
property float scalex
property float scaley
property float centerx
property float centery
property int viewportx
property int viewporty
property float k1
property float k2
end_header
-4.8829999 -4.2639999 -0.96799999 21 12 15
-4.8850002 -4.263 -0.96600002 20 0 0
-4.8649998 -4.256 -0.96600002 24 0 0
-4.8730001 -4.2639999 -0.96799999 116 95 92
-4.7750001 -4.244 -1.027 97 82 79
-4.777 -4.2449999 -1.024 114 64 31
-4.7719998 -4.2550001 -1.022 98 60 39
-4.8600001 -4.322 -0.98299998 37 12 5
-4.8600001 -4.3150001 -0.97500002 50 22 11
-4.855 -4.322 -0.96899998 35 15 6
-4.8579998 -4.3239999 -0.98199999 58 28 20
-4.908 -4.3099999 -1.012 168 103 37
-4.9089999 -4.3119998 -1.0089999 127 52 0
-4.9060001 -4.3109999 -1.01 193 125 54
-4.9070001 -4.3109999 -1.0089999 204 134 64
-4.902 -4.3150001 -1.002 42 13 5
-4.9130001 -4.3049998 -0.98799998 21 6 1
-4.8979998 -4.27 -1.0599999 78 36 22
-4.902 -4.2820001 -1.058 22 5 0
-4.8990002 -4.2690001 -1.0599999 72 30 14
-4.8930001 -4.2820001 -1.058 25 6 0
-4.8990002 -4.2919998 -1.059 129 71 21
-4.875 -4.2649999 -0.972 60 39 34
-4.8400002 -4.2909999 -0.92400002 90 54 38
-4.8200002 -4.2849998 -0.91900003 43 14 0
-4.8410001 -4.2940001 -0.91100001 38 15 7
-4.8070002 -4.3010001 -0.949 33 19 16
-4.8010001 -4.303 -0.93699998 23 4 0
-4.796 -4.309 -0.94700003 50 21 5
-4.802 -4.3109999 -0.94599998 70 34 18
-4.7849998 -4.2470002 -1.03 42 25 18
-4.796 -4.2420001 -1.028 27 8 2
-4.7969999 -4.243 -1.016 132 98 86
-4.8080001 -4.2480001 -1.015 107 39 0
-4.8140001 -4.2480001 -1.034 129 72 27
-4.8179998 -4.2839999 -0.92699999 84 55 39
-4.8130002 -4.2880001 -0.935 88 76 78
-4.8150001 -4.2859998 -0.91799998 98 68 42
-4.8039999 -4.2509999 -1.008 59 39 30
-4.8520002 -4.349 -1.002 43 24 17
-4.8579998 -4.348 -1.0140001 172 93 26
-4.842 -4.349 -1.0039999 43 24 26
-4.8439999 -4.348 -1.01 45 25 18
-4.8629999 -4.3460002 -1.0089999 73 61 61
-4.8530002 -4.348 -0.995 41 21 14
-4.8509998 -4.349 -0.99599999 24 3 0
-4.8969998 -4.3130002 -0.98400003 86 36 9
-4.8499999 -4.3189998 -0.91900003 146 85 40
-4.8400002 -4.3169999 -0.921 153 89 51
-4.8400002 -4.3140001 -0.91500002 76 29 1
-4.8330002 -4.3150001 -0.91799998 116 85 54
-4.8340001 -4.3189998 -0.926 125 98 89
-4.8260002 -4.3010001 -1.0599999 4 0 0
-4.8340001 -4.3000002 -1.0599999 4 0 0
-4.8270001 -4.283 -1.0599999 22 1 0
-4.8260002 -4.2779999 -1.0599999 30 6 4
-4.7870002 -4.3210001 -1.013 251 182 125
-4.7779999 -4.323 -1.02 152 85 32
-4.7820001 -4.316 -1.011 108 72 58
-4.9000001 -4.2989998 -1.0039999 16 0 0
-4.8039999 -4.3119998 -0.949 41 14 5
-4.8140001 -4.2550001 -1.022 57 34 26
-4.8400002 -4.2839999 -1.0599999 4 0 0
-4.8460002 -4.2779999 -1.0599999 11 0 0
-4.8530002 -4.2880001 -1.0599999 26 7 3
-4.8850002 -4.277 -1.0599999 29 21 19
-4.901 -4.2969999 -1.049 14 0 0
-4.9039998 -4.2870002 -1.046 28 4 2
-4.848 -4.3049998 -0.91000003 152 92 64
-4.8280001 -4.3060002 -0.91100001 70 47 29
-4.816 -4.2930002 -0.92400002 73 49 37
-4.8130002 -4.2930002 -0.935 75 45 21
-4.7859998 -4.2490001 -1.038 32 12 3
-4.7849998 -4.3140001 -1.013 110 64 30
-4.777 -4.322 -1.02 207 137 85
-4.7909999 -4.27 -1.0039999 15 0 0
-4.7849998 -4.2620001 -0.99599999 35 6 0
-4.7880001 -4.263 -1 66 29 13
-4.7880001 -4.2740002 -1.0039999 24 5 1
-4.8610001 -4.3080001 -0.97100002 49 22 13
-4.8649998 -4.3140001 -0.98699999 31 2 0
-4.8629999 -4.3189998 -0.98799998 40 12 9
-4.8099999 -4.3179998 -1.056 57 31 16
-4.8140001 -4.3200002 -1.0470001 35 6 0
-4.8260002 -4.322 -1.058 59 17 0
-4.8060002 -4.316 -1.05 80 60 51
-4.8109999 -4.316 -1.059 56 38 34
-4.7950001 -4.322 -1.034 114 53 25
-4.8130002 -4.3179998 -1.058 50 31 24
-4.7909999 -4.2820001 -1.005 89 79 78
-4.7940001 -4.2729998 -1.007 23 16 0
-4.8039999 -4.3169999 -1.0420001 40 12 0
-4.849 -4.3449998 -0.99800003 229 162 84
-4.8530002 -4.3429999 -0.99000001 51 16 0
-4.8340001 -4.322 -0.93400002 138 96 72
-4.8470001 -4.3179998 -0.94700003 204 119 39
-4.8460002 -4.3179998 -0.94400001 236 151 70
-4.848 -4.3179998 -0.93900001 212 132 37
-4.8319998 -4.3330002 -0.94499999 88 63 56
-4.829 -4.3150001 -0.92000002 38 10 0
-4.8299999 -4.323 -1.057 65 15 4
-4.8400002 -4.3270001 -1.052 118 53 21
-4.829 -4.3099999 -1.0599999 5 1 0
-4.8800001 -4.3010001 -1.059 38 14 10
-4.888 -4.3060002 -1.059 71 57 48
-4.875 -4.3010001 -1.056 25 1 0
-4.7880001 -4.3179998 -1.01 43 5 0
-4.7880001 -4.3150001 -1.0089999 103 65 52
-4.7979999 -4.3210001 -1.017 172 127 86
-4.8000002 -4.3189998 -1.0140001 67 18 1
-4.902 -4.2880001 -1 91 37 0
-4.9070001 -4.3039999 -0.98799998 29 0 0
-4.9070001 -4.2870002 -0.98299998 102 41 0
-4.8330002 -4.3369999 -1.017 58 41 34
-4.849 -4.3390002 -1.023 13 0 0
-4.849 -4.336 -1.0319999 23 0 0
-4.8439999 -4.3330002 -1.033 25 0 0
-4.8990002 -4.2740002 -0.96600002 30 13 6
-4.902 -4.2820001 -0.96700001 113 86 69
-4.9000001 -4.2919998 -0.95599997 135 64 20
-4.8969998 -4.2800002 -0.96499997 90 65 45
-4.8060002 -4.2740002 -1.043 15 0 0
-4.7919998 -4.289 -1.036 99 65 40
-4.7989998 -4.289 -1.038 41 12 0
-4.7979999 -4.2680001 -1.041 40 21 17
-4.8839998 -4.3010001 -1.051 62 42 33
-4.875 -4.3039999 -1.035 62 47 42
-4.8670001 -4.3010001 -1.041 49 24 17
-4.8559999 -4.3119998 -1.0369999 142 122 113
-4.8969998 -4.2919998 -0.95200002 115 44 0
-4.8979998 -4.2930002 -0.95099998 161 85 25
-4.868 -4.263 -0.96200001 117 93 81
-4.881 -4.2670002 -0.958 26 6 0
-4.8369999 -4.2950001 -0.91600001 44 30 30
-4.8439999 -4.296 -0.92000002 54 23 5
-4.8899999 -4.2670002 -0.96700001 19 0 0
-4.8889999 -4.2709999 -0.97399998 27 17 16
-4.829 -4.316 -0.93199998 90 28 5
-4.8060002 -4.309 -0.94099998 130 93 74
-4.8319998 -4.2969999 -0.91000003 45 14 0
-4.7859998 -4.2550001 -1.0039999 44 36 17
-4.7859998 -4.257 -0.99699998 42 11 8
-4.802 -4.2490001 -1.021 31 2 0
-4.8099999 -4.2579999 -1.015 19 1 0
-4.8280001 -4.263 -0.99199998 20 12 10
-4.8390002 -4.2670002 -0.991 25 5 0
-4.8439999 -4.2540002 -1.003 22 0 0
-4.8299999 -4.27 -0.97899997 10 0 0
-4.822 -4.2750001 -0.97899997 17 6 4
-4.8429999 -4.2579999 -1.001 96 45 16
-4.8299999 -4.2610002 -0.99900001 27 7 0
-4.842 -4.2600002 -1 102 47 16
-4.835 -4.2919998 -0.92500001 40 26 26
-4.8410001 -4.2659998 -0.99400002 112 58 32
-4.842 -4.2740002 -0.98400003 87 70 62
-4.842 -4.3330002 -1.023 52 25 18
-4.8930001 -4.3150001 -0.98799998 52 6 0
-4.8850002 -4.3039999 -0.97399998 114 51 8
-4.8670001 -4.335 -0.995 70 60 61
-4.8600001 -4.3340001 -0.991 40 18 7
-4.8379998 -4.277 -1.0599999 12 8 7
-4.836 -4.2820001 -1.059 6 0 4
-4.8330002 -4.3239999 -1.0369999 72 23 6
-4.8369999 -4.3270001 -1.039 157 103 77
-4.8340001 -4.3249998 -1.036 68 17 0
-4.829 -4.3039999 -1.0599999 4 0 0
-4.8270001 -4.3070002 -1.0599999 6 0 0
-4.7930002 -4.303 -1.012 89 76 68
-4.8449998 -4.3410001 -1.007 94 86 84
-4.8179998 -4.3299999 -0.94599998 66 18 4
-4.8249998 -4.322 -1.053 64 22 6
-4.8210001 -4.3200002 -1.048 40 6 0
-4.8520002 -4.3239999 -0.97100002 34 10 8
-4.8499999 -4.3189998 -0.96399999 174 96 48
-4.8540001 -4.3239999 -0.97399998 67 47 38
-4.8330002 -4.322 -1.052 62 27 21
-4.8299999 -4.322 -1.05 36 6 4
-4.8249998 -4.322 -1.0470001 35 0 0
-4.8169999 -4.3260002 -1.027 76 52 40
-4.8330002 -4.3270001 -1.031 46 17 9
-4.875 -4.2659998 -0.97799999 105 52 20
-4.8730001 -4.2690001 -0.98000002 128 76 39
-4.8769999 -4.2709999 -0.98699999 123 85 64
-4.868 -4.2659998 -0.97299999 39 16 10
-4.8649998 -4.2649999 -0.96899998 62 48 48
-4.8530002 -4.2740002 -0.99599999 9 0 0
-4.855 -4.2820001 -0.986 53 26 9
-4.8670001 -4.2750001 -0.977 12 0 0
-4.9060001 -4.2919998 -0.97500002 65 42 26
-4.9060001 -4.2909999 -0.97799999 22 2 0
-4.902 -4.2880001 -1.0039999 103 50 8
-4.8740001 -4.3099999 -1.02 45 17 14
-4.8600001 -4.342 -1.026 97 39 2
-4.862 -4.3410001 -1.028 109 50 10
-4.8070002 -4.3109999 -0.96100003 98 62 38
-4.9050002 -4.289 -0.96799999 39 19 10
-4.7989998 -4.2839999 -1.006 10 0 0
-4.777 -4.2519999 -1.039 47 25 14
-4.7729998 -4.2540002 -1.033 79 43 29
-4.777 -4.263 -1.0369999 78 55 37
-4.776 -4.257 -1.038 119 105 104
-4.8169999 -4.2709999 -1.052 81 39 17
-4.8379998 -4.277 -1.058 6 0 0
-4.8239999 -4.2820001 -1.0549999 21 0 0
-4.8179998 -4.276 -1.048 19 0 0
-4.8969998 -4.2969999 -0.97299999 50 16 7
-4.8909998 -4.3070002 -0.98100001 21 7 4
-4.862 -4.3390002 -1.011 175 98 54
-4.862 -4.3410001 -1.016 213 137 75
-4.8909998 -4.2979999 -1.05 200 131 74
-4.8899999 -4.3000002 -1.054 123 78 59
-4.8839998 -4.3010001 -1.054 42 19 11
-4.8740001 -4.2979999 -1.057 25 0 0
-4.855 -4.3000002 -1.045 62 52 51
-4.8509998 -4.29 -1.057 18 4 4
-4.881 -4.3000002 -1.051 41 14 7
-4.882 -4.3000002 -1.0599999 34 10 6
-4.8800001 -4.2909999 -1.0599999 72 53 47
-4.8439999 -4.322 -1.0470001 25 8 1
-4.8930001 -4.276 -0.98400003 48 26 15
-4.9039998 -4.29 -1.041 34 6 3
-4.9039998 -4.2729998 -1.046 28 9 5
-4.875 -4.2789998 -1.054 78 55 47
-4.8740001 -4.2969999 -1.0549999 29 9 2
-4.8449998 -4.263 -1.001 27 6 3
-4.849 -4.2950001 -0.926 70 40 14
-4.8899999 -4.2740002 -0.95899999 197 117 46
-4.882 -4.2709999 -0.95599997 26 6 0
-4.8499999 -4.3099999 -0.92000002 118 82 68
-4.8540001 -4.3130002 -0.92299998 76 53 37
-4.8410001 -4.3179998 -0.93099999 97 57 31
-4.8260002 -4.3080001 -0.92400002 186 152 125
-4.823 -4.3049998 -0.92799997 95 65 39
-4.8099999 -4.2989998 -0.93800002 33 13 4
-4.8270001 -4.3000002 -0.91799998 64 32 11
-4.8270001 -4.3080001 -0.92000002 100 69 48
-4.8080001 -4.3280001 -1.021 37 16 13
-4.8130002 -4.3239999 -1 86 74 74
-4.8000002 -4.3200002 -1.0319999 37 4 0
-4.7950001 -4.244 -1.0190001 117 96 91
-4.7839999 -4.2740002 -1.008 108 63 40
-4.7779999 -4.2800002 -1.0140001 13 8 5
-4.79 -4.2519999 -1.006 36 8 0
-4.7909999 -4.2540002 -1.005 49 16 0
-4.8649998 -4.2639999 -0.96499997 83 55 41
-4.842 -4.2800002 -0.98199999 45 27 15
-4.8060002 -4.2620001 -1.006 67 37 26
-4.823 -4.2779999 -0.991 12 1 0
-4.8200002 -4.2820001 -0.98900002 41 12 4
-4.8179998 -4.283 -0.99299997 25 0 0
-4.829 -4.2729998 -1 50 27 21
-4.8379998 -4.263 -1.006 100 40 6
-4.8260002 -4.2659998 -1.02 70 52 40
-4.8270001 -4.2909999 -0.91299999 58 49 18
-4.8920002 -4.289 -0.949 116 58 21
-4.8460002 -4.3299999 -1.025 18 4 3
-4.8319998 -4.3319998 -1.022 85 74 70
-4.8860002 -4.3070002 -0.98199999 90 78 78
-4.8520002 -4.3169999 -0.93300003 199 106 36
-4.849 -4.3169999 -0.926 65 30 10
-4.895 -4.2930002 -0.95200002 142 71 25
-4.8920002 -4.2919998 -0.94999999 72 14 0
-4.8930001 -4.2919998 -0.95499998 76 21 1
-4.8559999 -4.3429999 -1.001 22 2 0
-4.9000001 -4.3130002 -1.003 171 93 31
-4.8610001 -4.3299999 -0.991 32 14 4
-4.855 -4.3299999 -0.98500001 48 17 14
-4.8509998 -4.3439999 -0.99299997 61 36 31
-4.849 -4.3390002 -0.98699999 63 41 30
-4.8660002 -4.3000002 -1.043 74 52 41
-4.8530002 -4.2779999 -1.057 21 1 0
-4.8509998 -4.2849998 -1.059 22 4 2
-4.8390002 -4.2779999 -1.0599999 10 4 4
-4.7789998 -4.276 -1.022 97 44 10
-4.796 -4.2750001 -1.026 14 0 0
-4.7859998 -4.2620001 -1.01 89 48 18
-4.829 -4.309 -1.0599999 8 2 2
-4.8249998 -4.3109999 -1.059 5 0 0
-4.8080001 -4.3150001 -1.049 32 17 12
-4.7909999 -4.3210001 -1.028 202 143 113
-4.7909999 -4.2969999 -1.0190001 102 93 88
-4.789 -4.3130002 -1.017 90 58 37
-4.79 -4.3130002 -1.02 96 68 54
-4.777 -4.2779999 -1.021 170 108 67
-4.7919998 -4.2940001 -1.0039999 92 65 46
-4.8039999 -4.3000002 -1.003 64 41 25
-4.7919998 -4.3119998 -1.011 9 0 0
-4.789 -4.3189998 -1.023 106 43 12
-4.7919998 -4.3169999 -1.025 43 5 0
-4.789 -4.3189998 -1.017 63 10 0
-4.8449998 -4.3200002 -0.958 115 41 0
-4.822 -4.3280001 -0.95499998 131 89 65
-4.823 -4.3330002 -0.97299999 58 17 0
-4.8369999 -4.3270001 -0.97000003 23 0 0
-4.8369999 -4.3270001 -1.0420001 113 53 27
-4.8559999 -4.3249998 -0.98100001 29 2 0
-4.8509998 -4.3319998 -0.977 25 1 1
-4.8249998 -4.3270001 -0.99900001 141 89 50
-4.8109999 -4.3299999 -0.98199999 188 144 119
-4.7839999 -4.3169999 -1.015 11 0 0
-4.8790002 -4.27 -0.98100001 68 25 6
-4.8759999 -4.27 -0.98299998 124 78 45
-4.8779998 -4.2670002 -0.97600001 150 92 54
-4.908 -4.3000002 -0.98199999 30 1 0
-4.9060001 -4.3060002 -0.98400003 66 35 30
-4.9039998 -4.3070002 -0.98299998 45 15 7
-4.9039998 -4.296 -0.97500002 105 77 55
-4.9039998 -4.3109999 -0.99599999 31 2 0
-4.9039998 -4.3119998 -1.0089999 181 105 43
-4.895 -4.2969999 -1.011 58 16 4
-4.8829999 -4.303 -1.012 8 0 0
-4.8119998 -4.3210001 -0.97600001 23 9 8
-4.8119998 -4.3210001 -0.97899997 17 0 0
-4.8119998 -4.323 -0.97799999 56 18 7
-4.8119998 -4.2989998 -0.96799999 80 47 30
-4.8109999 -4.289 -0.97000003 90 67 59
-4.8109999 -4.2989998 -0.97500002 22 12 11
-4.809 -4.3249998 -0.95099998 60 13 0
-4.902 -4.2930002 -0.97100002 81 43 30
-4.8920002 -4.277 -0.96200001 185 105 46
-4.7919998 -4.2579999 -1.04 38 18 9
-4.8060002 -4.2610002 -1.038 53 26 17
-4.8130002 -4.2610002 -1.018 21 3 0
-4.777 -4.2680001 -1.03 110 98 98
-4.7940001 -4.2659998 -1.0319999 126 107 93
-4.7880001 -4.2639999 -1.03 97 76 73
-4.8130002 -4.2709999 -1.046 81 39 23
-4.829 -4.322 -1.038 103 62 44
-4.8249998 -4.3210001 -1.044 28 0 0
-4.8610001 -4.3340001 -1.008 169 101 56
-4.855 -4.3309999 -1.015 20 2 0
-4.895 -4.2969999 -1.056 230 162 97
-4.8870001 -4.29 -1.059 17 0 0
-4.8839998 -4.3000002 -1.0599999 39 14 9
-4.8850002 -4.2950001 -1.0599999 10 0 0
-4.8829999 -4.29 -1.059 18 3 0
-4.8520002 -4.289 -1.059 19 1 0
-4.8860002 -4.2719998 -0.97899997 15 4 8
-4.8860002 -4.2919998 -1.0599999 24 9 6
-4.8990002 -4.2729998 -1.056 44 12 1
-4.8930001 -4.2930002 -0.94599998 113 39 0
-4.8899999 -4.29 -0.94499999 109 53 26
-4.8889999 -4.2909999 -0.94499999 75 20 0
-4.8870001 -4.29 -0.949 62 15 0
-4.8509998 -4.3000002 -0.921 56 24 11
-4.8839998 -4.2820001 -0.94599998 107 92 87
-4.8530002 -4.3060002 -0.93300003 176 105 51
-4.8920002 -4.2719998 -0.963 184 105 36
-4.8930001 -4.2719998 -0.96399999 187 110 40
-4.8899999 -4.2729998 -0.95999998 201 121 50
-4.8270001 -4.3080001 -0.91500002 38 11 0
-4.8169999 -4.3119998 -0.94199997 18 0 0
-4.8200002 -4.303 -0.93199998 151 126 106
-4.8010001 -4.3140001 -1.011 69 33 19
-4.776 -4.2610002 -1.034 124 113 111
-4.789 -4.2540002 -1.0039999 34 9 2
-4.7950001 -4.2620001 -1.003 56 39 32
-4.8309999 -4.2670002 -0.98900002 68 55 47
-4.8260002 -4.2729998 -0.98100001 76 31 8
-4.8260002 -4.2729998 -0.98100001 76 31 8
-4.8439999 -4.296 -0.92799997 125 113 115
-4.8509998 -4.3169999 -0.93800002 188 112 16
-4.8699999 -4.3039999 -0.97899997 13 3 1
-4.8850002 -4.2880001 -0.95999998 15 0 0
-4.8909998 -4.289 -0.963 48 6 0
-4.8889999 -4.2750001 -0.958 193 113 42
-4.8860002 -4.2789998 -0.94999999 107 83 71
-4.882 -4.277 -0.94700003 16 1 0
-4.8509998 -4.2849998 -0.98500001 145 122 106
-4.8530002 -4.3109999 -0.96600002 56 29 20
-4.8639998 -4.3119998 -0.98799998 58 26 15
-4.8829999 -4.2950001 -0.99199998 13 0 0
-4.8610001 -4.3119998 -0.99900001 47 23 13
-4.9029999 -4.2919998 -1.043 28 13 8
-4.8920002 -4.2909999 -1.033 107 62 39
-4.868 -4.302 -1.031 17 3 0
-4.848 -4.3340001 -1.023 17 2 0
-4.8449998 -4.3179998 -0.92500001 98 33 0
-4.8870001 -4.3039999 -0.99900001 14 2 2
-4.8610001 -4.3239999 -0.98799998 175 100 35
-4.8610001 -4.3280001 -0.99299997 32 8 4
-4.8449998 -4.335 -0.99699998 20 2 0
-4.8369999 -4.3330002 -0.98900002 58 44 43
-4.8270001 -4.3299999 -0.98299998 18 6 6
-4.8239999 -4.3280001 -0.98500001 52 35 28
-4.8600001 -4.323 -0.99900001 65 28 10
-4.8720002 -4.3109999 -1.013 14 2 2
-4.8569999 -4.2680001 -1.051 69 49 42
-4.783 -4.2810001 -1.0190001 19 6 0
-4.7810001 -4.2729998 -1.0140001 97 35 0
-4.7870002 -4.263 -1.007 19 8 6
-4.8499999 -4.2930002 -0.97000003 34 9 4
-4.869 -4.2659998 -0.963 115 96 92
-4.8249998 -4.296 -0.95599997 37 17 8
-4.8169999 -4.2919998 -0.95899999 26 6 0
-4.8309999 -4.2859998 -0.97899997 18 8 0
-4.8299999 -4.277 -0.97899997 13 5 3
-4.8119998 -4.2909999 -0.97399998 39 29 28
-4.8130002 -4.3200002 -1.041 63 25 12
-4.7950001 -4.3200002 -1.029 148 88 54
-4.809 -4.2930002 -0.99000001 86 47 14
-4.8099999 -4.3070002 -0.99000001 16 2 2
-4.7909999 -4.3200002 -1.028 191 127 92
-4.823 -4.3260002 -0.96399999 100 44 19
-4.8280001 -4.3239999 -0.96700001 45 0 0
-4.8319998 -4.3260002 -0.94999999 40 0 0
-4.816 -4.3309999 -0.98000002 69 32 13
-4.842 -4.3280001 -1.045 125 78 52
-4.8260002 -4.322 -1.051 68 30 17
-4.8460002 -4.3200002 -0.96399999 125 53 5
-4.8319998 -4.3239999 -1.003 13 0 0
-4.8720002 -4.2680001 -0.97799999 111 60 31
-4.9070001 -4.2989998 -0.97899997 70 41 35
-4.862 -4.3410001 -1.027 97 35 0
-4.8179998 -4.2930002 -0.972 24 9 2
-4.816 -4.3109999 -0.972 105 47 27
-4.8070002 -4.3249998 -0.95700002 199 126 75
-4.8959999 -4.2919998 -0.96100003 75 23 1
-4.8909998 -4.2859998 -0.95700002 100 51 18
-4.789 -4.2610002 -1.04 114 95 89
-4.8140001 -4.2670002 -1.013 42 24 12
-4.8270001 -4.2789998 -1.049 59 36 28
-4.8239999 -4.2779999 -1.0470001 113 81 70
-4.8130002 -4.25 -1.033 121 63 15
-4.823 -4.3049998 -1.05 4 0 0
-4.8210001 -4.2880001 -1.04 9 1 0
-4.8429999 -4.2779999 -1.0549999 10 0 0
-4.8309999 -4.323 -1.0369999 42 5 0
-4.8099999 -4.2810001 -1.01 15 0 0
-4.7989998 -4.27 -1.011 39 19 12
-4.8119998 -4.2950001 -1.028 39 16 0
-4.803 -4.2870002 -1.034 50 25 5
-4.8889999 -4.303 -1.059 81 64 56
-4.848 -4.3060002 -1.0369999 149 131 119
-4.8930001 -4.2740002 -0.99199998 69 39 28
-4.9039998 -4.289 -1.011 134 82 42
-4.9029999 -4.2849998 -1.021 29 12 5
-4.9000001 -4.2659998 -1.016 53 38 33
-4.9029999 -4.2849998 -1.035 33 6 0
-4.895 -4.27 -1.058 94 48 24
-4.8920002 -4.2719998 -1.056 55 26 8
-4.888 -4.2729998 -1.049 38 16 3
-4.8639998 -4.2839999 -0.991 9 0 0
-4.848 -4.263 -1.017 52 19 12
-4.8530002 -4.2579999 -1.022 112 48 2
-4.882 -4.2750001 -1.0420001 8 0 0
-4.8850002 -4.2750001 -1.049 8 0 0
-4.8979998 -4.2859998 -0.98799998 35 7 0
-4.8860002 -4.3039999 -1.002 10 0 0
-4.895 -4.2750001 -0.97100002 47 27 18
-4.8520002 -4.3070002 -0.93000001 168 89 32
-4.8099999 -4.302 -0.93699998 147 121 106
-4.855 -4.3049998 -0.94099998 112 54 16
-4.8099999 -4.316 -0.98799998 54 35 29
-4.803 -4.3119998 -1.01 6 0 0
-4.7810001 -4.2589998 -1.038 116 101 98
-4.8000002 -4.2670002 -1.01 33 16 6
-4.823 -4.277 -0.986 10 0 0
-4.8410001 -4.2610002 -1.006 87 40 12
-4.8470001 -4.2639999 -1.016 38 8 0
-4.8850002 -4.276 -0.95099998 56 39 31
-4.8639998 -4.3049998 -0.98400003 80 40 4
-4.8800001 -4.3000002 -1.043 32 3 0
-4.881 -4.2989998 -1.0420001 67 25 11
-4.8829999 -4.302 -1.02 10 0 0
-4.8369999 -4.3340001 -0.97600001 127 106 101
-4.8600001 -4.3280001 -1.005 35 0 0
-4.8590002 -4.3200002 -1.003 31 1 3
-4.849 -4.2839999 -1.059 14 0 0
-4.7839999 -4.2670002 -1.011 124 65 25
-4.7979999 -4.3109999 -1.022 45 25 18
-4.8299999 -4.2930002 -0.93800002 64 44 33
-4.8449998 -4.2950001 -0.95499998 29 14 7
-4.8460002 -4.2969999 -0.95099998 69 31 12
-4.8369999 -4.2969999 -0.935 94 61 42
-4.869 -4.2719998 -0.96899998 27 6 3
-4.8699999 -4.27 -0.96700001 20 1 0
-4.881 -4.276 -0.954 45 28 20
-4.881 -4.2789998 -0.95200002 37 13 3
-4.8499999 -4.2930002 -0.95700002 40 4 0
-4.7950001 -4.3210001 -1.029 172 108 73
-4.8179998 -4.3249998 -0.98699999 51 11 0
-4.8210001 -4.3249998 -0.96700001 89 46 27
-4.8280001 -4.3260002 -0.94499999 64 19 14
-4.8200002 -4.3210001 -0.94599998 41 15 2
-4.8249998 -4.3270001 -0.96899998 99 45 17
-4.8260002 -4.3210001 -1.013 80 35 12
-4.8179998 -4.3189998 -1.018 85 61 49
-4.9000001 -4.2820001 -0.97500002 42 25 18
-4.895 -4.277 -0.97299999 145 76 34
-4.895 -4.2909999 -0.95099998 104 40 4
-4.803 -4.2519999 -1.0319999 37 10 1
-4.823 -4.277 -1.044 115 82 73
-4.816 -4.2719998 -1.0369999 34 0 0
-4.829 -4.2690001 -1.026 44 24 17
-4.8239999 -4.27 -1.026 45 25 14
-4.8559999 -4.2579999 -1.028 115 54 10
-4.8540001 -4.257 -1.023 127 64 11
-4.8319998 -4.302 -1.059 5 1 0
-4.829 -4.309 -1.059 12 6 6
-4.8070002 -4.3140001 -1.044 24 9 6
-4.8249998 -4.3060002 -1.057 6 0 0
-4.8260002 -4.283 -1.053 35 15 8
-4.8860002 -4.302 -1.0599999 41 21 12
-4.8829999 -4.2800002 -0.99199998 38 15 1
-4.882 -4.2849998 -0.99599999 57 33 23
-4.8889999 -4.277 -0.995 51 18 3
-4.8940001 -4.2740002 -0.99599999 82 53 39
-4.8889999 -4.277 -1.005 42 8 0
-4.9029999 -4.277 -1.041 39 21 9
-4.8979998 -4.29 -1.02 21 6 3
-4.8899999 -4.2719998 -1.048 70 39 18
-4.855 -4.277 -1.003 10 0 0
-4.8590002 -4.277 -1.0089999 10 2 0
-4.849 -4.2690001 -1.0039999 35 12 4
-4.881 -4.277 -1.052 8 0 0
-4.881 -4.2779999 -1.0549999 67 63 62
-4.8839998 -4.2620001 -1.0190001 71 55 42
-4.888 -4.2670002 -1.025 43 34 37
-4.875 -4.27 -1.024 35 20 13
-4.868 -4.302 -1.005 175 117 93
-4.882 -4.3039999 -1.012 120 97 89
-4.8850002 -4.289 -0.95599997 13 5 3
-4.8779998 -4.289 -0.96100003 37 18 12
-4.8530002 -4.316 -0.93300003 180 89 19
-4.809 -4.316 -0.94599998 31 9 0
-4.8850002 -4.289 -0.94700003 60 17 0
-4.8839998 -4.2880001 -0.94700003 73 35 14
-4.8099999 -4.2969999 -0.94700003 103 68 46
-4.8150001 -4.2919998 -0.94700003 63 39 29
-4.816 -4.3249998 -0.98699999 57 10 0
-4.8179998 -4.2940001 -0.96600002 18 0 0
-4.8410001 -4.2620001 -0.99900001 86 32 0
-4.8449998 -4.2979999 -0.93099999 138 89 48
-4.8400002 -4.2950001 -0.92900002 113 104 109
-4.8930001 -4.2909999 -1.04 129 72 42
-4.8790002 -4.3000002 -1.044 45 18 9
-4.855 -4.3189998 -1.018 28 13 8
-4.8439999 -4.336 -0.98699999 16 8 6
-4.7849998 -4.3150001 -1.0140001 110 61 29
-4.7950001 -4.2919998 -1.033 92 61 33
-4.7950001 -4.316 -1.024 57 25 12
-4.8779998 -4.2800002 -0.95999998 41 11 1
-4.8629999 -4.2950001 -0.96399999 19 4 1
-4.8670001 -4.2740002 -0.97299999 19 4 1
-4.842 -4.2950001 -0.97100002 75 48 29
-4.8390002 -4.2820001 -0.98199999 22 7 4
-4.8200002 -4.3239999 -0.96200001 63 14 0
-4.8140001 -4.316 -0.97600001 154 75 18
-4.79 -4.2639999 -1.031 30 16 7
-4.8130002 -4.2550001 -1.036 140 89 58
-4.816 -4.276 -1.0089999 20 0 0
-4.8249998 -4.3049998 -1.056 5 1 0
-4.8200002 -4.3200002 -1.039 41 14 7
-4.8179998 -4.3099999 -1.0369999 6 2 1
-4.8390002 -4.29 -1.059 10 0 0
-4.8379998 -4.2789998 -1.045 8 0 0
-4.8410001 -4.2789998 -1.051 7 0 0
-4.842 -4.2789998 -1.0369999 19 1 1
-4.9000001 -4.2779999 -1.022 103 78 56
-4.8959999 -4.276 -1.0319999 139 88 59
-4.895 -4.2870002 -1.03 20 0 0
-4.8930001 -4.2919998 -1.018 82 22 0
-4.8860002 -4.2940001 -1.022 48 30 26
-4.8979998 -4.2709999 -1.056 49 13 0
-4.8870001 -4.2729998 -1.0420001 64 38 21
-4.8540001 -4.2610002 -1.024 163 110 79
-4.8590002 -4.2779999 -1.015 18 4 1
-4.8759999 -4.2789998 -1.052 85 70 65
-4.8740001 -4.2779999 -1.043 9 0 1
-4.881 -4.2690001 -1.012 12 0 0
-4.8720002 -4.2919998 -1.001 21 3 1
-4.8530002 -4.3150001 -0.935 202 115 46
-4.8460002 -4.3169999 -0.93300003 206 134 34
-4.8410001 -4.3179998 -0.95099998 114 43 1
-4.8850002 -4.29 -0.954 7 0 0
-4.8829999 -4.2870002 -0.95200002 11 1 0
-4.8200002 -4.2930002 -0.93900001 153 126 97
-4.8130002 -4.3179998 -0.98000002 129 66 23
-4.8119998 -4.3080001 -0.99299997 64 5 0
-4.8639998 -4.2969999 -0.991 75 58 51
-4.8509998 -4.3039999 -0.93099999 123 60 16
-4.8870001 -4.2979999 -1.045 96 36 0
-4.7839999 -4.27 -1.011 181 123 75
-4.8790002 -4.2800002 -0.958 41 13 0
-4.8600001 -4.302 -0.96700001 24 6 4
-4.8699999 -4.2800002 -0.972 69 39 29
-4.875 -4.2750001 -0.96600002 49 15 3
-4.882 -4.283 -0.949 32 6 0
-4.835 -4.2820001 -0.98100001 19 9 8
-4.8930001 -4.277 -0.98199999 63 20 1
-4.842 -4.2789998 -1.036 17 1 1
-4.8179998 -4.3109999 -1.045 4 0 0
-4.8210001 -4.3200002 -1.038 31 3 0
-4.8369999 -4.303 -1.044 4 0 0
-4.8390002 -4.2950001 -1.058 38 19 15
-4.8610001 -4.3119998 -1.002 17 4 0
-4.8829999 -4.2690001 -1.024 26 15 21
-4.8969998 -4.2870002 -1.0089999 66 29 11
-4.8959999 -4.2719998 -1.053 60 28 5
-4.8979998 -4.2740002 -1.044 90 40 15
-4.8889999 -4.2709999 -1.039 19 2 0
-4.855 -4.2680001 -1.0470001 66 49 42
-4.8540001 -4.2690001 -1.0420001 59 41 29
-4.8169999 -4.3200002 -0.94599998 104 41 6
-4.8169999 -4.3169999 -0.94400001 116 52 16
-4.8130002 -4.296 -0.95099998 31 2 0
-4.8080001 -4.3150001 -1.008 39 25 24
-4.8860002 -4.2940001 -1.03 31 16 13
-4.8829999 -4.276 -1.049 10 0 0
-4.8850002 -4.2969999 -1.0420001 92 26 0
-4.8779998 -4.2779999 -1.054 61 53 50
-4.8759999 -4.2729998 -0.96200001 67 42 22
-4.8639998 -4.296 -0.96200001 35 10 5
-4.8470001 -4.3080001 -0.95999998 33 5 4
-4.8460002 -4.303 -0.958 143 64 34
-4.9000001 -4.2870002 -0.991 58 22 6
-4.829 -4.2989998 -0.97000003 66 37 21
-4.8239999 -4.3039999 -1.049 4 0 0
-4.8109999 -4.3109999 -1.034 8 0 0
-4.8070002 -4.3109999 -1.029 15 4 2
-4.8940001 -4.2740002 -1.035 88 36 12
-4.8779998 -4.2729998 -1.028 22 5 0
-4.881 -4.2740002 -1.035 9 0 0
-4.8099999 -4.3189998 -1.008 42 28 25
-4.881 -4.277 -1.049 20 10 9
-4.8800001 -4.2849998 -0.95499998 26 11 8
-4.835 -4.303 -1.05 8 4 3
-4.895 -4.2750001 -1.033 85 34 5
-4.8559999 -4.2690001 -1.043 72 49 33
-4.875 -4.277 -1.041 9 3 3
-4.8629999 -4.2810001 -1.017 7 1 1
-4.8499999 -4.2690001 -1.034 63 43 34
-4.836 -4.2940001 -1.058 15 0 0
-4.8930001 -4.2740002 -1.031 84 33 12
-4.8839998 -4.2729998 -1.038 41 22 8
-4.8740001 -4.277 -1.033 11 5 5
-4.875 -4.277 -1.0369999 8 0 0
-4.8579998 -4.2719998 -1.0369999 34 17 10
-4.881 -4.2800002 -1.016 14 0 2
-4.8769999 -4.276 -1.039 11 1 0
-4.8649998 -4.277 -1.02 8 0 0
-4.8870001 -4.2719998 -1.033 104 82 69
-4.8390002 -4.2950001 -1.054 14 0 0
-4.869 -4.2779999 -1.033 65 55 53
0 0 0 1 0 0 0 1 0 0 0 1 0 0 0 0 0 645 1 0 0
