ply
format ascii 1.0
comment PCL generated
element vertex 1207
property float x
property float y
property float z
property uchar red
property uchar green
property uchar blue
element camera 0
property float view_px
property float view_py
property float view_pz
property float x_axisx
property float x_axisy
property float x_axisz
property float y_axisx
property float y_axisy
property float y_axisz
property float z_axisx
property float z_axisy
property float z_axisz
property float focal
property float scalex
property float scaley
property float centerx
property float centery
property int viewportx
property int viewporty
property float k1
property float k2
end_header
-8.2340002 4.7729998 -1.091 186 143 101
-8.2790003 4.7259998 -1.0880001 227 190 172
-8.2670002 4.7249999 -1.084 180 143 124
-8.2670002 4.7350001 -1.084 127 87 62
-8.2620001 4.7350001 -1.08 150 113 86
-8.2530003 4.6849999 -1.033 255 226 158
-8.2340002 4.6849999 -1.033 147 108 39
-8.2390003 4.7090001 -1.0470001 255 251 219
-8.2379999 4.71 -1.048 255 248 219
-8.1000004 4.8200002 -1.079 136 72 10
-8.0950003 4.8309999 -1.062 137 94 52
-8.1009998 4.8169999 -1.0700001 112 74 37
-8.1610003 4.7870002 -1.1 194 156 137
-8.1660004 4.7909999 -1.095 187 122 68
-8.1809998 4.79 -1.096 190 121 46
-8.1750002 4.8179998 -1.0880001 168 83 26
-8.1820002 4.822 -1.087 166 99 56
-8.1850004 4.8169999 -1.0880001 186 116 56
-8.1029997 4.8369999 -1.08 142 103 88
-8.1079998 4.8280001 -1.0880001 101 56 27
-8.1079998 4.829 -1.086 111 66 33
-8.2849998 4.7540002 -1.092 85 41 2
-8.3009996 4.7480001 -1.095 175 110 44
-8.2950001 4.7600002 -1.108 85 59 32
-8.2950001 4.7519999 -1.091 207 145 84
-8.3330002 4.7639999 -1.084 106 56 29
-8.3190002 4.7709999 -1.087 177 110 32
-8.3280001 4.7670002 -1.082 89 42 16
-8.3400002 4.7690001 -1.081 73 32 10
-8.3369999 4.7610002 -1.084 193 146 120
-8.3249998 4.7779999 -1.0829999 123 81 57
-8.1829996 4.737 -1.021 193 130 61
-8.1700001 4.7340002 -1.021 159 94 30
-8.1879997 4.7329998 -1.024 255 233 189
-8.2510004 4.724 -0.96700001 143 121 107
-8.2539997 4.7179999 -0.97299999 160 142 132
-8.2489996 4.7129998 -0.977 194 169 162
-8.0030003 4.757 -0.90799999 254 249 207
-7.9910002 4.756 -0.90600002 164 150 89
-8.0080004 4.7480001 -0.91299999 248 235 183
-7.9920001 4.7600002 -0.90499997 255 241 189
-8.1199999 4.8410001 -1.061 230 156 71
-8.1160002 4.8460002 -1.066 198 135 82
-8.1199999 4.8400002 -1.081 177 93 21
-8.1219997 4.8369999 -1.08 147 59 0
-8.2609997 4.7140002 -0.97899997 148 125 117
-8.1099997 4.8470001 -1.0700001 176 120 87
-8.099 4.8379998 -1.073 115 60 21
-8.2729998 4.7880001 -1.086 164 89 34
-8.2729998 4.7389998 -0.96700001 112 86 71
-8.2729998 4.7420001 -0.972 117 90 79
-8.2620001 4.7319999 -0.977 137 115 102
-8.2460003 4.7290001 -0.97500002 99 75 65
-8.1079998 4.8410001 -1.079 160 117 74
-7.9829998 4.7719998 -0.90100002 179 149 121
-7.9840002 4.7620001 -0.90600002 255 219 148
-7.9829998 4.7729998 -0.90600002 63 36 15
-8.3529997 4.7329998 -1.097 223 160 93
-8.3599997 4.7350001 -1.097 141 82 22
-8.3500004 4.7309999 -1.0930001 143 102 82
-8.3610001 4.7399998 -1.084 158 130 118
-8.3649998 4.737 -1.091 239 171 86
-8.3599997 4.7410002 -1.09 172 116 69
-8.3500004 4.75 -1.091 255 198 121
-8.342 4.7600002 -1.0829999 86 45 23
-8.3430004 4.7639999 -1.08 255 225 152
-8.2410002 4.737 -1.072 255 248 206
-8.165 4.776 -1.089 153 115 94
-8.1630001 4.79 -1.0930001 180 110 41
-8.2480001 4.6869998 -1.033 255 214 147
-8.2379999 4.6919999 -1.033 139 110 70
-8.2480001 4.697 -1.038 255 255 232
-8.2580004 4.6880002 -1.026 241 184 107
-8.3039999 4.7129998 -1.0829999 246 186 100
-8.2869997 4.7329998 -1.0880001 208 144 73
-8.2840004 4.7280002 -1.0779999 255 178 103
-8.2919998 4.7290001 -1.082 242 179 99
-8.2399998 4.6989999 -1.0369999 255 254 225
-8.2609997 4.6939998 -1.021 161 129 72
-8.2349997 4.6830001 -1.021 239 201 152
-8.2349997 4.6900001 -1.008 255 241 187
-8.257 4.7129998 -1.057 188 156 107
-7.9840002 4.7620001 -0.91000003 254 225 157
-8.2329998 4.7810001 -1.094 219 168 111
-8.2880001 4.763 -1.105 117 57 5
-8.2049999 4.789 -1.091 215 159 98
-8.2159996 4.8060002 -1.0880001 219 158 93
-8.2270002 4.796 -1.091 162 93 26
-8.2290001 4.8200002 -1.085 224 138 55
-8.2709999 4.8520002 -1.09 125 80 49
-8.2519999 4.8429999 -1.086 118 74 49
-8.2790003 4.7639999 -1.09 149 98 43
-8.2559996 4.7280002 -1.074 151 126 104
-8.2629995 4.7410002 -1.079 199 146 104
-8.342 4.7360001 -1.092 147 104 87
-8.184 4.7379999 -1.022 239 215 167
-8.243 4.7199998 -0.97299999 98 71 62
-8.2460003 4.7189999 -0.97299999 82 62 53
-8.2600002 4.7189999 -0.97399998 168 146 133
-8.1169996 4.8330002 -1.056 247 199 135
-8.3450003 4.7979999 -1.044 229 171 107
-8.3459997 4.8000002 -1.048 211 150 85
-8.3509998 4.7870002 -1.038 223 172 109
-8.316 4.8109999 -1.027 81 50 22
-8.3129997 4.8169999 -1.0319999 91 53 32
-8.3109999 4.8200002 -1.024 88 52 26
-8.3170004 4.8049998 -1.036 88 47 19
-8.3170004 4.8039999 -1.034 78 43 13
-8.3199997 4.8039999 -1.029 156 128 104
-8.3210001 4.802 -1.025 152 127 107
-8.283 4.7220001 -0.97299999 169 145 135
-8.283 4.724 -0.97399998 158 140 128
-8.2849998 4.7199998 -0.991 177 143 116
-8.1300001 4.8520002 -1.08 170 95 27
-8.1379995 4.8499999 -1.077 197 141 67
-8.1359997 4.8439999 -1.0650001 194 140 76
-7.9959998 4.776 -0.92199999 135 72 18
-8.0010004 4.7750001 -0.91799998 79 50 36
-8.0109997 4.7750001 -0.92500001 100 81 66
-8.3199997 4.8039999 -1.046 112 75 56
-8.2650003 4.8270001 -1.085 255 210 154
-8.2650003 4.796 -1.082 80 34 8
-8.2609997 4.8270001 -1.084 255 210 154
-8.2519999 4.8369999 -1.084 216 119 38
-7.9990001 4.7690001 -0.91000003 148 114 89
-8.276 4.7319999 -0.96600002 128 109 95
-8.2180004 4.7329998 -0.991 214 185 171
-8.2069998 4.7280002 -0.986 182 111 49
-8.2180004 4.7340002 -1.001 156 129 118
-8.1099997 4.8429999 -1.076 81 44 25
-7.9860001 4.757 -0.91000003 187 141 108
-7.9920001 4.7540002 -0.91500002 206 123 57
-8.3549995 4.7480001 -1.0829999 179 142 64
-8.2620001 4.6989999 -1.025 234 203 121
-8.2700005 4.7010002 -1.03 237 185 101
-8.2600002 4.6989999 -1.022 255 222 143
-8.2620001 4.737 -1.0779999 197 136 73
-8.2539997 4.7020001 -1.044 223 200 150
-8.2589998 4.7010002 -1.038 212 165 85
-8.2629995 4.7049999 -1.038 232 165 58
-8.257 4.691 -1.03 255 209 124
-8.2799997 4.7259998 -1.046 162 131 48
-8.2910004 4.73 -1.046 240 194 74
-8.2910004 4.723 -1.041 248 197 79
-8.29 4.7319999 -1.066 175 136 95
-8.2770004 4.7199998 -1.076 79 48 27
-8.2650003 4.7319999 -1.062 196 131 65
-8.2390003 4.704 -1.0420001 253 250 219
-8.2299995 4.711 -1.038 255 243 216
-8.2110004 4.724 -0.99400002 146 112 66
-7.9959998 4.7490001 -0.92299998 187 135 60
-8.2270002 4.697 -1.017 255 226 166
-8.1040001 4.8119998 -1.074 142 71 29
-8.1040001 4.8109999 -1.0779999 176 104 54
-8.2030001 4.822 -1.081 196 133 56
-8.217 4.7979999 -1.0880001 240 162 79
-8.1940002 4.7989998 -1.09 189 133 74
-8.1969995 4.7750001 -1.079 208 160 86
-8.2019997 4.77 -1.062 246 204 102
-8.2189999 4.7690001 -1.08 101 39 0
-8.2159996 4.789 -1.09 124 81 13
-8.2279997 4.7909999 -1.091 144 84 22
-8.2349997 4.8150001 -1.085 195 125 74
-8.2340002 4.8070002 -1.084 181 100 53
-8.2530003 4.8119998 -1.086 148 58 6
-8.2530003 4.7750001 -1.084 56 17 0
-8.257 4.8460002 -1.069 199 148 101
-8.2360001 4.8449998 -1.063 252 231 166
-8.2360001 4.8429999 -1.0599999 255 225 163
-8.2720003 4.743 -1.086 127 67 15
-8.2659998 4.7540002 -1.081 118 72 49
-8.3050003 4.7379999 -1.095 223 159 85
-8.3079996 4.7410002 -1.096 111 85 52
-8.3280001 4.7290001 -1.097 251 188 111
-8.29 4.7519999 -1.09 80 34 10
-8.3050003 4.763 -1.097 144 80 19
-8.3240004 4.7509999 -1.09 147 69 0
-8.3260002 4.7389998 -1.097 180 122 59
-8.2040005 4.7459998 -1.062 216 200 166
-8.217 4.744 -1.059 184 145 102
-8.2069998 4.7480001 -1.066 225 136 78
-8.1809998 4.7480001 -1.02 245 194 129
-8.1829996 4.7589998 -1.026 250 240 153
-8.177 4.7540002 -1.018 255 218 157
-8.1999998 4.7509999 -1.028 186 110 32
-8.1700001 4.7820001 -1.082 159 98 69
-8.1669998 4.7690001 -1.0829999 102 61 39
-8.2419996 4.7179999 -0.97600001 128 102 89
-8.2110004 4.7090001 -0.99299997 192 157 127
-8.2119999 4.71 -0.99599999 75 51 23
-8.2030001 4.71 -0.98900002 101 88 82
-8.2589998 4.7270002 -0.97299999 108 88 77
-8.1420002 4.783 -1.064 174 147 126
-8.1370001 4.796 -1.081 131 77 33
-8.1549997 4.783 -1.073 254 240 213
-8.1639996 4.7740002 -1.0829999 185 141 114
-8.1630001 4.7709999 -1.081 168 130 109
-8.335 4.7989998 -1.039 58 23 4
-8.3389997 4.8010001 -1.039 120 87 68
-8.3210001 4.8060002 -1.054 83 48 26
-8.2690001 4.7309999 -0.99000001 60 43 35
-8.2819996 4.7350001 -0.99199998 186 158 144
-8.2749996 4.7340002 -1.001 136 116 109
-8.2770004 4.7350001 -0.97299999 126 104 91
-8.2779999 4.7319999 -0.972 83 64 50
-8.2889996 4.7259998 -1.039 249 214 96
-8.2930002 4.743 -1.045 249 194 111
-8.2910004 4.7379999 -1.048 249 229 106
-8.2930002 4.737 -0.99900001 23 12 10
-8.2950001 4.737 -1.002 122 112 110
-8.2860003 4.7220001 -0.99299997 117 85 64
-8.283 4.723 -0.986 150 116 91
-8.2639999 4.8670001 -1.084 123 94 64
-8.1339998 4.8439999 -1.0650001 173 94 15
-8.1309996 4.8309999 -1.053 207 115 38
-8.1339998 4.8379998 -1.063 186 132 70
-7.987 4.7670002 -0.90399998 170 136 109
-7.993 4.7670002 -0.90700001 169 131 112
-7.9889998 4.7690001 -0.917 242 187 133
-7.9920001 4.7709999 -0.91799998 84 64 53
-8.007 4.7550001 -0.912 255 240 196
-8.0179996 4.757 -0.917 250 237 193
-8.0220003 4.7519999 -0.92000002 252 245 190
-8.2320004 4.7290001 -0.97600001 207 161 128
-8.2410002 4.7249999 -0.98299998 156 130 117
-8.243 4.7259998 -0.986 115 97 87
-8.2119999 4.7119999 -0.98900002 207 173 146
-8.2180004 4.717 -0.98199999 131 114 107
-8.2220001 4.7160001 -0.98199999 241 188 110
-8.1450005 4.8189998 -1.056 99 50 20
-8.1529999 4.809 -1.045 155 96 38
-8.1549997 4.8179998 -1.04 178 105 50
-8.3280001 4.7589998 -1.087 252 181 101
-8.3079996 4.7880001 -1.0369999 171 129 81
-8.2659998 4.8239999 -1.082 141 56 1
-8.2810001 4.816 -1.075 189 124 68
-8.2729998 4.8140001 -1.075 145 98 78
-8.2729998 4.7909999 -1.085 124 63 16
-8.2489996 4.8280001 -1.081 117 57 0
-7.9879999 4.7690001 -0.903 125 89 65
-7.9860001 4.77 -0.91000003 42 19 5
-8.2309999 4.8299999 -1.05 193 132 41
-8.2290001 4.8280001 -1.05 230 201 157
-8.2329998 4.8280001 -1.052 204 152 92
-8.2250004 4.7319999 -0.995 225 194 165
-8.2259998 4.7319999 -0.991 162 129 98
-8.2290001 4.7399998 -1.066 254 245 206
-8.2250004 4.7249999 -1.0599999 195 153 129
-8.2390003 4.7329998 -1.063 255 245 200
-8.2150002 4.7259998 -0.98500001 190 152 107
-8.2229996 4.7290001 -0.98000002 166 121 90
-7.9860001 4.7600002 -0.91299999 185 141 106
-8.1110001 4.7379999 -0.97799999 207 169 106
-8.099 4.744 -0.97000003 134 121 53
-8.0939999 4.7360001 -0.96399999 104 90 81
-8.1040001 4.7399998 -0.97799999 179 146 95
-8.2589998 4.7280002 -0.986 86 62 52
-8.3330002 4.7199998 -1.087 185 126 60
-8.3470001 4.7610002 -1.073 164 132 117
-8.3360004 4.7750001 -1.074 133 95 72
-8.3570004 4.7950001 -1.076 85 71 62
-8.3570004 4.7950001 -1.079 74 57 47
-8.3540001 4.7870002 -1.073 66 42 38
-8.3559999 4.7930002 -1.076 88 71 63
-8.3599997 4.802 -1.082 241 223 209
-8.2659998 4.7030001 -1.029 255 213 126
-8.2740002 4.7259998 -1.041 255 219 149
-8.2539997 4.7189999 -1.031 237 187 118
-8.2670002 4.73 -1.043 227 206 153
-8.257 4.7119999 -1.054 255 236 184
-8.2749996 4.7199998 -1.0420001 255 231 141
-8.2770004 4.7220001 -1.044 252 230 144
-8.2539997 4.7309999 -1.073 83 35 13
-8.2530003 4.7340002 -1.072 187 126 79
-8.3299999 4.717 -1.0779999 228 146 60
-8.3409996 4.7189999 -1.087 198 132 80
-8.2869997 4.7199998 -1.039 153 97 12
-8.2869997 4.7150002 -1.034 193 138 38
-8.3339996 4.75 -1.0880001 240 175 85
-8.3520002 4.7319999 -1.0829999 176 107 30
-8.3450003 4.7259998 -1.0880001 214 126 28
-8.2729998 4.7220001 -1.082 154 81 2
-8.276 4.7220001 -1.081 223 138 57
-8.2770004 4.7259998 -1.049 213 147 63
-8.2740002 4.7329998 -1.075 197 137 51
-8.2550001 4.7410002 -1.038 253 191 70
-8.2399998 4.698 -1.036 242 153 61
-8.2159996 4.723 -1.045 218 150 77
-8.2150002 4.7249999 -1.0470001 173 142 88
-8.2329998 4.6950002 -1.028 209 195 166
-8.2340002 4.7010002 -1.031 247 233 188
-8.2340002 4.6900001 -1.029 173 123 62
-8.2550001 4.6939998 -1.0190001 176 141 83
-8.1809998 4.7729998 -1.039 253 237 152
-8.184 4.763 -1.0319999 255 247 149
-8.1960001 4.763 -1.038 169 88 25
-8.1999998 4.7600002 -1.03 255 201 112
-8.2200003 4.7550001 -1.035 240 190 131
-8.2010002 4.7540002 -1.03 242 205 114
-8.2049999 4.7579999 -1.036 145 119 34
-8.1990004 4.7719998 -1.061 255 214 112
-8.2010002 4.756 -1.061 255 244 192
-8.1829996 4.7350001 -1.025 81 36 3
-8.184 4.7340002 -1.027 86 68 58
-8.1899996 4.73 -1.031 222 130 55
-8.1929998 4.7350001 -1.038 190 155 149
-8.1599998 4.7410002 -1.011 172 118 71
-8.1560001 4.744 -1.012 255 205 152
-8.1389999 4.7379999 -1.001 222 175 133
-8.1680002 4.744 -1.007 204 145 89
-7.9879999 4.7519999 -0.91399997 112 74 37
-7.9910002 4.7620001 -0.92400002 131 103 66
-8.0059996 4.7729998 -0.93300003 195 135 85
-7.9949999 4.7670002 -0.92500001 106 80 57
-8.0670004 4.743 -0.95999998 192 148 113
-8.0629997 4.7589998 -0.95999998 155 133 122
-8.0679998 4.7589998 -0.96399999 160 141 127
-8.2480001 4.8390002 -1.084 95 55 30
-8.2460003 4.8429999 -1.076 217 121 35
-8.2390003 4.8379998 -1.077 112 61 16
-8.2229996 4.836 -1.062 171 120 67
-8.2060003 4.835 -1.067 110 76 39
-8.2139997 4.836 -1.073 255 223 161
-8.125 4.8049998 -1.085 235 148 77
-8.1450005 4.8060002 -1.086 54 29 0
-8.1499996 4.7969999 -1.081 168 92 30
-8.1359997 4.8470001 -1.077 241 186 104
-8.1269999 4.829 -1.085 249 208 126
-8.1350002 4.829 -1.0829999 218 142 80
-8.2880001 4.7639999 -1.095 118 56 5
-8.2910004 4.7690001 -1.091 210 170 158
-8.2019997 4.802 -1.0880001 181 100 19
-8.2259998 4.7820001 -1.09 212 166 106
-8.224 4.7820001 -1.089 127 65 6
-8.2259998 4.7729998 -1.085 167 120 64
-8.1949997 4.7880001 -1.091 227 145 61
-8.243 4.8140001 -1.084 222 158 96
-8.2650003 4.8590002 -1.085 219 167 109
-8.2639999 4.8540001 -1.084 138 93 62
-8.2740002 4.862 -1.0779999 227 146 64
-8.2539997 4.7909999 -1.0829999 166 81 17
-8.2510004 4.7849998 -1.087 51 15 3
-8.2419996 4.7930002 -1.0829999 183 97 38
-8.2329998 4.7909999 -1.085 223 171 121
-8.2180004 4.8109999 -1.084 174 95 38
-8.2639999 4.8509998 -1.084 148 103 70
-8.2819996 4.7579999 -1.087 179 115 54
-8.257 4.724 -1.0700001 147 117 81
-8.2639999 4.7519999 -1.079 155 65 13
-8.3030005 4.7509999 -1.094 120 71 28
-8.3109999 4.7470002 -1.0880001 179 114 46
-8.302 4.7210002 -1.079 217 150 72
-8.3039999 4.7090001 -1.0779999 221 152 75
-8.3260002 4.737 -1.097 109 76 41
-8.3109999 4.7410002 -1.091 208 142 68
-8.3400002 4.7410002 -1.089 193 133 37
-8.2030001 4.7480001 -1.063 163 145 105
-8.1940002 4.7420001 -1.054 228 139 73
-8.1809998 4.7459998 -1.033 255 249 197
-8.165 4.7509999 -1.025 255 242 180
-8.1850004 4.7420001 -1.023 231 177 107
-8.1660004 4.7490001 -1.016 83 68 61
-8.1660004 4.7800002 -1.077 92 47 24
-8.2460003 4.7150002 -0.97799999 168 144 132
-8.2600002 4.7210002 -0.97299999 107 83 71
-8.0530005 4.744 -0.95200002 221 171 134
-8.0559998 4.7399998 -0.95200002 255 242 182
-8.1090002 4.8369999 -1.061 182 121 77
-8.1009998 4.836 -1.0599999 152 116 102
-8.1350002 4.8239999 -1.052 172 98 49
-8.1199999 4.8039999 -1.0599999 164 128 96
-8.1120005 4.8109999 -1.048 152 109 74
-8.1079998 4.8070002 -1.049 186 126 72
-8.3319998 4.7950001 -1.046 254 213 151
-8.3400002 4.8010001 -1.058 232 194 131
-8.3339996 4.796 -1.031 154 117 91
-8.2690001 4.8000002 -1.054 240 195 138
-8.2709999 4.802 -1.054 246 184 75
-8.2659998 4.8140001 -1.054 138 74 30
-8.2770004 4.7350001 -0.97399998 122 93 77
-8.2799997 4.7290001 -0.97399998 129 101 89
-8.3330002 4.7940001 -1.0319999 119 83 57
-8.3280001 4.7859998 -1.034 164 143 122
-8.2840004 4.7259998 -0.98799998 86 55 34
-8.2840004 4.7210002 -0.99000001 156 121 99
-8.2659998 4.7270002 -0.99199998 33 15 1
-8.1470003 4.8309999 -1.0829999 255 214 142
-8.1540003 4.8099999 -1.087 255 246 215
-8.1549997 4.8210001 -1.087 111 93 79
-8.1300001 4.8260002 -1.0880001 233 143 65
-8.1529999 4.836 -1.061 99 64 44
-8.1520004 4.8429999 -1.08 255 220 145
-8.1300001 4.842 -1.064 130 88 48
-7.994 4.7680001 -0.92299998 247 196 143
-7.9899998 4.763 -0.921 240 205 147
-8.1020002 4.822 -1.059 182 147 128
-8.1009998 4.8179998 -1.0549999 253 193 123
-8.1029997 4.8070002 -1.068 105 56 23
-8.1040001 4.8000002 -1.067 146 104 80
-8.1040001 4.8060002 -1.072 87 34 3
-8.1070004 4.7989998 -1.076 183 143 131
-8.099 4.7449999 -0.97500002 255 242 177
-8.092 4.757 -0.977 255 244 225
-8.0970001 4.757 -0.98000002 167 146 125
-8.0109997 4.7579999 -0.91600001 255 232 182
-8.0629997 4.7420001 -0.95499998 147 103 68
-8.0740004 4.737 -0.95300001 91 68 54
-8.085 4.7410002 -0.97000003 229 185 150
-8.0629997 4.7410002 -0.94499999 124 107 61
-8.0860004 4.7420001 -0.963 255 240 197
-8.0810003 4.7420001 -0.95899999 134 110 62
-8.2340002 4.8119998 -1.05 209 141 96
-8.2309999 4.8099999 -1.052 196 146 85
-8.2290001 4.7919998 -1.046 108 55 5
-8.224 4.8060002 -1.052 197 138 72
-8.2720003 4.8390002 -1.071 175 105 53
-8.2620001 4.8260002 -1.064 255 201 134
-8.2629995 4.8369999 -1.069 85 31 3
-8.2600002 4.823 -1.059 149 108 64
-8.257 4.823 -1.059 163 123 74
-8.2270002 4.7319999 -0.98799998 126 91 61
-8.1020002 4.7449999 -0.972 238 216 130
-8.1049995 4.7470002 -0.97399998 241 192 116
-8.1610003 4.8119998 -1.0470001 189 115 42
-8.158 4.7989998 -1.0470001 215 174 122
-8.3269997 4.7529998 -1.09 207 147 75
-8.2779999 4.809 -1.061 179 122 53
-8.2799997 4.816 -1.067 155 100 43
-8.2720003 4.8109999 -1.059 253 189 83
-8.2729998 4.8119998 -1.074 78 33 4
-8.2629995 4.8460002 -1.0700001 140 104 78
-8.3100004 4.8210001 -1.026 90 52 29
-8.283 4.7880001 -1.0779999 204 140 40
-8.2700005 4.8169999 -1.076 75 15 5
-8.2779999 4.8520002 -1.082 110 78 39
-8.2790003 4.8439999 -1.077 213 160 80
-8.2539997 4.8249998 -1.08 230 138 55
-8.2609997 4.8340001 -1.082 248 193 137
-8.2620001 4.8439999 -1.0829999 74 27 1
-8.2580004 4.8439999 -1.085 117 67 40
-7.9889998 4.7690001 -0.912 202 141 86
-7.9860001 4.7659998 -0.91100001 255 223 159
-8.2659998 4.757 -1.081 82 35 17
-8.1859999 4.7729998 -1.044 255 242 137
-8.1850004 4.7680001 -1.044 255 204 121
-8.2150002 4.7309999 -1.031 203 150 106
-8.1949997 4.737 -1.03 201 150 58
-8.2040005 4.744 -1.031 157 119 83
-8.2460003 4.7140002 -0.97899997 169 142 131
-8.2419996 4.717 -0.97899997 141 114 95
-8.2299995 4.7119999 -0.991 245 196 137
-8.2309999 4.711 -0.99800003 229 160 101
-8.2349997 4.6999998 -1.012 254 237 168
-8.2410002 4.7160001 -0.98299998 174 124 75
-8.2589998 4.7140002 -0.97899997 98 79 72
-8.2550001 4.7150002 -0.97799999 180 162 152
-8.1759996 4.7410002 -1.0140001 234 173 116
-8.1709995 4.7420001 -1.012 212 147 65
-8.1689997 4.7459998 -1.012 230 166 92
-8.1599998 4.7509999 -1.011 86 34 0
-8.2480001 4.7259998 -0.991 64 48 35
-8.2460003 4.7259998 -0.99400002 214 161 109
-8.3290005 4.7249999 -1.09 186 116 64
-8.3579998 4.7979999 -1.077 134 118 105
-8.3579998 4.802 -1.0779999 159 140 126
-8.3570004 4.7989998 -1.079 80 62 50
-8.3529997 4.7859998 -1.0700001 67 47 40
-8.3559999 4.8099999 -1.079 66 49 33
-8.3570004 4.803 -1.08 116 98 84
-8.2069998 4.7319999 -1.045 87 60 51
-8.2379999 4.7259998 -1.061 183 134 102
-8.2550001 4.7360001 -1.072 184 120 56
-8.2589998 4.7420001 -1.073 71 29 4
-8.2670002 4.71 -1.033 234 187 97
-8.2690001 4.7150002 -1.039 255 216 131
-8.2729998 4.7270002 -1.086 255 233 190
-8.2510004 4.6950002 -1.015 255 250 202
-8.2539997 4.698 -1.016 242 169 77
-8.2530003 4.6890001 -1.034 255 239 177
-8.2519999 4.6939998 -1.036 244 153 62
-8.2559996 4.6929998 -1.0319999 255 193 88
-8.3269997 4.7160001 -1.085 99 89 87
-8.3400002 4.7309999 -1.0829999 209 160 101
-8.283 4.7210002 -1.039 148 106 34
-8.3500004 4.7480001 -1.08 231 187 112
-8.3430004 4.7210002 -1.0880001 240 173 92
-8.3579998 4.7410002 -1.081 214 150 86
-8.2690001 4.724 -1.05 255 213 141
-8.2889996 4.7199998 -1.039 246 192 83
-8.2379999 4.7150002 -0.99900001 138 118 85
-8.2159996 4.7249999 -0.99800003 86 51 31
-8.243 4.717 -0.991 138 121 75
-8.2480001 4.7220001 -1.028 210 134 56
-8.2299995 4.6999998 -1.028 255 247 217
-8.2250004 4.6999998 -1.023 254 250 213
-8.2200003 4.7080002 -1.027 251 237 174
-8.2320004 4.6939998 -1.021 253 242 197
-8.2419996 4.6960001 -1.01 181 143 78
-8.2480001 4.7259998 -1.034 138 78 6
-8.2580004 4.7389998 -1.0420001 195 162 117
-8.2159996 4.7909999 -1.048 168 108 45
-8.2030001 4.7800002 -1.05 247 205 133
-8.2209997 4.776 -1.046 201 122 56
-8.2159996 4.8060002 -1.048 198 130 83
-8.2080002 4.7340002 -1.035 77 31 0
-8.2089996 4.743 -1.033 207 156 103
-8.2220001 4.7379999 -1.031 211 178 173
-8.191 4.7810001 -1.056 250 232 134
-8.2019997 4.79 -1.053 238 166 108
-8.1300001 4.7509999 -0.99800003 255 246 169
-8.1190004 4.7399998 -0.99000001 231 186 144
-8.1400003 4.7410002 -1.003 168 106 47
-8.165 4.7410002 -1.013 167 112 56
-7.9910002 4.757 -0.92199999 189 150 111
-7.9879999 4.7600002 -0.921 131 92 59
-8.1049995 4.8109999 -1.0779999 221 161 99
-8.25 4.8449998 -1.077 213 129 56
-8.2299995 4.8340001 -1.073 109 63 39
-8.2150002 4.8330002 -1.076 233 179 115
-8.2110004 4.8330002 -1.076 245 177 102
-8.1359997 4.849 -1.076 116 81 59
-8.2060003 4.7820001 -1.09 191 115 39
-8.1990004 4.7950001 -1.089 156 127 109
-8.184 4.7810001 -1.075 254 202 118
-8.2530003 4.7709999 -1.08 82 34 0
-8.2600002 4.8319998 -1.082 125 62 18
-8.2659998 4.829 -1.068 253 198 116
-8.2639999 4.7849998 -1.045 227 190 138
-8.2700005 4.7779999 -1.049 227 184 141
-8.2729998 4.7810001 -1.046 235 185 116
-8.2609997 4.7550001 -1.079 131 58 3
-8.3079996 4.717 -1.081 129 71 31
-8.3210001 4.7270002 -1.082 250 187 110
-8.3039999 4.7389998 -1.089 190 149 131
-8.2969999 4.7350001 -1.069 177 127 64
-8.3199997 4.743 -1.091 176 134 118
-8.3009996 4.7410002 -1.077 151 104 58
-8.3470001 4.7989998 -1.0549999 238 195 127
-8.3450003 4.7940001 -1.045 216 160 85
-8.3439999 4.79 -1.051 244 225 148
-8.29 4.7639999 -1.102 194 155 114
-8.2810001 4.823 -1.076 176 122 58
-8.2770004 4.8410001 -1.077 255 213 118
-8.276 4.8390002 -1.072 244 216 116
-8.2749996 4.835 -1.074 255 219 111
-8.3100004 4.7919998 -1.076 254 231 153
-8.3000002 4.7839999 -1.09 221 162 92
-8.3050003 4.783 -1.089 194 128 54
-8.2019997 4.7519999 -1.0599999 255 250 198
-8.1960001 4.757 -1.045 253 213 117
-8.1949997 4.7420001 -1.04 255 238 169
-8.191 4.757 -1.0420001 141 92 15
-8.1940002 4.7459998 -1.041 239 146 53
-8.1870003 4.7360001 -1.03 255 220 139
-8.1809998 4.7589998 -1.028 255 248 161
-8.1879997 4.7459998 -1.025 102 79 71
-8.1940002 4.7459998 -1.028 252 184 85
-8.1619997 4.7449999 -1.017 254 240 167
-8.1660004 4.7449999 -1.02 255 234 169
-8.1730003 4.7449999 -1.025 252 223 155
-8.1599998 4.743 -1.013 255 249 177
-8.198 4.7690001 -1.056 255 224 126
-8.1960001 4.7680001 -1.044 255 206 128
-8.2600002 4.7259998 -0.97299999 123 99 87
-8.257 4.7220001 -0.972 129 107 96
-8.0430002 4.7470002 -0.94400001 215 168 126
-8.1129999 4.8049998 -1.058 80 53 36
-8.1070004 4.8000002 -1.068 123 82 52
-8.118 4.7989998 -1.0650001 118 90 69
-8.1409998 4.7810001 -1.056 208 127 62
-8.1370001 4.7909999 -1.058 180 151 133
-8.118 4.829 -1.05 141 95 69
-8.1049995 4.816 -1.0470001 211 147 83
-8.1070004 4.835 -1.058 221 142 73
-8.3470001 4.8049998 -1.05 174 114 54
-8.3470001 4.8000002 -1.058 217 184 117
-8.323 4.7989998 -1.03 189 165 141
-8.2720003 4.7309999 -0.99400002 58 38 31
-8.2519999 4.7750001 -1.0420001 208 137 29
-8.2469997 4.789 -1.044 119 85 37
-8.2670002 4.789 -1.049 115 84 53
-8.2620001 4.717 -0.97799999 168 144 132
-8.276 4.737 -0.97500002 133 101 80
-8.2930002 4.7420001 -1 27 10 3
-8.2919998 4.7389998 -0.99800003 47 34 26
-8.2790003 4.7259998 -1.01 109 91 87
-8.283 4.7290001 -0.986 87 56 38
-8.2679996 4.7189999 -0.98900002 187 165 152
-8.2700005 4.7199998 -0.98900002 169 147 134
-8.1499996 4.8049998 -1.0829999 255 247 200
-8.1639996 4.8150001 -1.085 158 93 37
-8.1719999 4.8049998 -1.082 251 182 89
-8.1549997 4.8169999 -1.086 124 108 93
-8.1169996 4.8169999 -1.0880001 162 115 85
-8.1140003 4.823 -1.0880001 90 33 3
-8.1540003 4.8439999 -1.075 204 135 76
-8.1450005 4.835 -1.061 129 87 63
-8.165 4.8260002 -1.084 198 127 75
-8.1569996 4.8280001 -1.085 88 39 6
-8.217 4.8260002 -1.051 143 74 19
-8.2159996 4.8169999 -1.045 177 118 48
-8.033 4.7529998 -0.92799997 255 247 188
-8.0360003 4.7509999 -0.92900002 244 228 169
-8.026 4.7529998 -0.92400002 246 236 167
-8.0240002 4.7639999 -0.92500001 154 122 101
-8.0299997 4.7639999 -0.92799997 134 105 89
-8.026 4.75 -0.92699999 150 132 66
-8.0290003 4.7680001 -0.92699999 255 215 150
-8.0290003 4.7659998 -0.93000001 108 79 65
-8.0979996 4.8299999 -1.061 153 95 32
-8.1110001 4.7989998 -1.072 233 186 144
-8.1239996 4.8039999 -1.073 135 102 67
-8.073 4.7600002 -0.96799999 158 136 123
-8.0979996 4.7389998 -0.97600001 255 229 179
-8.1009998 4.7579999 -0.98400003 174 152 129
-8.0100002 4.7529998 -0.92199999 255 241 190
-8.0349998 4.7480001 -0.93800002 255 233 158
-8.0310001 4.7490001 -0.93699998 233 190 145
-8.0749998 4.7389998 -0.95200002 255 228 191
-8.0640001 4.744 -0.95599997 240 214 153
-8.2250004 4.8140001 -1.048 94 59 40
-8.2510004 4.822 -1.058 206 153 119
-8.2539997 4.8369999 -1.064 163 135 88
-8.2340002 4.8369999 -1.057 255 239 173
-8.2270002 4.7259998 -0.97399998 169 121 83
-8.2159996 4.7220001 -0.977 168 125 83
-8.2390003 4.723 -0.97299999 141 113 99
-8.1420002 4.7859998 -1.058 233 172 105
-8.1610003 4.7950001 -1.057 214 144 93
-8.1520004 4.7490001 -1.012 236 177 121
-8.1590004 4.7490001 -1.018 254 245 180
-8.1440001 4.8130002 -1.056 133 75 38
-8.1459999 4.8070002 -1.053 166 87 18
-8.1379995 4.8150001 -1.057 97 43 7
-8.1370001 4.8119998 -1.057 92 34 0
-8.2779999 4.7849998 -1.048 175 142 111
-8.2799997 4.7859998 -1.05 226 181 140
-8.2849998 4.7839999 -1.049 187 140 52
-8.2950001 4.7919998 -1.052 110 93 73
-8.2779999 4.803 -1.064 229 166 95
-8.3009996 4.7930002 -1.0599999 130 111 43
-8.3149996 4.783 -1.084 50 12 0
-8.3100004 4.789 -1.0779999 186 128 54
-8.3540001 4.7919998 -1.074 68 47 42
-8.3500004 4.7859998 -1.064 119 101 91
-8.3509998 4.789 -1.066 67 48 44
-8.3319998 4.7950001 -1.059 229 203 116
-8.3210001 4.7810001 -1.072 221 171 118
-8.2950001 4.7909999 -1.067 175 113 40
-8.3070002 4.7880001 -1.0650001 63 24 9
-7.9970002 4.7729998 -0.91799998 90 67 59
-8.0120001 4.7659998 -0.91900003 182 148 123
-8.0059996 4.7649999 -0.91600001 182 148 120
-8.2609997 4.77 -1.079 141 96 75
-8.2620001 4.8189998 -1.0599999 162 87 29
-8.2700005 4.8179998 -1.066 255 180 65
-8.2279997 4.7839999 -1.043 195 147 83
-8.2010002 4.776 -1.0650001 245 203 105
-8.2309999 4.7179999 -0.986 162 111 56
-8.2460003 4.6939998 -1.011 197 178 122
-8.2530003 4.7010002 -1.017 173 106 28
-8.2480001 4.7150002 -0.98699999 125 97 83
-8.1590004 4.75 -1.007 125 110 103
-8.1429996 4.743 -0.99800003 251 215 131
-8.1169996 4.743 -0.98500001 226 186 127
-8.3439999 4.789 -1.048 253 229 141
-8.3439999 4.783 -1.0549999 110 78 63
-8.3439999 4.7849998 -1.044 158 104 34
-8.3400002 4.763 -1.0420001 176 117 73
-8.3280001 4.777 -1.059 95 49 16
-8.3290005 4.7839999 -1.059 80 40 15
-8.3170004 4.7859998 -1.08 59 17 3
-8.1999998 4.7420001 -1.05 172 112 49
-8.2089996 4.7270002 -1.038 135 58 2
-8.2869997 4.717 -1.033 205 155 44
-8.2720003 4.7150002 -1.0369999 244 215 121
-8.3330002 4.7680001 -1.0420001 186 164 151
-8.3149996 4.7659998 -1.062 237 163 68
-8.3179998 4.7480001 -1.062 226 138 51
-8.316 4.7690001 -1.051 247 177 81
-8.2469997 4.73 -1.067 99 49 12
-8.2440004 4.7329998 -1.068 57 28 10
-8.25 4.7280002 -1.0700001 117 65 28
-8.2779999 4.7399998 -1.0599999 187 120 67
-8.2700005 4.7329998 -1.084 111 44 0
-8.25 4.684 -1.028 250 196 124
-8.2469997 4.6919999 -1.015 227 161 87
-8.3290005 4.7360001 -1.082 247 170 90
-8.2819996 4.7259998 -1.043 195 158 80
-8.3439999 4.723 -1.0880001 162 95 43
-8.2200003 4.7119999 -0.99599999 216 181 151
-8.2329998 4.7150002 -1.016 249 224 142
-8.243 4.7129998 -1.021 227 171 86
-8.243 4.7090001 -1.016 213 167 108
-8.2110004 4.7189999 -1.036 242 154 64
-8.217 4.7129998 -1.031 254 244 185
-8.2309999 4.6960001 -1.023 255 245 210
-8.2480001 4.7259998 -0.99900001 172 122 73
-8.2419996 4.73 -1.033 250 236 131
-8.243 4.723 -1.03 218 161 72
-8.2489996 4.7129998 -1.02 167 98 33
-8.2489996 4.7189999 -1.025 213 136 64
-8.2410002 4.6960001 -1.01 254 214 144
-8.2840004 4.7220001 -1.0039999 58 34 22
-8.283 4.7220001 -0.99800003 172 144 130
-8.2810001 4.723 -0.99900001 176 150 135
-8.2840004 4.7210002 -0.99599999 138 107 87
-8.2849998 4.724 -0.99199998 135 102 83
-8.2559996 4.7010002 -1.021 228 204 158
-8.2469997 4.7249999 -1.031 221 156 72
-8.1999998 4.802 -1.051 174 131 97
-8.2069998 4.8179998 -1.049 234 171 120
-8.1870003 4.8049998 -1.05 194 121 70
-8.2209997 4.7519999 -1.035 223 145 36
-8.2329998 4.756 -1.036 194 105 25
-8.1409998 4.7490001 -1.006 255 232 162
-8.0050001 4.7519999 -0.921 91 58 7
-8.0019999 4.7519999 -0.92199999 224 179 138
-7.9980001 4.7579999 -0.92799997 253 219 182
-8.0059996 4.756 -0.93099999 203 168 126
-8.0080004 4.7529998 -0.92900002 213 150 99
-8.0290003 4.7540002 -0.93400002 249 214 160
-8.0179996 4.7550001 -0.92799997 252 220 159
-8.2259998 4.8309999 -1.053 143 109 61
-8.1719999 4.8010001 -1.051 217 134 64
-8.1719999 4.8099999 -1.05 186 132 94
-8.191 4.7729998 -1.054 252 217 123
-8.1780005 4.7880001 -1.087 134 106 85
-8.1899996 4.789 -1.0829999 150 111 94
-8.1899996 4.7789998 -1.057 254 231 127
-8.1850004 4.7880001 -1.066 144 95 19
-8.1890001 4.7839999 -1.059 255 240 129
-8.1969995 4.822 -1.076 228 159 82
-8.2279997 4.835 -1.0599999 220 178 130
-8.2690001 4.8610001 -1.079 102 68 33
-8.2629995 4.8610001 -1.08 183 140 105
-8.2709999 4.8270001 -1.069 255 194 111
-8.2650003 4.8449998 -1.0829999 219 159 107
-8.2639999 4.8400002 -1.081 157 100 55
-8.2720003 4.8460002 -1.082 217 164 122
-8.2709999 4.8400002 -1.0779999 243 159 73
-8.2729998 4.8449998 -1.074 254 221 114
-8.2720003 4.8039999 -1.074 116 75 45
-8.2639999 4.802 -1.0549999 114 75 46
-8.2589998 4.8099999 -1.058 175 137 90
-8.2729998 4.8039999 -1.056 204 146 46
-8.2729998 4.7950001 -1.054 255 231 115
-8.2880001 4.776 -1.086 117 81 49
-8.2749996 4.8309999 -1.073 228 174 66
-8.1960001 4.7459998 -1.046 246 236 183
-8.1949997 4.7420001 -1.029 110 87 79
-8.191 4.737 -1.028 196 145 66
-8.1750002 4.7449999 -1.027 255 229 172
-8.1759996 4.75 -1.026 245 184 119
-8.1809998 4.7579999 -1.025 253 243 156
-8.1809998 4.756 -1.031 223 192 135
-8.1960001 4.737 -1.031 230 151 50
-8.1920004 4.7340002 -1.029 197 130 60
-8.165 4.7420001 -1.017 166 105 38
-8.1529999 4.7909999 -1.075 156 139 111
-8.165 4.7870002 -1.073 113 70 51
-8.177 4.7880001 -1.072 159 141 117
-8.1780005 4.7859998 -1.074 164 135 101
-8.257 4.7199998 -0.97299999 162 140 127
-8.1149998 4.8049998 -1.058 248 194 124
-8.3050003 4.75 -1.048 255 195 92
-8.3100004 4.7589998 -1.0420001 234 168 71
-8.302 4.7589998 -1.0369999 225 193 108
-8.3179998 4.7540002 -1.025 167 154 148
-8.3149996 4.763 -1.043 229 177 91
-8.3299999 4.7649999 -1.04 140 123 113
-8.3129997 4.7420001 -1.058 227 147 62
-8.3269997 4.7789998 -1.034 249 209 139
-8.3210001 4.763 -1.027 163 148 143
-8.3210001 4.7579999 -1.029 152 141 139
-8.3339996 4.7880001 -1.035 187 141 81
-8.3109999 4.789 -1.056 54 9 0
-8.2700005 4.7199998 -0.99299997 102 84 70
-8.1499996 4.8340001 -1.081 205 152 82
-8.1529999 4.8080001 -1.085 249 244 206
-8.1590004 4.8169999 -1.085 172 101 49
-8.1280003 4.8140001 -1.087 78 49 19
-8.118 4.8109999 -1.0829999 157 104 73
-8.1389999 4.8460002 -1.0700001 95 54 26
-8.1540003 4.8410001 -1.079 183 131 55
-8.2010002 4.8330002 -1.071 125 74 29
-8.1569996 4.8179998 -1.054 172 96 21
-8.1560001 4.8200002 -1.058 117 71 45
-8.1630001 4.8179998 -1.054 249 216 149
-8.1619997 4.8150001 -1.049 141 84 55
-8.0369997 4.763 -0.93300003 141 118 104
-8.0419998 4.7649999 -0.93800002 78 56 45
-8.0670004 4.7620001 -0.95200002 72 49 35
-8.059 4.7470002 -0.94199997 255 243 189
-8.0539999 4.7620001 -0.94400001 92 66 53
-8.1059999 4.8270001 -1.054 142 109 76
-8.1090002 4.7989998 -1.072 175 127 89
-8.0959997 4.7639999 -0.98199999 167 146 119
-8.0909996 4.7639999 -0.97799999 168 146 125
-8.1549997 4.7529998 -1.005 219 169 98
-8.0839996 4.7600002 -0.97399998 146 125 108
-8.0830002 4.7490001 -0.96600002 174 127 81
-8.0719995 4.7620001 -0.96399999 172 149 135
-8.0810003 4.7610002 -0.96100003 81 61 52
-8.1059999 4.7470002 -0.98100001 251 235 157
-8.033 4.75 -0.93099999 148 127 72
-8.0360003 4.75 -0.93300003 155 133 83
-8.0200005 4.7529998 -0.92799997 190 148 98
-8.0620003 4.7420001 -0.95200002 156 111 46
-8.0799999 4.7490001 -0.96399999 246 198 132
-8.073 4.7410002 -0.958 255 232 171
-8.2489996 4.7989998 -1.059 185 107 24
-8.2390003 4.7930002 -1.051 133 82 35
-8.2530003 4.796 -1.054 128 79 39
-8.2139997 4.8270001 -1.056 148 71 1
-8.217 4.8270001 -1.0549999 167 139 91
-8.0410004 4.7490001 -0.93199998 202 172 122
-8.1440001 4.7880001 -1.064 80 51 35
-8.1379995 4.8000002 -1.074 127 94 51
-8.1470003 4.8000002 -1.048 137 77 23
-8.1529999 4.803 -1.0470001 81 34 14
-8.1560001 4.7509999 -1.013 236 180 97
-8.1280003 4.8140001 -1.057 129 75 39
-8.1549997 4.8039999 -1.0470001 162 115 95
-8.2709999 4.8140001 -1.063 255 188 77
-8.2939997 4.7820001 -1.044 252 226 193
-8.2709999 4.7940001 -1.052 255 237 115
-8.3529997 4.7930002 -1.0700001 45 27 23
-8.2779999 4.803 -1.066 172 105 35
-8.2749996 4.7940001 -1.072 147 121 104
-8.283 4.7919998 -1.061 255 241 164
-8.2620001 4.8600001 -1.0829999 127 84 52
-8.2629995 4.8569999 -1.0829999 172 127 96
-8.0179996 4.757 -0.92799997 211 161 100
-8.0170002 4.7639999 -0.92299998 177 149 128
-8.2419996 4.783 -1.046 170 114 53
-8.224 4.7290001 -1.029 248 164 78
-8.2220001 4.7249999 -1.029 206 117 37
-8.2589998 4.7119999 -0.98799998 59 34 27
-8.25 4.6960001 -1.0140001 253 237 185
-8.2480001 4.7150002 -0.99000001 122 95 84
-8.2480001 4.7150002 -0.98500001 173 146 135
-8.1140003 4.744 -0.97899997 243 180 100
-8.1269999 4.743 -0.99000001 142 95 41
-8.1309996 4.743 -0.99299997 244 186 112
-8.1350002 4.7449999 -0.99299997 255 217 132
-8.3190002 4.7839999 -1.079 152 110 88
-8.3269997 4.7989998 -1.064 245 223 147
-8.3140001 4.7880001 -1.061 115 73 51
-8.2229996 4.7249999 -1.049 128 84 45
-8.2299995 4.7249999 -1.049 174 142 101
-8.2469997 4.7249999 -1.063 241 172 79
-8.2299995 4.7259998 -1.053 255 245 218
-8.2860003 4.7470002 -1.0470001 127 111 52
-8.2810001 4.7509999 -1.046 208 151 82
-8.2889996 4.7480001 -1.046 253 189 115
-8.2779999 4.7220001 -1.041 243 223 128
-8.3199997 4.77 -1.059 211 153 71
-8.3380003 4.783 -1.048 209 153 66
-8.2510004 4.6919999 -1.017 253 250 215
-8.2620001 4.711 -1.0319999 207 157 84
-8.2609997 4.711 -1.031 193 148 81
-8.3369999 4.75 -1.08 235 182 106
-8.3319998 4.7420001 -1.08 255 238 158
-8.3299999 4.7470002 -1.081 255 254 183
-8.2189999 4.7140002 -0.99199998 179 129 92
-8.2340002 4.7220001 -1.031 255 211 104
-8.2299995 4.723 -1.03 246 155 64
-8.2390003 4.7259998 -0.99400002 154 126 104
-8.2360001 4.7179999 -0.98500001 155 128 107
-8.2329998 4.7270002 -1.033 254 183 79
-8.2309999 4.7360001 -1.033 145 98 44
-8.224 4.7259998 -1.0039999 129 89 54
-8.2159996 4.711 -1.023 250 243 197
-8.2180004 4.7189999 -1.006 106 65 35
-8.2250004 4.7189999 -1.012 255 216 187
-8.2159996 4.7189999 -1.002 112 71 43
-8.2270002 4.7150002 -1.003 186 121 65
-8.2209997 4.7129998 -1.0319999 255 236 177
-8.2259998 4.6989999 -1.0190001 255 224 163
-8.2779999 4.7280002 -1.007 155 136 130
-8.25 4.7090001 -1.0190001 160 102 52
-8.2489996 4.7049999 -1.017 208 162 100
-8.2589998 4.711 -1.025 216 146 60
-8.2419996 4.6999998 -1.011 196 148 66
-8.21 4.8070002 -1.05 157 108 76
-8.1470003 4.7490001 -1.008 251 222 156
-8.1389999 4.7490001 -1.0039999 255 237 174
-8.0089998 4.7519999 -0.91799998 135 119 67
-8.007 4.7529998 -0.92299998 195 120 62
-8.007 4.7529998 -0.92799997 212 168 123
-8.2320004 4.8319998 -1.054 225 204 141
-8.2229996 4.8270001 -1.052 138 98 47
-8.2189999 4.8340001 -1.064 225 135 47
-8.1879997 4.7870002 -1.057 245 225 130
-8.1859999 4.8010001 -1.052 142 90 51
-8.132 4.802 -1.075 178 138 112
-8.1499996 4.822 -1.085 88 28 0
-8.165 4.7969999 -1.0880001 246 224 185
-8.184 4.7849998 -1.077 94 42 2
-8.2309999 4.822 -1.08 202 103 20
-8.2189999 4.7600002 -1.066 202 127 62
-8.2250004 4.7459998 -1.0369999 142 62 1
-8.2620001 4.8639998 -1.0829999 118 81 52
-8.2670002 4.862 -1.08 239 185 125
-8.2720003 4.8309999 -1.0700001 255 219 96
-8.2639999 4.8429999 -1.082 138 75 24
-8.2700005 4.8330002 -1.076 72 25 5
-8.276 4.8429999 -1.073 255 224 135
-8.2770004 4.789 -1.052 202 153 61
-8.276 4.7969999 -1.058 194 139 49
-8.2720003 4.8000002 -1.0549999 255 218 104
-8.3009996 4.7820001 -1.085 235 180 116
-8.3079996 4.7859998 -1.0779999 63 24 9
-8.3310003 4.7410002 -1.09 207 129 55
-8.3249998 4.75 -1.079 216 156 83
-8.3170004 4.7490001 -1.067 242 158 72
-8.309 4.7449999 -1.077 255 226 161
-8.3009996 4.743 -1.071 255 196 130
-8.3050003 4.7410002 -1.061 250 185 91
-8.1739998 4.7379999 -1.022 240 192 126
-8.177 4.7379999 -1.023 153 108 75
-8.1999998 4.7350001 -1.034 146 88 24
-8.2019997 4.7340002 -1.035 245 209 121
-8.2019997 4.7670002 -1.044 255 224 151
-8.2159996 4.7649999 -1.039 218 143 60
-8.2209997 4.7680001 -1.043 226 164 81
-8.2259998 4.776 -1.045 149 100 23
-8.1949997 4.7680001 -1.05 255 234 152
-8.1499996 4.7909999 -1.067 60 27 8
-8.1499996 4.7880001 -1.071 255 251 224
-8.1040001 4.8049998 -1.067 144 100 65
-8.1280003 4.8239999 -1.0549999 138 108 80
-8.3210001 4.7969999 -1.03 141 119 96
-8.3319998 4.7919998 -1.033 137 109 87
-8.2969999 4.7519999 -1.043 254 199 108
-8.3009996 4.737 -1.056 235 161 56
-8.335 4.7389998 -1.08 242 206 122
-8.3260002 4.7589998 -1.033 199 184 177
-8.3179998 4.7509999 -1.023 162 149 143
-8.3260002 4.7620001 -1.034 191 177 166
-8.3290005 4.7659998 -1.038 210 161 82
-8.3199997 4.7550001 -1.028 174 163 161
-8.3439999 4.7909999 -1.036 243 195 131
-8.3039999 4.789 -1.056 174 154 130
-8.3129997 4.7870002 -1.051 110 84 57
-8.3109999 4.789 -1.059 126 68 4
-8.2700005 4.7199998 -0.99199998 116 96 85
-8.2589998 4.7119999 -0.991 193 166 155
-8.2799997 4.723 -0.99699998 179 152 141
-8.2840004 4.7259998 -0.99900001 68 42 29
-8.1289997 4.809 -1.084 142 60 13
-8.1470003 4.8379998 -1.068 171 121 68
-8.1899996 4.8299999 -1.067 155 67 3
-8.2030001 4.8280001 -1.062 141 93 70
-8.1940002 4.8210001 -1.058 71 11 0
-8.184 4.8179998 -1.052 204 151 109
-8.1850004 4.8280001 -1.068 132 87 19
-8.1540003 4.8390002 -1.079 246 195 114
-8.1800003 4.8260002 -1.084 249 203 125
-8.191 4.8189998 -1.05 153 74 17
-8.191 4.8130002 -1.053 178 135 90
-8.0150003 4.7620001 -0.92900002 246 205 143
-8.0530005 4.7490001 -0.93900001 255 233 173
-8.033 4.7529998 -0.93599999 215 181 117
-8.059 4.7579999 -0.95599997 146 126 115
-8.1129999 4.7989998 -1.069 110 75 47
-8.1040001 4.756 -0.97600001 76 59 51
-8.118 4.75 -0.991 255 204 134
-8.1110001 4.7490001 -0.98500001 253 202 119
-8.1140003 4.7550001 -0.99000001 162 144 134
-8.1090002 4.7550001 -0.98699999 169 147 126
-8.1070004 4.7639999 -0.98900002 158 137 118
-8.1400003 4.7519999 -0.99699998 150 132 120
-8.0860004 4.7449999 -0.97000003 224 177 135
-8.0799999 4.744 -0.954 142 109 64
-8.0769997 4.7449999 -0.95300001 161 125 73
-8.2399998 4.7919998 -1.048 172 101 47
-8.2589998 4.7870002 -1.0470001 255 198 127
-8.0380001 4.7519999 -0.93099999 255 243 190
-8.158 4.7519999 -1.0089999 130 115 108
-8.1409998 4.75 -1.005 224 165 109
-8.1239996 4.8130002 -1.057 170 89 24
-8.2969999 4.7620001 -1.0369999 205 150 86
-8.2810001 4.756 -1.046 195 137 73
-8.3549995 4.7950001 -1.072 78 61 54
-8.2819996 4.79 -1.068 63 26 8
-8.0100002 4.7620001 -0.92900002 255 221 159
-7.987 4.7639999 -0.91399997 253 230 162
-8.0209999 4.7659998 -0.926 105 77 56
-8.0249996 4.7620001 -0.92900002 178 145 126
-8.0299997 4.7550001 -0.92799997 229 207 157
-8.0190001 4.7659998 -0.92500001 107 79 58
-8.2370005 4.7810001 -1.046 177 139 103
-8.224 4.7859998 -1.0470001 248 191 120
-8.2370005 4.7410002 -1.033 234 159 58
-8.2460003 4.7600002 -1.039 102 83 77
-8.2589998 4.7119999 -0.98900002 62 38 28
-8.2489996 4.698 -1.013 246 214 155
-8.2489996 4.7140002 -0.97899997 183 163 152
-8.1479998 4.7449999 -1.002 137 89 17
-8.132 4.7449999 -0.99599999 186 138 89
-8.1110001 4.7470002 -0.97799999 204 164 69
-8.1129999 4.7529998 -0.98000002 143 121 110
-8.1149998 4.7470002 -0.98100001 245 176 98
-8.132 4.7529998 -0.995 173 154 148
-8.125 4.7550001 -0.99299997 170 153 146
-8.1330004 4.7529998 -0.99400002 140 120 111
-8.1309996 4.7529998 -0.99199998 148 126 115
-8.1169996 4.7579999 -0.99000001 162 144 134
-8.1110001 4.757 -0.98000002 78 60 50
-8.1190004 4.7449999 -0.98400003 242 182 96
-8.2679996 4.7199998 -0.986 178 156 143
-8.3470001 4.8010001 -1.062 219 190 132
-8.3520002 4.79 -1.068 65 44 43
-8.2629995 4.7059999 -1.029 252 210 124
-8.3260002 4.7680001 -1.064 140 81 25
-8.3330002 4.763 -1.079 124 78 54
-8.2679996 4.7360001 -1.059 139 101 62
-8.2510004 4.6900001 -1.0190001 216 169 115
-8.3199997 4.73 -1.082 208 130 82
-8.3360004 4.7540002 -1.08 170 107 30
-8.342 4.757 -1.079 173 129 104
-8.2270002 4.73 -1.031 250 168 84
-8.2250004 4.7249999 -1.028 195 104 21
-8.2229996 4.724 -1.008 110 99 93
-8.1999998 4.7290001 -1.036 142 71 5
-8.2159996 4.7140002 -1.003 174 130 91
-8.2329998 4.7059999 -1.036 255 241 204
-8.2489996 4.7179999 -0.991 95 75 64
-8.25 4.7160001 -0.99000001 79 53 38
-8.2510004 4.7189999 -0.991 108 86 73
-8.2519999 4.7030001 -1.018 106 64 24
-8.21 4.8130002 -1.05 136 78 41
-8.1529999 4.7470002 -1.011 244 213 148
-8.0150003 4.77 -0.926 239 216 198
-8.257 4.8470001 -1.084 147 100 70
-8.2259998 4.8260002 -1.05 127 88 49
-8.1759996 4.7950001 -1.09 255 237 192
-8.1809998 4.796 -1.089 187 175 135
-8.1859999 4.8049998 -1.087 251 166 85
-8.1820002 4.7839999 -1.073 215 173 148
-8.2480001 4.7930002 -1.082 110 36 0
-8.2539997 4.802 -1.084 183 85 20
-8.224 4.7659998 -1.0779999 255 234 177
-8.2370005 4.7550001 -1.071 255 228 167
-8.2370005 4.7690001 -1.0420001 123 86 41
-8.224 4.7579999 -1.0369999 223 150 45
-8.2720003 4.8340001 -1.075 71 26 3
-8.2749996 4.8449998 -1.075 255 238 136
-8.2709999 4.7989998 -1.054 255 210 92
-8.2749996 4.803 -1.058 255 212 118
-8.2399998 4.7519999 -1.071 119 48 2
-8.323 4.7410002 -1.079 246 169 79
-8.302 4.7740002 -1.091 207 146 79
-8.3109999 4.744 -1.062 145 79 18
-8.1820002 4.7410002 -1.029 255 245 184
-8.1940002 4.7680001 -1.049 255 225 139
-8.1929998 4.7709999 -1.052 255 226 133
-8.3190002 4.7789998 -1.036 173 118 17
-8.3190002 4.7839999 -1.035 228 198 196
-8.257 4.7600002 -1.04 183 116 46
-8.2690001 4.7589998 -1.039 246 177 74
-8.2670002 4.7470002 -1.0470001 138 71 19
-8.3000002 4.7490001 -1.046 221 160 95
-8.2989998 4.7379999 -1.052 155 101 15
-8.3280001 4.7639999 -1.0369999 152 138 127
-8.3310003 4.7670002 -1.039 168 146 133
-8.3339996 4.77 -1.041 188 165 151
-8.3330002 4.7820001 -1.0369999 243 192 111
-8.3059998 4.7849998 -1.046 151 84 39
-8.2700005 4.724 -0.99400002 55 38 28
-8.2659998 4.7220001 -0.991 81 62 48
-8.2840004 4.7210002 -0.995 180 145 123
-8.1459999 4.8109999 -1.085 165 86 19
-8.1429996 4.8210001 -1.084 121 86 64
-8.1529999 4.8200002 -1.086 117 100 90
-8.1599998 4.8369999 -1.072 211 164 112
-8.1750002 4.8270001 -1.071 237 170 99
-8.1739998 4.8150001 -1.051 156 72 12
-8.1680002 4.8169999 -1.053 191 146 104
-8.1780005 4.8189998 -1.059 176 126 93
-8.1669998 4.8189998 -1.054 192 143 100
-8.1999998 4.8249998 -1.075 110 55 0
-8.2060003 4.8239999 -1.0549999 195 143 95
-8.1750002 4.7940001 -1.067 157 105 66
-8.1730003 4.7969999 -1.063 255 241 138
-8.1689997 4.7969999 -1.0650001 107 66 44
-8.1709995 4.7979999 -1.061 255 238 123
-8.0550003 4.7589998 -0.94400001 149 121 109
-8.0579996 4.7579999 -0.94700003 158 132 117
-8.0629997 4.756 -0.949 171 147 135
-8.0740004 4.7610002 -0.95700002 89 66 52
-8.0760002 4.757 -0.95700002 154 131 113
-8.0270004 4.7610002 -0.93000001 164 133 115
-8.0509996 4.7600002 -0.94199997 159 135 123
-8.059 4.744 -0.94400001 138 108 58
-8.0360003 4.7639999 -0.935 92 69 55
-8.04 4.7610002 -0.93699998 135 112 98
-8.0430002 4.7589998 -0.93900001 171 147 135
-8.0480003 4.7579999 -0.94499999 255 235 188
-8.0489998 4.7490001 -0.94599998 255 224 153
-8.1009998 4.7649999 -0.986 160 138 114
-8.0909996 4.7579999 -0.96700001 81 59 48
-8.099 4.7529998 -0.97100002 151 127 115
-8.0930004 4.7529998 -0.96700001 164 141 127
-8.0869999 4.756 -0.96399999 145 125 116
-8.1199999 4.7540002 -0.99299997 162 144 140
-8.1239996 4.7540002 -0.99400002 255 236 115
-8.1099997 4.7529998 -0.97899997 161 141 132
-8.0900002 4.7399998 -0.97000003 255 238 183
-8.0909996 4.7449999 -0.96399999 191 165 114
-8.0880003 4.7459998 -0.96200001 214 203 147
-8.0439997 4.7610002 -0.93800002 157 133 121
-8.1260004 4.7529998 -0.99599999 157 139 135
-8.1269999 4.7509999 -0.99599999 249 240 147
-8.151 4.7529998 -1.0089999 236 179 92
-8.2810001 4.7709999 -1.041 161 101 38
-8.0139999 4.7600002 -0.92900002 152 134 94
-8.0100002 4.7659998 -0.92900002 224 170 123
-7.9879999 4.7680001 -0.91399997 73 50 42
-8.2650003 4.7719998 -1.05 243 168 53
-8.243 4.737 -1.036 255 245 137
-8.2399998 4.7459998 -1.038 169 91 27
-8.2539997 4.7140002 -0.98900002 222 194 182
-8.25 4.7150002 -0.98799998 136 110 95
-8.2489996 4.6999998 -1.013 233 186 134
-8.158 4.7480001 -1.008 149 132 124
-8.1560001 4.7449999 -1.0089999 218 185 106
-8.1520004 4.7459998 -1.006 226 176 89
-8.1540003 4.7449999 -1.01 252 219 148
-8.1450005 4.7449999 -1 211 165 90
-8.1280003 4.7470002 -0.99000001 255 250 147
-8.1120005 4.7470002 -0.98299998 255 201 120
-8.1280003 4.7550001 -0.98699999 132 108 96
-8.1330004 4.7519999 -0.99299997 142 120 109
-8.1389999 4.7540002 -0.99800003 56 39 31
-8.1470003 4.7519999 -1.0039999 60 42 38
-8.1169996 4.7459998 -0.98199999 211 141 55
-8.2519999 4.7259998 -0.98799998 155 131 119
-8.3430004 4.743 -1.074 255 232 162
-8.2440004 4.697 -1.011 106 72 9
-8.3210001 4.737 -1.086 243 187 100
-8.2270002 4.7150002 -1.0369999 253 229 181
-8.224 4.711 -1.03 255 221 161
-8.2279997 4.7189999 -1.026 254 159 67
-8.2320004 4.7210002 -1.001 178 154 144
-8.1999998 4.8109999 -1.054 217 133 61
-8.1239996 4.823 -1.0880001 201 150 107
-8.1149998 4.823 -1.0880001 94 37 8
-8.1709995 4.7930002 -1.0930001 177 116 49
-8.2040005 4.8060002 -1.085 120 50 0
-8.1610003 4.7880001 -1.0829999 193 122 56
-8.2489996 4.8130002 -1.058 162 104 66
-8.2399998 4.829 -1.062 218 164 117
-8.2200003 4.763 -1.066 156 92 46
-8.224 4.7579999 -1.067 161 106 49
-8.2220001 4.7509999 -1.0599999 240 188 138
-8.2740002 4.8249998 -1.0700001 241 176 74
-8.3129997 4.7719998 -1.089 197 128 50
-8.1920004 4.7410002 -1.036 255 227 171
-8.1789999 4.7420001 -1.027 254 249 185
-8.1859999 4.7389998 -1.03 255 222 142
-8.1829996 4.7360001 -1.027 115 92 74
-8.2030001 4.7680001 -1.046 233 141 68
-8.3059998 4.7709999 -1.036 250 208 98
-8.257 4.7509999 -1.043 216 135 54
-8.3369999 4.7789998 -1.0420001 161 109 36
-8.2790003 4.7249999 -0.99900001 119 95 85
-8.1339998 4.8249998 -1.085 143 131 93
-8.1709995 4.8270001 -1.077 193 115 49
-8.1739998 4.8260002 -1.067 255 201 129
-8.198 4.822 -1.056 200 134 84
-8.0559998 4.7490001 -0.94099998 240 224 165
-8.073 4.7490001 -0.954 235 205 143
-8.1049995 4.7540002 -0.97500002 155 136 122
-8.0979996 4.744 -0.96700001 255 237 179
-8.0889997 4.743 -0.95999998 254 235 179
-8.1260004 4.7480001 -0.99400002 255 245 152
-8.1359997 4.7459998 -0.99400002 253 215 134
-8.1359997 4.7480001 -1 255 236 174
-8.1330004 4.7509999 -0.99900001 163 144 138
-8.0939999 4.7389998 -0.97100002 255 238 184
-8.0640001 4.7470002 -0.94599998 253 240 188
-8.0699997 4.7480001 -0.95099998 146 116 64
-8.066 4.7480001 -0.949 235 208 163
-8.257 4.7919998 -1.053 248 181 110
-8.0500002 4.75 -0.93800002 236 214 156
-8.0459995 4.7620001 -0.94099998 108 85 77
-8.0419998 4.75 -0.94099998 243 214 134
-8.2919998 4.7649999 -1.041 235 204 173
-8.2889996 4.7719998 -1.045 134 102 81
-8.2480001 4.7529998 -1.073 175 140 121
-8.2740002 4.7600002 -1.04 118 64 4
-8.2480001 4.7150002 -0.98799998 160 137 123
-8.257 4.7129998 -0.99000001 246 218 204
-8.151 4.7470002 -1.0089999 255 226 156
-8.1479998 4.75 -1.002 144 125 121
-8.1210003 4.7540002 -0.98400003 162 135 118
-8.2139997 4.737 -1.034 228 179 139
-8.2139997 4.7350001 -1.049 253 243 194
-8.2440004 4.7329998 -1.035 245 219 109
-8.2510004 4.8449998 -1.071 189 111 36
-8.2089996 4.829 -1.059 189 138 83
-8.1949997 4.809 -1.082 177 109 64
-8.2080002 4.7969999 -1.087 197 121 33
-8.2250004 4.757 -1.067 162 101 34
