ply
format ascii 1.0
comment PCL generated
element vertex 1086
property float x
property float y
property float z
property uchar red
property uchar green
property uchar blue
element camera 1
property float view_px
property float view_py
property float view_pz
property float x_axisx
property float x_axisy
property float x_axisz
property float y_axisx
property float y_axisy
property float y_axisz
property float z_axisx
property float z_axisy
property float z_axisz
property float focal
property float scalex
property float scaley
property float centerx
property float centery
property int viewportx
property int viewporty
property float k1
property float k2
end_header
2.1719999 10.525 -0.64499998 130 77 43
2.1760001 10.525 -0.653 196 115 59
2.1819999 10.524 -0.65100002 160 87 19
2.1619999 10.535 -0.653 173 110 79
2.224 10.662 -0.92799997 155 84 20
2.221 10.658 -0.91900003 192 158 133
2.224 10.664 -0.91399997 186 154 129
2.2260001 10.663 -0.92500001 155 77 11
2.223 10.659 -0.92299998 160 136 112
2.1630001 10.533 -0.63300002 92 60 37
2.2590001 10.579 -0.87400001 59 27 12
2.243 10.566 -0.87400001 146 109 83
2.2449999 10.579 -0.86400002 124 87 61
2.187 10.584 -0.65399998 64 17 0
2.177 10.569 -0.64700001 101 55 32
2.1830001 10.571 -0.65200001 70 17 1
2.187 10.584 -0.66299999 102 59 25
2.256 10.575 -0.66000003 65 32 17
2.26 10.572 -0.66500002 124 63 19
2.2620001 10.577 -0.67000002 153 86 43
2.26 10.573 -0.64200002 207 141 80
2.257 10.575 -0.64499998 128 66 17
2.23 10.661 -0.921 190 105 38
2.244 10.648 -0.92199999 60 10 0
2.24 10.654 -0.91399997 124 66 20
2.2479999 10.642 -0.91399997 177 166 162
2.244 10.648 -0.91399997 126 77 37
2.244 10.647 -0.91799998 77 26 0
2.2520001 10.485 -0.90499997 103 71 48
2.247 10.483 -0.91000003 130 110 99
2.243 10.483 -0.89999998 140 85 29
2.165 10.558 -0.63200003 103 61 37
2.1730001 10.546 -0.62699997 93 38 18
2.1589999 10.546 -0.634 107 46 15
2.1589999 10.56 -0.63800001 64 44 43
2.1719999 10.537 -0.62599999 168 90 28
2.181 10.539 -0.62199998 54 23 3
2.168 10.529 -0.63200003 29 9 0
2.1789999 10.533 -0.62699997 151 84 31
2.1849999 10.596 -0.583 108 59 26
2.1960001 10.608 -0.574 141 122 167
2.1849999 10.593 -0.57300001 62 20 8
2.1930001 10.601 -0.579 60 11 0
2.178 10.65 -0.60299999 103 44 12
2.1819999 10.648 -0.60299999 131 63 18
2.194 10.658 -0.60399997 50 16 4
2.244 10.546 -0.79900002 117 60 15
2.25 10.552 -0.79100001 70 24 0
2.244 10.56 -0.80000001 190 126 62
2.2360001 10.565 -0.81 108 35 0
2.253 10.573 -0.80699998 140 68 20
2.243 10.583 -0.86199999 22 5 0
2.2590001 10.592 -0.87699997 87 55 34
2.243 10.646 -0.90899998 163 119 74
2.2279999 10.659 -0.912 185 109 57
2.2349999 10.644 -0.90399998 117 108 111
2.2279999 10.654 -0.91100001 222 152 101
2.2349999 10.647 -0.91399997 40 19 0
2.244 10.567 -0.73100001 195 137 97
2.244 10.572 -0.72399998 103 55 32
2.243 10.565 -0.72000003 223 162 118
2.181 10.567 -0.77399999 61 15 2
2.1800001 10.57 -0.77200001 106 89 81
2.178 10.573 -0.77700001 195 118 48
2.1719999 10.582 -0.77600002 242 200 80
2.24 10.502 -0.92500001 155 137 133
2.2390001 10.49 -0.917 31 4 0
2.2390001 10.498 -0.91799998 38 7 2
2.237 10.506 -0.92299998 99 64 45
2.161 10.543 -0.64399999 63 22 2
2.1589999 10.542 -0.63999999 70 23 3
2.165 10.552 -0.64600003 120 64 29
2.168 10.559 -0.64899999 243 176 106
2.2019999 10.653 -0.61299998 255 197 104
2.197 10.656 -0.61799997 142 118 108
2.2079999 10.643 -0.62800002 232 137 55
2.2160001 10.66 -0.90899998 220 157 106
2.253 10.581 -0.87400001 64 35 21
2.2409999 10.636 -0.92299998 42 5 0
2.2449999 10.643 -0.926 47 4 0
2.233 10.634 -0.92900002 196 153 134
2.2379999 10.628 -0.92500001 52 15 0
2.184 10.582 -0.64700001 61 33 21
2.26 10.574 -0.63499999 109 45 1
2.253 10.573 -0.634 102 51 24
2.2650001 10.577 -0.61699998 110 63 37
2.2620001 10.577 -0.62 84 37 19
2.26 10.573 -0.63800001 135 67 6
2.2579999 10.584 -0.61699998 145 104 74
2.2550001 10.576 -0.634 61 24 8
2.23 10.661 -0.917 226 141 84
2.25 10.583 -0.79900002 110 68 43
2.2290001 10.588 -0.792 85 27 13
2.234 10.581 -0.79299998 141 104 77
2.237 10.581 -0.80299997 107 65 40
2.201 10.53 -0.801 232 159 108
2.2019999 10.53 -0.80500001 113 76 60
2.2049999 10.529 -0.80500001 224 163 119
2.223 10.557 -0.76499999 186 97 37
2.22 10.552 -0.75999999 181 92 36
2.223 10.556 -0.76099998 108 50 13
2.2279999 10.653 -0.92299998 126 101 79
2.2409999 10.486 -0.90799999 85 49 25
2.2420001 10.486 -0.90399998 136 91 52
2.1659999 10.548 -0.63200003 131 105 90
2.1919999 10.585 -0.57999998 171 123 85
2.1960001 10.6 -0.57200003 74 28 12
2.1930001 10.597 -0.57499999 70 45 40
2.23 10.533 -0.91399997 201 160 128
2.2190001 10.544 -0.91299999 183 139 100
2.224 10.543 -0.91399997 174 131 97
2.2539999 10.486 -0.903 217 162 105
2.2479999 10.487 -0.898 254 195 125
2.2539999 10.493 -0.90700001 121 109 97
2.2449999 10.493 -0.90200001 189 139 90
2.237 10.515 -0.90799999 189 127 78
2.2460001 10.497 -0.91100001 60 42 32
2.2360001 10.572 -0.81300002 107 36 0
2.2460001 10.644 -0.917 65 19 0
2.23 10.53 -0.93400002 155 139 124
2.2190001 10.544 -0.921 66 21 0
2.2279999 10.523 -0.92799997 39 11 0
2.2219999 10.541 -0.92199999 59 16 0
2.2219999 10.55 -0.92699999 59 17 0
2.23 10.523 -0.93300003 134 97 71
2.2409999 10.504 -0.92799997 41 12 0
2.2360001 10.519 -0.921 37 3 0
2.1960001 10.588 -0.92400002 86 39 11
2.1949999 10.582 -0.92299998 73 18 0
2.1930001 10.581 -0.917 151 136 133
2.1930001 10.578 -0.92400002 185 171 171
2.1949999 10.578 -0.93000001 176 107 68
2.198 10.569 -0.92199999 162 150 150
2.2390001 10.565 -0.73000002 112 49 14
2.2190001 10.553 -0.75599998 88 37 6
2.188 10.62 -0.71899998 117 77 52
2.1789999 10.629 -0.71399999 119 66 35
2.177 10.625 -0.70899999 106 48 28
2.1760001 10.63 -0.71399999 133 69 25
2.168 10.537 -0.65700001 134 81 50
2.168 10.532 -0.65200001 231 170 115
2.1760001 10.532 -0.65499997 103 23 0
2.175 10.53 -0.63800001 248 186 67
2.171 10.527 -0.64499998 167 166 180
2.165 10.546 -0.648 83 25 3
2.1700001 10.545 -0.65399998 129 101 87
2.187 10.575 -0.66000003 122 68 34
2.1949999 10.548 -0.634 108 69 54
2.1889999 10.557 -0.62699997 122 69 37
2.1930001 10.557 -0.63200003 151 97 7
2.191 10.545 -0.63200003 206 145 65
2.1860001 10.549 -0.704 147 61 12
2.198 10.562 -0.69499999 152 123 105
2.184 10.55 -0.69099998 191 111 52
2.1700001 10.653 -0.616 93 37 0
2.1589999 10.641 -0.62699997 66 39 22
2.1719999 10.652 -0.62199998 79 26 8
2.1700001 10.65 -0.616 94 37 8
2.174 10.652 -0.62599999 99 49 16
2.197 10.588 -0.92799997 75 25 0
2.2030001 10.591 -0.94700003 135 113 89
2.2539999 10.507 -0.89899999 114 91 73
2.2550001 10.514 -0.90799999 161 99 48
2.2460001 10.517 -0.90700001 255 186 124
2.2539999 10.504 -0.91100001 168 122 86
2.2509999 10.51 -0.92000002 119 85 60
2.244 10.638 -0.92000002 80 38 22
2.1600001 10.628 -0.62300003 107 65 40
2.161 10.634 -0.62699997 116 67 35
2.177 10.564 -0.62400001 106 47 15
2.1860001 10.569 -0.62400001 70 38 17
2.177 10.565 -0.62699997 118 67 36
2.174 10.557 -0.62900001 86 46 20
2.2509999 10.577 -0.67400002 146 92 56
2.2550001 10.575 -0.66600001 126 64 27
2.191 10.561 -0.63599998 254 204 79
2.188 10.564 -0.62599999 136 107 91
2.256 10.57 -0.65200001 89 52 26
2.2479999 10.569 -0.648 107 44 9
2.201 10.573 -0.62900001 73 44 26
2.2520001 10.573 -0.64099997 128 72 45
2.2539999 10.574 -0.64399999 62 29 14
2.2550001 10.575 -0.63800001 133 82 53
2.257 10.575 -0.64200002 227 161 101
2.1919999 10.592 -0.58899999 85 25 0
2.1930001 10.593 -0.583 80 29 10
2.1919999 10.605 -0.58600003 120 83 64
2.2460001 10.58 -0.80299997 143 66 10
2.2409999 10.553 -0.79100001 105 64 34
2.2379999 10.562 -0.77600002 244 186 102
2.2379999 10.562 -0.77899998 167 105 20
2.224 10.557 -0.79400003 129 59 10
2.2160001 10.551 -0.759 77 50 29
2.2149999 10.555 -0.755 109 43 8
2.2030001 10.537 -0.79799998 157 77 16
2.2060001 10.549 -0.78100002 28 15 6
2.211 10.548 -0.79799998 171 90 24
2.2060001 10.548 -0.79000002 148 59 0
2.237 10.559 -0.79100001 164 162 165
2.2320001 10.639 -0.926 202 153 121
2.22 10.624 -0.92799997 209 167 142
2.2249999 10.624 -0.92500001 41 4 0
2.1849999 10.555 -0.63 57 4 0
2.174 10.543 -0.62699997 165 85 32
2.1630001 10.556 -0.64099997 90 63 46
2.194 10.643 -0.60399997 125 57 18
2.201 10.647 -0.60399997 69 33 17
2.2420001 10.55 -0.796 255 196 135
2.244 10.547 -0.79500002 167 104 50
2.2219999 10.556 -0.79699999 212 136 76
2.2090001 10.542 -0.80199999 212 102 15
2.2490001 10.519 -0.912 129 66 23
2.2409999 10.527 -0.92000002 135 94 66
2.2360001 10.524 -0.93000001 38 9 1
2.237 10.506 -0.91900003 73 35 16
2.2309999 10.529 -0.91299999 130 86 51
2.244 10.491 -0.91600001 43 24 17
2.2290001 10.598 -0.81800002 52 5 0
2.223 10.607 -0.81800002 69 30 0
2.224 10.604 -0.82999998 183 128 97
2.2149999 10.547 -0.80800003 247 140 68
2.243 10.642 -0.90799999 135 87 47
2.221 10.555 -0.92799997 73 29 4
2.224 10.552 -0.92400002 75 29 3
2.243 10.573 -0.71899998 118 52 2
2.253 10.573 -0.792 243 201 125
2.2460001 10.608 -0.75300002 64 28 12
2.2460001 10.615 -0.75300002 92 34 0
2.2449999 10.614 -0.759 54 8 0
2.2449999 10.576 -0.792 147 87 15
2.247 10.569 -0.78500003 124 68 33
2.244 10.567 -0.78500003 224 172 71
2.1919999 10.585 -0.90600002 121 78 46
2.177 10.58 -0.77600002 219 158 75
2.1860001 10.529 -0.639 134 48 1
2.181 10.53 -0.63499999 199 107 42
2.1830001 10.532 -0.63099998 126 45 0
2.1689999 10.53 -0.64600003 211 147 86
2.1960001 10.541 -0.70999998 229 151 89
2.1860001 10.548 -0.70999998 132 45 0
2.1819999 10.549 -0.69599998 84 36 13
2.1789999 10.526 -0.65399998 252 176 114
2.1819999 10.57 -0.74299997 127 50 8
2.194 10.588 -0.74400002 131 85 59
2.1900001 10.584 -0.73100001 149 112 83
2.1900001 10.58 -0.73100001 128 36 0
2.2509999 10.569 -0.68199998 119 55 11
2.2520001 10.577 -0.67799997 85 40 11
2.257 10.574 -0.67400002 124 60 16
2.2030001 10.56 -0.71399999 100 47 16
2.201 10.568 -0.69499999 72 29 12
2.197 10.546 -0.71100003 77 20 0
2.1900001 10.628 -0.72000003 74 29 6
2.1830001 10.631 -0.71200001 61 9 0
2.178 10.65 -0.61500001 93 42 13
2.1860001 10.655 -0.60799998 219 148 70
2.2179999 10.657 -0.917 227 147 86
2.2160001 10.655 -0.912 205 126 69
2.2550001 10.592 -0.87599999 55 18 0
2.253 10.503 -0.90499997 93 70 52
2.2460001 10.508 -0.90100002 210 148 87
2.217 10.576 -0.949 82 51 31
2.2149999 10.579 -0.95599997 77 61 38
2.2190001 10.571 -0.95499998 49 34 13
2.217 10.612 -0.91799998 197 147 122
2.211 10.615 -0.926 64 40 16
2.2049999 10.599 -0.91600001 86 42 15
2.168 10.633 -0.634 117 82 60
2.174 10.572 -0.63599998 127 108 101
2.188 10.571 -0.65899998 108 51 21
2.191 10.577 -0.64999998 146 135 139
2.194 10.578 -0.66100001 146 100 74
2.181 10.545 -0.67299998 151 83 38
2.175 10.551 -0.65700001 114 73 45
2.177 10.543 -0.65799999 122 66 29
2.184 10.563 -0.62599999 134 97 68
2.181 10.563 -0.62599999 153 130 116
2.253 10.573 -0.653 155 89 54
2.1960001 10.604 -0.61400002 176 151 144
2.1930001 10.594 -0.60000002 99 34 0
2.2 10.595 -0.62199998 105 67 44
2.1960001 10.592 -0.616 118 49 16
2.194 10.588 -0.61400002 111 60 29
2.1860001 10.585 -0.61199999 85 43 27
2.1900001 10.597 -0.602 194 182 182
2.1960001 10.604 -0.58600003 148 124 176
2.1930001 10.593 -0.57999998 63 17 2
2.1700001 10.627 -0.61299998 87 56 35
2.187 10.628 -0.60100001 99 49 16
2.184 10.623 -0.61000001 59 30 26
2.1849999 10.597 -0.58899999 122 66 29
2.1900001 10.598 -0.59399998 193 175 171
2.1919999 10.613 -0.60299999 177 153 143
2.223 10.551 -0.92000002 156 107 67
2.2249999 10.567 -0.91500002 120 47 2
2.2449999 10.578 -0.80599999 166 84 26
2.2309999 10.614 -0.75599998 101 60 32
2.227 10.606 -0.76999998 45 11 1
2.223 10.617 -0.76300001 67 29 10
2.1960001 10.631 -0.72000003 138 50 2
2.197 10.631 -0.72500002 114 65 33
2.2249999 10.604 -0.773 57 24 7
2.2379999 10.584 -0.76800001 121 79 54
2.221 10.607 -0.773 43 13 3
2.224 10.604 -0.77399999 199 117 93
2.243 10.577 -0.79299998 100 64 38
2.188 10.544 -0.78899997 176 111 79
2.198 10.547 -0.787 132 62 11
2.194 10.539 -0.796 187 116 54
2.1860001 10.571 -0.77200001 43 3 0
2.1860001 10.576 -0.77700001 68 21 5
2.188 10.568 -0.77200001 55 15 5
2.198 10.575 -0.77100003 80 44 32
2.1900001 10.586 -0.778 53 26 19
2.223 10.558 -0.759 181 100 57
2.2249999 10.562 -0.75800002 61 19 0
2.21 10.55 -0.79500002 194 94 18
2.201 10.536 -0.80199999 167 91 39
2.2019999 10.538 -0.79699999 132 93 76
2.197 10.542 -0.79400003 249 174 106
2.2030001 10.543 -0.79500002 252 169 63
2.2379999 10.568 -0.80900002 138 64 3
2.237 10.642 -0.92299998 64 13 0
2.2320001 10.657 -0.91500002 50 29 10
2.1989999 10.654 -0.60799998 74 18 0
2.1860001 10.647 -0.60399997 142 70 20
2.1670001 10.641 -0.611 125 83 58
2.2449999 10.549 -0.79299998 67 19 0
2.2060001 10.536 -0.80299997 189 81 6
2.2360001 10.556 -0.80000001 142 79 44
2.2290001 10.564 -0.81300002 147 64 10
2.2279999 10.562 -0.80800003 129 52 0
2.2260001 10.57 -0.81800002 74 37 18
2.2290001 10.57 -0.89499998 101 40 11
2.223 10.57 -0.90700001 216 132 72
2.223 10.57 -0.903 176 95 42
2.2390001 10.526 -0.92699999 35 7 4
2.234 10.527 -0.92199999 37 7 0
2.2349999 10.528 -0.91799998 99 59 33
2.23 10.528 -0.921 44 10 0
2.2309999 10.524 -0.92500001 28 0 0
2.227 10.531 -0.917 74 34 9
2.1830001 10.521 -0.87199998 100 59 31
2.1800001 10.531 -0.86400002 54 27 10
2.1760001 10.513 -0.85600001 88 46 22
2.1830001 10.54 -0.86900002 144 103 75
2.1860001 10.526 -0.87199998 157 120 101
2.247 10.499 -0.91600001 46 14 1
2.2360001 10.519 -0.917 70 30 5
2.2409999 10.518 -0.92199999 48 10 0
2.2 10.544 -0.80299997 122 58 12
2.1930001 10.549 -0.79900002 108 80 59
2.2509999 10.594 -0.90200001 102 45 34
2.256 10.595 -0.889 53 18 0
2.2420001 10.595 -0.89899999 180 167 159
2.2479999 10.594 -0.889 77 38 9
2.2149999 10.579 -0.93900001 99 80 48
2.2119999 10.589 -0.94800001 66 46 21
2.2190001 10.599 -0.93900001 134 109 104
2.217 10.582 -0.94800001 129 109 82
2.2409999 10.577 -0.74699998 67 20 2
2.2390001 10.588 -0.745 94 57 30
2.2520001 10.57 -0.787 191 141 68
2.178 10.532 -0.85600001 31 8 2
2.1830001 10.526 -0.85100001 138 92 68
2.1800001 10.521 -0.85500002 149 107 82
2.2160001 10.546 -0.91299999 173 128 86
2.1949999 10.577 -0.917 74 22 0
2.187 10.609 -0.72899997 63 17 4
2.191 10.609 -0.72399998 90 80 79
2.178 10.592 -0.722 133 100 83
2.198 10.627 -0.796 181 137 112
2.1989999 10.628 -0.78799999 57 20 4
2.2030001 10.631 -0.80199999 121 78 59
2.198 10.627 -0.792 103 65 46
2.197 10.61 -0.75099999 90 18 0
2.1919999 10.613 -0.74299997 43 0 0
2.198 10.619 -0.75099999 75 6 0
2.198 10.613 -0.75999999 81 53 32
2.194 10.606 -0.77100003 53 30 22
2.201 10.59 -0.75199997 157 76 21
2.198 10.595 -0.745 86 33 0
2.2030001 10.602 -0.74900001 166 76 14
2.1889999 10.582 -0.72799999 72 30 14
2.1670001 10.533 -0.64099997 188 119 62
2.1849999 10.554 -0.69599998 137 55 0
2.188 10.558 -0.69499999 103 53 30
2.1930001 10.572 -0.74900001 141 60 7
2.2 10.572 -0.75599998 67 26 4
2.2550001 10.569 -0.66299999 100 63 37
2.21 10.58 -0.70999998 164 93 47
2.2520001 10.577 -0.68199998 63 25 4
2.253 10.572 -0.68000001 100 29 0
2.2379999 10.591 -0.73100001 137 79 33
2.194 10.568 -0.69700003 91 40 19
2.2049999 10.557 -0.722 99 39 2
2.1960001 10.542 -0.713 215 134 69
2.204 10.567 -0.722 241 150 77
2.1819999 10.57 -0.72600001 130 45 14
2.1819999 10.57 -0.72299999 117 35 0
2.174 10.552 -0.727 113 61 37
2.1860001 10.584 -0.722 104 59 36
2.1930001 10.623 -0.73100001 105 60 41
2.174 10.651 -0.616 102 42 14
2.1860001 10.655 -0.60600001 162 137 132
2.221 10.601 -0.94199997 96 75 44
2.243 10.583 -0.86500001 94 44 37
2.2090001 10.612 -0.92799997 207 163 136
2.214 10.606 -0.94199997 103 79 51
2.244 10.511 -0.90499997 220 154 94
2.223 10.556 -0.87900001 118 107 105
2.2249999 10.559 -0.88800001 124 110 101
2.2190001 10.557 -0.884 83 41 17
2.211 10.592 -0.94999999 138 116 102
2.244 10.633 -0.91500002 109 64 35
2.237 10.628 -0.921 47 8 0
2.217 10.617 -0.926 62 21 0
2.2219999 10.601 -0.93300003 133 113 78
2.237 10.632 -0.90499997 147 101 68
2.217 10.653 -0.91100001 181 146 126
2.2019999 10.587 -0.685 127 98 82
2.217 10.642 -0.69599998 235 170 138
2.2130001 10.643 -0.69599998 104 67 40
2.2179999 10.651 -0.70499998 183 110 57
2.2160001 10.645 -0.70099998 89 78 74
2.171 10.644 -0.62699997 148 117 99
2.165 10.63 -0.62900001 125 93 80
2.177 10.632 -0.70599997 106 56 33
2.1760001 10.634 -0.69999999 50 16 7
2.175 10.566 -0.63300002 85 58 41
2.187 10.583 -0.63 126 57 15
2.1860001 10.594 -0.61900002 136 69 16
2.1849999 10.597 -0.61299998 129 60 5
2.174 10.55 -0.62900001 151 77 30
2.194 10.58 -0.63499999 153 74 0
2.1830001 10.549 -0.68699998 117 41 0
2.1849999 10.547 -0.66900003 73 43 32
2.181 10.548 -0.68800002 54 12 0
2.1849999 10.553 -0.68199998 115 42 1
2.1819999 10.558 -0.69599998 149 84 44
2.184 10.565 -0.69999999 85 65 58
2.1889999 10.556 -0.70300001 147 59 13
2.1819999 10.539 -0.66100001 112 47 7
2.257 10.575 -0.63800001 228 159 100
2.194 10.58 -0.62 63 15 1
2.1949999 10.598 -0.57499999 80 42 23
2.1930001 10.595 -0.57700002 66 24 8
2.201 10.613 -0.61500001 167 100 55
2.197 10.584 -0.64999998 154 101 173
2.2 10.586 -0.65700001 99 53 30
2.1919999 10.608 -0.611 87 52 33
2.21 10.617 -0.829 176 124 77
2.21 10.617 -0.84500003 89 24 4
2.22 10.611 -0.84100002 89 14 0
2.184 10.524 -0.847 150 117 98
2.2160001 10.584 -0.89499998 122 58 20
2.234 10.584 -0.89200002 132 118 117
2.223 10.572 -0.90100002 97 39 28
2.2379999 10.584 -0.90899998 167 130 104
2.2490001 10.578 -0.80699998 120 47 0
2.1919999 10.599 -0.79100001 171 84 17
2.1889999 10.608 -0.78399998 175 113 40
2.2149999 10.608 -0.778 62 32 21
2.2090001 10.617 -0.77100003 55 16 0
2.234 10.604 -0.75800002 135 75 41
2.224 10.609 -0.74800003 120 89 71
2.2290001 10.605 -0.74599999 109 69 44
2.234 10.603 -0.73400003 185 137 115
2.211 10.599 -0.73400003 86 39 23
2.201 10.637 -0.71499997 84 37 11
2.2160001 10.612 -0.78899997 28 0 0
2.24 10.564 -0.778 109 53 20
2.24 10.567 -0.77399999 233 180 102
2.2160001 10.56 -0.773 80 18 0
2.2349999 10.563 -0.77499998 255 191 113
2.2349999 10.564 -0.77899998 246 179 111
2.1930001 10.545 -0.79000002 84 48 26
2.197 10.566 -0.759 90 55 36
2.1949999 10.54 -0.71600002 189 113 53
2.184 10.565 -0.78200001 120 45 6
2.184 10.566 -0.78600001 128 53 13
2.1849999 10.565 -0.77899998 67 18 3
2.207 10.554 -0.78600001 87 20 0
2.21 10.558 -0.77399999 132 51 8
2.2019999 10.545 -0.79100001 255 181 116
2.2079999 10.547 -0.79699999 217 118 24
2.204 10.546 -0.792 201 112 22
2.2090001 10.553 -0.76099998 134 92 67
2.2049999 10.556 -0.75300002 137 122 119
2.2260001 10.563 -0.79100001 108 41 12
2.2279999 10.587 -0.79299998 70 32 23
2.1849999 10.565 -0.77499998 47 3 0
2.175 10.647 -0.60600001 123 61 20
2.2030001 10.639 -0.62900001 216 133 39
2.2079999 10.632 -0.62699997 176 125 218
2.1900001 10.655 -0.60900003 237 160 78
2.177 10.634 -0.60399997 83 28 0
2.2190001 10.555 -0.80800003 252 143 61
2.224 10.577 -0.83099997 171 142 147
2.221 10.577 -0.81699997 75 32 26
2.2420001 10.574 -0.912 179 119 82
2.23 10.566 -0.89099997 61 13 0
2.234 10.574 -0.89300001 79 25 1
2.221 10.582 -0.917 73 15 0
2.201 10.591 -0.91299999 85 40 11
2.2090001 10.588 -0.89399999 174 122 82
2.2279999 10.546 -0.92000002 107 62 33
2.187 10.541 -0.85699999 61 34 15
2.1889999 10.545 -0.85299999 172 94 58
2.188 10.544 -0.85600001 210 128 88
2.233 10.53 -0.91799998 108 68 43
2.1800001 10.525 -0.86299998 64 15 8
2.1800001 10.516 -0.861 84 47 21
2.25 10.497 -0.912 59 23 0
2.2409999 10.495 -0.91799998 28 1 0
2.244 10.52 -0.91500002 153 101 64
2.2320001 10.572 -0.86799997 173 164 165
2.2160001 10.549 -0.81199998 208 107 39
2.197 10.582 -0.92900002 71 50 19
2.237 10.596 -0.73500001 212 158 114
2.2360001 10.598 -0.73000002 92 35 8
2.24 10.58 -0.73100001 110 43 1
2.244 10.574 -0.77399999 245 193 135
2.191 10.596 -0.73900002 79 32 4
2.188 10.605 -0.73500001 134 91 59
2.1789999 10.592 -0.79799998 184 133 67
2.1730001 10.593 -0.80000001 248 223 139
2.1789999 10.6 -0.79699999 253 198 108
2.1849999 10.594 -0.79500002 43 23 16
2.1889999 10.577 -0.78399998 60 32 11
2.1900001 10.572 -0.792 86 18 0
2.1960001 10.624 -0.80299997 99 61 42
2.2 10.624 -0.80400002 75 32 16
2.194 10.62 -0.79799998 74 57 50
2.1789999 10.598 -0.79900002 136 95 16
2.187 10.594 -0.79900002 95 31 0
2.1789999 10.603 -0.80000001 99 63 51
2.1800001 10.604 -0.796 69 29 17
2.1889999 10.614 -0.78200001 255 204 117
2.1860001 10.593 -0.727 255 230 202
2.1889999 10.601 -0.72799999 171 134 105
2.1789999 10.526 -0.64399999 224 138 15
2.187 10.528 -0.64899999 204 126 44
2.1900001 10.527 -0.64600003 200 123 45
2.1960001 10.537 -0.64600003 119 36 0
2.1800001 10.529 -0.63800001 156 58 0
2.194 10.545 -0.72399998 144 63 7
2.194 10.545 -0.72100002 161 76 11
2.187 10.549 -0.72500002 92 38 12
2.171 10.547 -0.73299998 56 36 29
2.1949999 10.536 -0.634 124 52 4
2.2550001 10.569 -0.66100001 46 22 10
2.253 10.573 -0.67400002 133 70 17
2.256 10.573 -0.67500001 132 96 72
2.207 10.574 -0.72100002 208 121 50
2.233 10.568 -0.72500002 123 63 29
2.211 10.584 -0.71899998 177 123 89
2.233 10.578 -0.72600001 180 120 83
2.2 10.57 -0.708 188 160 139
2.1860001 10.572 -0.72100002 141 122 118
2.187 10.562 -0.70899999 136 109 90
2.197 10.547 -0.71899998 121 57 19
2.223 10.571 -0.74900001 68 44 32
2.2130001 10.558 -0.75199997 143 79 41
2.2 10.558 -0.741 110 55 25
2.2090001 10.56 -0.75099999 119 47 7
2.1789999 10.561 -0.736 136 59 15
2.177 10.555 -0.70700002 124 80 53
2.1789999 10.556 -0.72000003 93 39 13
2.1900001 10.615 -0.73000002 52 32 25
2.1900001 10.611 -0.736 61 13 3
2.1760001 10.65 -0.61699998 69 37 22
2.2409999 10.591 -0.889 54 16 0
2.2090001 10.615 -0.85799998 65 12 0
2.2049999 10.614 -0.86699998 68 38 27
2.204 10.617 -0.86900002 255 197 143
2.2090001 10.602 -0.926 99 54 25
2.2420001 10.632 -0.91000003 117 71 38
2.224 10.618 -0.92400002 114 76 53
2.2320001 10.63 -0.912 65 49 24
2.257 10.586 -0.87699997 21 7 0
2.2550001 10.587 -0.889 100 48 37
2.1800001 10.632 -0.704 43 4 0
2.1800001 10.632 -0.70499998 93 34 0
2.201 10.586 -0.662 64 22 0
2.2030001 10.586 -0.69400001 191 133 96
2.1789999 10.627 -0.699 70 27 10
2.187 10.641 -0.64499998 131 71 34
2.1830001 10.632 -0.63700002 230 175 119
2.1719999 10.624 -0.63499999 86 44 20
2.1730001 10.64 -0.63 92 27 0
2.1960001 10.613 -0.639 164 111 189
2.2019999 10.615 -0.62300003 185 112 69
2.2079999 10.599 -0.639 254 186 103
2.1849999 10.553 -0.66900003 98 29 0
2.1789999 10.549 -0.65700001 127 109 99
2.1830001 10.55 -0.68400002 113 39 0
2.181 10.544 -0.66299999 104 33 3
2.1849999 10.533 -0.65100002 200 124 75
2.1789999 10.561 -0.648 141 60 0
2.2 10.594 -0.64999998 170 137 130
2.2090001 10.602 -0.66399997 167 112 196
2.204 10.589 -0.64200002 255 208 97
2.1930001 10.595 -0.58700001 83 27 4
2.1900001 10.6 -0.611 192 183 188
2.1989999 10.631 -0.62 212 112 24
2.2 10.58 -0.62599999 126 55 0
2.201 10.588 -0.62199998 171 103 58
2.2030001 10.593 -0.63 224 140 76
2.194 10.614 -0.60500002 60 26 1
2.1949999 10.622 -0.61400002 153 109 184
2.198 10.637 -0.60799998 103 39 1
2.2 10.611 -0.61799997 201 129 81
2.198 10.632 -0.616 91 24 0
2.2019999 10.577 -0.80900002 116 46 0
2.2049999 10.568 -0.81400001 102 49 17
2.2049999 10.568 -0.815 156 133 119
2.1900001 10.56 -0.80199999 124 102 89
2.188 10.549 -0.79699999 154 99 68
2.2190001 10.562 -0.838 90 51 22
2.2179999 10.566 -0.83099997 80 45 25
2.2249999 10.581 -0.838 75 35 9
2.211 10.546 -0.84799999 142 114 100
2.2149999 10.541 -0.838 255 206 157
2.211 10.548 -0.84299999 78 42 20
2.201 10.591 -0.921 69 22 2
2.2030001 10.593 -0.91799998 69 23 0
2.22 10.571 -0.93800002 102 83 51
2.221 10.573 -0.94700003 64 47 21
2.2550001 10.585 -0.90600002 170 159 163
2.243 10.58 -0.91799998 193 171 160
2.253 10.573 -0.91600001 124 102 91
2.227 10.596 -0.82599998 78 27 10
2.221 10.587 -0.83899999 199 131 86
2.207 10.59 -0.76099998 124 109 102
2.2130001 10.61 -0.77200001 58 26 15
2.2320001 10.608 -0.75199997 207 148 104
2.2360001 10.586 -0.76599997 104 35 2
2.1949999 10.62 -0.76999998 52 8 0
2.1949999 10.625 -0.78299999 58 19 2
2.1989999 10.628 -0.77600002 63 16 0
2.207 10.624 -0.76499999 71 26 3
2.2049999 10.62 -0.76300001 137 127 128
2.2 10.62 -0.745 43 5 0
2.2160001 10.586 -0.736 95 44 17
2.2019999 10.617 -0.73900002 66 43 35
2.2049999 10.605 -0.74900001 63 30 21
2.2079999 10.622 -0.73500001 145 113 90
2.1789999 10.632 -0.708 42 5 0
2.1930001 10.559 -0.75300002 113 96 89
2.175 10.551 -0.69599998 132 117 112
2.194 10.554 -0.847 127 54 13
2.198 10.538 -0.83700001 123 64 22
2.198 10.552 -0.84399998 124 45 4
2.1989999 10.561 -0.838 147 64 24
2.2 10.562 -0.83399999 40 12 0
2.1989999 10.568 -0.83600003 175 138 119
2.2049999 10.548 -0.78799999 191 120 68
2.2420001 10.575 -0.78100002 85 21 0
2.2219999 10.598 -0.81300002 48 6 0
2.2179999 10.59 -0.80599999 78 29 14
2.1930001 10.554 -0.77399999 100 64 40
2.177 10.649 -0.60600001 149 85 37
2.1659999 10.624 -0.62300003 131 81 44
2.1700001 10.637 -0.60900003 140 123 103
2.1849999 10.641 -0.60299999 165 93 45
2.1960001 10.65 -0.62699997 81 43 24
2.188 10.643 -0.64200002 118 49 7
2.201 10.642 -0.61699998 230 143 46
2.2360001 10.581 -0.917 190 171 165
2.23 10.571 -0.92199999 134 113 82
2.1849999 10.547 -0.86000001 149 127 116
2.1960001 10.55 -0.847 178 104 67
2.1889999 10.521 -0.87800002 124 79 48
2.181 10.521 -0.86299998 59 17 1
2.2460001 10.494 -0.91500002 44 12 0
2.2509999 10.502 -0.91299999 60 22 0
2.224 10.56 -0.81 228 131 60
2.2149999 10.574 -0.93599999 171 140 120
2.214 10.573 -0.93000001 84 28 5
2.224 10.557 -0.921 212 159 115
2.2379999 10.583 -0.72799999 133 67 17
2.2360001 10.578 -0.77499998 122 94 73
2.2420001 10.571 -0.73900002 115 59 34
2.2390001 10.571 -0.74199998 68 17 0
2.2379999 10.569 -0.73699999 65 7 0
2.1800001 10.529 -0.86000001 82 25 5
2.1989999 10.575 -0.91399997 73 21 0
2.1919999 10.627 -0.722 68 23 2
2.177 10.579 -0.77899998 219 158 69
2.221 10.602 -0.80500001 76 32 19
2.2030001 10.614 -0.80000001 61 29 18
2.1989999 10.614 -0.83600003 121 60 13
2.2030001 10.617 -0.84100002 103 44 14
2.194 10.61 -0.79900002 202 118 48
2.1949999 10.605 -0.79699999 227 137 74
2.2090001 10.596 -0.81599998 41 22 7
2.1900001 10.601 -0.79900002 128 48 0
2.1930001 10.594 -0.80000001 213 145 100
2.1930001 10.6 -0.76999998 155 132 116
2.1860001 10.527 -0.64499998 244 158 59
2.1989999 10.552 -0.72799999 95 40 10
2.1889999 10.548 -0.727 137 63 16
2.1760001 10.554 -0.72299999 104 53 26
2.181 10.56 -0.727 219 124 68
2.256 10.569 -0.662 59 25 13
2.2130001 10.579 -0.74000001 152 72 19
2.1960001 10.564 -0.74599999 89 52 34
2.1930001 10.568 -0.745 160 123 94
2.224 10.572 -0.736 79 55 45
2.233 10.568 -0.73699999 112 62 35
2.2320001 10.569 -0.736 78 32 9
2.1830001 10.55 -0.704 115 37 0
2.181 10.565 -0.745 113 32 0
2.191 10.612 -0.73699999 89 56 41
2.1960001 10.621 -0.73799998 103 61 39
2.187 10.609 -0.73000002 70 24 8
2.1889999 10.611 -0.727 90 45 24
2.21 10.608 -0.85699999 53 11 0
2.2079999 10.619 -0.85299999 132 72 35
2.214 10.577 -0.93000001 193 173 136
2.2090001 10.593 -0.91399997 166 115 84
2.2119999 10.604 -0.92299998 87 42 13
2.217 10.565 -0.86799997 104 71 54
2.224 10.573 -0.861 108 73 53
2.2249999 10.584 -0.85299999 143 117 100
2.2309999 10.579 -0.86500001 86 33 27
2.223 10.598 -0.829 102 51 22
2.2049999 10.585 -0.89700001 154 106 68
2.2079999 10.578 -0.88700002 84 52 31
2.2019999 10.575 -0.89499998 114 96 74
2.2030001 10.611 -0.86799997 95 46 14
2.2030001 10.604 -0.86400002 35 18 11
2.197 10.616 -0.87099999 156 94 37
2.2 10.53 -0.85299999 188 143 101
2.2049999 10.537 -0.85799998 77 49 27
2.1930001 10.52 -0.86500001 90 53 27
2.207 10.543 -0.86000001 93 64 48
2.2049999 10.542 -0.87 75 33 8
2.24 10.584 -0.91600001 116 92 64
2.2460001 10.582 -0.91100001 167 134 115
2.247 10.578 -0.898 158 157 163
2.247 10.577 -0.91100001 182 176 178
2.2479999 10.582 -0.89099997 141 141 149
2.204 10.595 -0.66399997 126 83 51
2.2130001 10.586 -0.708 125 62 29
2.22 10.591 -0.70599997 55 3 0
2.1919999 10.58 -0.69599998 77 28 0
2.2149999 10.644 -0.70999998 184 97 20
2.21 10.641 -0.71100003 175 87 15
2.2149999 10.645 -0.70700002 240 160 89
2.2130001 10.639 -0.71100003 243 156 87
2.2060001 10.638 -0.71399999 245 151 87
2.1889999 10.604 -0.704 157 134 126
2.1830001 10.631 -0.708 62 6 0
2.1860001 10.591 -0.63700002 87 32 2
2.1930001 10.59 -0.64499998 82 34 12
2.178 10.651 -0.63300002 131 128 137
2.1889999 10.629 -0.67500001 102 42 8
2.187 10.625 -0.667 128 76 28
2.1900001 10.624 -0.67400002 210 143 98
2.1919999 10.627 -0.67000002 85 48 29
2.1930001 10.633 -0.68000001 117 53 17
2.1949999 10.63 -0.66600001 154 99 166
2.194 10.599 -0.648 76 43 28
2.197 10.599 -0.65499997 178 127 96
2.184 10.552 -0.67199999 101 33 0
2.184 10.544 -0.64899999 175 130 99
2.1889999 10.586 -0.62400001 173 104 47
2.2030001 10.579 -0.63300002 180 121 55
2.201 10.583 -0.63 207 135 63
2.201 10.635 -0.62 99 41 4
2.197 10.573 -0.80000001 140 67 16
2.2030001 10.579 -0.80699998 162 84 22
2.2049999 10.54 -0.80400002 187 88 5
2.2390001 10.573 -0.86900002 147 142 149
2.2219999 10.575 -0.85299999 77 27 20
2.1989999 10.618 -0.75 49 10 0
2.2019999 10.616 -0.75800002 84 45 16
2.2149999 10.611 -0.76800001 59 25 16
2.2349999 10.603 -0.74599999 154 105 90
2.1919999 10.623 -0.778 66 24 2
2.1900001 10.616 -0.78600001 255 203 109
2.211 10.614 -0.72299999 103 75 61
2.207 10.632 -0.71499997 146 52 0
2.207 10.594 -0.72299999 62 37 30
2.2049999 10.608 -0.72100002 103 68 48
2.204 10.607 -0.73299998 53 11 0
2.2090001 10.591 -0.72399998 98 65 48
2.221 10.587 -0.78200001 59 15 6
2.2019999 10.621 -0.77899998 72 37 17
2.2309999 10.562 -0.76800001 101 38 3
2.2309999 10.567 -0.76599997 183 93 33
2.1889999 10.547 -0.73000002 121 46 7
2.1919999 10.547 -0.727 108 33 0
2.1900001 10.55 -0.745 108 40 3
2.1830001 10.548 -0.75300002 98 27 0
2.174 10.555 -0.74000001 88 33 12
2.175 10.553 -0.73100001 84 32 10
2.1819999 10.561 -0.74699998 146 64 16
2.198 10.557 -0.74400002 92 31 0
2.1819999 10.549 -0.69199997 86 41 22
2.2179999 10.599 -0.81599998 52 11 0
2.2179999 10.606 -0.78600001 77 32 13
2.22 10.61 -0.82200003 180 135 104
2.2079999 10.57 -0.82800001 60 30 19
2.2090001 10.579 -0.82800001 154 132 121
2.198 10.553 -0.77700001 147 74 41
2.197 10.634 -0.63099998 250 194 97
2.1800001 10.622 -0.62199998 140 124 108
2.191 10.636 -0.60299999 97 36 7
2.1900001 10.645 -0.63 122 98 88
2.221 10.587 -0.81900001 59 10 0
2.2360001 10.58 -0.92000002 170 90 41
2.1889999 10.551 -0.87 62 31 13
2.201 10.548 -0.84100002 156 125 107
2.1860001 10.518 -0.87099999 114 66 43
2.2090001 10.541 -0.84100002 170 116 69
2.214 10.549 -0.83099997 202 133 78
2.217 10.557 -0.829 204 133 81
2.207 10.54 -0.83399999 78 40 17
2.2030001 10.542 -0.83499998 177 110 58
2.217 10.568 -0.92900002 132 112 77
2.221 10.564 -0.92500001 98 42 9
2.2179999 10.562 -0.92000002 133 70 26
2.198 10.594 -0.745 109 73 51
2.2360001 10.571 -0.74400002 85 30 9
2.233 10.572 -0.76499999 145 64 19
2.24 10.573 -0.773 246 179 109
2.2290001 10.58 -0.77600002 123 87 61
2.2449999 10.575 -0.78100002 108 72 40
2.2420001 10.569 -0.73500001 132 71 40
2.1949999 10.568 -0.75099999 209 135 96
2.2130001 10.567 -0.92000002 113 48 8
2.2149999 10.569 -0.92500001 99 45 11
2.2030001 10.574 -0.90200001 64 12 0
2.2079999 10.568 -0.89399999 66 34 9
2.194 10.624 -0.73000002 80 38 16
2.223 10.598 -0.796 93 42 21
2.1989999 10.594 -0.77200001 64 26 7
2.2060001 10.615 -0.83700001 120 57 14
2.187 10.604 -0.79799998 70 37 22
2.197 10.552 -0.73000002 137 59 11
2.191 10.552 -0.73500001 99 25 0
2.178 10.559 -0.73199999 134 52 12
2.234 10.568 -0.73299998 125 70 39
2.1930001 10.563 -0.741 77 36 18
2.224 10.571 -0.74000001 78 22 0
2.23 10.575 -0.73100001 96 48 25
2.221 10.603 -0.84399998 100 55 49
2.2049999 10.619 -0.85900003 56 27 13
2.201 10.61 -0.85900003 69 19 0
2.2260001 10.572 -0.92000002 171 154 147
2.2090001 10.562 -0.85699999 117 86 68
2.223 10.566 -0.87300003 201 132 90
2.21 10.606 -0.85900003 52 24 13
2.211 10.58 -0.88499999 122 67 28
2.2460001 10.573 -0.88300002 149 148 154
2.201 10.605 -0.861 59 7 0
2.1989999 10.609 -0.85500002 103 65 18
2.204 10.592 -0.91399997 100 83 55
2.1949999 10.525 -0.85399997 57 32 25
2.191 10.524 -0.85799998 67 22 1
2.2060001 10.545 -0.86500001 165 129 115
2.194 10.536 -0.87300003 108 77 56
2.234 10.584 -0.89099997 143 137 137
2.2460001 10.583 -0.87800002 97 88 89
2.2 10.586 -0.66500002 91 53 32
2.2049999 10.583 -0.70300001 199 130 71
2.1989999 10.577 -0.69800001 124 57 5
2.207 10.594 -0.70999998 154 131 123
2.2060001 10.633 -0.71700001 94 44 19
2.2030001 10.631 -0.72100002 206 104 40
2.204 10.627 -0.71700001 137 42 0
2.2 10.617 -0.71700001 190 96 32
2.1930001 10.599 -0.69999999 111 75 43
2.198 10.6 -0.69499999 179 159 152
2.1930001 10.608 -0.70499998 73 37 11
2.1949999 10.603 -0.70999998 170 132 109
2.191 10.589 -0.70700002 238 159 93
2.1919999 10.632 -0.67400002 54 15 0
2.1930001 10.592 -0.65399998 171 118 87
2.1900001 10.597 -0.62699997 168 163 169
2.2049999 10.598 -0.63499999 237 155 82
2.1889999 10.61 -0.63700002 145 138 145
2.184 10.551 -0.67799997 167 97 48
2.1830001 10.55 -0.69999999 117 66 39
2.1860001 10.549 -0.648 168 121 173
2.2049999 10.637 -0.62199998 180 86 12
2.2079999 10.582 -0.82200003 104 29 6
2.198 10.595 -0.82999998 86 55 37
2.2 10.558 -0.80900002 124 95 77
2.2049999 10.562 -0.815 70 14 0
2.247 10.579 -0.91299999 88 52 30
2.2409999 10.585 -0.90600002 154 149 153
2.2249999 10.612 -0.75800002 69 24 1
2.2320001 10.6 -0.75400001 77 25 12
2.2019999 10.625 -0.76800001 62 16 1
2.2030001 10.612 -0.73400003 53 13 5
2.207 10.582 -0.73000002 118 68 45
2.1960001 10.569 -0.722 84 24 0
2.201 10.634 -0.71799999 152 49 0
2.21 10.612 -0.77999997 34 4 0
2.2030001 10.625 -0.79100001 88 28 0
2.1789999 10.552 -0.74000001 116 61 31
2.1849999 10.548 -0.73100001 90 51 18
2.1860001 10.552 -0.745 94 31 0
2.1800001 10.56 -0.745 63 28 9
2.1860001 10.558 -0.74800003 101 40 11
2.191 10.551 -0.745 64 39 34
2.2049999 10.548 -0.80699998 252 165 68
2.2049999 10.554 -0.81300002 111 69 44
2.1900001 10.566 -0.79400003 117 51 17
2.211 10.557 -0.76700002 95 26 0
2.204 10.556 -0.76899999 98 34 7
2.217 10.558 -0.76499999 191 97 45
2.2219999 10.602 -0.81300002 124 104 93
2.2019999 10.613 -0.84299999 77 20 0
2.2160001 10.568 -0.84299999 94 62 41
2.1960001 10.557 -0.764 120 45 13
2.1659999 10.623 -0.62900001 100 50 25
2.1930001 10.603 -0.62300003 86 51 32
2.244 10.576 -0.917 112 50 9
2.2079999 10.56 -0.884 126 90 74
2.1900001 10.553 -0.85799998 60 24 8
2.1930001 10.581 -0.90499997 106 65 37
2.197 10.556 -0.85299999 109 39 3
2.217 10.565 -0.89399999 67 35 12
2.211 10.569 -0.89899999 166 115 84
2.2149999 10.569 -0.90600002 187 168 161
2.2149999 10.569 -0.89999998 162 84 35
2.1860001 10.515 -0.86699998 61 29 8
2.204 10.537 -0.847 85 35 2
2.1860001 10.536 -0.85600001 33 10 4
2.1849999 10.523 -0.85699999 113 69 42
2.204 10.578 -0.84299999 61 35 20
2.1930001 10.6 -0.83899999 152 117 97
2.2130001 10.544 -0.83399999 161 100 55
2.2090001 10.546 -0.833 150 77 24
2.204 10.547 -0.83200002 190 106 44
2.2160001 10.57 -0.93000001 72 21 0
2.234 10.568 -0.76700002 178 99 40
2.2279999 10.585 -0.77200001 68 24 0
2.2320001 10.577 -0.759 87 26 0
2.191 10.56 -0.75 71 43 29
2.191 10.63 -0.71499997 42 24 12
2.2 10.626 -0.73000002 166 77 17
2.1919999 10.603 -0.79799998 58 29 13
2.2090001 10.583 -0.73799998 80 32 10
2.2030001 10.576 -0.722 125 84 64
2.214 10.577 -0.926 134 72 49
2.2049999 10.56 -0.86000001 150 115 96
2.2119999 10.571 -0.86299998 86 21 0
2.2019999 10.562 -0.852 104 77 60
2.234 10.582 -0.87699997 160 151 154
2.2360001 10.585 -0.88700002 79 42 23
2.244 10.572 -0.88800001 182 176 176
2.2079999 10.606 -0.86000001 55 18 0
2.207 10.606 -0.85900003 148 131 123
2.198 10.605 -0.85699999 75 35 0
2.1989999 10.607 -0.85000002 201 156 101
2.197 10.602 -0.84399998 84 35 30
2.204 10.584 -0.89999998 83 39 12
2.2060001 10.539 -0.83499998 145 89 38
2.1989999 10.538 -0.838 164 135 121
2.1919999 10.544 -0.86900002 135 118 111
2.1930001 10.533 -0.86699998 164 127 111
2.2019999 10.586 -0.69300002 107 54 22
2.2019999 10.588 -0.69400001 66 24 10
2.191 10.573 -0.70099998 26 4 0
2.2090001 10.64 -0.70300001 73 32 4
2.2049999 10.637 -0.70599997 85 43 19
2.2090001 10.638 -0.71399999 190 98 31
2.1949999 10.638 -0.704 66 19 0
2.2019999 10.63 -0.71200001 105 59 35
2.1960001 10.631 -0.70700002 97 51 27
2.1919999 10.597 -0.71100003 93 57 25
2.1989999 10.595 -0.69999999 75 33 9
2.188 10.623 -0.70999998 172 148 138
2.1900001 10.586 -0.70300001 50 11 0
2.1849999 10.621 -0.62900001 123 91 70
2.1919999 10.594 -0.65700001 92 38 10
2.1930001 10.591 -0.66000003 102 53 23
2.1989999 10.597 -0.62599999 194 170 160
2.201 10.555 -0.81599998 81 45 29
2.2149999 10.578 -0.86900002 166 107 73
2.2130001 10.578 -0.85799998 60 32 20
2.194 10.619 -0.773 43 3 0
2.204 10.633 -0.71899998 176 73 14
2.2119999 10.604 -0.755 99 57 32
2.174 10.549 -0.73199999 87 49 30
2.191 10.551 -0.75 139 68 26
2.1819999 10.553 -0.74800003 156 75 30
2.2090001 10.607 -0.824 201 149 109
2.2049999 10.599 -0.82099998 201 149 112
2.201 10.605 -0.82499999 161 105 56
2.1919999 10.613 -0.80000001 167 90 12
2.2179999 10.589 -0.85100001 108 40 0
2.204 10.552 -0.833 167 79 16
2.2049999 10.557 -0.82999998 195 113 63
2.198 10.554 -0.77399999 154 78 44
2.1960001 10.555 -0.76800001 91 31 0
2.1849999 10.644 -0.63499999 184 102 42
2.2079999 10.57 -0.88700002 100 75 53
2.198 10.543 -0.87 114 79 60
2.2190001 10.57 -0.90399998 65 38 9
2.211 10.569 -0.912 84 30 0
2.1960001 10.527 -0.85500002 71 26 0
2.2030001 10.551 -0.83700001 141 60 5
2.223 10.556 -0.92500001 80 31 1
2.233 10.57 -0.74199998 64 28 6
2.2349999 10.586 -0.76599997 79 48 30
2.234 10.575 -0.75199997 145 85 51
2.2030001 10.574 -0.90600002 60 12 0
2.201 10.628 -0.727 154 60 0
2.2190001 10.604 -0.792 114 77 58
2.1930001 10.534 -0.63800001 248 180 97
2.2030001 10.552 -0.87 73 49 37
2.2249999 10.571 -0.86900002 93 57 35
2.204 10.578 -0.84500003 43 20 6
2.2079999 10.58 -0.84500003 54 25 9
2.2079999 10.606 -0.86400002 72 37 17
2.2149999 10.588 -0.89499998 191 134 91
2.1949999 10.559 -0.861 118 53 23
2.1930001 10.533 -0.84299999 158 127 109
2.2 10.591 -0.67799997 44 12 0
2.1989999 10.59 -0.67400002 54 17 1
2.1900001 10.599 -0.704 113 76 49
2.211 10.59 -0.704 119 61 37
2.1900001 10.63 -0.69800001 86 42 15
2.1900001 10.588 -0.699 100 49 28
2.191 10.613 -0.63700002 103 68 49
2.1989999 10.591 -0.65200001 104 90 89
2.191 10.598 -0.625 226 162 100
2.2019999 10.592 -0.81699997 142 122 113
2.1949999 10.606 -0.82800001 255 206 154
2.2060001 10.566 -0.81900001 89 60 46
2.1960001 10.551 -0.81099999 123 90 71
2.214 10.556 -0.838 143 120 104
2.2049999 10.636 -0.71600002 217 119 58
2.2090001 10.597 -0.81800002 135 90 57
2.2019999 10.598 -0.824 134 80 20
2.2019999 10.613 -0.829 159 105 58
2.1949999 10.607 -0.83600003 160 102 54
2.201 10.61 -0.847 89 25 0
2.2019999 10.555 -0.83700001 208 121 67
2.1989999 10.555 -0.77100003 148 71 29
2.1960001 10.555 -0.76300001 92 26 0
2.2049999 10.571 -0.90600002 79 21 0
2.2019999 10.629 -0.72399998 195 100 34
2.2160001 10.569 -0.852 88 55 36
2.2160001 10.568 -0.86000001 92 59 42
2.223 10.584 -0.884 83 31 9
2.2 10.609 -0.85000002 75 15 0
2.1989999 10.57 -0.847 57 20 1
2.201 10.577 -0.90200001 57 13 0
2.2049999 10.601 -0.66299999 120 88 73
2.197 10.593 -0.67000002 55 7 0
2.187 10.633 -0.699 143 124 120
2.1919999 10.629 -0.70200002 142 66 17
2.187 10.628 -0.70099998 64 25 8
2.2 10.624 -0.713 146 106 94
2.191 10.575 -0.699 63 22 0
2.2179999 10.609 -0.76099998 51 12 0
2.1949999 10.554 -0.755 115 42 1
2.191 10.552 -0.75199997 112 41 0
2.1949999 10.61 -0.833 184 123 76
2.217 10.584 -0.85399997 175 104 58
2.2190001 10.581 -0.85799998 150 82 33
2.1949999 10.555 -0.75999999 140 63 21
2.2149999 10.574 -0.87599999 71 15 2
2.2149999 10.578 -0.87300003 69 13 0
2.2179999 10.585 -0.89099997 135 71 33
2.2160001 10.584 -0.87 112 62 27
2.1989999 10.609 -0.85399997 65 9 0
2.198 10.598 -0.84899998 148 130 120
2.1930001 10.593 -0.67199999 63 19 0
2.1960001 10.592 -0.66500002 62 13 0
2.198 10.589 -0.67000002 73 30 11
2.1960001 10.609 -0.82999998 134 80 33
2.194 10.604 -0.83200002 127 68 24
2.1949999 10.554 -0.759 94 21 0
2.22 10.581 -0.87199998 49 22 11
2.2130001 10.586 -0.88999999 194 136 96
2.217 10.565 -0.87699997 101 68 49
2.2160001 10.583 -0.87400001 66 19 0
0 0 0 1 0 0 0 1 0 0 0 1 0 0 0 0 0 1086 1 0 0
