ply
format ascii 1.0
comment PCL generated
element vertex 84
property float x
property float y
property float z
property uchar red
property uchar green
property uchar blue
element camera 1
property float view_px
property float view_py
property float view_pz
property float x_axisx
property float x_axisy
property float x_axisz
property float y_axisx
property float y_axisy
property float y_axisz
property float z_axisx
property float z_axisy
property float z_axisz
property float focal
property float scalex
property float scaley
property float centerx
property float centery
property int viewportx
property int viewporty
property float k1
property float k2
end_header
8.4390001 0.62300003 -0.55699998 123 87 61
8.4370003 0.61900002 -0.57099998 129 86 43
8.4510002 0.61000001 -0.55299997 252 199 147
8.4440002 0.60900003 -0.55699998 120 79 57
8.4399996 0.611 -0.546 26 2 0
8.434 0.62800002 -0.55199999 60 12 0
8.4280005 0.62900001 -0.54799998 39 13 0
8.4499998 0.60100001 -0.55599999 129 99 73
8.4469995 0.602 -0.54900002 96 54 16
8.4440002 0.597 -0.551 168 129 90
8.4379997 0.60900003 -0.56300002 110 76 41
8.4399996 0.60399997 -0.55900002 139 81 33
8.4359999 0.60500002 -0.56599998 60 29 8
8.4250002 0.611 -0.54500002 42 24 4
8.408 0.611 -0.54900002 48 17 0
8.415 0.60000002 -0.54699999 48 26 13
8.4130001 0.61400002 -0.54799998 97 64 31
8.4169998 0.61299998 -0.54799998 74 46 9
8.4390001 0.62 -0.55199999 157 87 18
8.4049997 0.61900002 -0.55699998 149 108 80
8.4119997 0.62199998 -0.56800002 136 85 56
8.4029999 0.61799997 -0.56099999 135 86 54
8.4460001 0.61299998 -0.55199999 58 33 11
8.4139996 0.62300003 -0.57099998 97 59 36
8.4130001 0.62300003 -0.56999999 105 95 96
8.4239998 0.63099998 -0.57300001 91 50 22
8.4130001 0.61500001 -0.57999998 80 54 31
8.4209995 0.63099998 -0.55900002 66 29 3
8.4359999 0.58999997 -0.56900001 75 43 22
8.4329996 0.602 -0.58099997 82 47 28
8.408 0.59600002 -0.56199998 77 57 48
8.4169998 0.59200001 -0.55900002 106 86 59
8.4119997 0.60100001 -0.55199999 252 227 145
8.408 0.602 -0.55599999 159 127 104
8.408 0.611 -0.55699998 111 77 52
8.4230003 0.59500003 -0.54799998 251 201 130
8.4350004 0.59100002 -0.55599999 115 85 57
8.4280005 0.597 -0.54699999 64 42 29
8.4219999 0.59200001 -0.55500001 251 219 146
8.408 0.616 -0.56999999 163 118 76
8.408 0.61500001 -0.55199999 104 65 32
8.4200001 0.625 -0.56699997 75 40 21
8.4329996 0.61000001 -0.58200002 89 45 18
8.4110003 0.602 -0.58200002 68 49 42
8.4239998 0.60900003 -0.579 84 64 65
8.4169998 0.59100002 -0.56999999 63 37 38
8.4090004 0.59600002 -0.57800001 87 52 22
8.4359999 0.61199999 -0.57099998 50 21 5
8.4259996 0.62800002 -0.56900001 56 28 7
8.4370003 0.59899998 -0.54799998 137 70 17
8.4069996 0.60500002 -0.56300002 231 193 154
8.4230003 0.60299999 -0.54699999 146 94 34
8.4259996 0.60500002 -0.54799998 134 78 29
8.4250002 0.61799997 -0.546 42 21 0
8.408 0.616 -0.57200003 109 59 32
8.4049997 0.61400002 -0.56400001 100 64 30
8.4069996 0.611 -0.574 78 37 19
8.4119997 0.62099999 -0.54900002 77 43 16
8.4280005 0.61000001 -0.54699999 40 18 5
8.4370003 0.60600001 -0.54900002 81 52 22
8.4329996 0.60699999 -0.54900002 101 71 37
8.4069996 0.60500002 -0.57099998 224 189 147
8.4209995 0.60000002 -0.54699999 169 118 53
8.4309998 0.60900003 -0.54799998 234 178 117
8.4139996 0.62199998 -0.55800003 117 78 39
8.4320002 0.61400002 -0.57999998 122 53 11
8.4209995 0.597 -0.57800001 71 52 46
8.4309998 0.60399997 -0.58099997 115 84 55
8.4189997 0.60500002 -0.579 93 70 56
8.4250002 0.58999997 -0.56699997 120 75 33
8.434 0.59100002 -0.56 191 167 131
8.4300003 0.59100002 -0.57300001 62 43 28
8.4280005 0.59100002 -0.56900001 68 47 20
8.4370003 0.59600002 -0.56199998 96 71 67
8.4069996 0.60900003 -0.57099998 93 43 18
8.4180002 0.59500003 -0.55500001 186 164 123
8.4209995 0.60600001 -0.579 97 48 18
8.427 0.61900002 -0.57800001 122 95 86
8.415 0.60000002 -0.54900002 255 222 143
8.427 0.59200001 -0.56099999 250 232 192
8.4370003 0.597 -0.55199999 95 52 33
8.4300003 0.59100002 -0.56199998 128 86 46
8.4350004 0.62300003 -0.56 150 113 84
8.4200001 0.602 -0.57800001 80 47 28
0 0 0 1 0 0 0 1 0 0 0 1 0 0 0 0 0 84 1 0 0
