ply
format ascii 1.0
comment PCL generated
element vertex 98
property float x
property float y
property float z
property uchar red
property uchar green
property uchar blue
element camera 1
property float view_px
property float view_py
property float view_pz
property float x_axisx
property float x_axisy
property float x_axisz
property float y_axisx
property float y_axisy
property float y_axisz
property float z_axisx
property float z_axisy
property float z_axisz
property float focal
property float scalex
property float scaley
property float centerx
property float centery
property int viewportx
property int viewporty
property float k1
property float k2
end_header
-14.758 6.223 -1.0930001 177 118 50
-14.744 6.204 -1.103 182 104 40
-14.748 6.2160001 -1.087 195 135 72
-14.762 6.2309999 -1.0549999 141 96 39
-14.749 6.2389998 -1.0470001 193 114 47
-14.754 6.2410002 -1.039 182 102 31
-14.761 6.2319999 -1.0319999 254 158 84
-14.758 6.2399998 -1.024 254 178 103
-14.756 6.237 -1.036 224 144 75
-14.739 6.2270002 -1.041 156 91 27
-14.737 6.2319999 -1.034 203 125 53
-14.77 6.197 -1.08 179 110 41
-14.774 6.2090001 -1.084 143 79 35
-14.776 6.2119999 -1.077 175 104 52
-14.768 6.1919999 -1.085 139 86 42
-14.768 6.2020001 -1.084 188 128 58
-14.756 6.2199998 -1.0549999 188 124 53
-14.748 6.2069998 -1.101 170 69 0
-14.75 6.2030001 -1.109 178 85 15
-14.748 6.1960001 -1.101 179 110 45
-14.756 6.2010002 -1.098 141 77 16
-14.757 6.2129998 -1.092 201 123 61
-14.769 6.2080002 -1.085 232 150 90
-14.766 6.2220001 -1.084 167 145 132
-14.769 6.2220001 -1.057 175 116 58
-14.768 6.2059999 -1.041 205 146 86
-14.767 6.2189999 -1.038 145 85 48
-14.755 6.1880002 -1.0930001 174 83 26
-14.746 6.2030001 -1.097 157 96 31
-14.749 6.2049999 -1.09 196 132 68
-14.757 6.2329998 -1.023 254 189 109
-14.758 6.2259998 -1.015 187 143 98
-14.75 6.237 -1.027 142 80 39
-14.747 6.2410002 -1.0319999 220 125 45
-14.751 6.2410002 -1.035 208 145 94
-14.764 6.2270002 -1.044 114 82 41
-14.75 6.2189999 -1.02 213 140 72
-14.743 6.224 -1.025 88 57 37
-14.753 6.204 -1.085 183 116 61
-14.76 6.2249999 -1.03 255 194 114
-14.768 6.1960001 -1.069 221 153 88
-14.761 6.1919999 -1.075 100 50 13
-14.759 6.2030001 -1.024 144 88 29
-14.765 6.21 -1.029 144 83 39
-14.761 6.2049999 -1.03 139 91 43
-14.761 6.2049999 -1.0319999 179 109 57
-14.77 6.1989999 -1.08 218 156 79
-14.762 6.2210002 -1.062 160 83 31
-14.755 6.2210002 -1.084 177 122 55
-14.704 6.1900001 -1.046 132 90 42
-14.709 6.191 -1.044 162 101 36
-14.711 6.1929998 -1.052 227 144 76
-14.704 6.198 -1.044 230 134 60
-14.749 6.1950002 -1.097 165 86 17
-14.753 6.2399998 -1.03 252 174 100
-14.756 6.237 -1.0369999 128 69 29
-14.753 6.2140002 -1.084 190 111 45
-14.761 6.2249999 -1.023 207 134 65
-14.758 6.2309999 -1.026 223 182 138
-14.772 6.2150002 -1.0700001 176 112 50
-14.762 6.2259998 -1.082 208 142 81
-14.761 6.2280002 -1.0470001 135 77 39
-14.766 6.2010002 -1.066 212 166 133
-14.762 6.223 -1.058 162 96 35
-14.757 6.223 -1.084 216 140 80
-14.761 6.191 -1.091 162 93 26
-14.765 6.197 -1.0930001 162 86 24
-14.753 6.2020001 -1.087 193 133 61
-14.755 6.1960001 -1.094 161 134 113
-14.749 6.2129998 -1.0880001 127 94 63
-14.759 6.2189999 -1.076 204 123 60
-14.755 6.21 -1.0930001 160 104 69
-14.734 6.204 -1.029 132 87 46
-14.743 6.2210002 -1.0319999 171 126 84
-14.744 6.2189999 -1.033 181 130 87
-14.732 6.2020001 -1.036 215 126 70
-14.756 6.2220001 -1.02 194 124 55
-14.743 6.211 -1.0470001 182 131 84
-14.748 6.2010002 -1.05 175 120 64
-14.757 6.197 -1.054 197 130 59
-14.745 6.2119999 -1.04 182 113 48
-14.766 6.2119999 -1.034 154 80 15
-14.751 6.2290001 -1.024 217 124 65
-14.764 6.2049999 -1.072 201 140 75
-14.732 6.1989999 -1.031 234 165 106
-14.748 6.2129998 -1.024 172 73 14
-14.754 6.2059999 -1.026 175 118 75
-14.755 6.2080002 -1.024 180 145 123
-14.728 6.1960001 -1.0420001 173 106 51
-14.748 6.1950002 -1.052 198 116 43
-14.747 6.2010002 -1.046 225 148 80
-14.754 6.198 -1.0470001 191 142 101
-14.756 6.21 -1.0829999 204 151 117
-14.726 6.1960001 -1.04 153 92 47
-14.753 6.1960001 -1.04 205 131 66
-14.748 6.2350001 -1.03 229 161 80
-14.762 6.1999998 -1.0650001 212 133 66
-14.754 6.23 -1.046 148 84 13
0 0 0 1 0 0 0 1 0 0 0 1 0 0 0 0 0 98 1 0 0
