ply
format ascii 1.0
comment PCL generated
element vertex 564
property float x
property float y
property float z
property uchar red
property uchar green
property uchar blue
element camera 1
property float view_px
property float view_py
property float view_pz
property float x_axisx
property float x_axisy
property float x_axisz
property float y_axisx
property float y_axisy
property float y_axisz
property float z_axisx
property float z_axisy
property float z_axisz
property float focal
property float scalex
property float scaley
property float centerx
property float centery
property int viewportx
property int viewporty
property float k1
property float k2
end_header
-3.652 -1.0369999 -0.949 238 177 94
-3.651 -1.0319999 -0.92699999 180 165 160
-3.6489999 -1.044 -0.93300003 75 26 0
-3.8369999 -0.986 -1.02 27 4 0
-3.8269999 -0.97399998 -1.025 24 4 0
-3.8299999 -0.97500002 -1.0190001 49 27 14
-3.8239999 -0.97299999 -0.97100002 107 87 76
-3.8199999 -0.96700001 -0.958 166 113 45
-3.835 -0.96700001 -0.95499998 116 97 90
-3.654 -1.051 -0.91600001 76 44 19
-3.651 -1.057 -0.92299998 65 34 13
-3.826 -0.97299999 -1.023 27 21 7
-3.8239999 -0.97299999 -1.017 30 23 7
-3.822 -0.98100001 -1.023 71 28 0
-3.6700001 -1.0319999 -1.034 18 10 0
-3.668 -1.0369999 -1.039 9 2 0
-3.6700001 -1.0319999 -1.039 35 25 13
-3.6589999 -1.034 -1.001 24 9 2
-3.661 -1.017 -1.006 60 32 18
-3.654 -1.0319999 -1.013 45 23 12
-3.6860001 -1.0420001 -1.022 14 0 0
-3.681 -1.0599999 -1.016 29 4 0
-3.678 -1.05 -1.017 23 17 5
-3.829 -0.97899997 -1.024 16 8 0
-3.8299999 -0.98299998 -1.026 36 16 9
-3.835 -0.98500001 -1.0039999 144 109 77
-3.7579999 -1.04 -1.011 50 32 32
-3.7620001 -1.0319999 -1.003 141 113 102
-3.763 -1.035 -1.007 28 6 0
-3.7539999 -1.036 -1.0089999 135 120 101
-3.8199999 -0.96899998 -0.96100003 83 55 43
-3.8429999 -0.977 -0.96799999 124 88 74
-3.8510001 -0.97500002 -0.95499998 88 42 16
-3.8559999 -0.98100001 -0.96200001 26 14 2
-3.8380001 -0.97000003 -0.95499998 255 208 129
-3.658 -1.024 -0.92699999 137 126 122
-3.658 -1.022 -0.91900003 76 45 14
-3.6600001 -1.023 -0.92400002 86 57 25
-3.6600001 -1.025 -1.011 44 31 23
-3.665 -1.031 -0.96600002 31 22 7
-3.658 -1.048 -0.95700002 57 28 10
-3.6600001 -1.0420001 -1.02 18 0 0
-3.664 -1.041 -1.023 5 2 0
-3.6659999 -1.031 -1.018 11 3 1
-3.661 -1.0420001 -1.0039999 57 30 11
-3.8329999 -0.98100001 -1.02 39 14 7
-3.8440001 -0.98900002 -0.972 131 113 103
-3.859 -0.99599999 -0.977 45 21 9
-3.777 -1.026 -1.022 59 44 39
-3.767 -1.03 -1.023 39 23 0
-3.767 -1.034 -1.018 58 40 16
-3.7639999 -1.034 -1.022 40 27 8
-3.8150001 -0.98500001 -1 28 8 0
-3.823 -0.98299998 -1.018 24 15 0
-3.8280001 -0.98500001 -1 114 93 88
-3.652 -1.053 -0.93599999 39 20 5
-3.6530001 -1.045 -0.93599999 123 97 84
-3.6559999 -1.043 -0.94099998 214 144 58
-3.7550001 -1.011 -0.96600002 175 130 89
-3.7490001 -1.012 -0.97799999 79 49 39
-3.75 -1.007 -0.97600001 43 20 14
-3.8080001 -1.005 -0.98000002 153 111 95
-3.8239999 -1.001 -0.98299998 25 5 6
-3.819 -0.99699998 -0.98100001 69 26 7
-3.813 -1.006 -0.97799999 54 25 9
-3.8139999 -1.001 -1.006 4 0 0
-3.8150001 -1.015 -0.97899997 116 45 1
-3.823 -1.018 -0.98500001 209 127 67
-3.813 -1.02 -0.98299998 116 48 13
-3.8210001 -0.98799998 -0.99599999 9 8 3
-3.658 -1.031 -0.93000001 69 48 21
-3.651 -1.048 -0.92900002 140 119 90
-3.6570001 -1.046 -0.921 126 105 74
-3.6570001 -1.063 -0.93900001 131 99 78
-3.668 -1.071 -0.935 85 39 3
-3.6630001 -1.056 -0.926 156 129 108
-3.8169999 -0.97299999 -0.96200001 127 93 68
-3.8069999 -0.98900002 -0.972 10 0 0
-3.816 -0.98500001 -0.97399998 45 8 0
-3.8169999 -0.98000002 -0.96499997 178 131 87
-3.8299999 -0.96799999 -0.954 202 146 89
-3.822 -0.97299999 -0.94999999 72 34 11
-3.661 -1.038 -0.917 63 27 0
-3.678 -1.0319999 -0.91500002 129 91 44
-3.6670001 -1.048 -0.91600001 253 229 195
-3.846 -0.97899997 -0.96399999 130 94 82
-3.6559999 -1.035 -0.94400001 247 191 106
-3.6830001 -1.015 -0.95999998 78 48 22
-3.691 -1.007 -0.95300001 81 54 37
-3.675 -1.016 -0.93900001 77 42 23
-3.6849999 -1.006 -0.96100003 114 88 71
-3.7639999 -1.024 -1.024 65 52 46
-3.691 -1.045 -1.0190001 47 16 11
-3.707 -1.036 -1.025 26 1 0
-3.6789999 -1.03 -1.036 28 25 16
-3.6930001 -1.066 -1.002 48 24 14
-3.681 -1.071 -0.99199998 87 56 38
-3.6930001 -1.068 -1.007 85 48 19
-3.684 -1.0650001 -0.99800003 116 64 16
-3.6670001 -1.057 -1.003 59 31 7
-3.6730001 -1.063 -1.006 79 47 32
-3.661 -1.061 -0.99599999 109 79 53
-3.6619999 -1.0549999 -0.99800003 61 52 47
-3.675 -1.056 -1.013 50 26 14
-3.6689999 -1.051 -1.0089999 69 45 33
-3.664 -1.056 -0.98799998 20 10 0
-3.665 -1.039 -0.99699998 93 64 46
-3.668 -1.046 -0.98100001 37 19 15
-3.6630001 -1.021 -1.005 63 32 12
-3.661 -1.038 -1.01 10 2 0
-3.697 -1.0650001 -0.99000001 35 0 0
-3.7049999 -1.057 -1.007 215 178 149
-3.7 -1.058 -1.007 156 117 78
-3.7030001 -1.056 -0.99599999 89 44 15
-3.7149999 -1.044 -1.002 136 101 69
-3.7 -1.043 -1.011 30 10 1
-3.823 -0.99599999 -0.98400003 31 0 0
-3.8280001 -0.99699998 -0.99599999 44 12 0
-3.7639999 -1.029 -1.001 84 33 6
-3.7539999 -1.026 -1.003 75 47 23
-3.7639999 -1.0039999 -1.006 83 73 81
-3.7690001 -1.0190001 -0.99900001 118 82 50
-3.7709999 -1.0140001 -1.0039999 120 70 47
-3.7579999 -1.013 -1.006 32 5 0
-3.753 -1.016 -1.013 43 15 3
-3.7490001 -1.02 -1.001 49 14 0
-3.7520001 -1.02 -1.006 34 13 10
-3.747 -1.027 -1.007 52 15 0
-3.7509999 -1.035 -1.0140001 69 58 38
-3.7850001 -1.0039999 -1.017 36 25 23
-3.7620001 -1.006 -1.022 72 37 17
-3.819 -0.99000001 -1.0190001 31 4 0
-3.8299999 -0.97500002 -0.96200001 175 164 160
-3.6800001 -1.0779999 -0.94499999 134 111 95
-3.6670001 -1.069 -0.94400001 173 95 12
-3.658 -1.0650001 -0.94499999 243 168 67
-3.677 -1.066 -0.94700003 112 53 13
-3.6689999 -1.061 -0.92500001 122 91 73
-3.7679999 -1.034 -1.0140001 38 11 0
-3.767 -1.03 -1.007 45 8 0
-3.763 -1.023 -0.99699998 172 134 115
-3.737 -1.007 -0.95300001 188 126 39
-3.7349999 -1.005 -0.95200002 79 48 20
-3.734 -1.002 -0.95200002 151 99 39
-3.8440001 -0.98000002 -0.96600002 65 29 15
-3.8369999 -0.97500002 -0.96600002 49 17 6
-3.819 -0.98400003 -0.99900001 68 46 33
-3.665 -1.029 -0.921 255 231 149
-3.6860001 -1.015 -0.94099998 93 48 15
-3.6819999 -1.02 -0.94400001 74 34 8
-3.6789999 -1.026 -0.95099998 63 31 10
-3.6659999 -1.027 -0.93199998 240 193 105
-3.661 -1.023 -0.926 118 87 41
-3.678 -1.0190001 -0.935 170 122 46
-3.822 -0.977 -0.94199997 126 91 71
-3.8210001 -0.977 -0.94300002 88 63 22
-3.8039999 -0.97600001 -0.93699998 33 5 0
-3.8210001 -0.97000003 -0.95499998 189 134 69
-3.8069999 -0.991 -0.96899998 254 196 112
-3.8099999 -1.002 -0.97100002 117 58 2
-3.8069999 -0.98100001 -0.94400001 105 88 80
-3.717 -0.98199999 -0.958 244 207 119
-3.7190001 -0.991 -0.94099998 169 126 91
-3.7019999 -0.98699999 -0.95200002 124 111 94
-3.723 -0.98000002 -0.96200001 218 178 90
-3.6989999 -0.98900002 -0.963 76 36 1
-3.727 -0.995 -0.95200002 180 119 39
-3.7249999 -0.98699999 -0.95700002 255 207 125
-3.7279999 -0.99800003 -0.95099998 141 92 26
-3.6819999 -1.016 -0.93300003 137 91 57
-3.7049999 -1.043 -1.01 48 16 0
-3.7149999 -1.035 -1.023 14 0 0
-3.6600001 -1.033 -0.94199997 181 125 50
-3.655 -1.039 -0.94599998 95 81 78
-3.8440001 -0.99900001 -1 37 8 0
-3.8529999 -1.003 -0.98100001 123 91 80
-3.845 -1.007 -0.98400003 83 54 40
-3.7880001 -1.02 -1.017 49 32 12
-3.79 -1.017 -1.027 41 26 21
-3.7809999 -1.018 -1.02 59 44 25
-3.681 -1.058 -0.96100003 68 36 11
-3.6860001 -1.059 -0.96100003 53 24 8
-3.6849999 -1.052 -1.016 9 0 0
-3.665 -1.018 -1.005 84 67 60
-3.6730001 -1.034 -0.97399998 24 3 2
-3.6659999 -1.036 -0.99400002 33 19 10
-3.6700001 -1.0369999 -1.029 10 6 0
-3.6730001 -1.033 -1.03 36 28 17
-3.697 -1.058 -0.977 53 31 10
-3.7119999 -1.045 -0.99699998 90 56 31
-3.822 -0.98799998 -0.98900002 36 13 7
-3.839 -1.0039999 -0.98100001 116 87 81
-3.8369999 -1.003 -0.97799999 101 71 61
-3.8280001 -1.017 -0.98500001 214 147 77
-3.832 -1.007 -0.991 113 94 62
-3.8559999 -1.001 -0.97399998 180 145 139
-3.8410001 -1.003 -0.98000002 33 5 0
-3.8440001 -0.99900001 -0.963 81 41 33
-3.7720001 -1.0089999 -1.013 43 16 0
-3.7690001 -1.016 -1.002 76 39 12
-3.7590001 -1.0089999 -1.018 91 64 53
-3.7650001 -1.0190001 -1.021 38 24 0
-3.724 -1.033 -1.006 50 14 0
-3.723 -1.027 -1.013 71 45 32
-3.7190001 -1.04 -1.0039999 44 24 13
-3.7880001 -1.01 -1.022 85 63 50
-3.799 -1.008 -1.024 14 11 6
-3.7739999 -1.008 -1.012 64 31 16
-3.839 -0.99000001 -1.007 36 15 10
-3.7390001 -1.001 -0.963 201 161 110
-3.7479999 -1.0140001 -0.95999998 174 136 100
-3.7320001 -0.99199998 -0.96499997 26 11 4
-3.7320001 -0.99199998 -0.96700001 29 16 0
-3.7279999 -0.98500001 -0.96200001 176 110 34
-3.813 -0.98500001 -0.96600002 182 141 111
-3.809 -0.98799998 -0.96200001 251 198 118
-3.6659999 -1.051 -0.91900003 110 62 22
-3.6600001 -1.053 -0.92199999 113 65 19
-3.8199999 -1.02 -0.98299998 202 123 66
-3.812 -1.021 -0.98199999 143 80 49
-3.8139999 -1.02 -0.98000002 142 83 51
-3.766 -1.028 -1.001 63 30 13
-3.7509999 -1.0140001 -0.96700001 80 44 18
-3.668 -1.057 -0.95499998 36 14 16
-3.8369999 -0.98100001 -0.97600001 36 9 0
-3.7969999 -1.0089999 -1.015 103 70 53
-3.8080001 -0.99699998 -1.011 69 34 15
-3.8110001 -1.005 -1.007 27 7 0
-3.8399999 -1.002 -0.98799998 55 29 16
-3.6730001 -1.033 -0.91799998 180 134 72
-3.6559999 -1.0549999 -0.92299998 148 109 76
-3.8099999 -1.016 -0.97299999 73 23 0
-3.816 -0.97799999 -0.95300001 218 165 113
-3.806 -0.986 -0.94999999 56 29 20
-3.7279999 -0.99599999 -0.95300001 173 127 68
-3.73 -1.001 -0.95099998 67 34 3
-3.6800001 -1.04 -0.91399997 143 111 64
-3.688 -1.0140001 -0.93000001 68 29 0
-3.819 -0.99599999 -0.98100001 33 6 0
-3.8640001 -1.002 -0.97899997 113 86 67
-3.8469999 -1.015 -0.949 134 108 91
-3.8469999 -1.011 -0.94700003 153 137 122
-3.8469999 -1.005 -0.95099998 123 95 45
-3.8329999 -1.0140001 -0.949 131 111 104
-3.8410001 -1.007 -0.94199997 138 120 100
-3.8510001 -1 -0.95200002 162 133 63
-3.848 -0.99299997 -0.95300001 96 46 21
-3.7130001 -1.0369999 -1.0140001 27 9 9
-3.6949999 -1.002 -0.95999998 29 10 3
-3.664 -1.0319999 -0.95700002 140 96 67
-3.6730001 -1.029 -0.95599997 39 11 8
-3.681 -1.02 -0.963 59 31 27
-3.681 -1.0140001 -0.98400003 46 6 0
-3.8280001 -0.98900002 -1.027 66 42 30
-3.7950001 -1.015 -1.023 55 32 14
-3.848 -0.99400002 -0.995 33 5 0
-3.8410001 -0.99400002 -1.005 69 46 32
-3.8570001 -1.001 -0.98000002 117 78 71
-3.6889999 -1.054 -1.013 53 27 12
-3.678 -1.067 -0.99699998 70 37 28
-3.6659999 -1.029 -0.99699998 54 25 9
-3.674 -1.021 -1.002 35 8 0
-3.664 -1.043 -1.01 26 6 0
-3.6719999 -1.038 -1.025 6 2 0
-3.7079999 -0.99199998 -0.97799999 118 96 39
-3.7260001 -0.98400003 -0.97000003 70 31 0
-3.691 -1.0650001 -0.99400002 180 135 93
-3.717 -1.041 -1.001 22 4 2
-3.7179999 -1.031 -0.97799999 67 21 0
-3.675 -1.053 -0.96399999 99 64 36
-3.6860001 -1.057 -0.98000002 221 165 82
-3.724 -1.0190001 -0.96399999 74 19 0
-3.7160001 -1.03 -0.97000003 107 74 31
-3.7309999 -1.02 -0.972 107 48 16
-3.7349999 -1.022 -0.97799999 113 53 17
-3.8570001 -1.001 -0.977 202 165 157
-3.763 -1.016 -1.018 76 45 27
-3.7750001 -1.01 -1.0190001 84 55 37
-3.7290001 -0.98100001 -0.96600002 75 39 23
-3.733 -1 -0.95999998 52 23 17
-3.733 -1.003 -0.95099998 219 156 61
-3.7309999 -1.005 -0.949 149 90 30
-3.8399999 -0.97100002 -0.95099998 41 24 16
-3.7509999 -1.011 -0.96600002 157 97 60
-3.671 -1.063 -0.92900002 28 5 0
-3.7049999 -1.045 -0.94700003 50 27 13
-3.701 -1.051 -0.95099998 144 107 89
-3.697 -1.0599999 -0.93000001 97 62 42
-3.6960001 -1.057 -0.94599998 133 87 61
-3.697 -1.053 -0.96100003 69 41 17
-3.733 -1.012 -0.94800001 92 57 25
-3.7780001 -1.021 -1.005 89 44 15
-3.789 -1.0140001 -1.011 117 80 61
-3.7709999 -1.026 -1.012 142 118 108
-3.7679999 -1.026 -1.0039999 72 31 13
-3.7690001 -1.024 -1.001 77 39 16
-3.786 -1.0140001 -1.021 11 1 0
-3.7909999 -1.01 -1.013 116 82 70
-3.697 -1.008 -0.94499999 71 30 2
-3.675 -1.027 -0.94599998 86 53 38
-3.8099999 -1.016 -0.97500002 116 62 36
-3.809 -1.0190001 -0.98100001 74 21 5
-3.8 -0.991 -0.954 104 53 0
-3.8099999 -1 -0.95899999 44 0 0
-3.724 -1.016 -0.94400001 241 209 158
-3.724 -1.022 -0.94599998 233 185 139
-3.73 -1.017 -0.954 88 39 0
-3.8280001 -1.0089999 -0.94400001 116 65 12
-3.8080001 -0.98400003 -0.94 94 71 65
-3.819 -0.98400003 -0.94199997 138 105 70
-3.8099999 -0.98900002 -0.93800002 178 135 82
-3.8169999 -0.97600001 -0.95599997 77 46 25
-3.8150001 -0.98000002 -0.95999998 149 97 49
-3.8180001 -0.97600001 -0.94999999 73 41 18
-3.721 -0.991 -0.95200002 252 232 146
-3.7190001 -0.98799998 -0.95200002 250 216 127
-3.7290001 -0.99699998 -0.95700002 71 47 37
-3.6960001 -1.0420001 -0.92199999 205 117 53
-3.6919999 -1.034 -0.92400002 123 101 87
-3.677 -1.031 -0.917 131 93 46
-3.684 -1.024 -0.92500001 77 33 20
-3.819 -0.98699999 -0.98299998 93 27 1
-3.845 -1.008 -0.94499999 135 124 106
-3.849 -0.99699998 -0.958 242 209 202
-3.6989999 -1 -0.95700002 133 100 67
-3.6619999 -1.045 -0.95700002 124 116 114
-3.677 -1.028 -0.97000003 49 16 0
-3.845 -0.99400002 -0.98900002 43 16 7
-3.846 -0.99599999 -0.991 29 10 0
-3.677 -1.029 -0.97399998 22 0 0
-3.6670001 -1.0319999 -0.995 92 78 67
-3.664 -1.039 -1.021 34 14 7
-3.6619999 -1.041 -1.01 58 36 13
-3.7160001 -0.99699998 -0.97799999 118 48 12
-3.723 -0.991 -0.97100002 92 65 54
-3.7179999 -0.99800003 -0.97799999 143 82 38
-3.7249999 -1 -0.97299999 170 91 16
-3.724 -1.003 -0.97899997 170 88 32
-3.7249999 -1.002 -0.97500002 181 102 35
-3.737 -1.0089999 -0.97600001 60 25 3
-3.714 -1 -0.986 126 71 41
-3.697 -1.0549999 -0.97799999 54 29 7
-3.6719999 -1.026 -1.0140001 77 48 30
-3.675 -1.029 -1.02 40 26 17
-3.6719999 -1.05 -0.98000002 45 16 12
-3.724 -1.018 -0.96100003 141 110 45
-3.7179999 -1.023 -0.954 232 197 129
-3.744 -1.016 -0.97299999 80 37 2
-3.7290001 -1.015 -0.98000002 225 220 198
-3.727 -1.0140001 -0.98000002 240 241 225
-3.77 -1.017 -1.0190001 70 52 52
-3.839 -0.986 -0.986 44 22 9
-3.829 -0.97899997 -0.98400003 72 30 5
-3.7609999 -1.026 -1.018 94 66 42
-3.7119999 -0.98799998 -0.95300001 221 163 79
-3.711 -0.98900002 -0.95200002 253 199 113
-3.7320001 -1.008 -0.94800001 147 92 38
-3.7290001 -1.0089999 -0.94700003 180 123 70
-3.7290001 -1.006 -0.94800001 140 81 21
-3.721 -0.98500001 -0.95700002 117 95 71
-3.8169999 -1.007 -0.97100002 121 49 9
-3.832 -0.972 -0.95099998 239 148 69
-3.8280001 -0.97799999 -0.94499999 169 140 124
-3.8369999 -0.97100002 -0.95099998 72 51 46
-3.8239999 -0.98199999 -0.94199997 138 129 122
-3.704 -1.0470001 -0.96100003 28 19 4
-3.697 -1.051 -0.97500002 82 47 17
-3.687 -1.067 -0.94400001 43 10 1
-3.6800001 -1.0779999 -0.94199997 127 108 94
-3.6930001 -1.006 -0.954 76 36 10
-3.6960001 -1.0039999 -0.972 42 11 8
-3.8099999 -1.016 -0.97899997 170 113 83
-3.8080001 -0.99299997 -0.96100003 127 90 46
-3.7290001 -1.011 -0.94700003 136 81 27
-3.8180001 -1.006 -0.94999999 72 36 12
-3.8150001 -1.005 -0.94999999 52 35 17
-3.819 -1.002 -0.94400001 84 61 30
-3.8150001 -1.002 -0.949 130 82 33
-3.822 -1.008 -0.95599997 113 59 35
-3.8369999 -0.98100001 -0.94599998 105 59 26
-3.8239999 -1 -0.94400001 83 43 17
-3.8210001 -0.98799998 -0.94300002 156 109 53
-3.826 -0.98799998 -0.94300002 179 129 80
-3.8139999 -1.0039999 -0.95700002 65 35 0
-3.721 -1.003 -0.94599998 165 118 48
-3.684 -1.051 -0.92000002 77 23 0
-3.6800001 -1.057 -0.92199999 169 121 81
-3.704 -1.017 -0.93400002 199 166 121
-3.671 -1.053 -0.91900003 135 94 50
-3.6830001 -1.063 -0.92900002 45 27 17
-3.6789999 -1.061 -0.92799997 164 146 134
-3.849 -0.99400002 -0.96499997 137 99 86
-3.7130001 -0.99299997 -0.94999999 170 137 102
-3.7060001 -0.99699998 -0.94999999 171 125 47
-3.7130001 -1 -0.94300002 167 136 105
-3.8299999 -0.98900002 -1.023 20 1 0
-3.8239999 -0.99400002 -1.026 66 43 27
-3.8039999 -1.0140001 -1.02 24 20 11
-3.8380001 -1.001 -1.002 74 48 31
-3.8280001 -1.008 -1.0039999 34 15 9
-3.6900001 -1.058 -1.01 29 20 15
-3.704 -1.02 -1.022 23 0 0
-3.721 -1.021 -1.006 66 32 20
-3.6659999 -1.057 -0.991 95 80 77
-3.674 -1.034 -0.98400003 24 11 2
-3.6600001 -1.038 -1.015 9 1 0
-3.701 -0.99900001 -0.97799999 25 0 0
-3.73 -1.02 -0.97899997 164 126 105
-3.733 -1.02 -0.972 99 36 3
-3.6800001 -1.063 -0.98699999 89 54 35
-3.691 -1.064 -0.98900002 46 14 1
-3.697 -1.051 -0.98199999 64 37 18
-3.7160001 -1.036 -0.99400002 75 48 27
-3.7130001 -1.034 -0.98900002 71 41 17
-3.697 -1.0470001 -0.97600001 97 61 27
-3.7 -1.039 -0.977 37 11 0
-3.7219999 -1.027 -1.005 56 23 8
-3.7190001 -1.023 -0.98299998 59 13 0
-3.674 -1.0190001 -1.013 33 20 14
-3.6689999 -1.045 -0.96899998 31 13 11
-3.7579999 -1.024 -1.013 94 42 21
-3.7260001 -1.013 -0.94499999 208 162 100
-3.812 -0.99400002 -0.94300002 171 116 62
-3.823 -1.0140001 -0.98100001 147 64 0
-3.8180001 -1.006 -0.96600002 109 42 0
-3.7090001 -1.03 -0.972 85 29 0
-3.7049999 -1.031 -0.963 113 94 79
-3.779 -1.013 -1.013 114 78 54
-3.779 -1.02 -1.0089999 84 49 29
-3.698 -1.005 -0.94800001 40 12 0
-3.6889999 -1.01 -0.98000002 32 4 1
-3.684 -1.013 -0.98299998 47 17 9
-3.6719999 -1.029 -0.95300001 56 25 20
-3.6689999 -1.03 -0.95099998 44 19 15
-3.664 -1.031 -0.93699998 34 8 0
-3.6789999 -1.0369999 -0.91500002 139 103 55
-3.8280001 -1.012 -0.954 98 56 18
-3.8440001 -0.97500002 -0.94999999 73 29 4
-3.849 -0.977 -0.95499998 56 37 23
-3.842 -0.98199999 -0.94599998 136 92 65
-3.8210001 -0.98500001 -0.94199997 140 129 123
-3.819 -0.98699999 -0.94199997 180 134 82
-3.832 -1 -0.94199997 209 154 90
-3.8329999 -1.006 -0.96200001 95 62 27
-3.8310001 -1.0039999 -0.94300002 184 134 75
-3.813 -1 -0.95300001 45 28 10
-3.694 -1.045 -0.926 154 70 6
-3.691 -1.0549999 -0.92500001 139 120 113
-3.687 -1.0549999 -0.92400002 217 165 117
-3.6849999 -1.043 -0.92000002 163 130 79
-3.6989999 -1.039 -0.926 177 122 66
-3.7 -1.046 -0.93800002 69 42 25
-3.7019999 -1.045 -0.94099998 75 47 33
-3.7179999 -1.011 -0.94199997 213 176 124
-3.701 -1.008 -0.93900001 113 76 50
-3.7090001 -1.013 -0.94099998 157 124 81
-3.6830001 -1.074 -0.93699998 141 97 48
-3.694 -1.015 -0.99000001 71 52 37
-3.7079999 -1.006 -0.98400003 129 87 49
-3.71 -0.98699999 -0.95899999 233 194 99
-3.71 -0.99299997 -0.96499997 40 1 0
-3.806 -1.0089999 -1.02 18 17 12
-3.8210001 -1.013 -1.0190001 6 6 0
-3.822 -1.011 -1.0039999 21 0 0
-3.8399999 -1 -1.002 40 16 6
-3.8329999 -1.003 -0.99699998 116 95 68
-3.8280001 -1 -1.02 14 7 0
-3.8440001 -0.99400002 -0.98500001 253 208 143
-3.697 -1.024 -1.026 31 11 4
-3.7090001 -1.023 -0.99900001 45 29 16
-3.7090001 -1.026 -1.006 29 15 12
-3.7130001 -1.023 -0.99800003 46 10 0
-3.7 -1.017 -0.99599999 34 13 8
-3.697 -1.05 -0.97799999 91 57 32
-3.6819999 -1.023 -1.012 27 9 7
-3.6819999 -1.022 -0.98500001 45 27 17
-3.6949999 -1.012 -0.93699998 94 57 28
-3.6949999 -1.025 -0.93400002 126 97 55
-3.6949999 -1.035 -0.93699998 178 128 75
-3.687 -1.058 -0.98000002 217 162 80
-3.675 -1.029 -1.03 69 61 48
-3.684 -1.028 -1.028 112 89 81
-3.6800001 -1.025 -1.021 32 20 6
-3.7119999 -1.033 -0.98500001 62 26 0
-3.7160001 -1.028 -0.98500001 33 5 0
-3.714 -1.025 -0.99299997 83 41 19
-3.71 -1.033 -0.98199999 123 78 39
-3.684 -1.0140001 -0.986 28 3 0
-3.6860001 -1.022 -0.991 31 22 7
-3.7679999 -1.021 -0.99900001 103 66 39
-3.812 -1.0039999 -0.96600002 63 12 0
-3.73 -1.015 -0.95999998 107 60 8
-3.7019999 -0.99800003 -0.97399998 26 1 0
-3.7079999 -0.99400002 -0.97799999 226 198 151
-3.6689999 -1.03 -0.949 51 20 15
-3.668 -1.031 -0.94700003 50 17 10
-3.845 -0.99900001 -0.95999998 115 81 72
-3.829 -0.98900002 -0.94300002 181 131 78
-3.8310001 -0.98699999 -0.94400001 141 132 125
-3.836 -0.98000002 -0.94700003 133 119 106
-3.8340001 -0.98199999 -0.94499999 106 58 22
-3.8440001 -0.98500001 -0.94800001 115 68 38
-3.8429999 -0.99400002 -0.94499999 92 53 24
-3.842 -0.99599999 -0.94499999 69 28 0
-3.822 -1.006 -0.96499997 144 70 21
-3.8380001 -1.003 -0.95599997 45 17 5
-3.8299999 -1.005 -0.963 211 126 62
-3.8239999 -1.008 -0.95099998 82 38 0
-3.8039999 -0.991 -0.949 109 58 5
-3.7260001 -0.99900001 -0.94999999 255 206 105
-3.7179999 -0.991 -0.96499997 110 76 64
-3.684 -1.045 -0.92000002 173 140 89
-3.688 -1.041 -0.92199999 166 123 88
-3.701 -1.038 -0.94300002 76 52 42
-3.7119999 -1.0140001 -0.94199997 202 168 120
-3.7179999 -1.003 -0.94499999 167 140 110
-3.7160001 -1.006 -0.94300002 187 157 119
-3.7090001 -1.005 -0.94300002 112 80 57
-3.701 -1.007 -0.94300002 104 77 47
-3.723 -1.013 -0.98199999 155 91 27
-3.6849999 -1.02 -0.96799999 91 63 59
-3.8180001 -1.013 -1.013 8 5 0
-3.8169999 -1.0089999 -1.018 33 15 13
-3.8329999 -0.99699998 -1.018 29 6 0
-3.6900001 -1.023 -1.023 27 18 1
-3.7119999 -1 -0.98500001 87 20 0
-3.6960001 -1.02 -1.0140001 32 26 12
-3.7090001 -1.0190001 -0.991 106 84 70
-3.697 -1.049 -0.98100001 66 35 15
-3.7030001 -1.0369999 -0.98100001 149 81 18
-3.694 -1.0319999 -1.027 15 0 0
-3.6719999 -1.028 -0.92199999 73 36 0
-3.688 -1.0599999 -0.92900002 49 35 34
-3.6670001 -1.031 -0.94400001 59 19 11
-3.8369999 -0.99199998 -0.94300002 224 169 113
-3.8369999 -1.001 -0.94400001 84 45 12
-3.8340001 -1.013 -0.954 123 79 40
-3.829 -1.006 -0.96200001 152 72 9
-3.8329999 -1.006 -0.94300002 154 107 51
-3.8039999 -0.99199998 -0.95200002 140 90 39
-3.8069999 -0.99199998 -0.94199997 115 64 9
-3.7179999 -1.022 -0.94599998 254 212 138
-3.8239999 -1.0089999 -1.0089999 19 15 6
-3.832 -1.001 -1.013 25 6 2
-3.8310001 -1.002 -1.007 21 2 0
-3.8340001 -0.99900001 -1.016 55 33 19
-3.832 -1 -1.015 21 2 0
-3.707 -1.027 -1.0140001 122 80 58
-3.694 -1.02 -1.02 28 4 0
-3.7160001 -1.021 -0.98699999 34 12 1
-3.7060001 -1.036 -0.98000002 81 28 0
-3.6689999 -1.027 -0.92699999 57 14 0
-3.681 -1.045 -0.91900003 194 161 110
-3.687 -1.012 -0.96499997 23 16 8
-3.6700001 -1.03 -0.94499999 82 44 31
-3.839 -0.98900002 -0.94400001 115 72 37
-3.7119999 -1.022 -0.94400001 174 145 115
-3.8280001 -1.001 -1.017 31 11 4
-3.6930001 -1.0190001 -1.018 16 8 0
-3.6849999 -1.034 -0.92299998 166 132 84
-3.8269999 -1.008 -1.011 22 3 0
-3.7090001 -1.026 -0.95099998 90 44 11
-3.6949999 -1.0190001 -1.0190001 53 34 19
-3.6889999 -1.023 -1.011 50 32 22
0 0 0 1 0 0 0 1 0 0 0 1 0 0 0 0 0 564 1 0 0
