ply
format ascii 1.0
comment PCL generated
element vertex 715
property float x
property float y
property float z
property uchar red
property uchar green
property uchar blue
element camera 1
property float view_px
property float view_py
property float view_pz
property float x_axisx
property float x_axisy
property float x_axisz
property float y_axisx
property float y_axisy
property float y_axisz
property float z_axisx
property float z_axisy
property float z_axisz
property float focal
property float scalex
property float scaley
property float centerx
property float centery
property int viewportx
property int viewporty
property float k1
property float k2
end_header
-3.1129999 -2.829 -1.059 112 53 23
-3.1129999 -2.826 -1.054 97 37 1
-3.1159999 -2.8299999 -1.054 127 65 28
-3.1099999 -2.826 -1.058 112 48 12
-3.003 -2.8929999 -0.884 41 16 0
-2.9979999 -2.872 -0.87300003 104 86 82
-3.0009999 -2.8900001 -0.88700002 49 30 13
-3.066 -2.7950001 -1.02 18 3 0
-3.0680001 -2.7969999 -1.015 44 31 12
-3.085 -2.7969999 -1.0140001 14 9 6
-3.0639999 -2.8 -1.007 94 85 86
-3.082 -2.872 -0.85399997 106 68 21
-3.0969999 -2.852 -0.85900003 57 5 0
-3.1010001 -2.8670001 -0.861 129 53 0
-3.0050001 -2.855 -0.88200003 30 14 0
-3.0079999 -2.852 -0.86799997 124 120 119
-3.085 -2.848 -0.85799998 48 33 28
-3.092 -2.849 -0.861 89 48 20
-3.05 -2.8570001 -0.85000002 77 40 14
-3.0280001 -2.859 -0.85399997 131 92 63
-3.0309999 -2.8659999 -0.85399997 18 3 0
-3.0409999 -2.8399999 -0.85500002 133 89 50
-3.0880001 -2.816 -1.0140001 116 101 96
-3.089 -2.8150001 -1.017 115 100 95
-3.092 -2.8310001 -1.007 38 16 5
-3.086 -2.829 -1.022 136 117 111
-3.0999999 -2.842 -1.052 119 63 30
-3.1010001 -2.8440001 -1.0599999 62 20 0
-3.098 -2.8469999 -1.0599999 74 22 1
-3.1029999 -2.842 -1.0599999 83 42 20
-3.0910001 -2.8110001 -1.008 88 73 70
-3.1029999 -2.855 -0.87400001 104 77 60
-3.095 -2.8510001 -0.87300003 112 52 26
-3.0969999 -2.839 -1.0599999 77 27 0
-3.092 -2.8369999 -1.0599999 84 24 0
-3.0139999 -2.869 -0.866 51 33 13
-3.007 -2.878 -0.86299998 90 55 13
-3.0179999 -2.928 -0.89499998 74 33 5
-3.02 -2.924 -0.87800002 27 13 10
-3.01 -2.9289999 -0.89700001 80 71 72
-3.013 -2.924 -0.89300001 28 4 4
-3.0109999 -2.9260001 -0.89600003 110 67 35
-3.0150001 -2.8989999 -0.90100002 32 20 20
-3.003 -2.8859999 -0.89099997 36 14 0
-3.0680001 -2.7969999 -1.026 15 8 2
-3.0739999 -2.7969999 -1.021 10 2 0
-2.984 -2.812 -0.94499999 8 0 0
-2.984 -2.8199999 -0.94099998 92 55 47
-2.9760001 -2.819 -0.95499998 38 20 8
-2.9920001 -2.8139999 -0.92799997 23 4 0
-3.079 -2.8399999 -0.88099998 136 78 41
-2.987 -2.8169999 -0.95700002 139 128 122
-2.9860001 -2.8169999 -0.963 118 107 101
-2.9909999 -2.812 -0.96100003 123 60 25
-3.0969999 -2.8670001 -0.86000001 179 97 21
-3.0650001 -2.869 -0.85399997 132 87 48
-3.053 -2.8699999 -0.85399997 94 45 13
-3.0810001 -2.8369999 -0.991 62 31 2
-3.086 -2.836 -1.011 25 7 5
-3.089 -2.865 -0.94499999 52 31 26
-3.085 -2.8529999 -0.949 129 92 66
-3.0769999 -2.862 -0.95099998 32 2 0
-3.089 -2.8629999 -0.94400001 35 2 0
-3.075 -2.872 -0.95300001 63 34 28
-3.079 -2.8670001 -0.94599998 48 25 19
-3.086 -2.869 -0.93900001 104 78 65
-3.092 -2.809 -1.018 111 96 91
-3.098 -2.858 -0.86400002 177 129 106
-3.0969999 -2.839 -1.051 130 70 42
-3.096 -2.842 -1.0599999 104 50 24
-3.0899999 -2.8410001 -1.0599999 115 55 27
-3.0050001 -2.8640001 -0.88599998 96 42 8
-3.007 -2.8540001 -0.898 22 9 1
-3.0369999 -2.8540001 -0.85799998 71 53 49
-3.0179999 -2.8629999 -0.861 82 61 58
-3.006 -2.8610001 -0.875 122 124 123
-3.0020001 -2.8740001 -0.87699997 150 117 82
-3.006 -2.8759999 -0.88099998 90 57 26
-3.0109999 -2.904 -0.87800002 36 6 0
-3.0250001 -2.9089999 -0.86699998 40 12 0
-3.017 -2.9100001 -0.88700002 121 102 95
-3.0120001 -2.9059999 -0.88999999 98 85 79
-3.096 -2.842 -1.054 91 31 3
-3.0869999 -2.835 -1.054 90 34 1
-3.092 -2.836 -1.049 112 62 27
-3.0899999 -2.8310001 -1.054 78 20 0
-3.082 -2.809 -1.029 39 21 17
-3.0769999 -2.8169999 -1.035 5 0 0
-3.0869999 -2.8310001 -1.0369999 77 20 0
-2.9949999 -2.812 -0.93900001 8 3 0
-2.9979999 -2.8099999 -0.93599999 63 27 15
-3.0899999 -2.842 -1.053 88 24 0
-3.086 -2.8369999 -1.038 120 72 36
-3.0880001 -2.836 -1.038 108 59 27
-2.9809999 -2.8199999 -0.95999998 41 23 11
-2.9790001 -2.8280001 -0.95999998 39 23 7
-2.9809999 -2.822 -0.95999998 37 25 13
-3.0280001 -2.819 -0.99000001 34 15 8
-3.0139999 -2.813 -0.97600001 69 47 36
-3.0339999 -2.813 -0.972 44 25 18
-3.023 -2.8199999 -0.97600001 27 8 2
-2.9909999 -2.813 -0.95700002 118 107 103
-2.9949999 -2.8050001 -0.96799999 123 66 36
-3.0039999 -2.8 -0.96100003 70 24 0
-3.0020001 -2.816 -0.98000002 131 80 59
-3.0139999 -2.813 -0.972 31 11 0
-3.0940001 -2.8570001 -0.88599998 53 25 11
-3.0829999 -2.868 -0.85500002 163 124 83
-3.0450001 -2.8499999 -0.85699999 174 135 102
-3.0710001 -2.8729999 -0.85900003 165 117 79
-3.0599999 -2.8599999 -0.99900001 54 29 22
-3.0610001 -2.8570001 -1.0089999 15 4 2
-3.0669999 -2.8599999 -0.995 112 76 50
-3.0569999 -2.8699999 -0.991 177 144 137
-3.085 -2.832 -1.02 42 5 0
-3.0880001 -2.836 -1.0319999 93 29 0
-3.086 -2.8369999 -1.029 233 162 108
-3.0250001 -2.8570001 -0.85600001 113 95 95
-3.0220001 -2.846 -0.87 111 42 9
-3.026 -2.836 -0.87199998 124 104 97
-3.0280001 -2.848 -0.866 251 198 144
-3.01 -2.885 -0.87400001 131 79 32
-3.0139999 -2.892 -0.87800002 39 7 0
-2.99 -2.829 -0.96499997 16 2 0
-3.043 -2.9200001 -0.903 91 47 10
-3.0450001 -2.9230001 -0.89899999 136 88 40
-3.0320001 -2.921 -0.90200001 86 55 27
-3.0380001 -2.9219999 -0.898 199 151 79
-3.0179999 -2.908 -0.89700001 59 35 9
-3.0380001 -2.9230001 -0.89300001 127 87 35
-3.0309999 -2.9260001 -0.889 243 175 74
-3.0510001 -2.869 -0.98900002 35 12 0
-3.0510001 -2.8659999 -0.99400002 49 20 4
-2.984 -2.8310001 -0.94599998 21 7 0
-2.987 -2.835 -0.94599998 36 17 10
-2.9909999 -2.8369999 -0.93400002 11 0 0
-2.98 -2.8429999 -0.95099998 106 62 23
-2.9809999 -2.8299999 -0.95599997 45 27 15
-3.02 -2.8959999 -0.912 27 12 7
-3.0239999 -2.908 -0.91600001 22 0 0
-3.023 -2.9089999 -0.912 33 8 1
-3.0139999 -2.901 -0.89200002 64 42 21
-3.082 -2.799 -1.023 17 3 0
-3.0869999 -2.8310001 -1.05 158 111 83
-3.02 -2.8410001 -0.87400001 17 0 0
-2.993 -2.8210001 -0.93000001 43 20 12
-3.013 -2.8069999 -0.954 60 45 38
-3.0109999 -2.8110001 -0.949 36 17 19
-3.029 -2.8080001 -0.94700003 35 7 3
-2.997 -2.806 -0.949 54 27 18
-3.0220001 -2.8469999 -0.89999998 14 10 1
-3.0190001 -2.836 -0.88300002 113 87 60
-3.03 -2.8469999 -0.90100002 9 4 0
-3.0280001 -2.8410001 -0.88300002 76 33 0
-3.026 -2.8150001 -0.93699998 83 79 80
-3.0739999 -2.8380001 -0.85699999 53 36 8
-3.0699999 -2.839 -0.85399997 106 74 51
-3.072 -2.839 -0.84799999 98 72 55
-3.076 -2.8039999 -1.001 43 25 11
-3.0810001 -2.8139999 -0.99000001 85 73 73
-3.0810001 -2.8099999 -0.98500001 78 69 64
-3.0810001 -2.8139999 -0.99299997 80 68 68
-3.0280001 -2.8099999 -0.96399999 93 70 64
-3.0899999 -2.8540001 -0.898 99 50 20
-3.0120001 -2.8410001 -0.90399998 47 28 22
-3.0139999 -2.842 -0.88300002 178 153 123
-3.089 -2.8399999 -1.057 93 32 4
-3.0880001 -2.839 -1.052 117 58 28
-3.0320001 -2.813 -0.995 65 57 36
-3.0439999 -2.8110001 -0.98000002 93 80 61
-2.994 -2.8080001 -0.95999998 126 75 56
-3.0969999 -2.8659999 -0.88499999 67 31 5
-3.0899999 -2.869 -0.89200002 69 28 8
-3.0940001 -2.881 -0.88200003 134 114 103
-3.0940001 -2.8729999 -0.88099998 85 27 3
-3.0869999 -2.8529999 -0.88200003 89 37 13
-3.085 -2.8499999 -0.87599999 120 102 92
-3.0869999 -2.8599999 -0.861 95 79 64
-3.0510001 -2.842 -0.85799998 93 73 66
-3.066 -2.855 -0.85600001 152 104 82
-3.079 -2.862 -0.85399997 165 123 81
-3.059 -2.8670001 -0.85500002 103 65 42
-3.0599999 -2.859 -0.85699999 215 171 126
-3.0539999 -2.8710001 -0.85500002 127 90 61
-3.063 -2.842 -0.86799997 149 97 75
-3.0539999 -2.848 -0.88200003 95 71 47
-3.0510001 -2.8329999 -0.86799997 96 86 85
-3.0669999 -2.8599999 -0.99299997 127 81 48
-3.0569999 -2.869 -0.99000001 71 32 17
-3.0899999 -2.8369999 -1.034 85 28 0
-3.086 -2.8369999 -1.035 178 122 85
-3.076 -2.8840001 -0.88200003 62 19 2
-3.0880001 -2.891 -0.875 117 98 84
-3.086 -2.878 -0.88200003 64 9 0
-3.062 -2.8870001 -0.86000001 89 49 14
-3.063 -2.8900001 -0.86000001 82 48 23
-3.0550001 -2.908 -0.89200002 172 110 73
-3.0580001 -2.8940001 -0.90499997 62 18 0
-3.0569999 -2.891 -0.89899999 151 102 62
-3.0610001 -2.888 -0.88599998 130 81 49
-3.0090001 -2.846 -0.87800002 42 17 0
-3.02 -2.8369999 -0.88 105 72 41
-3.01 -2.8599999 -0.87300003 60 29 0
-3.0190001 -2.8510001 -0.87 136 117 111
-3.0039999 -2.868 -0.87900001 23 9 0
-3.026 -2.8710001 -0.86000001 20 0 0
-3.033 -2.8770001 -0.85299999 216 183 148
-3.026 -2.8800001 -0.86000001 96 55 23
-3.0239999 -2.865 -0.86000001 192 152 117
-3.016 -2.8859999 -0.87 121 79 31
-3.0220001 -2.835 -0.93000001 14 3 1
-3.0109999 -2.836 -0.93000001 21 9 9
-3.0190001 -2.845 -0.91100001 23 12 8
-3.023 -2.9030001 -0.87400001 64 17 1
-3.016 -2.9000001 -0.87800002 53 19 10
-3.0239999 -2.9030001 -0.87300003 148 99 66
-3.056 -2.875 -0.98699999 57 27 25
-3.05 -2.8659999 -0.991 106 74 59
-3.0220001 -2.914 -0.90200001 83 27 2
-3.026 -2.905 -0.92299998 30 6 4
-2.9860001 -2.835 -0.96100003 163 152 150
-2.9949999 -2.8310001 -0.97100002 35 21 18
-2.9960001 -2.835 -0.96499997 26 12 11
-3.027 -2.8380001 -0.92699999 81 42 11
-3.0120001 -2.8429999 -0.93000001 9 0 3
-3.006 -2.8329999 -0.92900002 130 80 55
-3.095 -2.8440001 -1.059 107 51 26
-3.076 -2.8369999 -1.027 97 41 6
-3.0780001 -2.832 -1.028 128 113 108
-3.043 -2.8659999 -0.85600001 38 10 0
-3.029 -2.8340001 -0.87800002 114 70 41
-3.0239999 -2.835 -0.87599999 13 0 0
-3.0369999 -2.8469999 -0.86299998 157 106 49
-3.0020001 -2.812 -0.94700003 73 28 0
-3.003 -2.8180001 -0.93000001 44 20 8
-2.9960001 -2.8210001 -0.926 18 3 0
-3.02 -2.819 -0.92500001 43 13 5
-3.0350001 -2.825 -0.935 2 0 3
-3.0090001 -2.8280001 -0.93000001 152 97 56
-3.0239999 -2.8280001 -0.93099999 80 72 70
-3.0780001 -2.8410001 -0.89700001 128 120 118
-3.076 -2.842 -0.90600002 69 56 50
-3.0880001 -2.8510001 -0.91299999 59 9 0
-3.079 -2.8380001 -0.91799998 83 73 64
-3.0899999 -2.8310001 -1.003 70 46 34
-3.085 -2.806 -1.008 15 10 7
-3.0739999 -2.8080001 -0.99299997 49 31 21
-3.0639999 -2.809 -0.99000001 113 95 91
-3.0409999 -2.8139999 -0.97399998 11 0 0
-3.0569999 -2.8199999 -0.96799999 28 13 6
-2.9879999 -2.8269999 -0.94 98 53 34
-3.0090001 -2.852 -0.90399998 61 31 20
-3.0090001 -2.855 -0.90600002 45 13 0
-2.994 -2.836 -0.92699999 93 42 0
-2.997 -2.8310001 -0.92500001 72 27 0
-3.0309999 -2.813 -1 37 30 14
-3.0179999 -2.8080001 -1.005 40 10 2
-3.0439999 -2.813 -1.0089999 5 1 2
-3.0190001 -2.8110001 -1.001 54 21 16
-3.017 -2.8110001 -1.002 39 8 6
-3.0250001 -2.816 -1.0039999 16 6 5
-3.01 -2.8210001 -0.99199998 56 26 15
-3.0469999 -2.816 -1.021 13 9 10
-3.0480001 -2.816 -1.016 4 0 0
-3.036 -2.816 -1.017 29 10 6
-3.0439999 -2.8199999 -1.022 99 89 88
-3.043 -2.8310001 -1.027 27 11 0
-3.066 -2.8239999 -1.03 22 18 9
-3.053 -2.8380001 -1.029 99 83 84
-3.0650001 -2.8499999 -1.003 101 72 56
-3.0669999 -2.8139999 -1.02 23 12 10
-3.086 -2.8369999 -1.0319999 206 139 96
-3.0680001 -2.839 -1.027 23 4 0
-3.0580001 -2.8369999 -1.024 49 38 36
-3.063 -2.8399999 -1.012 100 87 78
-3.0610001 -2.8340001 -1.027 35 21 12
-3.0669999 -2.8280001 -1.028 9 0 0
-3.0280001 -2.8180001 -0.99800003 22 4 4
-3.036 -2.8239999 -1.0190001 21 6 0
-2.9949999 -2.8139999 -0.97399998 164 104 70
-3.0079999 -2.823 -0.986 46 14 1
-3.0190001 -2.8310001 -0.98100001 19 5 2
-3.0109999 -2.8299999 -0.977 19 4 0
-3.02 -2.829 -0.98199999 15 0 0
-3 -2.8199999 -0.977 58 17 0
-3.0280001 -2.8210001 -0.98900002 19 1 0
-3.0380001 -2.8329999 -0.995 25 4 1
-3.053 -2.819 -0.97399998 6 0 0
-3.0799999 -2.8629999 -0.85399997 174 136 99
-3.0899999 -2.8710001 -0.85799998 91 56 37
-3.0829999 -2.8729999 -0.85699999 153 116 63
-3.086 -2.8740001 -0.86000001 169 129 80
-3.0780001 -2.8889999 -0.86299998 185 109 13
-3.0680001 -2.8399999 -0.85600001 56 30 5
-3.062 -2.8410001 -0.85600001 95 68 25
-3.0840001 -2.845 -0.93400002 35 18 11
-3.086 -2.8369999 -0.94499999 42 13 0
-3.0739999 -2.8610001 -0.95499998 23 0 0
-3.0780001 -2.846 -0.95700002 91 41 4
-3.0710001 -2.852 -0.977 34 16 14
-3.073 -2.849 -0.958 173 145 123
-3.0880001 -2.868 -0.92799997 84 54 44
-3.085 -2.8770001 -0.89200002 70 8 0
-3.085 -2.8729999 -0.89499998 81 43 24
-3.0699999 -2.8740001 -0.94300002 17 0 0
-3.0699999 -2.8770001 -0.935 94 74 65
-3.0680001 -2.878 -0.935 23 3 0
-3.0669999 -2.8710001 -0.94999999 16 2 0
-3.0450001 -2.915 -0.90799999 46 16 6
-3.0439999 -2.915 -0.90799999 75 29 3
-3.0710001 -2.878 -0.861 246 166 71
-3.0639999 -2.8699999 -0.85600001 77 33 6
-3.0799999 -2.8789999 -0.85900003 123 86 31
-3.076 -2.885 -0.88099998 79 50 42
-3.0669999 -2.8859999 -0.87699997 109 64 31
-3.069 -2.8829999 -0.88300002 90 27 0
-3.056 -2.901 -0.90499997 27 3 0
-3.036 -2.825 -0.93599999 10 1 2
-3.0120001 -2.888 -0.89899999 71 55 40
-3.0150001 -2.8729999 -0.90200001 20 5 0
-3.0179999 -2.8800001 -0.90799999 63 30 13
-3.007 -2.8670001 -0.92500001 60 45 38
-3.01 -2.8529999 -0.889 43 25 11
-3.0190001 -2.872 -0.86400002 254 236 196
-3.0179999 -2.9030001 -0.87699997 49 17 6
-3.046 -2.8870001 -0.884 90 44 11
-3.0239999 -2.8859999 -0.89399999 58 36 15
-3.046 -2.8900001 -0.88300002 155 100 69
-3.0239999 -2.891 -0.875 120 88 49
-3.0250001 -2.9200001 -0.90100002 85 36 3
-3.0309999 -2.9219999 -0.89899999 129 80 37
-3.0280001 -2.9230001 -0.89399999 145 92 42
-3.0569999 -2.8729999 -0.98500001 40 7 0
-3.0699999 -2.852 -0.97799999 17 1 1
-3.029 -2.9159999 -0.91100001 93 35 0
-3.026 -2.9189999 -0.903 63 32 4
-3.05 -2.868 -0.98799998 108 79 63
-2.9779999 -2.845 -0.958 59 27 14
-2.9879999 -2.8429999 -0.94800001 71 56 49
-2.9990001 -2.8399999 -0.93800002 34 21 4
-3.0880001 -2.8139999 -1.024 59 44 41
-3.0480001 -2.8710001 -0.85600001 174 129 87
-3.0450001 -2.839 -0.87699997 56 35 30
-3.046 -2.845 -0.88599998 39 22 14
-3.007 -2.8180001 -0.93800002 71 29 5
-3.0220001 -2.8169999 -0.93099999 28 4 0
-3.0179999 -2.8069999 -0.954 58 38 27
-3.0810001 -2.8499999 -0.89399999 88 70 60
-3.0769999 -2.8080001 -0.99900001 87 73 70
-3.0829999 -2.8239999 -0.99699998 22 2 0
-3.082 -2.826 -0.99699998 149 103 79
-3.0780001 -2.829 -0.99199998 60 19 0
-3.027 -2.812 -0.95300001 17 3 0
-3.02 -2.812 -0.963 37 19 7
-3.029 -2.8110001 -0.96600002 121 88 73
-2.9920001 -2.835 -0.93199998 46 12 2
-2.997 -2.8380001 -0.93300003 88 40 2
-3.01 -2.8510001 -0.93099999 56 6 0
-3.0469999 -2.816 -0.99800003 5 1 2
-3.0580001 -2.8210001 -1.026 25 7 3
-3.0510001 -2.832 -1.025 19 0 0
-3.05 -2.8299999 -1.024 62 48 47
-3.0669999 -2.8410001 -1.0089999 29 12 4
-3.0710001 -2.8369999 -1.012 73 38 18
-3.073 -2.823 -1.031 13 9 0
-3.0610001 -2.809 -1 37 3 0
-3.0599999 -2.8080001 -1.007 67 45 34
-3.0829999 -2.8380001 -1.027 126 74 35
-3.0350001 -2.8180001 -1.0140001 26 10 10
-2.9920001 -2.8180001 -0.972 65 32 15
-3.0239999 -2.835 -0.98400003 28 7 2
-3.0220001 -2.826 -0.98299998 25 5 4
-3.0599999 -2.8529999 -0.98100001 17 1 1
-2.994 -2.8099999 -0.95499998 71 25 0
-3.0810001 -2.862 -0.85600001 94 51 19
-3.082 -2.8789999 -0.86199999 177 142 78
-3.082 -2.846 -0.86400002 82 56 23
-3.076 -2.8399999 -0.86299998 48 34 8
-3.053 -2.8399999 -0.85799998 62 47 44
-3.0829999 -2.8429999 -0.94400001 37 10 1
-3.069 -2.859 -0.958 28 8 9
-3.063 -2.8529999 -0.96499997 18 0 0
-3.0580001 -2.8570001 -0.96499997 29 1 0
-3.0699999 -2.8670001 -0.95099998 30 14 17
-3.0810001 -2.846 -0.94999999 69 42 25
-3.0739999 -2.8410001 -0.96700001 23 8 5
-3.082 -2.852 -0.94300002 40 16 6
-3.082 -2.8499999 -0.94300002 32 14 10
-3.076 -2.8710001 -0.90499997 99 49 22
-3.0739999 -2.872 -0.89999998 225 167 121
-3.059 -2.8900001 -0.91000003 65 26 9
-3.046 -2.9200001 -0.89499998 217 170 90
-3.085 -2.8340001 -1.0039999 76 55 38
-3.082 -2.846 -0.87 68 58 31
-3.086 -2.849 -0.87099999 108 57 10
-3.082 -2.8469999 -0.87300003 68 37 9
-3.0880001 -2.881 -0.87599999 59 31 20
-3.0250001 -2.9159999 -0.87800002 130 86 51
-3.0780001 -2.8900001 -0.87199998 133 55 6
-3.0510001 -2.9170001 -0.89700001 142 84 34
-3.0469999 -2.911 -0.912 35 2 0
-3.0480001 -2.911 -0.90200001 76 25 6
-3.0450001 -2.819 -0.96899998 19 0 0
-3.0650001 -2.8340001 -0.954 14 3 0
-3.0510001 -2.823 -0.949 123 73 46
-3.0550001 -2.825 -0.94099998 25 5 0
-3.0769999 -2.832 -0.958 135 88 60
-3.075 -2.8369999 -0.96899998 101 80 77
-3.0699999 -2.822 -0.96799999 201 154 108
-3.0599999 -2.8269999 -0.96499997 22 6 6
-3.066 -2.8199999 -0.98199999 127 100 83
-3.0710001 -2.835 -0.93699998 131 114 107
-3.016 -2.8659999 -0.921 24 12 14
-3.013 -2.862 -0.90399998 77 32 9
-3.0120001 -2.8629999 -0.89899999 90 48 26
-3.0179999 -2.8889999 -0.90799999 26 2 0
-3.0109999 -2.845 -0.89999998 58 37 32
-3.029 -2.8970001 -0.86799997 212 124 34
-3.043 -2.8770001 -0.88499999 37 4 0
-3.02 -2.8829999 -0.88499999 56 14 2
-3.007 -2.8629999 -0.88800001 114 50 6
-3.013 -2.8659999 -0.89200002 81 35 12
-3.007 -2.829 -0.92900002 103 51 12
-3.033 -2.8280001 -0.93400002 8 2 2
-3.052 -2.8940001 -0.88200003 92 33 0
-3.053 -2.9059999 -0.89099997 130 74 37
-3.0380001 -2.9170001 -0.88999999 146 83 39
-3.0209999 -2.918 -0.90799999 237 192 150
-3.0369999 -2.915 -0.91000003 65 20 0
-3.023 -2.911 -0.90499997 41 7 0
-3.056 -2.875 -0.98500001 62 29 20
-3.007 -2.8369999 -0.97500002 87 72 65
-3.0079999 -2.832 -0.97600001 16 1 0
-3.006 -2.826 -0.97899997 116 87 69
-3.0309999 -2.895 -0.94199997 27 2 0
-3.0339999 -2.8900001 -0.95899999 29 0 0
-3.0250001 -2.8800001 -0.93900001 34 19 14
-3.0220001 -2.8889999 -0.921 21 6 1
-3.0309999 -2.895 -0.93900001 22 0 0
-2.984 -2.842 -0.95700002 54 8 0
-3.013 -2.8510001 -0.92400002 43 26 19
-3.086 -2.8180001 -1.022 53 13 1
-3.0320001 -2.8410001 -0.92400002 85 31 0
-3.039 -2.8380001 -0.93199998 42 20 9
-3.0739999 -2.845 -0.90399998 62 49 43
-3.063 -2.8429999 -0.91100001 15 6 0
-3.049 -2.8740001 -0.85600001 165 121 76
-3.046 -2.878 -0.85799998 175 142 97
-3.0480001 -2.878 -0.85799998 210 167 122
-3.049 -2.868 -0.85500002 150 114 82
-3.046 -2.836 -0.87 114 95 89
-3.039 -2.8399999 -0.88099998 46 22 20
-3.043 -2.848 -0.85799998 140 107 66
-3.0880001 -2.8269999 -1.002 19 5 4
-2.9849999 -2.8239999 -0.94 17 3 0
-3.0009999 -2.8239999 -0.92699999 17 0 0
-3.0079999 -2.8429999 -0.94099998 55 15 3
-3.053 -2.8399999 -1.011 51 42 37
-3.063 -2.8069999 -1.016 29 20 13
-3.056 -2.8139999 -1.0039999 1 0 0
-3.0550001 -2.8139999 -0.98799998 62 50 26
-2.9920001 -2.8099999 -0.96399999 114 69 40
-2.997 -2.823 -0.972 82 34 14
-3.013 -2.819 -0.98799998 40 5 0
-3.0580001 -2.855 -0.97600001 8 0 0
-3.0409999 -2.8280001 -1 73 59 48
-3.0450001 -2.835 -1.003 22 9 3
-3.0009999 -2.806 -0.954 32 5 0
-3.0999999 -2.862 -0.866 130 50 0
-3.0969999 -2.8699999 -0.875 87 16 0
-3.0910001 -2.8710001 -0.86900002 78 33 10
-3.0899999 -2.872 -0.86400002 69 33 11
-3.085 -2.878 -0.86699998 125 73 34
-3.0869999 -2.8740001 -0.86400002 94 44 11
-3.0840001 -2.8510001 -0.88 139 112 91
-3.0780001 -2.842 -0.86699998 98 67 36
-3.075 -2.845 -0.87699997 96 44 20
-3.0639999 -2.848 -0.87699997 45 12 0
-3.0539999 -2.8499999 -0.88700002 87 53 26
-3.0280001 -2.888 -0.87199998 139 81 33
-3.0650001 -2.852 -0.96499997 29 5 1
-3.0769999 -2.825 -0.98400003 38 15 0
-3.076 -2.835 -0.98699999 60 35 15
-3.0739999 -2.8369999 -0.97600001 125 99 84
-3.0710001 -2.832 -0.96899998 26 11 6
-3.0840001 -2.855 -0.91900003 21 3 0
-3.0699999 -2.875 -0.90100002 84 41 25
-3.0699999 -2.878 -0.93300003 95 78 68
-3.0829999 -2.8699999 -0.92799997 26 8 6
-3.0569999 -2.8900001 -0.93199998 85 21 0
-3.063 -2.8829999 -0.92500001 56 18 5
-3.072 -2.872 -0.93800002 44 17 8
-3.05 -2.908 -0.90100002 62 13 0
-3.0409999 -2.915 -0.90799999 171 120 77
-3.0569999 -2.895 -0.87 54 19 0
-3.04 -2.902 -0.87199998 46 16 6
-3.0309999 -2.898 -0.86699998 145 107 71
-3.04 -2.895 -0.86799997 255 229 184
-3.0450001 -2.8959999 -0.87 127 60 18
-3.043 -2.8989999 -0.87199998 197 120 48
-3.0409999 -2.849 -0.88800001 31 13 11
-3.0439999 -2.8499999 -0.89700001 31 25 27
-3.073 -2.8380001 -0.94599998 60 47 41
-3.043 -2.8280001 -0.94099998 2 1 0
-3.04 -2.8269999 -0.93900001 2 1 0
-3.0829999 -2.835 -0.94499999 79 47 34
-3.013 -2.8599999 -0.90499997 69 23 0
-3.0179999 -2.882 -0.91600001 72 30 14
-3.017 -2.8940001 -0.903 21 0 0
-3.013 -2.8469999 -0.89600003 57 23 11
-3.0090001 -2.846 -0.87800002 42 17 0
-3.016 -2.891 -0.87599999 150 96 52
-3.02 -2.885 -0.86699998 207 160 44
-3.007 -2.8269999 -0.92900002 159 105 61
-3.0209999 -2.8959999 -0.89399999 14 0 0
-3.0220001 -2.8940001 -0.89600003 58 34 24
-3.027 -2.9189999 -0.88200003 118 62 29
-3.0309999 -2.9119999 -0.91799998 71 20 0
-3.0309999 -2.908 -0.91799998 97 56 26
-3.0469999 -2.911 -0.91799998 55 29 14
-3.0209999 -2.8940001 -0.91500002 15 0 0
-3.0469999 -2.911 -0.91600001 67 32 12
-3.0450001 -2.9119999 -0.91399997 97 56 28
-3.049 -2.9089999 -0.92000002 41 13 1
-3.0050001 -2.8469999 -0.958 19 7 7
-3.006 -2.825 -0.98199999 82 55 38
-3.04 -2.9100001 -0.87800002 117 47 11
-3.0339999 -2.8640001 -0.954 89 55 43
-3.0339999 -2.8610001 -0.95999998 26 11 6
-3.0309999 -2.868 -0.95099998 25 11 8
-3.01 -2.852 -0.90499997 80 47 28
-3.029 -2.845 -0.90700001 92 80 82
-3.0639999 -2.842 -0.92799997 59 35 23
-3.0469999 -2.839 -0.92799997 16 0 0
-3.0539999 -2.8740001 -0.85600001 156 113 81
-3.0350001 -2.842 -0.86799997 122 96 73
-3.046 -2.8380001 -0.86400002 112 80 57
-3.0409999 -2.8410001 -0.866 59 39 28
-2.994 -2.8080001 -0.949 43 16 5
-3.0139999 -2.8180001 -0.94300002 31 13 3
-3.0350001 -2.8280001 -0.935 2 0 1
-3.0320001 -2.826 -0.93400002 6 2 1
-3.0840001 -2.862 -0.89999998 53 3 2
-3.075 -2.845 -0.89899999 115 105 104
-3.082 -2.819 -0.99900001 107 92 87
-3.0420001 -2.823 -0.95899999 33 18 11
-3.0009999 -2.8139999 -0.93800002 64 40 28
-3.049 -2.8440001 -1.003 36 27 12
-3.056 -2.8529999 -1.001 82 63 56
-3.0539999 -2.862 -0.995 28 0 0
-3.0420001 -2.839 -0.991 73 64 59
-3.049 -2.8440001 -0.99699998 30 21 6
-3.059 -2.859 -1.002 110 81 75
-3.05 -2.832 -1.021 7 0 0
-3.0739999 -2.835 -1.016 49 32 25
-3.0190001 -2.8329999 -0.97899997 12 0 0
-3.049 -2.8499999 -0.991 31 13 11
-3.053 -2.8469999 -1.001 76 69 59
-2.9979999 -2.806 -0.95899999 51 8 0
-3.096 -2.872 -0.87800002 88 22 0
-3.096 -2.8670001 -0.88099998 54 15 0
-3.082 -2.882 -0.86400002 113 80 29
-3.073 -2.875 -0.889 104 99 96
-3.0369999 -2.8859999 -0.85900003 195 157 110
-3.0699999 -2.8440001 -0.92199999 83 68 65
-3.079 -2.816 -0.98799998 89 79 78
-3.076 -2.8429999 -0.98500001 11 1 0
-3.079 -2.845 -0.91799998 71 60 56
-3.075 -2.8429999 -0.90799999 59 46 40
-3.073 -2.8740001 -0.91100001 61 35 22
-3.0739999 -2.875 -0.917 30 1 0
-3.069 -2.8759999 -0.92900002 98 84 73
-3.0799999 -2.8729999 -0.91799998 38 4 0
-3.079 -2.8659999 -0.90499997 33 4 0
-3.0469999 -2.911 -0.88999999 44 14 6
-3.0450001 -2.901 -0.88499999 57 22 2
-3.0610001 -2.885 -0.889 47 19 15
-3.0450001 -2.898 -0.89499998 109 60 43
-3.066 -2.8870001 -0.87199998 88 58 47
-3.039 -2.823 -0.94800001 29 0 0
-3.0769999 -2.8369999 -0.94499999 72 57 50
-3.017 -2.875 -0.92500001 27 8 1
-3.0179999 -2.8870001 -0.91000003 33 5 2
-3.0179999 -2.891 -0.90600002 32 11 8
-3.0120001 -2.872 -0.88599998 11 0 0
-3.0139999 -2.846 -0.89700001 67 28 11
-3.007 -2.8599999 -0.88599998 71 26 0
-3.053 -2.8959999 -0.87199998 41 9 0
-3.029 -2.9230001 -0.88599998 132 79 39
-3.0339999 -2.914 -0.88200003 135 89 55
-3.0380001 -2.901 -0.94599998 52 18 8
-3.0120001 -2.8369999 -0.97299999 31 12 6
-3.0599999 -2.8870001 -0.92500001 35 2 0
-3.027 -2.8629999 -0.949 12 1 0
-3.03 -2.8670001 -0.94700003 99 89 90
-3.017 -2.8659999 -0.93800002 15 0 0
-3.026 -2.8570001 -0.95700002 72 42 18
-2.9949999 -2.8410001 -0.95899999 54 21 12
-3.0639999 -2.8740001 -0.94199997 32 11 10
-3.033 -2.891 -0.94199997 53 30 24
-3.053 -2.868 -0.95300001 50 16 14
-3.0450001 -2.865 -0.96600002 79 66 58
-3.0339999 -2.8499999 -0.98500001 74 68 70
-3.0020001 -2.8399999 -0.94 72 43 25
-3.05 -2.878 -0.85799998 205 158 112
-3.0439999 -2.846 -0.90799999 32 23 16
-3.053 -2.8440001 -0.90600002 50 41 42
-3.056 -2.8440001 -0.91100001 21 12 15
-3.0610001 -2.849 -0.89600003 80 62 52
-3.013 -2.8180001 -0.94300002 153 95 58
-3.023 -2.813 -0.949 32 17 10
-3.0780001 -2.836 -0.99400002 47 32 29
-3.0380001 -2.8210001 -0.96700001 41 19 6
-3.0009999 -2.8329999 -0.92900002 101 58 26
-3.049 -2.845 -1.01 101 86 83
-3.0450001 -2.862 -0.97399998 77 70 60
-3.039 -2.8499999 -0.97899997 36 23 17
-3.056 -2.8199999 -0.972 14 0 0
-3.006 -2.802 -0.95999998 85 34 3
-3.1010001 -2.8640001 -0.87 189 108 45
-3.0380001 -2.891 -0.86500001 147 117 67
-3.0320001 -2.888 -0.85900003 41 19 6
-3.0739999 -2.8429999 -0.92400002 92 79 71
-3.073 -2.8440001 -0.98000002 25 7 3
-3.0699999 -2.842 -0.99400002 32 11 6
-3.0710001 -2.8369999 -1.001 21 3 1
-3.0580001 -2.8710001 -0.94800001 24 0 0
-3.0610001 -2.885 -0.912 29 0 0
-3.0639999 -2.881 -0.91399997 21 1 2
-3.0799999 -2.868 -0.91500002 40 2 1
-3.0380001 -2.9130001 -0.884 122 78 29
-3.0739999 -2.835 -1.01 19 4 1
-3.0539999 -2.891 -0.91000003 92 51 19
-3.026 -2.895 -0.875 27 12 7
-3.043 -2.9000001 -0.88 85 47 10
-3.029 -2.9100001 -0.875 145 104 76
-3.0309999 -2.9130001 -0.88 177 128 96
-3.073 -2.888 -0.86799997 159 79 8
-3.036 -2.825 -0.93900001 76 67 70
-3.04 -2.8329999 -0.935 8 0 0
-3.079 -2.836 -0.94099998 96 82 73
-3.007 -2.8610001 -0.88700002 116 66 33
-3.0220001 -2.8789999 -0.88800001 77 40 22
-3.0539999 -2.895 -0.89200002 108 58 31
-3.0409999 -2.8989999 -0.93699998 116 67 34
-3.052 -2.8870001 -0.94599998 44 14 4
-3.036 -2.888 -0.958 37 10 0
-3.0009999 -2.8440001 -0.95300001 42 24 14
-2.997 -2.839 -0.94400001 25 4 0
-3.016 -2.8570001 -0.93400002 26 1 0
-3.0480001 -2.8740001 -0.95099998 24 0 0
-3.0350001 -2.8889999 -0.958 47 18 10
-3.026 -2.846 -0.91900003 59 42 35
-3.03 -2.846 -0.986 16 2 1
-3.0239999 -2.845 -0.97299999 23 0 0
-2.9960001 -2.839 -0.94400001 126 66 14
-3.05 -2.8889999 -0.86799997 97 47 12
-3.04 -2.8429999 -0.91799998 23 14 5
-3.062 -2.849 -0.88999999 80 52 31
-3.0599999 -2.832 -0.958 34 16 12
-3.0840001 -2.8629999 -0.92500001 34 0 0
-3.0309999 -2.819 -0.95599997 43 10 5
-3.033 -2.8210001 -0.95899999 64 45 38
-3.033 -2.8139999 -0.94800001 22 13 16
-3.046 -2.8329999 -1.0089999 24 7 0
-3.049 -2.832 -1.017 5 0 0
-3.03 -2.8180001 -0.96100003 49 25 13
-3.0450001 -2.8640001 -0.96899998 87 78 69
-3.0539999 -2.8199999 -0.97100002 10 0 1
-3.085 -2.882 -0.87199998 147 84 17
-3.0650001 -2.848 -0.87800002 164 136 112
-3.033 -2.8889999 -0.861 120 92 52
-3.072 -2.8440001 -0.97600001 29 6 0
-3.0599999 -2.8870001 -0.917 84 46 25
-3.079 -2.8699999 -0.92500001 28 3 0
-3.039 -2.9030001 -0.88099998 54 8 0
-3.046 -2.898 -0.89099997 27 8 2
-3.026 -2.882 -0.93000001 34 16 12
-3.052 -2.9059999 -0.89899999 33 8 4
-3.039 -2.9000001 -0.94400001 123 82 62
-3.0250001 -2.859 -0.94800001 22 11 9
-3.0139999 -2.849 -0.94700003 47 27 16
-3.0120001 -2.852 -0.93300003 90 39 22
-3.0280001 -2.8570001 -0.96200001 53 25 1
-3.0369999 -2.855 -0.96700001 84 69 64
-3.01 -2.8399999 -0.96100003 21 7 4
-3.0009999 -2.839 -0.95999998 42 17 10
-3.056 -2.8859999 -0.86500001 26 0 0
-3.0469999 -2.8440001 -0.91600001 58 40 28
-3.062 -2.8499999 -0.88300002 44 17 10
-3.0739999 -2.835 -1.003 14 0 0
-3.0380001 -2.8510001 -0.97299999 80 65 62
-3.039 -2.858 -0.96600002 44 19 15
-3.056 -2.8199999 -0.97899997 8 0 2
-3.0840001 -2.8840001 -0.87099999 88 56 43
-3.082 -2.8599999 -0.91500002 138 110 98
-3.0810001 -2.8610001 -0.90499997 26 6 0
-3.0639999 -2.8829999 -0.92299998 47 9 0
-3.0840001 -2.865 -0.91900003 38 5 0
-3.036 -2.9119999 -0.88 156 110 74
-3.049 -2.891 -0.91600001 55 19 0
-3.0409999 -2.829 -0.93599999 8 2 2
-3.0439999 -2.8940001 -0.94099998 69 11 0
-3.0220001 -2.855 -0.94599998 14 0 0
-3.02 -2.855 -0.94199997 45 34 38
-3.017 -2.8559999 -0.93800002 30 17 0
-3.0079999 -2.8429999 -0.94599998 56 18 0
-3.039 -2.8659999 -0.95300001 9 0 0
-3.033 -2.8510001 -0.96799999 26 0 0
-3.023 -2.8559999 -0.95200002 77 71 71
-3.02 -2.8510001 -0.95999998 66 34 11
-3.0439999 -2.8740001 -0.94999999 85 62 44
-3.0150001 -2.849 -0.95099998 22 3 0
-3.0150001 -2.848 -0.954 152 132 123
-3.0380001 -2.8829999 -0.94700003 97 74 66
0 0 0 1 0 0 0 1 0 0 0 1 0 0 0 0 0 715 1 0 0
