ply
format ascii 1.0
comment PCL generated
element vertex 1201
property float x
property float y
property float z
property uchar red
property uchar green
property uchar blue
element camera 0
property float view_px
property float view_py
property float view_pz
property float x_axisx
property float x_axisy
property float x_axisz
property float y_axisx
property float y_axisy
property float y_axisz
property float z_axisx
property float z_axisy
property float z_axisz
property float focal
property float scalex
property float scaley
property float centerx
property float centery
property int viewportx
property int viewporty
property float k1
property float k2
end_header
8.8719997 -4.79 -0.76499999 76 54 57
8.8850002 -4.7740002 -0.76300001 61 42 28
8.875 -4.7870002 -0.76899999 41 7 0
8.8879995 -4.7919998 -0.72500002 199 157 115
8.8889999 -4.7849998 -0.73100001 63 29 19
8.875 -4.7940001 -0.73799998 67 38 42
8.8719997 -4.7969999 -0.73199999 56 28 7
9.033 -4.7220001 -0.86000001 36 13 7
9.026 -4.717 -0.86000001 29 14 7
9.04 -4.7080002 -0.829 62 43 28
9.1309996 -4.8140001 -0.66900003 100 67 36
9.1330004 -4.8169999 -0.66500002 39 8 0
9.1350002 -4.8119998 -0.67900002 83 47 21
9.125 -4.8140001 -0.66299999 53 21 0
9.0369997 -4.7740002 -0.685 34 20 17
9.0369997 -4.7839999 -0.67400002 70 43 26
9.0270004 -4.7870002 -0.68599999 90 52 31
9.0959997 -4.816 -0.685 102 65 47
9.1160002 -4.8119998 -0.69 77 63 63
9.1169996 -4.8200002 -0.69700003 34 12 0
9.132 -4.8839998 -0.713 82 47 27
9.1309996 -4.8800001 -0.71700001 61 34 25
8.8879995 -4.7839999 -0.74699998 80 51 17
8.8879995 -4.7839999 -0.73299998 157 114 72
8.9540005 -4.7600002 -0.676 88 69 62
8.9490004 -4.7649999 -0.66900003 139 69 33
8.9549999 -4.7579999 -0.66299999 54 17 0
8.9460001 -4.7649999 -0.67500001 140 75 37
9.0229998 -4.8080001 -0.602 72 31 3
9.0240002 -4.7870002 -0.59100002 149 130 116
9.0190001 -4.79 -0.58899999 105 88 80
9.0209999 -4.7989998 -0.59899998 56 35 8
8.882 -4.7969999 -0.71799999 41 22 15
8.8760004 -4.8049998 -0.72000003 82 62 53
9.0100002 -4.8070002 -0.59899998 59 32 3
9.0100002 -4.796 -0.59200001 56 23 6
9.0030003 -4.7649999 -0.588 254 255 255
9.0159998 -4.7680001 -0.58600003 58 27 9
9.0120001 -4.777 -0.58499998 62 35 14
8.9469995 -4.7509999 -0.722 53 30 16
8.9440002 -4.7480001 -0.74400002 42 19 3
8.9469995 -4.7509999 -0.727 47 25 11
9.0609999 -4.7119999 -0.77600002 94 61 20
9.059 -4.7150002 -0.77100003 142 110 71
9.052 -4.7140002 -0.76499999 155 127 88
9.0150003 -4.7270002 -0.75700003 53 31 18
9.0089998 -4.7210002 -0.764 73 51 28
9.0120001 -4.73 -0.75700003 69 46 32
9.0129995 -4.7249999 -0.76099998 63 42 23
9.0139999 -4.7329998 -0.75300002 43 21 7
8.9630003 -4.7589998 -0.73100001 69 36 17
8.9700003 -4.7610002 -0.69999999 68 21 3
8.9870005 -4.7610002 -0.699 47 10 1
8.9840002 -4.7600002 -0.69499999 85 36 21
8.8830004 -4.7800002 -0.76800001 58 37 32
8.8730001 -4.7940001 -0.76499999 48 26 15
8.8909998 -4.7880001 -0.72899997 127 84 41
9.0139999 -4.7189999 -0.76899999 50 29 12
9.1040001 -4.835 -0.759 99 93 93
9.099 -4.842 -0.76300001 95 60 41
9.1040001 -4.8340001 -0.75 52 38 38
9.1090002 -4.8179998 -0.76899999 85 59 44
9.1020002 -4.836 -0.77700001 25 15 14
9.099 -4.842 -0.77200001 59 38 19
9.0979996 -4.8429999 -0.77600002 51 19 4
9.1099997 -4.8010001 -0.81900001 20 0 0
9.1009998 -4.803 -0.81099999 27 4 0
9.1020002 -4.8099999 -0.81800002 21 3 3
9.1059999 -4.8099999 -0.81599998 13 2 0
9.0939999 -4.8369999 -0.77999997 101 82 65
9.1110001 -4.8000002 -0.815 44 26 12
9.1129999 -4.7940001 -0.815 68 49 35
9.1040001 -4.8169999 -0.80299997 23 0 0
9.1020002 -4.7950001 -0.80800003 38 20 10
9.0869999 -4.836 -0.759 73 54 40
9.0769997 -4.8309999 -0.76999998 17 3 2
9.0780001 -4.8439999 -0.76200002 18 0 0
9.0900002 -4.8239999 -0.77200001 51 30 11
9.0430002 -4.777 -0.70499998 43 18 13
9.0430002 -4.7579999 -0.69499999 121 102 87
9.0600004 -4.7979999 -0.71899998 9 0 0
9.059 -4.7969999 -0.72100002 29 9 0
9.0629997 -4.7979999 -0.71600002 43 3 0
9.0629997 -4.7919998 -0.713 14 3 1
9.1300001 -4.862 -0.69700003 145 142 149
9.1210003 -4.8309999 -0.69300002 132 131 137
9.1359997 -4.822 -0.69 109 85 73
9.1219997 -4.8839998 -0.71399999 50 22 10
9.1289997 -4.8909998 -0.708 76 71 77
9.0830002 -4.8649998 -0.69 70 35 5
9.0769997 -4.8730001 -0.69499999 115 80 50
9.0819998 -4.8699999 -0.68300003 50 23 4
8.8760004 -4.8060002 -0.73299998 61 18 9
9 -4.8990002 -0.75 23 2 0
8.9840002 -4.9029999 -0.74299997 35 20 17
8.9989996 -4.9070001 -0.76099998 31 4 0
8.9949999 -4.902 -0.75599998 45 27 5
9.0349998 -4.763 -0.86199999 29 10 6
9.0290003 -4.7600002 -0.86900002 76 62 49
9.04 -4.7589998 -0.86400002 47 21 6
8.9709997 -4.882 -0.83099997 81 68 60
9.0389996 -4.7459998 -0.86799997 11 0 0
9.0469999 -4.7459998 -0.85900003 101 83 79
8.9630003 -4.869 -0.85000002 22 4 2
8.9630003 -4.875 -0.85000002 154 124 100
8.9280005 -4.7729998 -0.84200001 255 255 250
8.9280005 -4.7709999 -0.84899998 61 35 18
8.9200001 -4.7870002 -0.84799999 28 6 0
8.9870005 -4.7880001 -0.62 59 35 35
8.9949999 -4.7870002 -0.60100001 103 49 21
8.993 -4.7969999 -0.60399997 107 75 50
8.9910002 -4.7919998 -0.61699998 54 28 13
9.0039997 -4.796 -0.59100002 51 19 4
9.0109997 -4.7820001 -0.58499998 43 17 2
8.9440002 -4.7670002 -0.68199998 245 246 250
8.948 -4.7649999 -0.69300002 153 108 85
9.0120001 -4.7909999 -0.59100002 67 49 47
9.0200005 -4.7659998 -0.58399999 223 192 148
9.0229998 -4.756 -0.59399998 100 42 4
8.9449997 -4.77 -0.66799998 154 78 44
8.9490004 -4.7649999 -0.66299999 123 58 26
8.9569998 -4.7620001 -0.64999998 112 60 20
8.9429998 -4.7779999 -0.65499997 15 0 0
8.9429998 -4.777 -0.66799998 155 77 39
9.0340004 -4.7800002 -0.588 160 114 81
9.0290003 -4.7839999 -0.58999997 91 63 41
9.1230001 -4.823 -0.667 188 144 107
9.132 -4.8200002 -0.667 181 136 105
9.1300001 -4.8210001 -0.66799998 47 23 11
9.1090002 -4.8330002 -0.66600001 79 38 16
9.1149998 -4.8369999 -0.676 127 120 128
9.1169996 -4.849 -0.67799997 105 64 34
9.1239996 -4.8889999 -0.68599999 92 66 49
8.9440002 -4.756 -0.736 42 21 16
8.9429998 -4.7579999 -0.72299999 58 29 15
8.9429998 -4.763 -0.72500002 48 10 1
8.934 -4.7639999 -0.75 82 64 42
8.9049997 -4.7820001 -0.80500001 24 0 0
8.9130001 -4.7729998 -0.80500001 128 102 77
8.9060001 -4.7719998 -0.79500002 55 32 16
8.8920002 -4.7849998 -0.79000002 40 13 4
8.8909998 -4.7940001 -0.80000001 42 9 0
9.0310001 -4.7449999 -0.634 102 61 31
9.0299997 -4.744 -0.639 175 126 86
9.0240002 -4.7459998 -0.63099998 75 42 27
9.0360003 -4.743 -0.63499999 78 37 9
9.0279999 -4.743 -0.64899999 54 14 6
9.0380001 -4.7589998 -0.58999997 139 109 81
9.033 -4.7600002 -0.58999997 219 186 145
9.0240002 -4.7459998 -0.63599998 43 16 5
9.04 -4.7519999 -0.64600003 108 96 98
9.0410004 -4.757 -0.65700001 69 32 13
8.9589996 -4.7740002 -0.72899997 45 17 5
8.9619999 -4.7719998 -0.722 23 8 3
8.9569998 -4.7750001 -0.71600002 41 14 3
8.9519997 -4.7670002 -0.72100002 56 34 20
9 -4.8569999 -0.75099999 16 0 0
8.9910002 -4.8449998 -0.741 30 17 11
9 -4.8429999 -0.75099999 25 4 1
8.9390001 -4.816 -0.76999998 101 75 48
8.9390001 -4.8249998 -0.77499998 39 5 0
8.9440002 -4.8189998 -0.77200001 42 19 11
9.0319996 -4.79 -0.66799998 119 102 86
9.0749998 -4.8779998 -0.69199997 37 22 15
9.0780001 -4.8759999 -0.69099998 189 155 128
9.0690002 -4.8850002 -0.69 63 18 0
9.0690002 -4.8779998 -0.70200002 146 79 34
9.0579996 -4.8889999 -0.69499999 152 109 64
9.0710001 -4.881 -0.69599998 79 41 28
8.9519997 -4.757 -0.70899999 77 56 37
8.8999996 -4.7750001 -0.76800001 32 9 3
8.8999996 -4.7820001 -0.78899997 44 15 9
8.8839998 -4.7870002 -0.78100002 240 174 162
8.8889999 -4.803 -0.796 112 81 63
8.9420004 -4.7639999 -0.74199998 33 10 2
8.9490004 -4.7649999 -0.69999999 83 40 21
8.8800001 -4.7909999 -0.75400001 69 52 45
8.8780003 -4.8000002 -0.73900002 71 23 3
8.8739996 -4.7989998 -0.76300001 40 0 0
8.8789997 -4.7880001 -0.75099999 97 47 20
8.8789997 -4.7880001 -0.75700003 63 16 0
9.092 -4.8410001 -0.76999998 51 30 13
9.0889997 -4.8439999 -0.75599998 35 17 5
9.1079998 -4.8299999 -0.68699998 100 49 18
9.099 -4.8210001 -0.685 53 29 17
9.0240002 -4.7309999 -0.76800001 41 18 2
8.993 -4.75 -0.847 34 5 0
9.0030003 -4.7579999 -0.83999997 19 1 0
9 -4.757 -0.84600002 22 1 0
9.0380001 -4.7140002 -0.85000002 50 26 14
9.0229998 -4.7150002 -0.82700002 43 23 12
9.0410004 -4.7090001 -0.82499999 56 34 20
9.0369997 -4.711 -0.80599999 11 0 0
9.04 -4.763 -0.85399997 61 47 36
9.0310001 -4.7329998 -0.86500001 65 51 40
9.0340004 -4.7309999 -0.85699999 26 5 2
9.0609999 -4.717 -0.79100001 49 27 13
9.0620003 -4.7179999 -0.796 38 12 0
9.0539999 -4.7160001 -0.79699999 22 2 0
9.0649996 -4.7150002 -0.787 55 28 0
9.0570002 -4.7129998 -0.78500003 24 5 0
9.0620003 -4.7119999 -0.78100002 67 38 6
9.0670004 -4.724 -0.78100002 47 15 0
9.0749998 -4.7249999 -0.801 25 5 0
9.0690002 -4.7270002 -0.80400002 40 12 0
9.073 -4.7290001 -0.80599999 104 87 80
9.0459995 -4.7210002 -0.76599997 46 18 4
9.1020002 -4.8119998 -0.81 101 54 38
9.0979996 -4.8060002 -0.80400002 17 6 2
9.0740004 -4.7870002 -0.79299998 90 90 92
9.0749998 -4.7870002 -0.78600001 44 25 19
9.0600004 -4.7750001 -0.79299998 51 22 14
9.0780001 -4.7880001 -0.77999997 78 50 36
9.0869999 -4.79 -0.773 44 11 4
9.085 -4.7950001 -0.77899998 108 81 70
9.1070004 -4.809 -0.80400002 40 17 11
9.1000004 -4.8239999 -0.78500003 28 13 8
9.1029997 -4.8319998 -0.77100003 50 27 19
9.0500002 -4.717 -0.78399998 59 15 4
9.04 -4.7649999 -0.64399999 40 7 0
9.0450001 -4.7659998 -0.662 35 8 0
9.0439997 -4.7449999 -0.63200003 42 14 2
9.0369997 -4.77 -0.67699999 90 36 10
9.1199999 -4.8080001 -0.667 207 172 132
9.1129999 -4.8080001 -0.66500002 220 180 131
9.1160002 -4.8140001 -0.68199998 97 52 29
9.1090002 -4.8249998 -0.66600001 61 27 2
9.1000004 -4.8280001 -0.67299998 30 8 0
9.1330004 -4.8189998 -0.676 68 31 15
9.0459995 -4.7820001 -0.70899999 15 4 0
9.0469999 -4.8000002 -0.69800001 53 31 20
9.0880003 -4.7740002 -0.792 42 29 13
9.0799999 -4.7859998 -0.78299999 23 6 0
9.0749998 -4.8779998 -0.70099998 57 23 0
9.0579996 -4.803 -0.71100003 65 37 25
9.1059999 -4.822 -0.66900003 94 64 53
9.0950003 -4.823 -0.67500001 128 79 46
9.125 -4.8590002 -0.699 78 34 9
9.125 -4.8569999 -0.69 58 17 0
9.1230001 -4.8400002 -0.68699998 93 49 14
9.1129999 -4.829 -0.68900001 95 45 20
9.1359997 -4.8800001 -0.699 76 49 32
9.1040001 -4.8280001 -0.68099999 144 86 49
8.9750004 -4.9089999 -0.66600001 119 113 115
8.9709997 -4.908 -0.66100001 51 5 0
8.9700003 -4.9130001 -0.66799998 21 6 1
8.9799995 -4.9089999 -0.671 176 147 129
8.993 -4.901 -0.667 73 31 17
8.9790001 -4.901 -0.65700001 30 11 5
8.9910002 -4.8800001 -0.64099997 25 8 0
8.9949999 -4.8899999 -0.64300001 35 17 13
8.9919996 -4.888 -0.63800001 142 97 76
8.9919996 -4.8800001 -0.64600003 34 15 9
8.9460001 -4.829 -0.77999997 21 3 3
8.9689999 -4.8720002 -0.852 8 0 0
8.9879999 -4.9099998 -0.76099998 37 18 14
8.9469995 -4.8629999 -0.773 72 53 46
8.9589996 -4.855 -0.78100002 37 13 1
8.9490004 -4.8660002 -0.77600002 84 70 67
8.9879999 -4.901 -0.75300002 28 11 4
8.9799995 -4.9070001 -0.75099999 56 28 7
9.0369997 -4.7670002 -0.852 53 34 27
9.0100002 -4.8759999 -0.787 21 0 0
9.0019999 -4.8600001 -0.77600002 65 37 34
9.0030003 -4.8600001 -0.78799999 22 0 0
9.0810003 -4.842 -0.77399999 117 96 75
8.9779997 -4.8969998 -0.80900002 21 3 1
8.9779997 -4.8909998 -0.80199999 53 36 29
8.9770002 -4.8959999 -0.815 14 0 0
8.9820004 -4.8979998 -0.80400002 51 15 0
9.0310001 -4.7509999 -0.86699998 115 97 93
9.0220003 -4.7519999 -0.86199999 121 91 65
9.0369997 -4.7399998 -0.86199999 24 0 0
8.9130001 -4.8260002 -0.82599998 67 39 25
8.9099998 -4.8150001 -0.82499999 95 84 80
8.9160004 -4.8200002 -0.82700002 73 54 48
8.9219999 -4.8249998 -0.83700001 15 1 0
8.9219999 -4.8330002 -0.81400001 33 18 11
8.9160004 -4.8299999 -0.81300002 44 25 19
8.9230003 -4.8309999 -0.83499998 19 3 3
8.9209995 -4.7919998 -0.84600002 24 7 0
8.9280005 -4.789 -0.85600001 10 0 0
8.9250002 -4.8119998 -0.847 43 19 7
8.9309998 -4.796 -0.84899998 15 6 9
8.9329996 -4.7600002 -0.79299998 31 20 28
8.934 -4.7610002 -0.77100003 106 83 69
8.9180002 -4.7589998 -0.773 37 10 1
8.9289999 -4.7550001 -0.76599997 74 59 64
8.9379997 -4.7509999 -0.75999999 37 10 3
9.0220003 -4.789 -0.59200001 207 134 91
9.0240002 -4.7919998 -0.597 72 44 22
8.9919996 -4.8010001 -0.61299998 57 25 12
8.993 -4.809 -0.60900003 207 178 160
9.0179996 -4.7480001 -0.64700001 70 27 11
9.0089998 -4.7490001 -0.66000003 70 38 25
9.0100002 -4.783 -0.588 89 56 39
8.8999996 -4.7919998 -0.727 153 119 82
8.9969997 -4.809 -0.59799999 67 32 10
9.0019999 -4.7979999 -0.59799999 55 19 0
8.9519997 -4.7649999 -0.66000003 125 83 61
8.9519997 -4.7680001 -0.65600002 78 18 0
8.9490004 -4.7709999 -0.65700001 88 24 0
8.9680004 -4.7610002 -0.66600001 129 88 58
8.948 -4.7750001 -0.64499998 53 25 13
8.9560003 -4.7670002 -0.64899999 101 41 15
9.0190001 -4.7820001 -0.58600003 67 39 17
9.1120005 -4.848 -0.67699999 191 181 182
9.0019999 -4.902 -0.75599998 52 20 7
8.9980001 -4.895 -0.755 26 1 0
9.0109997 -4.8790002 -0.75099999 17 2 0
9.0039997 -4.881 -0.764 57 44 35
9.0579996 -4.8920002 -0.70899999 97 70 51
9.0609999 -4.8930001 -0.69199997 48 25 9
9.0609999 -4.8930001 -0.708 84 60 26
9.0120001 -4.8109999 -0.62099999 84 53 48
9.0059996 -4.8010001 -0.63099998 104 81 63
9.0059996 -4.8130002 -0.625 91 63 41
9.0089998 -4.8140001 -0.62 81 52 36
9.0229998 -4.8099999 -0.60900003 117 67 34
8.9440002 -4.756 -0.722 66 45 42
9.0559998 -4.7119999 -0.77499998 52 23 0
9.0270004 -4.7610002 -0.58899999 255 218 166
9.0369997 -4.7449999 -0.63999999 165 116 76
9.0389996 -4.7470002 -0.63099998 54 22 7
9.0290003 -4.7540002 -0.65700001 144 129 134
9.0200005 -4.7480001 -0.65399998 124 79 58
8.9469995 -4.7529998 -0.73000002 55 27 13
8.9490004 -4.7529998 -0.73199999 58 39 25
8.9519997 -4.75 -0.722 51 28 12
8.9680004 -4.77 -0.73000002 31 1 0
8.9659996 -4.7610002 -0.73299998 44 24 13
8.9680004 -4.7639999 -0.72799999 37 5 0
8.9519997 -4.7659998 -0.72799999 55 17 6
8.9499998 -4.7659998 -0.73199999 40 20 9
8.948 -4.7649999 -0.72399998 35 7 0
8.9849997 -4.8670001 -0.74900001 17 4 0
8.9720001 -4.8520002 -0.76499999 19 4 1
8.9910002 -4.8649998 -0.764 24 12 0
8.9309998 -4.7930002 -0.76599997 63 20 1
8.9289999 -4.8070002 -0.76700002 46 26 15
8.9440002 -4.802 -0.764 115 91 67
8.9449997 -4.777 -0.67500001 123 52 20
8.8879995 -4.7989998 -0.722 72 37 0
9.0319996 -4.79 -0.667 26 8 6
9.0360003 -4.7839999 -0.66399997 30 13 6
9.0240002 -4.7940001 -0.64999998 54 21 4
9.0190001 -4.7919998 -0.65399998 133 111 88
9.0030003 -4.8899999 -0.66299999 14 4 3
9.0059996 -4.8829999 -0.67199999 45 26 11
9.007 -4.888 -0.67199999 113 99 98
8.9659996 -4.763 -0.72100002 55 23 10
8.9630003 -4.7579999 -0.71399999 58 19 2
8.9540005 -4.7680001 -0.70899999 53 27 10
8.9899998 -4.7610002 -0.69300002 57 13 0
8.9549999 -4.7540002 -0.71399999 72 47 27
8.9680004 -4.7880001 -0.685 57 25 10
8.9589996 -4.777 -0.69999999 73 42 22
8.9610004 -4.79 -0.68599999 103 98 104
8.9689999 -4.7940001 -0.685 67 24 7
8.9759998 -4.7709999 -0.69999999 18 0 0
8.9049997 -4.7810001 -0.796 28 3 0
8.8929996 -4.803 -0.79799998 112 89 75
8.9119997 -4.8070002 -0.80199999 54 28 13
8.9020004 -4.7989998 -0.80000001 22 8 7
8.9230003 -4.7729998 -0.78899997 37 12 8
8.908 -4.7750001 -0.80000001 43 20 4
8.9169998 -4.7709999 -0.78399998 20 0 0
8.9169998 -4.7639999 -0.77100003 20 0 0
8.9469995 -4.77 -0.74400002 16 1 0
8.9440002 -4.763 -0.727 21 2 0
8.9440002 -4.7550001 -0.74599999 79 60 43
8.875 -4.7909999 -0.75999999 67 44 30
8.8850002 -4.8010001 -0.74900001 29 13 14
8.8879995 -4.8080001 -0.76599997 19 4 1
8.8839998 -4.7820001 -0.76099998 61 36 29
8.8950005 -4.7859998 -0.74400002 84 53 24
9.0860004 -4.842 -0.77100003 125 84 56
9.0950003 -4.8400002 -0.75300002 53 25 13
9.0129995 -4.7540002 -0.80400002 63 35 24
9.0170002 -4.763 -0.81800002 16 1 0
9.0229998 -4.756 -0.80299997 131 96 77
9.0450001 -4.7610002 -0.85299999 101 82 75
9.0410004 -4.7189999 -0.84799999 228 219 212
9.0799999 -4.777 -0.78399998 35 16 1
9.059 -4.7379999 -0.78100002 46 29 22
9.0629997 -4.7319999 -0.787 56 27 13
9.0579996 -4.7309999 -0.77600002 181 181 179
9.0880003 -4.8990002 -0.69400001 119 67 30
9.1000004 -4.9039998 -0.69800001 170 115 50
9.1020002 -4.8959999 -0.69199997 155 99 38
9.0860004 -4.8860002 -0.68199998 109 58 37
9.0760002 -4.8889999 -0.69300002 70 22 0
9.0970001 -4.8189998 -0.792 17 6 4
9.0869999 -4.848 -0.787 53 27 12
9.1020002 -4.8169999 -0.796 33 8 4
9.1040001 -4.8039999 -0.796 58 29 21
9.0860004 -4.7989998 -0.78799999 59 44 39
9.0909996 -4.8070002 -0.78399998 108 73 54
9.0459995 -4.7659998 -0.82300001 25 4 0
9.0310001 -4.7620001 -0.81199998 59 43 43
9.04 -4.7690001 -0.83399999 54 27 16
9.0629997 -4.777 -0.801 28 13 18
9.0679998 -4.777 -0.80800003 52 20 7
9.0670004 -4.777 -0.801 48 18 7
9.0889997 -4.8099999 -0.76599997 51 31 24
9.1059999 -4.802 -0.80400002 24 7 0
9.1000004 -4.8210001 -0.76800001 120 97 89
9.1000004 -4.8280001 -0.75 110 78 57
9.099 -4.8270001 -0.76099998 36 18 14
9.0930004 -4.8070002 -0.76499999 48 25 17
9.0430002 -4.73 -0.76499999 40 17 9
9.1099997 -4.8119998 -0.66600001 173 127 77
9.1049995 -4.8099999 -0.66500002 58 17 0
9.1120005 -4.8130002 -0.671 158 108 55
9.0369997 -4.7579999 -0.59899998 84 54 26
9.04 -4.777 -0.58700001 107 54 23
9.1289997 -4.8119998 -0.67299998 118 80 41
9.0389996 -4.7600002 -0.59500003 173 142 111
9.0410004 -4.7709999 -0.59799999 34 10 0
9.1239996 -4.8200002 -0.68900001 178 135 116
9.1160002 -4.8119998 -0.671 220 173 119
9.026 -4.7459998 -0.634 80 41 12
9.0349998 -4.777 -0.70200002 23 10 1
9.0360003 -4.7940001 -0.70300001 25 11 8
9.0509996 -4.7940001 -0.71200001 10 1 0
9.0530005 -4.7859998 -0.72899997 86 68 64
9.0469999 -4.7880001 -0.72899997 28 13 8
9.0389996 -4.7750001 -0.73799998 25 11 10
9.0530005 -4.7950001 -0.72299999 23 8 5
9.1289997 -4.8109999 -0.67699999 148 126 115
9.0380001 -4.7529998 -0.68900001 122 103 88
9.0410004 -4.8010001 -0.704 60 24 10
9.0270004 -4.7930002 -0.70300001 27 6 1
9.026 -4.7979999 -0.708 42 14 2
9.1149998 -4.8909998 -0.68400002 84 25 0
9.1239996 -4.8909998 -0.68699998 126 65 21
9.1169996 -4.8709998 -0.69999999 67 40 29
9.1059999 -4.8709998 -0.69400001 121 90 61
9.1219997 -4.8610001 -0.70099998 115 72 56
9.1049995 -4.8730001 -0.69700003 89 68 37
9.1239996 -4.8829999 -0.69 165 155 156
9.1090002 -4.823 -0.68800002 102 57 28
9.1230001 -4.8930001 -0.704 67 32 13
9.1280003 -4.8899999 -0.708 72 34 11
9.0699997 -4.8909998 -0.71100003 119 93 80
9.0640001 -4.882 -0.71200001 72 46 33
9.1339998 -4.8839998 -0.708 165 160 167
9.1280003 -4.875 -0.69300002 72 43 29
9.1029997 -4.8740001 -0.68900001 72 40 15
9.1040001 -4.8860002 -0.68699998 32 5 0
8.9799995 -4.9070001 -0.66799998 28 11 4
8.9919996 -4.902 -0.66900003 36 19 11
8.9879999 -4.881 -0.64700001 31 16 13
8.9790001 -4.881 -0.65600002 42 27 20
8.993 -4.8870001 -0.64700001 17 0 0
8.9949999 -4.8920002 -0.65399998 44 17 22
8.9910002 -4.8889999 -0.64999998 80 36 25
8.974 -4.8649998 -0.85100001 17 1 1
8.9729996 -4.8779998 -0.852 10 0 0
8.9899998 -4.9099998 -0.76599997 102 57 38
8.9989996 -4.9070001 -0.76899999 32 9 1
8.9899998 -4.8990002 -0.76700002 22 1 0
8.9989996 -4.9039998 -0.76599997 25 8 0
8.9630003 -4.869 -0.83099997 26 3 0
8.9659996 -4.8720002 -0.83399999 42 28 19
8.967 -4.875 -0.81900001 25 2 0
8.9560003 -4.8829999 -0.76800001 23 9 6
8.9239998 -4.8080001 -0.833 30 11 7
8.9499998 -4.8590002 -0.77100003 54 31 15
8.9630003 -4.8460002 -0.76499999 47 27 16
8.9729996 -4.8579998 -0.70599997 83 30 12
8.9790001 -4.8509998 -0.70099998 32 16 1
8.974 -4.8499999 -0.69999999 91 66 46
8.9849997 -4.8600001 -0.71399999 67 24 7
8.8870001 -4.8130002 -0.741 48 30 26
8.8940001 -4.8200002 -0.736 45 22 16
8.8900003 -4.8150001 -0.741 78 39 22
8.9469995 -4.8130002 -0.79000002 28 10 0
8.941 -4.8319998 -0.78799999 33 8 3
8.9390001 -4.829 -0.78899997 42 10 0
8.9960003 -4.8649998 -0.75700003 13 1 1
9.0030003 -4.849 -0.75 80 61 47
9.0059996 -4.8470001 -0.75199997 98 67 49
9.0010004 -4.8559999 -0.75300002 57 46 44
8.9799995 -4.9089999 -0.759 52 26 11
8.9720001 -4.9060001 -0.74599999 60 39 34
8.9759998 -4.902 -0.75700003 44 11 2
8.9700003 -4.901 -0.75099999 48 17 0
8.9849997 -4.8920002 -0.81 53 32 27
8.9840002 -4.8889999 -0.83899999 29 1 0
8.9779997 -4.881 -0.84799999 15 1 0
9.0039997 -4.8730001 -0.76700002 113 94 77
8.9980001 -4.8740001 -0.75700003 112 99 91
8.9720001 -4.8779998 -0.81699997 23 0 0
8.9429998 -4.8379998 -0.801 39 21 17
8.941 -4.8390002 -0.80000001 35 7 0
8.941 -4.7639999 -0.78500003 22 1 0
8.9420004 -4.7579999 -0.76700002 37 8 2
8.9770002 -4.8959999 -0.80199999 14 0 0
8.9619999 -4.8740001 -0.77999997 20 5 2
9.0319996 -4.7509999 -0.86799997 83 69 56
9.0480003 -4.7350001 -0.85299999 12 2 1
8.9209995 -4.8280001 -0.83399999 29 4 0
8.9639997 -4.8449998 -0.83099997 26 0 0
8.9560003 -4.842 -0.83499998 30 6 2
8.9639997 -4.8429999 -0.84600002 14 0 0
8.9289999 -4.7729998 -0.82700002 46 22 10
8.9289999 -4.7740002 -0.829 19 0 0
8.9230003 -4.776 -0.82099998 18 0 0
8.9320002 -4.7680001 -0.82200003 111 88 70
8.9320002 -4.7740002 -0.84299999 32 11 6
8.927 -4.7820001 -0.85600001 15 0 0
9.0129995 -4.7839999 -0.685 116 81 59
9.0059996 -4.8140001 -0.62199998 167 109 72
9.0179996 -4.7979999 -0.59799999 80 45 25
9.0059996 -4.7519999 -0.65799999 83 37 13
9.0010004 -4.7449999 -0.67699999 51 32 15
9.0030003 -4.7600002 -0.671 67 37 9
9.0080004 -4.7709999 -0.60500002 243 244 248
9.0120001 -4.7649999 -0.60299999 144 89 48
9.0109997 -4.7719998 -0.60799998 38 15 1
9.0050001 -4.79 -0.61900002 41 17 5
9.0109997 -4.7690001 -0.62099999 39 10 0
8.9960003 -4.7919998 -0.616 71 40 22
9.0089998 -4.7810001 -0.60399997 144 66 20
8.9040003 -4.7880001 -0.73299998 50 18 0
8.9119997 -4.8000002 -0.73000002 42 22 13
8.8999996 -4.8049998 -0.73000002 46 3 0
8.8999996 -4.8099999 -0.727 126 91 69
8.8929996 -4.8140001 -0.72600001 58 20 1
9.0089998 -4.8179998 -0.61000001 141 102 71
9.0089998 -4.8119998 -0.60699999 16 1 0
9.0030003 -4.8179998 -0.60600001 246 252 252
9 -4.823 -0.61000001 157 126 105
8.9910002 -4.8119998 -0.611 117 93 55
8.9969997 -4.8169999 -0.60799998 76 62 51
8.9870005 -4.869 -0.653 32 13 0
9.0010004 -4.902 -0.76099998 35 4 1
9.0559998 -4.8889999 -0.70700002 93 38 8
9.0010004 -4.802 -0.62599999 179 165 156
8.9989996 -4.8119998 -0.62 158 132 115
8.9329996 -4.7690001 -0.81800002 106 77 47
8.9359999 -4.7750001 -0.81400001 96 86 84
8.941 -4.7740002 -0.80900002 81 42 27
8.934 -4.7659998 -0.80800003 26 0 1
8.9169998 -4.7779999 -0.81199998 151 129 106
8.9049997 -4.7940001 -0.81 16 2 1
8.9160004 -4.8109999 -0.82300001 19 8 4
8.9429998 -4.7610002 -0.76999998 22 3 0
9.0550003 -4.7129998 -0.78600001 49 25 13
9.0480003 -4.717 -0.796 43 8 4
9.0480003 -4.723 -0.796 32 1 0
9.0410004 -4.7270002 -0.77600002 62 26 10
9.0319996 -4.7589998 -0.602 77 55 41
9.0150003 -4.7600002 -0.597 80 28 7
9.0170002 -4.757 -0.67199999 72 45 24
9.0120001 -4.7509999 -0.68000001 39 20 6
9.0179996 -4.757 -0.66799998 92 77 80
9.0340004 -4.7550001 -0.62699997 25 5 0
9.0380001 -4.756 -0.63800001 51 19 0
9.033 -4.776 -0.63 54 12 0
9.0209999 -4.7540002 -0.67699999 32 9 3
9.0220003 -4.7480001 -0.68599999 54 37 21
9.0340004 -4.7480001 -0.68300003 31 13 0
8.9989996 -4.757 -0.70099998 46 12 2
9.0109997 -4.7290001 -0.76099998 63 38 18
9.0050001 -4.7329998 -0.764 36 6 0
9.0039997 -4.7290001 -0.76800001 91 56 36
8.9429998 -4.7639999 -0.77999997 24 0 0
8.9580002 -4.7639999 -0.76700002 24 5 1
8.96 -4.7729998 -0.77499998 26 8 0
8.9449997 -4.7690001 -0.78500003 23 9 8
8.9589996 -4.7610002 -0.76300001 37 9 5
8.9370003 -4.7529998 -0.76300001 25 6 0
8.9569998 -4.7709999 -0.73299998 14 0 0
8.9849997 -4.8670001 -0.74400002 22 7 2
8.9899998 -4.8579998 -0.73699999 33 11 0
9.0649996 -4.8870001 -0.69199997 17 3 3
9.0039997 -4.8800001 -0.67199999 49 23 6
8.974 -4.7670002 -0.72299999 37 4 0
8.9530001 -4.77 -0.69800001 22 5 0
8.9989996 -4.763 -0.70700002 42 9 4
8.9569998 -4.7600002 -0.69199997 108 51 22
8.9630003 -4.7649999 -0.685 82 24 0
8.9560003 -4.7610002 -0.69199997 68 46 33
8.9549999 -4.7600002 -0.70599997 71 28 9
9.0179996 -4.789 -0.667 73 41 20
9.0059996 -4.789 -0.64700001 108 59 29
9.0129995 -4.7839999 -0.65700001 56 20 0
8.9989996 -4.8600001 -0.68699998 57 35 14
9.0019999 -4.8569999 -0.69599998 71 46 26
9.0109997 -4.8660002 -0.69 72 34 11
8.9809999 -4.862 -0.727 24 3 0
8.9919996 -4.8509998 -0.727 65 52 36
8.9919996 -4.8520002 -0.73199999 42 28 17
8.9689999 -4.8660002 -0.73900002 106 54 17
8.9610004 -4.783 -0.68400002 140 129 125
8.9519997 -4.7909999 -0.676 113 59 35
8.9630003 -4.7919998 -0.68400002 102 67 47
8.9779997 -4.7880001 -0.68300003 112 95 88
8.9750004 -4.803 -0.67400002 68 42 5
8.9799995 -4.79 -0.676 88 36 14
8.8970003 -4.776 -0.77399999 39 20 14
8.9160004 -4.7729998 -0.78200001 57 21 9
8.9350004 -4.8210001 -0.84299999 26 7 3
8.9300003 -4.829 -0.83399999 24 5 1
8.9390001 -4.816 -0.838 30 15 12
8.9580002 -4.849 -0.84799999 11 2 3
8.9099998 -4.8119998 -0.796 25 5 0
8.9020004 -4.8049998 -0.79299998 138 105 90
8.9130001 -4.822 -0.80599999 35 16 1
8.9119997 -4.8260002 -0.81999999 80 61 54
8.9309998 -4.7680001 -0.78399998 28 4 2
8.9350004 -4.7989998 -0.76899999 31 4 0
8.9390001 -4.776 -0.75300002 81 60 39
8.8900003 -4.7859998 -0.75199997 67 40 11
8.9139996 -4.7649999 -0.76499999 18 4 3
8.8879995 -4.7839999 -0.74599999 71 26 3
8.9560003 -4.7839999 -0.75199997 27 11 14
8.9700003 -4.7719998 -0.76200002 36 14 1
8.967 -4.7610002 -0.74599999 13 0 0
8.9680004 -4.7779999 -0.75599998 105 88 80
8.9689999 -4.776 -0.77200001 29 0 0
8.967 -4.7750001 -0.76899999 16 1 0
9.0699997 -4.7509999 -0.80900002 34 15 0
9.0679998 -4.7389998 -0.82099998 48 25 11
9.007 -4.744 -0.85299999 25 7 3
9.0010004 -4.7470002 -0.84100002 58 26 13
9.026 -4.7129998 -0.84899998 48 14 5
9.0469999 -4.763 -0.83700001 9 0 0
9.0469999 -4.756 -0.85500002 27 2 0
9.0579996 -4.7480001 -0.83899999 28 5 0
9.059 -4.7270002 -0.81 47 24 10
9.0649996 -4.7319999 -0.81199998 57 26 21
9.0539999 -4.7329998 -0.81599998 40 21 4
9.0500002 -4.7189999 -0.81900001 45 22 4
9.0550003 -4.723 -0.81099999 39 12 3
9.059 -4.7220001 -0.80199999 44 22 8
9.0380001 -4.7129998 -0.81999999 42 20 6
9.0419998 -4.71 -0.81999999 58 37 18
9.0290003 -4.7249999 -0.81800002 55 23 12
9.0279999 -4.7189999 -0.82099998 33 18 25
9.033 -4.7179999 -0.81800002 132 87 56
9.0380001 -4.7210002 -0.80699998 47 30 20
9.0179996 -4.737 -0.80500001 29 1 0
9.0209999 -4.73 -0.792 25 1 0
9.0080004 -4.7340002 -0.796 29 4 0
9.0290003 -4.7360001 -0.79299998 30 10 3
9.0360003 -4.737 -0.75700003 73 50 34
9.0290003 -4.7360001 -0.75099999 71 45 32
9.0200005 -4.7449999 -0.77399999 16 4 4
9.0150003 -4.744 -0.76599997 67 32 13
9.033 -4.7509999 -0.76800001 73 44 28
9.0769997 -4.7680001 -0.78899997 47 34 18
9.0719995 -4.7680001 -0.79000002 255 255 253
9.0790005 -4.776 -0.79299998 43 21 7
9.0710001 -4.7789998 -0.78899997 15 1 0
9.0629997 -4.7719998 -0.79299998 49 22 11
9.052 -4.7389998 -0.78399998 39 22 28
9.0360003 -4.7670002 -0.68599999 99 84 81
9.007 -4.777 -0.699 105 90 93
9.0170002 -4.783 -0.69300002 46 14 1
8.9919996 -4.7729998 -0.69 71 16 0
8.9969997 -4.7729998 -0.68800002 58 39 24
8.9919996 -4.7750001 -0.68599999 34 15 9
9.0790005 -4.8909998 -0.69300002 82 85 90
9.0830002 -4.8099999 -0.796 84 53 35
9.0860004 -4.849 -0.78600001 27 4 0
9.0719995 -4.7620001 -0.80699998 26 9 2
9.1009998 -4.8119998 -0.78500003 20 5 0
9.0950003 -4.796 -0.76800001 57 32 10
9.099 -4.8000002 -0.764 44 21 3
9.0950003 -4.8299999 -0.764 22 0 0
9.04 -4.7680001 -0.64899999 127 79 43
9.04 -4.7750001 -0.65899998 100 63 37
9.0979996 -4.8150001 -0.68099999 99 67 52
9.1009998 -4.8119998 -0.68199998 69 37 24
9.1149998 -4.8140001 -0.68400002 84 41 22
9.0360003 -4.7680001 -0.60100001 116 71 38
9.0340004 -4.7480001 -0.62599999 30 10 0
9.0410004 -4.776 -0.59100002 104 52 15
9.0380001 -4.7779999 -0.60299999 99 67 42
9.118 -4.8130002 -0.67500001 74 24 1
9.1190004 -4.823 -0.667 58 31 12
9.1169996 -4.809 -0.66500002 101 100 108
9.125 -4.8119998 -0.68699998 79 43 27
9.0270004 -4.776 -0.65899998 90 74 74
9.0459995 -4.723 -0.764 49 26 18
9.0469999 -4.7280002 -0.76200002 47 27 0
9.0220003 -4.7519999 -0.74400002 66 30 18
9.0249996 -4.7449999 -0.75199997 49 27 14
9.0229998 -4.7490001 -0.736 28 8 1
9.0310001 -4.7449999 -0.73400003 26 8 0
9.0349998 -4.743 -0.73400003 36 14 3
9.0340004 -4.7420001 -0.74800003 77 49 37
9.0369997 -4.7449999 -0.74400002 56 30 17
9.0290003 -4.7470002 -0.73699999 42 26 13
9.0270004 -4.7800002 -0.68800002 58 30 18
9.0220003 -4.7849998 -0.69700003 49 25 15
9.0240002 -4.7969999 -0.71499997 38 12 0
9.0310001 -4.7379999 -0.704 50 32 20
9.052 -4.7210002 -0.76200002 153 125 86
9.0450001 -4.7930002 -0.72600001 33 9 0
9.0670004 -4.8779998 -0.70599997 115 79 53
9.0430002 -4.8000002 -0.70700002 43 28 21
9.0389996 -4.7579999 -0.653 137 95 71
9.0909996 -4.8850002 -0.68400002 158 105 73
9.1199999 -4.8390002 -0.69 64 32 17
9.1210003 -4.849 -0.685 95 45 20
9.1129999 -4.8340001 -0.68400002 154 149 156
9.118 -4.8410001 -0.67900002 55 17 0
9.0819998 -4.848 -0.75400001 49 29 18
9.073 -4.8959999 -0.69599998 52 32 23
9.1210003 -4.8790002 -0.68800002 36 8 0
9.0889997 -4.8649998 -0.69099998 64 29 1
9.0889997 -4.8720002 -0.69700003 142 109 78
9.0959997 -4.8740001 -0.70999998 61 22 5
9.0830002 -4.8790002 -0.70300001 54 32 18
8.9890003 -4.9000001 -0.667 40 21 17
8.9720001 -4.901 -0.66100001 66 46 35
8.9840002 -4.8860002 -0.653 92 63 45
8.9630003 -4.9050002 -0.667 52 15 0
9 -4.8969998 -0.66600001 87 59 45
8.9899998 -4.8870001 -0.64399999 56 32 22
8.9879999 -4.8930001 -0.65700001 129 108 87
9.0010004 -4.7509999 -0.833 26 9 1
8.9989996 -4.7449999 -0.833 45 25 16
8.9989996 -4.7480001 -0.82200003 37 5 0
8.9729996 -4.8499999 -0.81800002 51 30 25
8.9720001 -4.8520002 -0.80599999 37 9 0
8.9689999 -4.8439999 -0.81099999 22 2 1
8.9709997 -4.8579998 -0.85000002 10 0 1
8.8850002 -4.802 -0.71700001 181 148 113
8.8839998 -4.8070002 -0.71899998 54 18 2
8.8879995 -4.8080001 -0.722 40 16 12
8.9729996 -4.8790002 -0.78500003 57 21 9
8.9809999 -4.8850002 -0.77100003 20 5 2
8.9799995 -4.8899999 -0.796 111 78 63
8.967 -4.8800001 -0.78200001 13 0 0
8.9879999 -4.8759999 -0.78500003 127 108 94
8.967 -4.8779998 -0.83899999 35 6 2
8.9429998 -4.8379998 -0.81999999 46 23 9
8.9619999 -4.8460002 -0.81999999 55 26 18
8.9639997 -4.8449998 -0.824 41 11 9
8.9659996 -4.8460002 -0.829 12 0 0
8.9639997 -4.8610001 -0.83700001 44 31 25
8.9589996 -4.849 -0.84200001 13 1 3
8.934 -4.836 -0.78600001 28 10 6
8.9280005 -4.8379998 -0.79000002 21 7 6
8.9180002 -4.8270001 -0.796 65 36 28
8.9160004 -4.822 -0.78399998 241 163 153
8.9250002 -4.829 -0.82800001 20 7 0
8.9469995 -4.8169999 -0.80500001 42 15 4
8.9209995 -4.7909999 -0.84200001 68 60 47
8.9250002 -4.7979999 -0.83899999 29 10 6
8.9239998 -4.7950001 -0.83600003 29 11 0
8.9189997 -4.7940001 -0.82300001 106 91 84
8.9759998 -4.8660002 -0.69300002 50 21 26
8.8850002 -4.8130002 -0.73400003 45 7 0
8.8809996 -4.8070002 -0.74000001 61 14 0
8.967 -4.8930001 -0.66399997 69 50 44
8.9779997 -4.8730001 -0.66299999 67 39 25
8.9420004 -4.816 -0.77100003 41 23 9
8.9379997 -4.8249998 -0.77999997 48 26 12
8.9250002 -4.8140001 -0.778 18 0 0
8.9209995 -4.8049998 -0.82499999 32 9 3
8.9969997 -4.8579998 -0.77200001 52 31 26
8.9949999 -4.8629999 -0.77899998 13 2 0
8.8909998 -4.8099999 -0.745 26 12 3
8.8979998 -4.8109999 -0.76700002 53 15 4
8.8929996 -4.8060002 -0.77100003 44 21 15
8.908 -4.816 -0.78399998 56 32 20
8.8970003 -4.803 -0.759 61 33 9
8.9250002 -4.809 -0.77600002 69 38 17
8.9960003 -4.8790002 -0.778 25 4 0
8.9899998 -4.881 -0.79799998 32 4 0
8.9989996 -4.8889999 -0.80000001 25 6 0
8.9829998 -4.8930001 -0.82200003 65 38 21
9.0050001 -4.8800001 -0.77200001 20 5 0
9.0050001 -4.8730001 -0.78600001 22 11 9
8.9729996 -4.8829999 -0.82599998 28 5 0
9.0159998 -4.7649999 -0.82700002 123 99 87
9.0050001 -4.7670002 -0.83200002 13 2 0
9.0129995 -4.7680001 -0.83700001 41 23 19
8.9549999 -4.8049998 -0.77600002 72 52 45
8.948 -4.8070002 -0.78899997 19 1 0
8.9519997 -4.8010001 -0.79699999 49 24 17
8.9460001 -4.7969999 -0.79500002 98 86 86
8.9580002 -4.7849998 -0.75800002 53 32 11
8.974 -4.8569999 -0.80599999 10 0 0
8.9729996 -4.8579998 -0.81300002 51 18 9
8.967 -4.8800001 -0.77100003 31 18 10
8.9820004 -4.8969998 -0.79699999 19 8 6
8.9540005 -4.8720002 -0.81 30 3 0
9.0190001 -4.7480001 -0.852 76 44 21
9.0139999 -4.7480001 -0.85500002 37 13 1
9.0279999 -4.7600002 -0.861 36 18 8
9.0120001 -4.7639999 -0.84600002 25 6 0
9.007 -4.7620001 -0.83600003 39 17 6
8.8950005 -4.7930002 -0.72600001 175 136 97
9.0240002 -4.7940001 -0.62900001 63 27 13
9.0270004 -4.7740002 -0.62400001 59 39 28
9.0310001 -4.7810001 -0.63300002 27 2 0
9.0200005 -4.8080001 -0.61199999 181 110 58
9.0190001 -4.8060002 -0.60900003 95 77 65
8.9980001 -4.777 -0.67799997 95 74 69
8.9969997 -4.776 -0.67199999 40 20 11
8.9809999 -4.7859998 -0.676 40 10 0
8.9949999 -4.8509998 -0.70099998 54 16 0
9.0080004 -4.8099999 -0.60399997 89 40 10
8.9569998 -4.77 -0.64200002 57 26 6
9.0200005 -4.7940001 -0.64999998 174 119 65
9.0010004 -4.789 -0.64600003 107 84 78
8.9860001 -4.8109999 -0.61900002 67 40 21
8.9680004 -4.7610002 -0.65600002 89 41 5
8.9750004 -4.7620001 -0.64300001 91 66 36
8.9720001 -4.7639999 -0.65200001 54 22 0
8.9689999 -4.763 -0.64700001 81 47 10
8.9989996 -4.79 -0.59899998 81 63 53
9.0080004 -4.777 -0.597 81 27 0
9.0019999 -4.7919998 -0.611 70 7 0
8.9849997 -4.9029999 -0.736 26 0 0
8.9840002 -4.908 -0.72500002 92 86 90
8.9879999 -4.902 -0.72399998 34 5 0
8.9820004 -4.908 -0.69700003 88 65 49
8.9809999 -4.9060001 -0.70300001 43 31 31
8.9770002 -4.9050002 -0.70099998 17 4 0
8.9910002 -4.902 -0.71200001 38 5 0
8.9069996 -4.7930002 -0.73699999 106 76 50
8.901 -4.7859998 -0.74000001 74 44 20
8.8909998 -4.809 -0.72399998 40 19 14
9.0010004 -4.8130002 -0.602 110 59 14
9.0039997 -4.8189998 -0.61699998 174 160 157
8.9469995 -4.7709999 -0.662 93 21 0
8.9630003 -4.7620001 -0.66500002 203 158 119
8.9919996 -4.7680001 -0.65600002 60 18 4
9.0129995 -4.7589998 -0.64399999 115 89 74
8.974 -4.7659998 -0.653 60 27 10
8.9879999 -4.8699999 -0.65799999 59 37 23
8.9770002 -4.8629999 -0.67000002 80 70 71
8.9799995 -4.8699999 -0.66299999 108 93 90
8.9490004 -4.7940001 -0.65499997 122 99 83
8.9519997 -4.7969999 -0.66299999 84 56 42
8.9549999 -4.8039999 -0.65799999 140 106 79
8.9460001 -4.783 -0.66900003 100 26 0
8.948 -4.7859998 -0.65799999 64 35 19
9.0100002 -4.8839998 -0.74400002 24 3 0
9.0039997 -4.8889999 -0.74299997 29 13 13
9.0089998 -4.8779998 -0.74400002 17 0 0
9.0010004 -4.7919998 -0.625 95 63 50
9 -4.7399998 -0.81300002 47 11 0
9.0030003 -4.743 -0.81199998 56 29 18
9.0010004 -4.7410002 -0.80500001 21 0 0
8.9139996 -4.7789998 -0.81199998 17 2 0
8.9469995 -4.7509999 -0.75 95 71 47
9.0509996 -4.717 -0.79000002 55 15 7
9.0150003 -4.7649999 -0.59200001 90 26 0
9.0279999 -4.7550001 -0.67400002 38 11 0
9.0050001 -4.7519999 -0.69499999 51 13 0
8.941 -4.7989998 -0.78200001 35 18 10
8.9560003 -4.75 -0.73900002 39 8 6
8.9630003 -4.7589998 -0.74599999 46 13 0
9.0030003 -4.7329998 -0.76999998 45 15 5
9.0010004 -4.737 -0.77899998 73 68 46
9.0019999 -4.7319999 -0.77600002 37 8 0
9.0030003 -4.7270002 -0.77499998 61 29 14
8.9650002 -4.7639999 -0.74000001 20 1 0
8.9779997 -4.902 -0.74000001 38 3 0
8.9689999 -4.9000001 -0.745 73 42 22
8.967 -4.895 -0.74000001 14 3 1
8.9709997 -4.901 -0.73900002 182 156 131
8.9689999 -4.8699999 -0.741 154 139 136
8.9610004 -4.8730001 -0.75800002 51 34 27
8.967 -4.8720002 -0.75300002 37 19 0
8.9770002 -4.8769999 -0.74900001 93 68 46
8.9729996 -4.8720002 -0.73799998 26 9 0
8.9619999 -4.8860002 -0.759 212 148 146
8.9759998 -4.8909998 -0.76099998 9 0 0
8.967 -4.908 -0.66799998 189 168 147
8.9689999 -4.915 -0.67699999 51 27 15
8.9949999 -4.8779998 -0.66500002 41 22 8
8.9689999 -4.7639999 -0.72100002 34 1 0
8.974 -4.7639999 -0.704 67 25 9
8.9949999 -4.7620001 -0.68199998 127 77 52
8.9750004 -4.7690001 -0.69300002 91 44 24
8.9840002 -4.7839999 -0.68300003 65 36 22
8.9940004 -4.77 -0.69999999 55 43 21
9.0050001 -4.7690001 -0.70099998 43 21 10
8.9720001 -4.7639999 -0.67199999 86 23 0
8.9709997 -4.7670002 -0.67299998 72 30 8
8.9809999 -4.7719998 -0.66100001 33 16 9
8.9549999 -4.7600002 -0.69599998 60 37 23
9.0129995 -4.7779999 -0.67500001 66 36 10
8.9849997 -4.8660002 -0.671 38 18 7
9.0039997 -4.8660002 -0.68400002 60 42 22
9.0290003 -4.8039999 -0.71399999 42 13 0
9.0310001 -4.7940001 -0.72600001 118 85 66
8.9809999 -4.8660002 -0.73299998 38 15 7
8.9510002 -4.79 -0.67000002 116 51 21
8.9519997 -4.7919998 -0.67000002 59 28 8
8.9630003 -4.8010001 -0.676 123 101 88
8.9569998 -4.7719998 -0.68800002 120 63 34
8.9110003 -4.7979999 -0.76700002 18 4 1
8.9440002 -4.7880001 -0.82099998 42 10 0
8.9420004 -4.7919998 -0.82700002 64 67 56
8.948 -4.79 -0.83200002 78 67 65
8.9429998 -4.7859998 -0.82499999 40 13 4
8.9420004 -4.7800002 -0.83600003 53 34 20
8.9029999 -4.7870002 -0.80699998 80 68 72
8.8920002 -4.7989998 -0.77700001 16 1 0
8.8970003 -4.8049998 -0.78799999 88 73 76
8.9119997 -4.822 -0.82200003 21 1 0
8.9130001 -4.8119998 -0.801 16 5 3
8.9429998 -4.7880001 -0.76099998 109 87 64
8.8870001 -4.7849998 -0.75099999 57 18 1
8.927 -4.7680001 -0.76499999 55 25 15
8.9329996 -4.7659998 -0.75999999 106 71 49
8.9759998 -4.7719998 -0.72299999 44 11 0
8.9779997 -4.7719998 -0.722 29 12 5
8.9610004 -4.7750001 -0.75400001 76 49 38
8.9469995 -4.8000002 -0.76300001 40 13 2
9.0249996 -4.7849998 -0.72399998 31 4 0
9.0220003 -4.7789998 -0.72100002 78 49 43
8.9650002 -4.7659998 -0.75599998 112 89 75
8.9689999 -4.7729998 -0.76099998 49 14 0
9.0699997 -4.7659998 -0.79799998 251 252 246
9.0649996 -4.7579999 -0.80500001 133 133 125
9.0629997 -4.7540002 -0.81300002 41 37 28
9.0640001 -4.7659998 -0.81099999 59 37 23
9.0220003 -4.7420001 -0.84299999 33 9 0
9.0010004 -4.7470002 -0.81999999 52 23 9
9.0419998 -4.75 -0.833 44 24 17
9.0439997 -4.7459998 -0.833 37 20 12
9.052 -4.7639999 -0.84299999 29 13 16
9.0679998 -4.7319999 -0.81 35 14 0
9.0629997 -4.7420001 -0.82499999 50 27 13
9.0469999 -4.756 -0.81599998 50 31 24
9.0319996 -4.7160001 -0.82300001 38 22 22
9.0419998 -4.717 -0.80699998 66 44 31
9.0319996 -4.7290001 -0.81400001 27 6 1
9.0100002 -4.7420001 -0.81099999 108 80 58
9.0389996 -4.75 -0.78100002 76 55 52
9.033 -4.757 -0.801 72 42 31
9.0459995 -4.7480001 -0.79000002 46 31 26
9.026 -4.7410002 -0.78299999 115 88 69
9.0530005 -4.7509999 -0.77100003 51 31 24
9.0179996 -4.744 -0.78799999 106 84 70
9.0299997 -4.7470002 -0.75800002 74 45 29
9.0419998 -4.75 -0.76700002 57 30 19
9.0459995 -4.7490001 -0.759 25 7 7
9.0369997 -4.7659998 -0.74000001 30 12 0
9.0249996 -4.7620001 -0.73699999 37 12 7
9.033 -4.7719998 -0.73299998 46 27 20
9.0139999 -4.744 -0.78500003 14 2 2
9.0039997 -4.743 -0.792 38 4 0
9.0080004 -4.744 -0.79400003 49 27 14
9.0539999 -4.7459998 -0.76999998 49 27 13
9.0270004 -4.7870002 -0.72500002 83 48 29
9.0430002 -4.79 -0.72799999 41 23 13
9.0369997 -4.7839999 -0.73000002 29 14 7
9.0349998 -4.7709999 -0.69700003 82 75 82
9.0369997 -4.7649999 -0.70499998 23 10 2
9.0860004 -4.842 -0.78500003 28 7 4
9.0930004 -4.8140001 -0.79100001 122 70 46
9.0769997 -4.9039998 -0.708 65 46 39
9.0769997 -4.7740002 -0.80199999 49 30 16
9.0699997 -4.7750001 -0.80800003 55 33 20
9.0530005 -4.7579999 -0.81199998 93 73 62
9.0600004 -4.7690001 -0.80599999 57 28 14
9.1029997 -4.8169999 -0.78299999 33 13 2
9.1110001 -4.8130002 -0.76899999 88 51 33
9.1040001 -4.7989998 -0.77700001 21 6 0
9.1000004 -4.8000002 -0.76899999 98 76 65
9.0539999 -4.7839999 -0.72500002 25 11 2
9.0909996 -4.79 -0.77899998 33 20 14
9.0380001 -4.7820001 -0.66900003 101 56 35
9.0369997 -4.7719998 -0.66799998 74 42 17
9.0279999 -4.7600002 -0.60600001 48 21 10
9.0319996 -4.77 -0.60900003 51 27 17
9.0319996 -4.7459998 -0.63 55 24 6
9.0349998 -4.7779999 -0.58999997 115 85 49
9.132 -4.8210001 -0.68599999 146 102 75
9.1339998 -4.8169999 -0.685 128 89 56
9.1230001 -4.8130002 -0.685 96 58 35
9.0190001 -4.7319999 -0.75400001 49 25 13
9.0270004 -4.743 -0.71700001 33 3 1
9.0290003 -4.743 -0.71899998 46 29 11
9.0279999 -4.7420001 -0.71399999 46 30 15
9.0249996 -4.79 -0.71600002 43 29 29
9.0240002 -4.7789998 -0.71399999 51 23 12
9.0459995 -4.7490001 -0.73199999 47 29 15
9.0509996 -4.7470002 -0.72500002 47 27 20
9.0349998 -4.7420001 -0.72899997 33 14 0
9.0410004 -4.7490001 -0.741 53 29 17
9.0600004 -4.723 -0.76300001 130 99 55
9.0539999 -4.73 -0.76800001 47 28 0
9.0469999 -4.756 -0.73199999 38 21 13
9.0410004 -4.7529998 -0.736 46 26 19
9.0389996 -4.7529998 -0.708 26 9 1
9.0340004 -4.7410002 -0.70999998 49 33 18
9.0579996 -4.757 -0.71899998 53 34 27
9.04 -4.7480001 -0.71700001 21 5 0
9.0629997 -4.881 -0.70499998 92 55 37
9.0279999 -4.7449999 -0.64300001 113 77 55
9.099 -4.8759999 -0.68900001 97 66 38
9.099 -4.8670001 -0.69199997 111 76 57
9.1070004 -4.8439999 -0.68000001 103 46 17
9.0860004 -4.8410001 -0.75 19 2 0
9.0830002 -4.8990002 -0.69499999 44 18 3
9.0959997 -4.8979998 -0.70499998 255 212 149
9.0880003 -4.9039998 -0.70999998 246 246 254
9.092 -4.8969998 -0.71200001 85 57 33
9.1120005 -4.8779998 -0.69099998 136 106 78
9.1210003 -4.888 -0.69700003 132 88 61
9.1009998 -4.8930001 -0.71700001 56 27 11
9.1140003 -4.8740001 -0.704 138 110 99
9.0790005 -4.881 -0.70599997 141 126 121
9.1190004 -4.8730001 -0.71100003 69 44 37
9 -4.8930001 -0.662 106 65 37
8.9960003 -4.8969998 -0.68000001 60 37 21
8.9840002 -4.9060001 -0.68900001 28 8 1
8.9989996 -4.9000001 -0.69499999 77 31 8
8.9809999 -4.8930001 -0.65700001 130 116 103
8.9919996 -4.8969998 -0.662 35 21 18
8.9809999 -4.8730001 -0.847 70 48 34
8.9799995 -4.8660002 -0.84600002 19 1 0
8.96 -4.8600001 -0.81999999 51 23 12
8.9160004 -4.8270001 -0.82300001 23 9 8
8.9399996 -4.8330002 -0.81699997 18 1 0
8.9370003 -4.8330002 -0.79699999 54 25 7
8.967 -4.8449998 -0.81800002 48 15 0
8.9429998 -4.8309999 -0.815 14 3 1
8.927 -4.8189998 -0.81999999 82 52 42
8.934 -4.8169999 -0.82700002 11 0 0
8.9130001 -4.7940001 -0.81599998 42 15 6
8.9560003 -4.8660002 -0.76300001 38 21 14
8.9580002 -4.8629999 -0.76300001 40 14 1
8.9619999 -4.8660002 -0.75999999 36 14 1
8.9639997 -4.8530002 -0.76700002 53 27 14
8.8809996 -4.809 -0.73000002 31 13 11
8.8850002 -4.809 -0.72899997 80 61 46
8.8900003 -4.8150001 -0.73500001 82 50 37
8.9189997 -4.8210001 -0.78399998 28 0 0
8.967 -4.8460002 -0.77100003 34 17 10
8.9860001 -4.9039998 -0.76300001 15 1 0
8.8909998 -4.8109999 -0.74400002 101 78 64
8.9919996 -4.8889999 -0.81199998 16 0 0
8.9840002 -4.8889999 -0.81800002 49 19 11
9.0019999 -4.8649998 -0.79299998 120 91 77
9.0819998 -4.8499999 -0.78500003 109 87 66
8.9750004 -4.8579998 -0.81999999 41 11 1
8.9700003 -4.8779998 -0.80299997 36 2 0
8.9619999 -4.8759999 -0.80500001 101 73 59
8.9469995 -4.8150001 -0.80400002 40 10 0
8.9589996 -4.7849998 -0.76200002 52 14 1
8.9549999 -4.8080001 -0.76899999 45 26 19
8.9499998 -4.8150001 -0.77499998 48 12 0
8.9700003 -4.8600001 -0.80299997 16 0 0
8.9610004 -4.8509998 -0.81099999 63 37 20
8.9650002 -4.8660002 -0.79500002 40 19 14
8.9619999 -4.868 -0.78600001 21 5 5
8.9540005 -4.8720002 -0.80400002 39 11 7
8.9519997 -4.868 -0.80299997 96 83 77
8.9499998 -4.849 -0.83399999 33 14 8
9.0459995 -4.7119999 -0.82700002 35 17 7
9.0530005 -4.7290001 -0.84799999 52 34 34
9.0410004 -4.7179999 -0.83999997 157 148 139
9.0509996 -4.7449999 -0.84200001 48 31 23
8.9969997 -4.756 -0.85100001 36 27 30
9.007 -4.7519999 -0.85500002 15 2 0
9.0159998 -4.763 -0.86000001 35 15 8
9.0200005 -4.756 -0.847 50 31 24
9.0170002 -4.7620001 -0.84100002 23 12 18
9.0380001 -4.7600002 -0.84500003 61 49 35
9.0279999 -4.7550001 -0.838 94 66 54
9.0240002 -4.7940001 -0.63200003 102 55 27
9.0139999 -4.7930002 -0.616 95 49 16
8.9630003 -4.763 -0.65100002 168 121 77
9.0100002 -4.7779999 -0.68400002 23 9 8
8.9969997 -4.8569999 -0.69499999 67 41 18
9.0030003 -4.8579998 -0.70599997 55 29 14
8.9849997 -4.8540001 -0.69199997 130 112 98
9.0019999 -4.8099999 -0.60000002 52 35 27
8.9700003 -4.7639999 -0.64300001 83 56 29
8.9750004 -4.7709999 -0.64399999 89 46 29
8.9829998 -4.8730001 -0.65499997 49 38 34
8.9949999 -4.7989998 -0.62300003 48 31 5
8.9860001 -4.809 -0.62300003 55 39 13
8.9700003 -4.763 -0.65200001 113 71 31
9.0150003 -4.7540002 -0.64700001 65 24 4
9.0220003 -4.7490001 -0.63599998 63 34 20
9.0080004 -4.7870002 -0.59100002 65 34 16
8.9910002 -4.8790002 -0.64999998 35 16 9
9.0170002 -4.8829999 -0.70599997 86 50 26
9.0109997 -4.882 -0.70599997 51 32 18
9.0159998 -4.8870001 -0.704 72 29 10
9.0030003 -4.8920002 -0.70700002 43 3 0
8.9799995 -4.9050002 -0.73100001 29 12 4
8.9110003 -4.8049998 -0.745 47 23 13
8.908 -4.7989998 -0.74400002 43 18 11
8.9239998 -4.7719998 -0.764 40 26 25
8.9069996 -4.7789998 -0.76800001 46 29 13
8.901 -4.8119998 -0.73199999 110 99 97
8.9069996 -4.802 -0.73199999 11 0 0
8.9989996 -4.8119998 -0.59899998 170 139 119
8.9540005 -4.7789998 -0.64300001 51 24 7
8.9589996 -4.7649999 -0.64600003 92 49 17
8.967 -4.7600002 -0.66100001 109 63 27
9.0059996 -4.7690001 -0.653 71 72 77
8.9759998 -4.7680001 -0.64700001 60 31 17
8.9750004 -4.7800002 -0.64700001 204 165 132
9.0010004 -4.7800002 -0.65499997 50 32 18
8.9499998 -4.7919998 -0.66299999 77 43 16
8.9449997 -4.783 -0.67500001 82 21 0
8.9510002 -4.783 -0.653 72 41 20
9 -4.8839998 -0.72799999 36 17 13
8.9309998 -4.7670002 -0.79400003 22 1 0
8.9119997 -4.7859998 -0.82099998 122 103 96
8.9510002 -4.7839999 -0.77600002 32 13 7
9.0290003 -4.776 -0.58700001 144 124 115
9.0019999 -4.7459998 -0.68199998 48 31 15
9.0120001 -4.7550001 -0.708 46 12 0
9.0080004 -4.763 -0.704 98 64 39
9.0229998 -4.756 -0.67299998 55 29 16
9.0170002 -4.75 -0.69700003 26 7 1
9.0270004 -4.7540002 -0.67799997 29 6 0
8.9440002 -4.7820001 -0.78799999 113 76 58
8.9420004 -4.7680001 -0.79400003 47 28 21
9.0019999 -4.7319999 -0.78899997 41 16 11
9.0120001 -4.7399998 -0.76499999 41 14 5
8.948 -4.7529998 -0.755 61 35 8
8.9510002 -4.7620001 -0.76200002 58 37 16
8.9350004 -4.763 -0.75300002 48 29 33
8.993 -4.8530002 -0.73799998 14 3 0
9.0080004 -4.8769999 -0.74400002 18 7 5
8.9989996 -4.8639998 -0.736 56 32 28
8.993 -4.8579998 -0.71399999 40 1 0
8.9639997 -4.8839998 -0.76499999 39 20 14
8.9759998 -4.9050002 -0.69 36 23 17
8.9680004 -4.9000001 -0.69499999 35 12 0
8.9680004 -4.901 -0.68000001 45 18 25
8.9610004 -4.7719998 -0.70999998 91 72 65
8.9729996 -4.7659998 -0.71399999 58 15 0
8.9879999 -4.7779999 -0.662 65 24 0
8.9809999 -4.7839999 -0.65499997 107 46 17
8.974 -4.7670002 -0.662 58 22 0
8.9989996 -4.7719998 -0.676 92 46 20
9.0019999 -4.763 -0.676 122 72 47
9.0019999 -4.7529998 -0.67900002 54 33 14
8.9689999 -4.763 -0.69700003 68 27 7
8.9530001 -4.7610002 -0.69800001 73 26 0
8.9759998 -4.8660002 -0.699 27 9 5
9.0019999 -4.8779998 -0.676 42 23 9
8.9849997 -4.8579998 -0.708 36 22 9
8.9560003 -4.7969999 -0.653 52 42 33
8.9770002 -4.783 -0.65499997 114 54 17
8.9750004 -4.783 -0.65600002 59 27 14
8.8920002 -4.7839999 -0.77999997 40 11 3
8.9200001 -4.7989998 -0.76999998 51 18 3
8.9390001 -4.7940001 -0.829 16 1 0
8.8909998 -4.7930002 -0.79299998 92 75 81
8.9119997 -4.8260002 -0.81999999 80 61 54
8.9160004 -4.8179998 -0.815 82 66 53
8.9139996 -4.8239999 -0.79400003 42 19 5
8.9329996 -4.7870002 -0.76700002 118 39 35
8.9329996 -4.776 -0.76200002 116 95 76
8.8889999 -4.7849998 -0.75700003 60 34 11
8.9029999 -4.7989998 -0.755 124 73 42
8.9139996 -4.7940001 -0.76700002 46 24 13
9.1230001 -4.8860002 -0.70999998 87 56 36
8.9560003 -4.7820001 -0.75199997 35 18 0
8.9619999 -4.7740002 -0.75400001 43 23 16
8.9519997 -4.8039999 -0.76599997 154 130 106
8.9490004 -4.809 -0.77100003 23 5 1
9.0509996 -4.7540002 -0.801 22 5 0
9.0240002 -4.7179999 -0.84899998 36 3 0
9.026 -4.7199998 -0.84600002 46 7 2
9.0380001 -4.7280002 -0.85100001 24 4 0
9.0059996 -4.744 -0.84100002 24 10 9
9.0059996 -4.7379999 -0.829 38 21 3
9.0089998 -4.743 -0.83600003 37 17 8
9.0089998 -4.7360001 -0.82200003 64 32 19
9.0249996 -4.7270002 -0.82999998 17 2 0
9.04 -4.7579999 -0.81800002 95 74 69
9.0629997 -4.77 -0.81300002 50 20 9
9.0489998 -4.757 -0.85000002 127 107 100
9.0459995 -4.7540002 -0.80599999 22 9 0
9.059 -4.7309999 -0.79799998 37 10 3
9.0629997 -4.7329998 -0.80400002 43 24 9
9.0670004 -4.7319999 -0.80599999 54 25 17
9.0539999 -4.7540002 -0.81199998 25 4 0
9.0509996 -4.7290001 -0.81599998 35 13 2
9.0480003 -4.73 -0.833 60 52 41
9.0360003 -4.7119999 -0.82700002 51 27 17
9.033 -4.7340002 -0.80699998 56 19 3
9.0279999 -4.737 -0.80599999 26 0 0
9.0270004 -4.7309999 -0.81800002 50 21 15
9.0240002 -4.7360001 -0.81 38 1 0
9.0500002 -4.7449999 -0.78500003 40 24 11
9.0500002 -4.7509999 -0.801 39 20 14
9.0469999 -4.7420001 -0.79799998 29 12 5
