ply
format ascii 1.0
comment PCL generated
element vertex 1206
property float x
property float y
property float z
property uchar red
property uchar green
property uchar blue
element camera 0
property float view_px
property float view_py
property float view_pz
property float x_axisx
property float x_axisy
property float x_axisz
property float y_axisx
property float y_axisy
property float y_axisz
property float z_axisx
property float z_axisy
property float z_axisz
property float focal
property float scalex
property float scaley
property float centerx
property float centery
property int viewportx
property int viewporty
property float k1
property float k2
end_header
-1.0190001 2.9300001 -0.48899999 82 51 23
-1.0369999 2.938 -0.495 255 197 157
-1.062 2.9230001 -0.49399999 122 60 19
-0.53200001 2.9030001 -0.866 146 119 98
-0.51700002 2.908 -0.87 139 106 89
-0.52999997 2.9059999 -0.87199998 175 130 91
-0.579 3.0079999 -0.78600001 142 140 128
-0.58600003 3.0039999 -0.79400003 51 15 1
-0.71499997 2.9779999 -0.81699997 122 81 49
-0.71200001 2.9860001 -0.82300001 95 50 17
-0.74299997 2.9719999 -0.81 24 3 0
-0.64899999 3.0079999 -0.69400001 119 83 57
-0.67699999 3.01 -0.75700003 140 124 111
-0.67900002 3.0109999 -0.76200002 111 73 50
-0.67699999 3.01 -0.755 132 112 101
-0.68599999 3.016 -0.74900001 88 42 18
-0.53899997 2.904 -0.70099998 167 127 102
-0.546 2.905 -0.704 160 86 37
-0.537 2.9159999 -0.72100002 139 75 37
-0.55400002 2.9070001 -0.722 100 64 42
-0.56099999 2.9100001 -0.73799998 179 128 107
-0.55599999 2.9089999 -0.72899997 51 22 8
-0.57800001 2.9000001 -0.73199999 73 27 3
-0.57200003 2.9070001 -0.72899997 198 140 90
-0.57499999 2.9070001 -0.73500001 75 30 7
-0.579 2.9030001 -0.73699999 119 81 60
-0.56 2.9100001 -0.74299997 127 86 64
-0.69599998 3.0799999 -1.006 72 41 23
-0.69499999 3.0799999 -1.0039999 120 89 69
-0.79900002 2.924 -0.89999998 106 67 26
-0.84100002 2.904 -0.755 95 88 44
-0.84200001 2.904 -0.759 255 228 187
-0.82999998 2.8970001 -0.75999999 72 51 32
-0.75999999 2.964 -0.76499999 233 188 133
-0.764 2.9619999 -0.75999999 72 38 11
-0.75300002 2.96 -0.77200001 100 52 16
-0.75400001 2.961 -0.773 83 38 9
-0.74699998 2.9719999 -0.76499999 135 100 81
-0.75 2.9579999 -0.78299999 54 11 0
-0.76700002 2.9719999 -0.78100002 136 104 89
-0.83099997 2.9170001 -0.764 255 216 157
-0.81999999 2.9189999 -0.75599998 119 60 30
-0.829 2.9230001 -0.76300001 175 145 117
-0.83700001 2.9170001 -0.78100002 161 81 22
-0.829 2.9089999 -0.759 165 149 150
-0.83099997 2.9189999 -0.79799998 114 56 10
-0.83200002 2.9100001 -0.796 54 31 15
-0.84600002 2.891 -0.94700003 156 129 84
-0.84500003 2.8900001 -0.94099998 72 49 33
-0.83899999 2.898 -0.949 131 125 127
-0.83200002 2.9000001 -0.95300001 95 35 1
-0.83499998 2.8989999 -0.94 210 177 158
-0.84799999 2.8889999 -0.93599999 120 113 97
-0.56099999 2.8510001 -1.01 164 137 110
-0.83999997 2.895 -0.98199999 168 96 37
-0.84299999 2.881 -0.98100001 122 73 33
-0.84399998 2.895 -0.96899998 198 162 146
-0.82599998 2.9100001 -0.95999998 89 55 45
-0.95300001 2.793 -0.792 135 108 97
-0.98000002 2.8110001 -0.87099999 60 39 22
-0.986 2.8099999 -0.87699997 93 72 53
-0.97899997 2.812 -0.85600001 116 85 57
-0.98299998 2.8110001 -0.86299998 208 160 124
-0.85799998 2.934 -1.068 40 2 0
-0.87099999 2.9389999 -1.068 41 10 5
-0.995 2.878 -1.056 79 20 4
-0.99299997 2.8800001 -1.051 97 47 22
-0.82099998 2.8929999 -1.0549999 125 90 50
-0.83600003 2.8840001 -1.053 153 72 19
-0.99000001 2.7939999 -0.93099999 249 208 94
-0.97899997 2.839 -1.0549999 114 109 103
-0.97799999 2.826 -1.05 156 149 143
-0.84600002 2.925 -1.059 213 136 108
-0.99000001 2.7909999 -0.949 244 233 203
-0.97799999 2.8440001 -0.954 153 120 111
-0.97899997 2.8299999 -0.96899998 141 81 47
-0.98400003 2.8340001 -0.79900002 148 145 152
-0.96499997 2.8310001 -0.79400003 72 48 36
-0.98299998 2.8299999 -0.80199999 141 140 146
-0.98699999 2.839 -0.80400002 155 150 154
-1.023 2.8369999 -0.92500001 114 106 87
-1.03 2.855 -0.93199998 30 10 0
-1.024 2.849 -0.91100001 100 47 7
-1.035 2.8399999 -0.93599999 181 162 155
-1.038 2.8410001 -0.94 123 112 84
-1.031 2.859 -0.92799997 130 84 58
-1.027 2.8610001 -0.93199998 133 97 73
-0.91299999 2.941 -0.91100001 145 136 139
-0.912 2.9349999 -0.90700001 148 113 94
-0.852 2.9430001 -0.89600003 92 72 65
-0.85299999 2.944 -0.90600002 108 44 17
-0.866 2.9489999 -0.89700001 129 106 92
-0.84799999 2.944 -0.89700001 84 41 7
-0.83200002 2.9189999 -0.861 143 112 94
-0.83200002 2.9089999 -0.85399997 38 12 0
-0.833 2.905 -0.86500001 161 155 143
-0.82800001 2.9300001 -0.86500001 185 157 145
-0.829 2.927 -0.852 138 70 33
-1.0369999 2.8840001 -0.71100003 63 29 4
-1.03 2.904 -0.69999999 230 186 141
-1.0369999 2.8940001 -0.69800001 107 52 11
-0.95300001 3.0109999 -0.65899998 80 35 14
-0.97100002 3.0220001 -0.64499998 181 99 43
-0.95599997 3.0250001 -0.65499997 196 123 72
-0.95099998 3.0120001 -0.65700001 47 23 13
-0.97000003 3.0090001 -0.64099997 126 77 47
-0.963 3.027 -0.64300001 70 37 18
-1.007 2.869 -1.0089999 139 133 143
-1.002 2.8670001 -1.007 66 37 23
-1.067 2.862 -1.0039999 147 137 136
-0.90200001 2.9389999 -0.92199999 75 33 17
-0.898 2.938 -0.935 213 178 148
-0.90899998 2.944 -0.91000003 214 160 113
-0.903 2.9519999 -0.91000003 120 79 47
-0.89600003 2.941 -0.94300002 142 104 42
-0.90100002 2.9319999 -0.95499998 67 29 16
-0.90200001 2.9349999 -0.95999998 63 33 23
-0.89499998 2.944 -0.97299999 140 101 60
-0.89499998 2.96 -0.84500003 78 26 2
-0.89499998 2.9560001 -0.85500002 171 107 63
-0.88999999 2.964 -0.84500003 130 106 96
-0.898 2.9549999 -0.84600002 148 142 144
-0.91600001 2.924 -0.90200001 170 159 165
-0.91600001 2.9200001 -0.89600003 143 89 51
-0.91399997 2.9119999 -0.90499997 206 164 140
-0.889 2.9690001 -0.83200002 105 63 51
-0.903 2.971 -0.79299998 142 93 63
-0.90399998 2.967 -0.79900002 125 85 49
-0.90799999 2.964 -0.79900002 57 34 26
-0.88800001 2.974 -0.75800002 156 110 51
-0.88200003 2.9779999 -0.74400002 87 50 24
-0.89700001 2.9809999 -0.75999999 208 135 67
-0.88999999 2.9790001 -0.77200001 251 191 129
-0.78200001 3.0829999 -0.93199998 43 34 37
-0.77100003 3.086 -0.93000001 169 146 128
-0.89899999 2.9400001 -0.85000002 176 157 143
-0.90100002 2.9389999 -0.84600002 188 169 154
-0.903 2.9489999 -0.83600003 90 85 92
-0.90499997 2.937 -0.83600003 180 152 138
-0.90600002 2.9119999 -0.898 209 164 125
-0.90700001 2.9130001 -0.89899999 74 29 0
-0.90399998 2.9189999 -0.89099997 72 28 0
-0.90399998 2.914 -0.89600003 101 51 18
-0.51499999 2.8740001 -0.40799999 154 82 32
-0.477 2.882 -0.42399999 90 51 34
-0.48100001 2.8840001 -0.43599999 35 25 16
-0.48100001 2.885 -0.43200001 24 11 5
-0.48300001 2.8959999 -0.375 206 153 103
-0.48300001 2.9000001 -0.375 212 154 108
-0.47799999 2.8989999 -0.37599999 112 58 24
-0.44999999 2.915 -0.405 166 103 60
-0.5 2.99 -0.648 166 140 125
-0.50300002 2.98 -0.63999999 156 99 56
-0.50999999 2.997 -0.64899999 86 67 53
-0.53100002 3.0150001 -0.63200003 191 153 116
-0.52600002 3.0239999 -0.62 106 69 42
-0.528 3.0109999 -0.62099999 199 183 183
-0.53200001 3.0020001 -0.62300003 174 152 138
-0.43799999 2.918 -0.61400002 103 54 22
-0.55500001 3.007 -0.653 126 80 46
-0.53899997 3.006 -0.67400002 174 150 140
-0.48699999 2.927 -0.61799997 85 40 19
-0.49700001 2.9219999 -0.61900002 109 67 45
-0.45899999 2.9389999 -0.61199999 52 21 3
-0.47 2.9119999 -0.56999999 49 9 0
-0.47299999 2.908 -0.57700002 39 29 19
-0.47299999 2.9030001 -0.56800002 19 12 2
-0.46900001 2.911 -0.55199999 68 30 9
-0.46399999 2.9230001 -0.56 103 84 88
-0.465 2.924 -0.565 26 10 10
-0.454 2.905 -0.59899998 178 108 57
-0.46000001 2.911 -0.59399998 58 15 0
-0.46599999 2.9070001 -0.59899998 167 113 66
-0.47 2.9159999 -0.579 47 3 0
-0.463 2.9119999 -0.59200001 95 69 42
-0.44 2.9389999 -0.60500002 134 81 37
-0.47299999 2.9349999 -0.60299999 64 35 19
-0.52700001 3 -0.57300001 210 147 103
-0.53299999 3.003 -0.58200002 95 45 10
-0.486 2.931 -0.509 66 29 11
-0.51700002 3.0150001 -0.55199999 65 37 25
-0.514 3.0179999 -0.55500001 26 12 1
-0.465 2.9289999 -0.57999998 112 86 73
-0.53799999 2.9170001 -0.73199999 169 115 89
-0.67799997 2.924 -0.421 117 66 47
-0.67699999 2.914 -0.43099999 124 58 24
-0.67299998 2.918 -0.41600001 66 39 30
-0.67900002 2.8970001 -0.47499999 184 167 159
-0.67299998 2.901 -0.472 50 26 14
-0.68800002 2.895 -0.472 61 26 6
-0.69 2.9119999 -0.42199999 73 57 57
-0.63999999 2.8900001 -0.47099999 119 97 86
-0.63499999 2.8940001 -0.46700001 103 91 93
-0.65200001 2.8929999 -0.46900001 19 12 4
-0.60000002 2.9000001 -0.44999999 112 84 73
-0.58399999 2.8889999 -0.44800001 78 39 0
-0.59600002 2.8889999 -0.44400001 104 29 0
-0.94099998 2.858 -0.47799999 103 70 29
-0.94099998 2.8610001 -0.47999999 251 239 201
-0.95999998 2.8540001 -0.49700001 193 136 93
-0.94700003 2.859 -0.48800001 200 121 52
-1.029 2.941 -0.509 81 46 18
-1.033 2.9389999 -0.50999999 149 101 63
-1.027 2.9389999 -0.50099999 235 173 90
-0.65600002 2.8889999 -0.38499999 67 23 0
-0.648 2.8929999 -0.38699999 86 45 13
-0.65899998 2.9089999 -0.39700001 103 87 72
-1.119 2.744 -0.574 216 140 42
-0.49399999 2.8599999 -0.39500001 203 142 98
-0.98299998 2.7909999 -0.77899998 182 146 58
-0.97299999 2.825 -0.85100001 84 22 0
-0.97799999 2.8139999 -0.84299999 111 85 68
-0.97000003 2.8199999 -0.86400002 167 139 127
-0.97899997 2.8069999 -0.84100002 91 63 41
-0.55199999 2.878 -0.81300002 75 17 0
-0.54799998 2.8770001 -0.81199998 170 125 96
-0.829 2.8829999 -0.72600001 64 19 0
-0.83700001 2.8789999 -0.72600001 140 87 47
-0.83499998 2.8829999 -0.727 90 35 4
-0.83399999 2.878 -0.72399998 91 38 7
-0.83099997 2.8670001 -0.722 56 28 6
-0.82499999 2.8770001 -0.72000003 97 45 8
-0.82999998 2.862 -0.713 168 115 63
-0.815 2.888 -0.72399998 68 39 23
-0.824 2.8859999 -0.727 35 1 0
-1.0829999 2.767 -0.63200003 102 63 34
-1.079 2.76 -0.63599998 149 95 48
-1.0930001 2.7590001 -0.57599998 118 91 64
-1.089 2.7550001 -0.62800002 138 89 56
-1.098 2.7639999 -0.574 164 123 61
-1.086 2.76 -0.63 123 75 29
-1.1059999 2.747 -0.58899999 130 84 50
-1.1 2.7490001 -0.63099998 106 56 5
-0.63499999 2.9949999 -0.73400003 88 54 27
-0.62699997 3.006 -0.74000001 124 83 51
-0.639 2.9909999 -0.74000001 73 40 23
-0.68099999 3.0009999 -0.74699998 238 185 143
-0.69 3.01 -0.73400003 44 30 3
-0.62099999 3.007 -0.73000002 105 36 7
-0.79799998 2.8829999 -0.64399999 95 65 55
-0.79000002 2.8800001 -0.64899999 229 195 157
-0.653 2.8789999 -0.69199997 121 91 80
-0.65200001 2.8770001 -0.67799997 236 175 131
-0.65899998 2.8800001 -0.67799997 137 83 47
-0.639 2.8740001 -0.68000001 71 47 35
-0.588 2.914 -0.70700002 146 94 72
-0.57599998 2.904 -0.713 193 159 132
-0.57700002 2.9000001 -0.71200001 255 230 201
-0.78100002 2.8859999 -0.65399998 65 38 29
-0.78200001 2.888 -0.64899999 126 60 10
-0.51300001 2.882 -0.63099998 193 147 113
-0.52200001 2.8800001 -0.63300002 89 50 9
-0.51700002 2.8800001 -0.63999999 124 89 70
-0.52999997 2.8789999 -0.64399999 119 66 34
-0.528 2.8900001 -0.66399997 134 92 67
-0.54900002 2.8870001 -0.67699999 155 93 34
-0.54900002 2.8859999 -0.66299999 253 218 126
-0.53200001 2.892 -0.66500002 179 133 74
-0.54699999 2.8900001 -0.67500001 136 80 47
-0.51999998 2.8829999 -0.64300001 60 24 10
-0.45199999 2.9449999 -0.699 41 18 2
-0.46700001 2.9519999 -0.71600002 85 28 0
-0.454 2.951 -0.69599998 53 27 10
-0.486 2.9119999 -0.69300002 167 101 51
-0.479 2.9119999 -0.69 113 67 41
-0.491 2.9070001 -0.69400001 132 80 32
-0.484 2.914 -0.69599998 180 128 71
-0.48800001 2.9260001 -0.73000002 171 121 86
-0.505 2.9219999 -0.72899997 86 45 17
-0.491 2.927 -0.73400003 129 80 47
-0.5 2.9260001 -0.73299998 180 146 119
-0.493 2.928 -0.72299999 99 52 26
-0.49700001 2.928 -0.72000003 74 29 6
-0.495 2.927 -0.72799999 117 70 40
-0.53399998 2.994 -0.77600002 114 84 50
-0.55199999 2.993 -0.76599997 133 91 51
-0.52899998 2.9949999 -0.77100003 106 53 19
-0.55800003 3 -0.77600002 77 26 7
-0.53899997 2.9920001 -0.77499998 188 149 120
-0.542 2.9920001 -0.77600002 125 99 74
-0.54000002 2.99 -0.773 124 88 66
-0.60399997 3.013 -0.76899999 141 113 102
-0.53399998 2.9890001 -0.77399999 192 158 133
-0.49399999 2.9779999 -0.64600003 164 138 125
-0.50199997 2.97 -0.65700001 92 60 39
-0.50099999 2.983 -0.65200001 46 20 3
-0.472 2.9400001 -0.63499999 138 125 119
-0.47299999 2.9419999 -0.64399999 146 132 123
-0.46599999 2.934 -0.62400001 47 4 0
-0.48699999 2.947 -0.63499999 45 28 0
-0.498 2.9560001 -0.73000002 88 28 0
-0.49700001 2.96 -0.73799998 70 57 40
-0.46700001 2.9449999 -0.69 176 160 160
-0.48899999 2.9519999 -0.685 58 34 24
-0.56999999 2.9809999 -0.736 92 57 37
-0.58999997 2.9820001 -0.722 104 84 77
-0.57200003 3.006 -0.68400002 223 187 161
-0.57300001 2.9790001 -0.75199997 59 29 18
-0.56 2.9790001 -0.74699998 125 111 111
-0.53899997 2.9719999 -0.74000001 166 152 149
-0.52100003 2.9619999 -0.75400001 118 73 54
-0.53600001 2.9679999 -0.75700003 197 194 189
-0.51599997 2.9089999 -0.78100002 215 169 119
-0.51800001 2.8989999 -0.79100001 48 22 9
-0.52499998 2.8959999 -0.78899997 202 158 113
-0.50700003 2.9100001 -0.787 129 55 18
-0.509 2.914 -0.77100003 222 182 146
-0.61299998 2.925 -0.73699999 94 56 20
-0.616 2.934 -0.73400003 148 128 119
-0.61500001 2.9219999 -0.73199999 125 71 35
-0.60299999 2.914 -0.74400002 81 44 25
-0.597 2.9170001 -0.75 255 207 140
-0.58499998 2.9749999 -0.71600002 171 155 142
-0.59299999 2.9779999 -0.72500002 110 84 69
-0.58499998 2.9790001 -0.72299999 97 68 60
-0.579 2.983 -0.70700002 78 33 4
-0.579 2.904 -0.74000001 188 149 120
-0.58200002 2.8959999 -0.73799998 73 30 11
-0.62099999 2.9519999 -0.74199998 50 32 22
-0.60399997 2.951 -0.75099999 144 126 122
-0.61199999 2.934 -0.74900001 73 35 12
-0.60500002 2.9449999 -0.74699998 91 66 44
-0.704 2.9990001 -0.76899999 77 43 5
-0.685 2.9879999 -0.75300002 28 23 4
-0.70700002 2.9879999 -0.75400001 165 117 45
-0.69400001 2.9960001 -0.74800003 176 138 93
-0.70300001 2.9909999 -0.759 96 87 88
-0.70599997 2.994 -0.73900002 153 97 38
-0.676 3.0039999 -0.76200002 151 128 114
-0.80500001 2.9979999 -0.74299997 153 88 56
-0.80800003 3.0020001 -0.74599999 138 85 43
-0.80800003 2.9960001 -0.745 66 54 56
-0.80299997 3.006 -0.727 59 30 14
-0.56 3.0680001 -0.456 51 24 17
-0.55000001 3.0650001 -0.46799999 61 38 6
-0.54900002 3.0710001 -0.456 238 205 174
-0.72100002 3.017 -0.72600001 115 111 112
-0.70999998 3.027 -0.73500001 177 121 70
-0.73000002 3.023 -0.73299998 125 48 6
-0.708 3.0190001 -0.73299998 171 149 110
-0.89099997 2.9879999 -0.73400003 168 108 56
-0.88800001 2.9879999 -0.72500002 175 121 57
-0.89399999 2.9949999 -0.73799998 255 220 139
-0.94099998 2.8859999 -0.55000001 96 65 45
-0.93199998 2.8889999 -0.57200003 117 97 88
-0.94499999 2.875 -0.55800003 102 74 62
-0.48899999 3.1229999 -0.40099999 163 135 123
-0.495 3.1140001 -0.41499999 36 7 0
-0.48699999 3.118 -0.40700001 42 25 17
-0.484 3.1240001 -0.382 141 104 78
-0.51099998 3.115 -0.398 131 111 84
-0.505 3.1199999 -0.38999999 55 29 14
-0.50700003 3.1199999 -0.384 116 86 62
-0.49599999 3.092 -0.34599999 110 78 40
-0.498 3.0910001 -0.347 46 10 0
-0.505 3.085 -0.338 100 63 34
-0.52100003 3.0510001 -0.42899999 125 74 27
-0.52899998 3.059 -0.435 159 119 93
-0.51999998 3.0510001 -0.442 106 108 97
-0.51899999 3.0439999 -0.456 70 51 21
-0.52999997 3.039 -0.45899999 112 65 37
-0.50300002 3.0580001 -0.53500003 112 73 32
-0.5 3.056 -0.51800001 55 16 1
-0.50999999 3.0369999 -0.53100002 128 105 97
-0.505 3.0569999 -0.53299999 56 23 0
-0.50099999 3.0650001 -0.53399998 172 149 135
-0.509 3.053 -0.54900002 195 190 171
-0.46000001 2.954 -0.49900001 125 65 31
-0.461 2.951 -0.51300001 163 135 124
-0.45500001 2.9519999 -0.505 180 117 82
-0.45300001 2.9530001 -0.50400001 167 110 80
-0.45100001 2.9360001 -0.495 166 142 132
-0.498 3.0810001 -0.491 136 104 83
-0.442 2.895 -0.38699999 176 132 85
-0.449 2.905 -0.38800001 131 108 100
-0.435 2.902 -0.38800001 79 47 36
-0.479 2.925 -0.38100001 67 43 31
-0.47400001 2.9189999 -0.38299999 102 63 34
-0.47600001 2.934 -0.396 90 29 0
-0.46900001 2.927 -0.39899999 163 122 90
-0.48699999 3.046 -0.31099999 79 38 8
-0.47799999 3.0480001 -0.31200001 106 69 27
-0.48699999 3.043 -0.315 79 44 16
-0.48699999 3.0469999 -0.301 137 85 61
-0.484 3.052 -0.30500001 139 103 43
-0.47099999 2.885 -0.49700001 77 35 13
-0.50199997 2.8729999 -0.59799999 50 21 3
-0.49000001 2.8800001 -0.579 34 7 0
-0.49599999 2.885 -0.59899998 137 125 125
-0.47099999 2.8989999 -0.602 185 128 83
-0.60000002 3.0220001 -0.87099999 69 23 8
-0.59899998 3.016 -0.86500001 159 117 75
-0.58499998 3.02 -0.866 191 156 118
-0.60799998 3.0179999 -0.87199998 119 80 47
-0.62 3.023 -0.875 139 103 77
-0.61400002 3.0309999 -0.88800001 71 39 14
-0.60299999 3.0239999 -0.88099998 177 93 33
-0.616 3.026 -0.88300002 126 88 67
-0.61799997 3.016 -0.86799997 164 119 98
-0.68400002 3.0710001 -0.87800002 212 178 133
-0.685 3.0710001 -0.87599999 175 124 77
-0.62199998 3.016 -0.866 107 61 38
-0.61400002 3.003 -0.86299998 67 26 6
-0.63 2.9979999 -0.85699999 56 33 27
-0.61000001 3.0139999 -0.86900002 255 225 196
-0.61799997 3.0239999 -0.87900001 58 27 7
-0.70700002 3.0929999 -0.94999999 59 38 21
-0.69800001 3.095 -0.95099998 56 31 9
-0.699 3.095 -0.95599997 59 41 31
-0.54500002 2.974 -0.90600002 37 10 1
-0.53899997 2.974 -0.89399999 111 85 60
-0.54000002 2.97 -0.90700001 202 184 170
-0.53399998 2.98 -0.92400002 101 48 6
-0.54699999 2.9760001 -0.89899999 44 17 6
-0.55500001 3.003 -0.80699998 154 144 153
-0.55599999 3.0020001 -0.81400001 125 92 59
-0.54900002 2.9879999 -0.79799998 49 15 5
-0.53899997 2.9909999 -0.78399998 55 28 7
-0.49599999 2.9200001 -0.87800002 219 190 150
-0.48899999 2.9230001 -0.86299998 161 142 138
-0.5 2.9089999 -0.87199998 33 13 2
-0.48899999 2.927 -0.88 73 54 50
-0.56099999 3.007 -0.815 125 116 119
-0.56300002 3.007 -0.82099998 146 136 145
-0.51599997 2.9879999 -0.92900002 177 165 165
-0.51300001 2.9860001 -0.921 187 181 181
-0.52499998 2.9820001 -0.92799997 163 151 151
-0.53799999 2.9690001 -0.90399998 163 152 148
-0.55000001 2.9749999 -0.81599998 134 123 119
-0.55500001 2.994 -0.815 80 47 6
-0.54799998 2.9749999 -0.89700001 38 10 0
-0.58200002 3.007 -0.81999999 54 6 0
-0.56800002 3.0079999 -0.82300001 148 140 151
-0.61199999 2.9990001 -0.861 188 157 126
-0.62300003 3 -0.86199999 139 125 124
-0.50099999 2.974 -1.013 45 9 0
-0.537 3.0669999 -0.528 45 20 13
-0.52899998 3.072 -0.53299999 154 113 69
-0.537 3.0669999 -0.523 47 22 17
-0.68300003 2.9979999 -0.74400002 65 43 19
-0.68300003 2.9920001 -0.75400001 157 91 41
-0.64099997 2.98 -0.74900001 145 98 54
-0.64700001 2.971 -0.73199999 60 8 0
-0.68900001 3.007 -0.74199998 151 98 20
-0.653 2.9000001 -0.53600001 68 25 9
-0.65399998 2.888 -0.53500003 107 54 22
-0.66799998 2.8970001 -0.53200001 97 81 65
-0.66100001 2.8989999 -0.53200001 99 84 63
-0.68900001 2.892 -0.5 78 49 35
-0.68800002 2.892 -0.50300002 67 39 25
-0.685 2.8829999 -0.50099999 147 98 57
-0.67400002 2.8970001 -0.50199997 89 23 7
-0.57499999 3.0209999 -0.60600001 69 34 6
-0.56099999 3.0339999 -0.48500001 152 116 90
-0.565 3.0420001 -0.48699999 107 88 81
-0.56400001 3.0339999 -0.49000001 118 60 23
-0.61000001 2.902 -0.454 95 60 40
-0.60399997 2.9030001 -0.47 71 36 17
-0.63 2.865 -0.60100001 71 49 25
-0.64099997 2.8640001 -0.602 142 94 58
-0.63300002 2.852 -0.60600001 145 85 35
-0.634 2.862 -0.60399997 192 139 89
-0.63599998 2.8699999 -0.60000002 93 51 29
-0.634 2.8770001 -0.611 63 39 27
-0.63599998 2.8699999 -0.60900003 177 126 79
-0.634 2.8710001 -0.611 103 84 70
-0.52499998 2.8840001 -0.61299998 46 15 0
-0.63 2.8540001 -0.61000001 122 65 22
-0.63099998 2.8540001 -0.611 158 99 55
-0.48899999 2.927 -0.59600002 167 129 92
-0.498 2.918 -0.59299999 93 50 15
-0.505 2.9189999 -0.588 166 128 92
-0.55000001 3.0209999 -0.56099999 138 101 74
-0.55299997 3.023 -0.546 139 88 43
-0.55400002 3.013 -0.55400002 66 21 0
-0.551 3.0369999 -0.55199999 153 134 128
-0.56599998 3.0420001 -0.60799998 167 123 94
-0.56 3.0409999 -0.60799998 166 139 110
-0.57300001 3.0450001 -0.61500001 127 58 17
-0.428 2.921 -0.52700001 57 19 0
-0.42899999 2.921 -0.51999998 110 61 20
-0.43700001 2.9360001 -0.52899998 83 43 7
-0.43399999 2.9260001 -0.51499999 175 153 140
-0.60399997 2.9890001 -0.74599999 139 122 114
-0.60399997 2.9890001 -0.74299997 142 125 117
-0.60100001 2.9849999 -0.74000001 143 124 118
-0.60600001 2.9890001 -0.74000001 141 124 114
-0.61199999 2.977 -0.71499997 63 27 5
-0.60799998 2.977 -0.72600001 100 67 48
-0.50599998 2.99 -0.977 213 183 145
-0.55299997 3.0090001 -1.046 144 74 25
-0.54400003 3.0039999 -1.027 111 81 71
-0.63300002 2.9489999 -0.99199998 199 188 184
-0.63 2.9460001 -0.98799998 71 30 8
-0.63300002 2.9489999 -0.995 52 33 0
-0.634 2.9619999 -0.99199998 59 23 9
-0.65499997 2.951 -1.0369999 106 60 24
-0.64600003 2.967 -1.035 163 99 71
-0.63999999 2.9660001 -1.039 103 31 0
-0.64499998 2.951 -1.033 114 60 36
-0.639 2.9579999 -1.025 102 41 13
-0.63200003 2.9630001 -1.016 195 157 138
-0.64099997 2.9630001 -1.033 89 60 46
-0.634 2.9649999 -1.001 191 172 168
-0.63599998 2.967 -1.0190001 32 1 0
-0.55500001 2.9000001 -1.049 71 31 6
-0.64200002 2.9549999 -1.0319999 33 16 0
-0.64300001 2.944 -1.033 26 9 2
-0.54100001 2.9289999 -1.043 190 164 89
-0.53799999 2.931 -1.039 60 18 4
-0.53899997 2.9130001 -1.052 85 56 26
-0.51200002 2.9909999 -1.015 53 29 19
-0.54100001 2.9890001 -1.035 171 107 59
-0.76300001 2.9660001 -0.76700002 57 26 8
-0.76200002 2.967 -0.76899999 110 66 29
-0.76200002 2.9649999 -0.76499999 145 101 66
-1.064 2.8629999 -1.022 74 45 29
-1.0549999 2.8540001 -1.018 69 24 0
-1.038 2.8570001 -1.018 177 154 140
-1.0470001 2.852 -1.015 56 26 16
-1.05 2.78 -0.93599999 43 19 9
-1.048 2.7809999 -0.93400002 75 30 0
-1.048 2.7809999 -0.94199997 110 65 34
-1.0549999 2.881 -0.79100001 121 97 59
-1.0549999 2.882 -0.77899998 148 112 62
-1.057 2.8789999 -0.79000002 129 95 83
-1.048 2.8829999 -0.796 66 33 14
-1.054 2.878 -0.79799998 72 20 0
-1.051 2.8699999 -0.80800003 70 19 0
-1.057 2.8710001 -0.79000002 98 52 16
-1.058 2.8640001 -0.77999997 127 83 46
-1.057 2.8710001 -0.78200001 135 94 62
-1.0650001 2.8099999 -0.89700001 103 70 25
-1.062 2.7920001 -0.89600003 120 105 98
-1.058 2.8050001 -0.89600003 69 21 0
-1.079 2.8610001 -1.006 120 95 75
-1.115 2.79 -0.64899999 26 5 0
-1.12 2.7820001 -0.62199998 79 47 32
-1.104 2.7720001 -0.63300002 63 29 1
-1.101 2.756 -0.80699998 211 155 128
-1.059 2.8050001 -0.79100001 124 64 30
-1.0700001 2.7969999 -0.78600001 44 14 4
-1.0599999 2.7950001 -0.78200001 225 203 190
-1.077 2.8 -0.79100001 156 131 111
-1.075 2.8 -0.79400003 95 50 19
-1.084 2.767 -0.71200001 133 118 115
-1.086 2.766 -0.704 98 30 11
-1.086 2.7590001 -0.70999998 83 47 23
-1.081 2.7620001 -0.69300002 158 104 66
-1.084 2.7639999 -0.72000003 176 117 85
-1.109 2.7460001 -0.634 41 27 1
-0.433 2.8989999 -0.396 151 104 58
-0.43200001 2.902 -0.39199999 159 112 66
-0.433 2.8959999 -0.40000001 101 56 15
-0.435 2.8870001 -0.403 127 87 52
-0.435 2.8859999 -0.40599999 211 146 90
-0.47099999 3.0669999 -0.30899999 156 113 68
-0.491 3.0339999 -0.322 150 99 56
-0.45300001 2.921 -0.389 93 37 2
-0.45300001 2.915 -0.38800001 131 69 12
-0.447 2.9089999 -0.389 168 121 67
-0.472 3.0569999 -0.32499999 44 24 0
-0.47299999 3.05 -0.31999999 51 25 0
-0.48100001 3.052 -0.33199999 96 61 31
-0.472 3.072 -0.329 126 105 88
-0.43000001 2.9030001 -0.50599998 120 75 44
-0.44400001 2.908 -0.495 192 160 111
-0.47600001 2.941 -0.491 181 152 136
-0.48699999 2.924 -0.495 128 93 55
-0.484 2.938 -0.5 172 114 51
-0.45500001 2.872 -0.41800001 190 123 80
-0.44499999 2.878 -0.41299999 52 24 0
-0.51899999 2.9000001 -1.046 144 87 44
-0.52200001 2.908 -1.041 47 20 0
-0.51899999 2.9070001 -1.0319999 183 165 151
-0.514 2.918 -1.024 252 239 127
-0.65700001 2.8310001 -0.38499999 98 68 34
-0.65600002 2.826 -0.38800001 73 36 0
-0.66399997 2.836 -0.39199999 99 65 40
-0.653 2.8310001 -0.38499999 203 160 117
-0.49399999 3.0580001 -0.292 253 243 194
-0.57099998 3.0580001 -0.30599999 98 54 29
-0.574 3.0420001 -0.30899999 151 118 103
-0.57099998 3.04 -0.303 143 85 35
-0.56999999 3.0480001 -0.32499999 117 80 53
-0.96499997 2.8670001 -0.45699999 133 73 37
-0.986 2.8659999 -0.46700001 56 9 0
-0.97500002 2.868 -0.45899999 75 41 16
-0.97799999 2.8629999 -0.46399999 203 135 72
-0.94 2.8770001 -0.458 234 174 124
-0.95099998 2.872 -0.458 137 70 15
-0.93800002 2.8800001 -0.458 218 162 115
-0.52100003 3.082 -0.30000001 196 137 103
-0.51200002 3.0739999 -0.28799999 85 50 20
-0.51200002 3.0880001 -0.292 78 31 11
-0.50700003 3.0669999 -0.285 139 105 59
-0.50800002 3.069 -0.28600001 151 89 40
-0.50599998 3.0669999 -0.28600001 156 101 37
-0.50400001 3.086 -0.28999999 197 141 104
-0.50300002 3.0829999 -0.287 203 156 126
-0.50400001 3.0780001 -0.287 138 56 9
-0.52100003 3.0810001 -0.28200001 157 131 96
-0.52899998 3.082 -0.28099999 46 20 5
-0.514 3.085 -0.28200001 228 201 156
-0.51999998 3.0780001 -0.28200001 70 41 23
-0.54299998 3.0880001 -0.315 44 18 5
-0.55500001 3.079 -0.30599999 155 100 35
-0.49000001 2.875 -0.38100001 192 106 57
-0.48500001 2.875 -0.38 222 160 103
-1.0089999 2.812 -1.048 190 140 103
-1.021 2.829 -1.061 59 26 7
-1.003 2.8099999 -1.043 177 154 148
-1.006 2.813 -1.0470001 170 105 37
-0.65700001 2.9319999 -1.017 44 33 27
-0.65200001 2.931 -1.025 49 34 11
-0.74699998 2.9400001 -1.052 88 53 31
-0.73900002 2.9449999 -1.051 172 150 137
-0.72799999 2.9460001 -1.051 190 113 31
-0.73000002 2.9319999 -1.035 51 33 31
-0.72500002 2.941 -1.046 77 65 49
-0.72100002 2.9349999 -1.029 21 1 0
-0.736 2.931 -1.039 149 136 117
-0.64300001 2.97 -1.034 72 44 30
-0.64399999 2.9719999 -0.977 219 182 138
-0.64499998 2.964 -0.97799999 83 25 3
-0.639 2.967 -0.99800003 68 33 14
-0.64399999 2.9660001 -0.995 62 25 6
-0.59500003 2.8380001 -1.0319999 123 80 29
-0.579 2.8499999 -1.041 118 69 37
-0.58200002 2.8469999 -1.0420001 100 54 28
-0.59600002 2.858 -1.0470001 122 73 41
-0.60600001 2.869 -1.038 171 117 83
-0.75599998 2.9349999 -1.012 141 105 89
-0.74199998 2.9400001 -1.013 45 26 20
-0.75099999 2.934 -0.99400002 248 231 213
-0.73299998 2.9430001 -1.006 160 137 131
-0.70499998 2.99 -1.02 245 194 129
-0.67299998 2.97 -0.96200001 213 152 98
-0.67799997 2.9649999 -0.96499997 240 184 135
-0.67199999 2.9749999 -0.958 249 209 157
-0.68099999 2.973 -0.97600001 171 154 144
-0.68199998 2.9630001 -0.958 61 30 9
-0.59299999 2.845 -1.024 168 124 89
-0.59799999 2.8610001 -1.027 162 136 123
-0.58700001 2.8570001 -1.022 161 107 73
-0.449 2.878 -0.50800002 255 199 138
-0.45899999 2.8840001 -0.50700003 116 70 46
-0.44600001 2.8740001 -0.51200002 155 98 68
-0.447 2.882 -0.514 66 46 39
-0.46900001 2.885 -0.505 197 142 103
-0.48699999 2.885 -0.43700001 99 67 52
-0.48500001 2.8870001 -0.45199999 29 11 0
-0.48500001 2.8859999 -0.463 21 8 0
-0.47999999 2.8900001 -0.46399999 156 115 83
-0.47299999 2.8940001 -0.46000001 83 68 63
-0.44999999 2.891 -0.505 138 94 65
-0.47400001 2.898 -0.48500001 118 80 35
-0.47799999 2.901 -0.461 125 90 68
-0.47799999 2.9059999 -0.458 154 126 112
-0.477 2.905 -0.46799999 89 60 46
-0.47799999 3.0610001 -0.33899999 228 196 175
-0.51899999 3.0940001 -0.324 106 71 41
-0.52399999 3.0910001 -0.34099999 48 22 9
-0.47 3.1029999 -0.38 125 104 85
-0.47099999 3.0910001 -0.38600001 79 47 8
-0.48100001 3.0710001 -0.34099999 65 36 30
-0.498 3.0829999 -0.289 104 60 25
-0.49200001 3.073 -0.29300001 253 251 194
-0.48300001 3.085 -0.30700001 157 80 34
-0.48800001 3.089 -0.30399999 179 144 88
-0.50300002 3.0929999 -0.30500001 104 61 29
-0.49599999 3.085 -0.292 214 159 102
-0.48300001 3.063 -0.30000001 119 64 23
-0.495 3.063 -0.28799999 104 67 41
-0.48800001 3.0569999 -0.296 106 61 20
-0.493 3.053 -0.303 126 42 0
-1.008 2.7980001 -1.024 195 160 138
-1.001 2.802 -1.026 234 201 166
-1.084 2.7390001 -0.65499997 171 106 52
-1.092 2.7349999 -0.65700001 162 137 81
-1.091 2.7379999 -0.65700001 220 149 83
-1.076 2.766 -0.64600003 82 42 16
-1.076 2.7609999 -0.65899998 184 140 93
-1.128 2.78 -0.61500001 70 13 0
-1.1 2.743 -0.662 157 90 37
-1.112 2.7449999 -0.67799997 51 9 0
-1.1109999 2.744 -0.68000001 86 38 15
-1.123 2.7650001 -0.61000001 48 18 0
-1.123 2.766 -0.61400002 58 26 1
-1.113 2.7539999 -0.63200003 156 93 60
-1.054 2.8940001 -0.62699997 42 13 7
-1.0420001 2.882 -0.61799997 99 45 9
-1.051 2.8940001 -0.62800002 39 10 2
-1.046 2.8859999 -0.61199999 96 55 27
-1.048 2.8929999 -0.63300002 71 35 11
-0.98199999 3.0150001 -0.64200002 89 56 49
-1.057 2.9260001 -0.53299999 40 17 9
-1.118 2.7650001 -0.62699997 114 55 13
-1.118 2.7539999 -0.63200003 111 55 18
-1.12 2.7550001 -0.65200001 137 90 60
-1.118 2.76 -0.65499997 117 75 37
-1.056 2.901 -0.61400002 38 18 11
-1.052 2.901 -0.61799997 119 101 97
-0.81900001 2.95 -0.80400002 51 8 0
-0.83099997 2.904 -0.75400001 153 128 121
-0.824 2.8970001 -0.73299998 132 78 40
-0.80900002 2.892 -0.72299999 115 65 32
-0.83200002 2.901 -0.73500001 221 140 84
-0.82999998 2.904 -0.73699999 118 68 31
-0.84100002 2.9059999 -0.76300001 227 196 152
-1.127 2.7920001 -0.55400002 138 102 54
-1.112 2.7980001 -0.56400001 119 31 0
-1.119 2.789 -0.55900002 213 168 100
-1.122 2.786 -0.55599999 147 88 32
-1.036 2.8959999 -0.491 218 151 62
-1.0549999 2.895 -0.495 134 53 8
-1.0470001 2.881 -0.49599999 110 81 41
-1.062 2.8959999 -0.50700003 87 38 0
-1.067 2.892 -0.50199997 83 33 0
-1.058 2.9000001 -0.50099999 178 134 109
-1.0369999 2.8829999 -0.528 87 43 18
-1.123 2.8010001 -0.58600003 132 91 63
-1.102 2.802 -0.57999998 76 47 33
-1.12 2.8080001 -0.57999998 168 125 72
-1.0599999 2.8959999 -0.64399999 194 133 79
-1.059 2.9070001 -0.64499998 172 127 104
-1.1160001 2.773 -0.59799999 121 115 119
-1.113 2.7809999 -0.59500003 144 142 147
-1.135 2.7550001 -0.55699998 243 186 109
-1.14 2.7639999 -0.55800003 179 151 77
-1.14 2.7720001 -0.55500001 157 135 77
-1.108 2.7809999 -0.55699998 204 138 64
-1.127 2.7460001 -0.56 224 148 70
-1.118 2.7539999 -0.55699998 226 159 89
-1.138 2.7490001 -0.58999997 68 50 14
-1.143 2.7920001 -0.58899999 93 65 53
-0.53399998 2.858 -1.006 135 98 69
-0.53799999 2.8570001 -1.002 95 51 16
-0.54900002 2.859 -0.98000002 189 124 68
-0.54100001 2.8629999 -0.97899997 97 52 19
-0.54000002 2.8599999 -1.018 103 57 34
-0.54100001 2.8599999 -1.021 146 124 113
-0.53600001 2.8659999 -1.021 71 36 16
-1.006 2.8010001 -0.99599999 186 158 144
-1.011 2.802 -0.98100001 80 61 54
-1.0190001 2.8 -0.98699999 206 174 123
-1.022 2.7969999 -1.027 99 71 50
-1.028 2.809 -1.026 168 124 95
-0.995 2.809 -1.002 66 29 11
-0.995 2.8169999 -1.011 35 8 0
-0.99199998 2.8199999 -0.99800003 92 51 29
-1.002 2.8069999 -1.016 50 22 10
-1.0089999 2.7720001 -0.93099999 232 203 145
-0.986 2.767 -0.92900002 124 98 63
-0.99199998 2.777 -0.92699999 160 157 164
-1.005 2.777 -0.93900001 155 96 52
-0.99299997 2.7639999 -0.92900002 185 134 87
-0.99900001 2.7780001 -0.94 125 92 61
-1.007 2.79 -0.95499998 75 30 9
-0.99599999 2.8310001 -0.91500002 191 180 178
-0.99000001 2.776 -0.92199999 149 146 153
-0.48100001 2.924 -0.81900001 254 225 183
-0.48699999 2.9200001 -0.815 103 66 37
-0.47 2.9260001 -0.801 117 78 39
-0.47099999 2.9230001 -0.80800003 99 61 22
-0.46700001 2.9360001 -0.79500002 193 159 114
-0.463 2.9300001 -0.80800003 185 165 132
-0.46900001 2.928 -0.792 139 138 136
-0.51499999 2.9920001 -0.97399998 107 89 79
-0.51899999 2.984 -0.95999998 153 148 152
-0.53500003 2.9809999 -0.97399998 32 17 12
-0.49399999 2.9560001 -0.77899998 206 152 90
-0.53500003 2.977 -0.78500003 76 24 0
-0.49599999 2.9590001 -0.77200001 126 76 17
-0.46799999 2.944 -0.801 62 43 26
-0.47299999 2.9300001 -0.78200001 136 107 91
-0.48899999 2.9219999 -0.773 199 147 74
-0.48500001 2.9430001 -0.74900001 110 74 60
-0.484 2.947 -0.745 90 63 36
-0.49700001 2.9530001 -0.74900001 115 82 63
-0.505 2.9549999 -0.75199997 109 64 45
-0.49599999 2.9530001 -0.75 139 125 124
-0.56 2.9460001 -1.0470001 58 29 15
-0.55699998 2.954 -1.035 143 125 125
-0.56900001 2.948 -1.046 86 39 11
-0.574 2.941 -1.045 75 52 44
-0.57800001 2.8559999 -1.0470001 127 50 0
-0.57700002 2.878 -1.039 212 203 198
-0.58999997 2.8789999 -1.045 202 167 145
-0.57200003 2.892 -1.046 45 20 15
-0.66399997 2.9549999 -1.035 48 19 3
-0.59399998 2.8870001 -1.05 129 58 0
-0.597 2.8940001 -1.048 182 122 86
-0.59100002 2.898 -1.05 144 80 36
-0.62199998 2.9519999 -0.96200001 172 111 64
-0.625 2.948 -0.96799999 77 34 0
-0.61299998 2.948 -0.96100003 117 99 79
-0.52100003 2.895 -1.024 183 139 104
-0.546 2.983 -0.93099999 141 94 68
-0.45500001 2.8729999 -0.39199999 191 149 101
-0.75599998 2.9360001 -1.064 46 13 0
-0.75700003 2.9419999 -1.066 120 72 52
-0.79699999 2.928 -1.045 110 69 17
-0.79699999 2.928 -1.031 255 234 154
-0.796 2.941 -1.036 255 228 178
-0.83099997 2.9660001 -1.062 49 12 0
-0.84200001 2.967 -1.052 181 129 71
-0.85500002 2.9449999 -1.067 40 2 0
-0.82300001 2.994 -1.031 221 178 127
-0.81400001 2.987 -1.041 185 126 68
-0.82200003 2.98 -1.024 187 163 151
-0.85100001 2.9649999 -1.059 233 171 114
-0.83700001 2.9619999 -1.0650001 61 7 0
-0.83999997 2.9619999 -1.058 90 39 10
-0.84100002 2.9449999 -1.0599999 106 69 42
-0.75800002 2.9430001 -1.063 192 152 127
-0.75199997 2.954 -1.058 160 134 119
-0.74599999 2.95 -1.053 111 74 47
-0.77399999 2.983 -1.056 92 44 8
-0.77999997 2.9860001 -1.051 129 85 58
-0.778 2.983 -1.052 168 113 57
-0.78600001 2.9660001 -1.059 183 114 72
-0.76800001 2.9979999 -1.049 131 90 36
-0.75999999 2.9909999 -1.054 107 97 96
-0.77600002 2.9879999 -1.051 94 43 16
-0.70300001 2.9990001 -1.015 162 134 120
-1.016 2.855 -1.068 43 8 4
-1.006 2.8310001 -1.061 56 16 6
-1.039 2.862 -1.008 95 41 13
-1.025 2.865 -1.018 93 40 6
-1.0319999 2.872 -1.0039999 155 112 78
-1.051 2.8640001 -1.011 70 43 32
-1.022 2.8599999 -1.024 119 103 103
-1.017 2.8710001 -0.90399998 71 43 32
-1.025 2.8670001 -0.90200001 152 97 67
-1.0140001 2.8659999 -0.91100001 152 134 132
-1.024 2.829 -1.062 65 25 0
-1.05 2.8329999 -1.013 51 11 1
-1.057 2.8369999 -1.013 46 6 0
-1.061 2.825 -1.006 88 43 2
-1.052 2.836 -1.013 44 1 0
-1.027 2.8039999 -1.002 237 185 127
-1.034 2.806 -0.99800003 83 35 0
-1.04 2.8469999 -1.006 74 7 0
-1.023 2.8469999 -1.021 171 140 122
-1.023 2.836 -1.0190001 205 171 81
-1.024 2.8329999 -1.012 255 231 131
-1.041 2.8399999 -1.005 66 33 14
-1.024 2.842 -1.025 195 160 138
-0.801 3.013 -1.057 48 8 0
-0.81300002 3.0139999 -1.035 194 183 177
-0.704 3.0539999 -1.035 15 7 0
-0.70899999 3.066 -1.027 144 126 114
-0.70899999 3.0510001 -1.033 102 96 98
-0.708 3.052 -1.017 112 108 105
-0.71200001 3.0450001 -1.016 81 21 0
-0.74299997 3.063 -1.04 117 93 81
-0.736 3.0469999 -1.045 84 45 16
-0.74199998 3.0369999 -1.043 157 112 83
-0.74599999 3.0339999 -1.043 56 21 1
-0.75300002 3.0309999 -1.041 74 22 0
-0.73900002 3.0250001 -0.83999997 122 68 6
-0.76099998 3.0669999 -0.88800001 136 134 145
-0.76300001 3.073 -0.89099997 161 158 169
-0.759 3.0780001 -0.88999999 150 147 156
-0.75199997 3.0639999 -0.889 23 0 0
-0.74900001 3.0769999 -0.89200002 85 43 31
-0.75400001 3.0769999 -0.89099997 128 121 128
-0.74800003 3.059 -0.88599998 194 158 124
-0.69700003 3.072 -0.86699998 110 61 28
-0.69499999 3.085 -0.95200002 127 118 113
-0.69300002 3.076 -0.95099998 88 58 32
-0.69300002 3.0880001 -0.99000001 149 146 153
-0.625 3.0209999 -0.917 108 64 35
-0.616 3.0209999 -0.90799999 109 84 62
-0.61000001 3.023 -0.91399997 147 104 69
-0.62300003 3.017 -0.92799997 50 17 2
-0.63099998 3.0150001 -0.921 42 14 0
-0.63099998 3.016 -0.935 61 23 4
-0.61299998 3.0190001 -0.94 135 108 87
-0.699 3.075 -0.94700003 115 89 62
-0.69800001 3.0650001 -0.95099998 66 41 19
-0.708 3.073 -0.92199999 124 84 49
-0.70899999 3.082 -0.92299998 43 28 23
-0.713 3.0309999 -0.82999998 164 108 61
-0.69999999 3.059 -0.87599999 163 107 50
-0.69400001 3.0680001 -0.875 210 151 93
-0.68699998 3.0699999 -0.87400001 92 56 32
-0.685 3.0739999 -0.87300003 115 83 58
-0.71200001 3.0250001 -0.83899999 23 11 13
-0.72000003 3.0880001 -0.93300003 129 129 129
-0.71200001 3.0880001 -0.94999999 137 137 137
-0.71499997 3.0840001 -0.93199998 140 140 140
-0.72799999 3.075 -1.03 130 81 51
-0.72299999 3.075 -1.029 129 97 74
-0.73299998 3.062 -1.0470001 39 17 4
-0.71799999 3.075 -1.031 51 13 0
-0.708 3.075 -1.005 69 29 3
-0.70300001 3.0780001 -1.0089999 27 3 0
-0.70200002 3.079 -1.003 34 15 9
-0.70300001 3.082 -0.99299997 47 5 0
-0.70200002 3.0840001 -0.98799998 60 31 23
-0.699 3.0869999 -0.99000001 74 51 43
-0.72000003 3.0880001 -0.98100001 153 108 67
-0.55400002 3.0120001 -1.023 170 136 124
-0.56900001 3.013 -1.024 198 184 184
-0.56300002 3.0139999 -1.0369999 85 43 21
-0.53200001 2.918 -1.045 185 155 93
-0.53200001 2.9189999 -1.043 140 114 53
-0.514 2.9749999 -1.015 212 194 182
-0.52200001 2.9760001 -1.017 59 17 3
-0.52399999 2.9679999 -1.015 209 184 164
-0.56599998 2.9960001 -1.05 34 10 0
-0.57099998 2.9960001 -1.044 183 133 106
-0.57099998 2.974 -1.05 51 22 8
-0.60299999 2.8540001 -1.04 202 152 83
-0.56199998 2.858 -1.029 98 52 28
-0.57700002 2.855 -1.024 255 189 130
-0.56400001 2.8699999 -0.95700002 98 79 49
-0.56800002 2.8670001 -0.95200002 119 68 25
-0.55900002 2.8710001 -0.95099998 255 219 175
-0.69099998 3.0799999 -0.99900001 173 158 151
-0.704 3.056 -1.018 135 128 122
-0.70200002 3.0469999 -1.002 61 52 37
-0.69300002 3.0599999 -1.011 34 21 15
-0.69499999 3.0650001 -1.012 25 10 5
-0.71499997 3.0710001 -0.99299997 51 27 23
-0.71100003 2.993 -1.026 149 96 52
-0.74000001 2.9549999 -0.92699999 187 144 76
-0.73500001 2.9660001 -0.921 70 36 24
-0.72600001 2.9549999 -0.93599999 143 97 35
-0.73799998 2.9489999 -0.92900002 41 12 0
-0.815 2.9230001 -0.88999999 178 146 125
-0.81 2.924 -0.89499998 167 150 142
-0.82200003 2.9200001 -0.88999999 207 168 103
-0.76300001 2.9679999 -0.83200002 52 26 9
-0.82300001 2.9419999 -0.86500001 49 14 0
-0.59399998 2.8900001 -0.82200003 152 96 37
-0.60000002 2.908 -0.82999998 232 169 92
-0.60000002 2.9070001 -0.82599998 245 184 104
-0.58200002 2.8900001 -0.82200003 166 128 91
-0.58700001 2.8900001 -0.824 182 162 135
-0.597 2.9059999 -0.82999998 214 168 152
-0.59799999 2.9030001 -0.82099998 243 186 105
-0.80599999 2.921 -0.898 173 156 148
-0.84399998 2.948 -0.89200002 98 32 8
-0.84200001 2.9460001 -0.89999998 44 18 1
-0.85399997 2.9460001 -0.88599998 39 20 6
-0.71700001 2.9820001 -0.82800001 91 57 22
-0.71100003 2.9909999 -0.83200002 130 92 69
-0.59600002 2.9389999 -0.96100003 68 48 41
-0.60900003 2.9349999 -0.95499998 151 90 45
-0.78600001 3.056 -0.89200002 141 126 119
-0.77600002 3.062 -0.89399999 162 140 127
-0.77999997 3.039 -0.88300002 143 129 120
-0.73100001 3.04 -0.88200003 115 104 102
-0.71700001 3.0409999 -0.87300003 81 77 74
-0.74199998 3.0469999 -0.88200003 40 12 0
-0.70200002 3.0339999 -0.759 51 17 0
-0.69700003 3.026 -0.76300001 139 62 20
-0.69 3.0350001 -0.74599999 143 77 19
-0.70099998 3.023 -0.80400002 21 15 1
-0.70899999 3.029 -0.79400003 75 34 14
-0.70700002 3.0220001 -0.792 49 31 27
-0.69599998 3.0190001 -0.778 13 8 2
-0.69800001 3.0120001 -0.79699999 22 18 6
-0.69300002 3.0139999 -0.77700001 52 5 0
-0.69599998 3.092 -0.88800001 166 146 135
-0.69700003 3.092 -0.94999999 115 114 110
-0.75700003 3.03 -0.741 65 32 13
-0.76200002 3.029 -0.73199999 132 118 118
-0.75599998 3.0350001 -0.72600001 84 45 14
-0.71100003 3.096 -0.875 152 134 130
-0.778 3.0209999 -0.838 132 122 121
-0.76700002 3.0179999 -0.838 97 61 39
-0.77700001 3.0220001 -0.84500003 24 3 0
-0.77600002 3.02 -0.84200001 22 3 0
-0.76899999 3.0209999 -0.84799999 20 0 0
-0.759 3.063 -0.88800001 118 108 109
-1.044 2.881 -0.611 117 54 11
-1.051 2.8959999 -0.59500003 96 61 42
-1.045 2.902 -0.68599999 33 14 8
-1.039 2.904 -0.68900001 107 90 83
-1.039 2.891 -0.69400001 143 89 53
-1.026 2.915 -0.69499999 54 11 0
-1.033 2.9100001 -0.685 107 87 50
-1.024 2.914 -0.69099998 72 28 0
-0.85000002 3.02 -0.43099999 121 67 31
-0.86400002 3.0280001 -0.43799999 129 89 53
-0.861 3.0280001 -0.43700001 196 161 97
-0.86299998 3.023 -0.43599999 181 142 85
-0.78799999 2.8959999 -0.43700001 164 105 61
-0.79699999 2.96 -0.56900001 152 103 73
-0.79500002 2.971 -0.58099997 152 89 38
-0.78899997 2.9660001 -0.57700002 127 84 42
-0.87300003 3.0050001 -0.45899999 163 85 36
-0.866 3 -0.45899999 105 70 38
-0.875 3.0079999 -0.46000001 168 109 77
-0.87099999 3.0220001 -0.44499999 160 147 103
-0.86000001 2.9960001 -0.43700001 230 163 108
-0.67799997 2.921 -0.41299999 97 34 0
-0.68099999 2.9159999 -0.41 155 98 55
-0.67699999 2.908 -0.39700001 116 104 104
-0.55199999 3.0350001 -0.493 69 41 29
-0.55299997 3.0320001 -0.49000001 156 112 73
-0.55800003 3.0309999 -0.491 168 119 86
-0.55400002 3.0339999 -0.49200001 75 24 0
-0.96600002 3.03 -0.648 215 163 106
-0.98100001 3.0190001 -0.65899998 161 105 70
-0.86799997 3.0339999 -0.43900001 93 55 32
-0.875 3.0369999 -0.44400001 154 109 80
-0.85600001 3.03 -0.435 220 173 131
-0.95899999 3.0309999 -0.63599998 141 105 81
-0.96200001 3.029 -0.62900001 195 115 66
-0.96700001 3.026 -0.63499999 114 54 30
-0.96200001 3.016 -0.62099999 125 67 17
-0.95999998 3.027 -0.62599999 162 106 69
-0.97000003 3.017 -0.625 218 164 126
-0.97000003 3.0090001 -0.61900002 45 15 4
-0.96100003 3.0280001 -0.62699997 140 63 19
-1.033 2.927 -0.493 239 152 85
-0.97299999 2.895 -0.46399999 178 118 48
-0.99000001 2.8900001 -0.47 134 88 54
-1.054 2.9059999 -0.49599999 156 86 26
-1.051 2.9000001 -0.495 199 146 106
-0.61000001 2.891 -0.46799999 114 73 51
-0.62900001 2.8959999 -0.45699999 95 41 17
-0.52600002 3.0710001 -0.46799999 84 45 16
-0.53100002 3.0699999 -0.46200001 138 91 63
-0.53100002 3.0669999 -0.46799999 123 69 41
-0.53899997 3.066 -0.46799999 49 25 15
-0.51700002 3.073 -0.53399998 131 93 72
-0.51499999 3.073 -0.537 132 96 74
-0.523 3.072 -0.50199997 162 128 100
-0.52499998 3.073 -0.491 172 134 97
-0.53600001 3.0650001 -0.48899999 118 98 89
-0.53600001 3.0599999 -0.5 142 124 122
-0.81999999 2.905 -0.92900002 178 164 151
-0.82099998 2.9059999 -0.935 55 43 47
-0.83099997 2.905 -0.935 94 48 12
-0.83700001 2.9070001 -0.81400001 208 159 93
-0.83399999 2.9100001 -0.81699997 178 109 54
-0.83600003 2.9089999 -0.83499998 162 152 150
-0.54400003 2.908 -0.87199998 62 34 10
-0.565 2.904 -0.88099998 184 149 119
-0.55500001 2.911 -0.88700002 100 59 37
-0.493 2.9219999 -0.86699998 163 146 139
-0.54900002 2.878 -0.815 148 103 74
-0.53899997 2.901 -0.85900003 36 13 0
-0.53799999 2.898 -0.85699999 172 106 45
-0.70899999 3.0179999 -0.82099998 135 98 69
-0.74900001 2.97 -0.81300002 86 47 18
-0.74900001 2.9719999 -0.81900001 189 142 88
-0.62699997 3.003 -0.73799998 144 101 66
-0.68599999 3.02 -0.75 152 141 139
-0.68900001 3.017 -0.74800003 134 116 102
-0.68800002 3.0120001 -0.745 125 72 32
-0.65700001 2.8989999 -0.68699998 49 40 25
-0.64999998 2.901 -0.68699998 61 42 10
-0.65399998 2.901 -0.68599999 127 81 48
-0.60399997 2.911 -0.79900002 124 70 26
-0.60000002 2.9059999 -0.79799998 188 155 101
-0.61000001 2.9070001 -0.80599999 119 72 30
-0.59399998 2.902 -0.81300002 186 125 62
-0.58099997 2.901 -0.80199999 232 206 149
-0.58700001 2.901 -0.81199998 206 148 84
-0.79699999 3.0079999 -0.98500001 184 170 170
-0.79799998 3.006 -0.98100001 201 189 193
-0.796 3.0150001 -0.98699999 39 20 16
-1.012 2.9119999 -0.70999998 149 95 51
-1.036 2.892 -0.69999999 82 26 0
-0.87400001 2.8929999 -0.79699999 254 190 116
-0.86400002 2.904 -0.78799999 254 201 125
-0.87800002 2.908 -0.78399998 255 214 161
-0.86000001 2.8959999 -0.792 117 48 9
-0.87 2.8989999 -0.80000001 183 125 61
-0.88 2.895 -0.81800002 146 69 13
-0.889 2.9000001 -0.796 80 41 24
-0.84100002 2.9030001 -0.80800003 34 28 16
-0.847 2.9030001 -0.792 76 39 20
-0.81199998 2.9679999 -0.85299999 72 27 6
-0.815 2.9820001 -0.86199999 239 187 140
-0.81599998 2.9660001 -0.86500001 183 144 111
-0.81300002 2.9719999 -0.86699998 164 119 90
-0.80800003 2.987 -0.84200001 221 182 127
-0.80900002 2.97 -0.84399998 118 118 130
-0.81900001 2.951 -0.82599998 120 84 60
-0.78299999 2.964 -0.86900002 65 17 0
-0.787 2.9649999 -0.87400001 167 111 60
-0.77899998 2.9719999 -0.88599998 143 106 87
-0.75 2.9690001 -0.87 110 66 39
-0.73900002 2.971 -0.88099998 160 125 93
-0.74699998 2.971 -0.86699998 67 28 0
-0.84500003 2.905 -0.759 182 146 96
-0.83899999 2.872 -0.72000003 105 49 12
-0.85900003 2.882 -0.72000003 132 88 61
-0.84200001 2.868 -0.71600002 67 41 28
-0.83999997 2.882 -0.72299999 114 54 17
-0.85000002 2.9089999 -0.74599999 100 53 9
-0.84100002 2.9059999 -0.75199997 160 100 48
-0.84600002 2.9000001 -0.73199999 140 118 107
-0.76099998 2.9679999 -0.80000001 140 96 83
-0.78299999 2.973 -0.80699998 59 1 0
-0.745 2.9760001 -0.76899999 72 33 16
-0.87699997 2.973 -0.79000002 76 38 17
-0.87099999 2.9749999 -0.773 138 80 42
-0.87900001 2.9719999 -0.78299999 113 48 8
-0.88200003 2.9749999 -0.78799999 86 41 8
-0.85799998 2.977 -0.78399998 163 100 57
-0.82800001 2.984 -0.82300001 87 65 28
-0.833 3.0009999 -0.81999999 86 52 24
-0.83600003 2.9879999 -0.81099999 226 176 123
-0.83099997 2.9960001 -0.81800002 84 17 0
-0.85000002 2.973 -0.736 255 209 124
-0.852 2.9690001 -0.755 40 17 1
-0.85100001 2.967 -0.736 108 80 66
-0.86299998 2.977 -0.77200001 187 155 130
-0.86000001 2.9779999 -0.76200002 221 185 153
-0.85100001 2.885 -0.94099998 73 20 2
-0.85399997 2.8889999 -0.93000001 40 21 6
-0.866 2.8829999 -0.93800002 235 206 138
-0.54699999 2.862 -0.99199998 232 174 100
-0.55500001 2.855 -1.015 91 33 0
-0.81 2.983 -0.87900001 135 97 58
-0.80400002 2.9949999 -0.89499998 236 178 128
-0.801 2.98 -0.89099997 72 33 0
-0.83399999 2.944 -0.88800001 112 68 43
-0.82300001 2.9449999 -0.89399999 142 103 74
-0.81999999 2.9560001 -0.875 129 79 42
-0.84399998 2.9030001 -0.96200001 63 27 13
-0.82999998 2.9089999 -0.95700002 179 160 153
-0.838 2.9119999 -0.97000003 116 75 47
-0.83099997 2.914 -0.96600002 30 5 0
-0.82099998 2.918 -0.972 66 35 14
-0.82099998 2.9289999 -0.972 252 202 141
-0.83399999 2.925 -0.97899997 149 125 115
-0.81400001 2.908 -0.949 147 124 110
-0.79900002 2.911 -0.93800002 57 30 19
-0.80400002 2.908 -0.93199998 59 29 19
-0.79900002 2.9260001 -0.94 86 40 7
-0.79699999 2.924 -0.93699998 92 29 0
-0.79400003 2.9360001 -0.94800001 225 177 131
-0.852 2.8800001 -1.03 115 57 19
-0.86500001 2.8829999 -1.0369999 108 65 30
-0.85699999 2.878 -1.026 80 43 27
-0.85699999 2.8829999 -1.051 118 77 47
-0.85799998 2.973 -0.76700002 113 60 26
-0.85699999 2.9690001 -0.76099998 74 26 4
-0.85699999 2.9749999 -0.76099998 118 61 31
-0.88800001 2.9560001 -0.88200003 119 73 24
-0.88999999 2.947 -0.86900002 64 19 0
-0.88700002 2.944 -0.88 64 17 1
-0.89399999 2.9360001 -0.88599998 184 182 187
-0.88999999 2.937 -0.87699997 176 140 128
-0.90100002 2.925 -0.88800001 146 96 37
-0.87599999 2.9419999 -0.90799999 54 31 15
-0.89300001 2.9489999 -0.912 112 56 21
-0.88499999 2.9419999 -0.917 97 70 0
-0.88999999 2.9449999 -0.90200001 91 38 6
-0.97899997 2.8180001 -0.84799999 62 13 0
-0.99299997 2.802 -0.86699998 130 80 47
-0.89399999 2.895 -1.059 75 33 9
-0.88800001 2.8900001 -1.053 181 177 176
-0.89499998 2.891 -1.069 85 40 21
-0.89399999 2.895 -1.061 66 25 5
-0.89300001 2.8940001 -1.0650001 64 21 5
-0.81699997 2.8840001 -1.052 149 136 119
-0.97799999 2.836 -0.82700002 158 135 127
-0.97799999 2.8280001 -0.82599998 108 78 52
-0.98000002 2.8310001 -0.82700002 236 182 120
-0.97000003 2.8210001 -0.815 142 49 0
-0.96799999 2.823 -0.82300001 153 110 78
-0.89999998 2.9430001 -0.82999998 192 159 144
-0.90100002 2.9449999 -0.82099998 202 174 163
-0.98900002 2.8050001 -0.935 242 197 96
-0.99000001 2.7939999 -0.92400002 217 160 107
-0.90899998 2.9059999 -0.90600002 200 195 201
-0.90100002 2.9030001 -0.89999998 93 66 45
-0.91000003 2.9070001 -0.90899998 145 112 95
-0.90899998 2.9059999 -0.90899998 208 205 212
-1.006 2.869 -1.01 164 135 119
-1.028 2.862 -0.98900002 66 34 19
-1.025 2.862 -0.99299997 41 12 0
-1.021 2.8640001 -0.977 166 131 111
-0.87300003 2.8770001 -0.88700002 43 22 21
-0.87599999 2.885 -0.88300002 88 49 10
-0.87400001 2.8829999 -0.87400001 79 59 32
-0.98000002 2.8340001 -1.053 176 116 92
-1.012 2.8559999 -1.072 39 8 3
-1.013 2.8570001 -1.068 46 9 3
-0.86199999 2.9170001 -1.066 61 17 4
-0.86799997 2.9230001 -1.068 64 16 0
-0.89899999 2.9319999 -0.98500001 191 136 72
-0.90200001 2.904 -1.061 62 15 0
-0.89899999 2.9070001 -1.067 66 20 5
-0.898 2.905 -1.072 55 9 0
-0.90399998 2.9089999 -1.058 69 22 4
-0.98500001 2.8740001 -1.053 148 121 110
-0.89999998 2.8940001 -1.071 74 29 8
-0.96899998 2.8670001 -1.023 112 68 23
-0.97000003 2.872 -1.027 76 30 0
-0.96600002 2.8670001 -1.04 165 132 113
-0.87900001 2.944 -1.025 70 30 4
-0.87 2.954 -1.016 197 154 120
-0.87099999 2.9519999 -1.016 72 25 0
-0.86799997 2.961 -1.02 152 132 125
