ply
format ascii 1.0
comment PCL generated
element vertex 219
property float x
property float y
property float z
property uchar red
property uchar green
property uchar blue
element camera 1
property float view_px
property float view_py
property float view_pz
property float x_axisx
property float x_axisy
property float x_axisz
property float y_axisx
property float y_axisy
property float y_axisz
property float z_axisx
property float z_axisy
property float z_axisz
property float focal
property float scalex
property float scaley
property float centerx
property float centery
property int viewportx
property int viewporty
property float k1
property float k2
end_header
-16.062 5.119 -1.069 167 105 58
-16.066999 5.119 -1.067 156 95 40
-16.063 5.125 -1.067 130 69 25
-16.066 5.1139998 -1.068 190 146 101
-16.011 5.0380001 -0.86900002 220 141 84
-15.989 5.0359998 -0.86400002 107 62 33
-15.986 5.0349998 -0.87199998 161 110 63
-16.066999 5.1199999 -1.059 79 33 7
-15.99 5.039 -0.87199998 221 173 124
-16.024 5.0219998 -0.87 155 75 22
-16.021 5.0209999 -0.88 179 133 81
-16.018999 5.0289998 -0.88 82 55 28
-16.028 5.0669999 -0.98900002 91 71 34
-16.037001 5.0760002 -0.97000003 85 52 17
-16.035999 5.0549998 -0.97299999 147 93 55
-16.033001 5.0380001 -0.92199999 77 45 32
-16.046 5.033 -0.912 92 26 0
-16.038 5.0289998 -0.90100002 132 86 52
-16.076 5.0869999 -0.958 185 132 82
-16.079 5.105 -0.94999999 77 58 26
-16.082001 5.1079998 -0.96600002 145 84 30
-16.075001 5.0890002 -0.96399999 158 70 6
-16.068001 5.1009998 -0.97100002 128 109 67
-16.066999 5.1020002 -0.96600002 166 104 47
-16.077999 5.1079998 -0.96200001 197 125 75
-16.076 5.1030002 -0.95700002 154 107 77
-16.073 5.1030002 -0.954 168 102 44
-16.009001 5.105 -1.031 130 91 32
-16.02 5.1160002 -1.03 174 123 68
-16.009001 5.1009998 -1.036 102 55 13
-16.014 5.105 -1.035 210 148 91
-16.061001 5.1170001 -1.061 121 77 42
-16.052 5.085 -1.074 148 102 53
-16.035 5.086 -1.072 121 74 28
-16.055 5.0869999 -1.0829999 128 77 32
-16.035 5.0910001 -1.066 161 101 51
-16.055 5.0910001 -0.98100001 154 117 91
-16.056 5.0840001 -0.96700001 141 91 64
-16.046 5.0840001 -0.97899997 128 92 76
-16.040001 5.0430002 -0.87800002 107 48 8
-16.038 5.0440001 -0.87300003 185 141 96
-16.041 5.0549998 -0.884 160 106 60
-16.032 5.0489998 -0.87699997 178 133 91
-16.031 5.0209999 -0.85900003 124 82 42
-16.02 5.0170002 -0.84799999 99 67 44
-16.028999 5.027 -0.86699998 130 67 26
-16.039 5.053 -0.97899997 128 73 34
-16.034 5.0549998 -0.986 144 83 38
-16.040001 5.0619998 -0.96200001 193 125 80
-16.047001 5.0760002 -0.96100003 149 66 0
-16.027 5.0489998 -0.954 137 81 30
-16.027 5.053 -0.94499999 133 87 51
-16.045 5.0580001 -0.95999998 121 76 37
-16.027 5.059 -0.99000001 157 99 51
-16.035999 5.0349998 -0.91299999 114 81 50
-16.031 5.0479999 -0.949 149 80 21
-16.045 5.0619998 -0.958 201 158 124
-16.056 5.0630002 -0.96200001 162 76 19
-16.056999 5.0809999 -1.072 134 68 20
-16.079 5.1020002 -0.963 107 54 10
-16.072001 5.1009998 -0.977 142 89 39
-16.028999 5.1129999 -1.028 138 93 51
-16.033001 5.1100001 -1.03 195 137 89
-16.040001 5.0970001 -1.025 170 114 63
-16.048 5.092 -1.007 208 167 135
-16.056 5.098 -1.015 126 66 29
-16.056 5.0599999 -0.99299997 105 66 27
-16.059 5.0609999 -0.97500002 119 59 7
-16.052999 5.0619998 -0.98400003 188 121 76
-16.056999 5.0619998 -0.98900002 89 49 24
-16.066999 5.072 -1.002 143 98 57
-16.061001 5.0669999 -0.99699998 106 55 12
-16.039 5.086 -1.064 60 25 3
-16.039 5.086 -1.052 130 72 24
-16.042 5.0749998 -1.064 132 93 64
-16.061001 5.0809999 -0.99000001 178 119 53
-16.063 5.0809999 -1 77 33 0
-16.045 5.085 -0.98799998 135 94 62
-16.035 5.0809999 -1.0039999 195 134 87
-16.056 5.092 -0.99400002 158 105 53
-16.042999 5.0799999 -0.98100001 204 139 97
-16.02 5.0380001 -0.86900002 118 83 51
-16.027 5.0469999 -0.87699997 99 53 19
-16.041 5.039 -0.87800002 96 46 11
-16.056 5.0320001 -0.88 134 74 38
-16.028 5.0170002 -0.866 142 75 32
-16.030001 5.0139999 -0.87400001 132 52 3
-16.030001 5.0440001 -0.93900001 163 124 91
-16.055 5.0669999 -0.96899998 122 68 32
-16.054001 5.0749998 -0.97399998 174 119 65
-16.054001 5.0669999 -0.99800003 115 70 31
-16.052999 5.0609999 -0.99199998 147 55 4
-16.025999 5.0599999 -0.99299997 155 79 21
-16.041 5.0599999 -0.991 158 101 56
-16.032 5.0770001 -1.002 106 27 0
-16.058001 5.0799999 -0.96600002 157 101 40
-16.066 5.092 -0.95999998 126 68 28
-16.063999 5.0830002 -0.98100001 231 148 94
-16.035 5.0419998 -0.91600001 132 80 30
-16.031 5.0380001 -0.898 96 52 17
-16.048 5.0320001 -0.89499998 166 128 105
-16.058001 5.04 -0.90200001 67 22 0
-16.049999 5.04 -0.89700001 225 157 110
-16.07 5.085 -1.05 121 63 15
-16.066999 5.0840001 -1.057 145 82 38
-16.07 5.0869999 -1.056 139 44 0
-16.052 5.0890002 -1.049 121 53 4
-16.042999 5.0619998 -1.0549999 202 147 93
-16.045 5.0739999 -1.052 98 35 0
-16.049 5.0749998 -1.067 105 51 4
-16.056 5.0970001 -1.012 117 94 50
-16.077999 5.1040001 -0.96600002 146 77 22
-16.07 5.0929999 -0.97500002 164 102 43
-16.046 5.1129999 -1.034 169 113 64
-16.045 5.1090002 -1.041 226 146 77
-16.056 5.0970001 -1.034 160 116 67
-16.058001 5.066 -0.98400003 120 68 29
-16.018999 5.1069999 -1.03 206 141 85
-16.045 5.0910001 -1.015 216 175 143
-16.056999 5.0949998 -1.016 103 72 43
-16.063 5.0939999 -0.99400002 142 79 28
-16.047001 5.085 -0.98799998 82 37 18
-16.013 5.039 -0.87300003 115 41 0
-16.018 5.0349998 -0.88599998 103 52 0
-16.031 5.0479999 -0.93800002 238 177 122
-16.040001 5.0619998 -0.97399998 151 96 40
-16.040001 5.072 -0.97500002 213 143 81
-16.044001 5.059 -0.986 149 102 60
-16.047001 5.0700002 -0.96200001 122 58 10
-16.039 5.0619998 -0.99199998 160 116 79
-16.052 5.0809999 -0.96499997 119 70 30
-16.044001 5.0310001 -0.903 119 42 0
-16.046 5.0339999 -0.88499999 162 119 77
-16.038 5.0879998 -1.064 165 120 78
-16.056 5.1129999 -1.0650001 146 83 42
-16.042 5.0869999 -1.0650001 123 62 18
-16.051001 5.072 -1.054 165 98 45
-16.051001 5.072 -1.045 199 111 47
-16.051001 5.0780001 -1.067 130 73 20
-16.052999 5.0819998 -1.075 119 57 6
-16.063999 5.0840001 -0.98500001 158 95 51
-16.069 5.0929999 -0.97899997 155 105 78
-16.052999 5.0949998 -1.025 94 53 21
-16.044001 5.1090002 -1.033 166 120 84
-16.035999 5.0819998 -1.023 169 120 79
-16.025999 5.1090002 -1.03 144 97 51
-16.040001 5.0710001 -1.011 96 73 32
-16.061001 5.072 -1.006 105 48 5
-16.034 5.0489998 -0.88599998 144 99 60
-16.037001 5.0479999 -0.88700002 83 52 31
-16.040001 5.0419998 -0.88099998 103 57 23
-16.025 5.0339999 -0.88499999 141 115 102
-16.024 5.0120001 -0.847 177 134 89
-16.028 5.013 -0.852 144 84 32
-16.047001 5.0300002 -0.87900001 168 112 79
-16.042 5.0229998 -0.889 157 81 29
-16.033001 5.0209999 -0.87800002 140 78 41
-16.049999 5.059 -0.96100003 180 91 31
-16.047001 5.079 -0.97299999 181 100 45
-16.046 5.0599999 -0.97100002 194 142 103
-16.034 5.0749998 -0.99299997 102 69 28
-16.052999 5.0609999 -0.977 168 78 26
-16.055 5.073 -0.96700001 153 106 76
-16.055 5.0320001 -0.90799999 85 47 26
-16.048 5.0419998 -0.91000003 81 44 26
-16.037001 5.0159998 -0.87099999 151 109 69
-16.039 5.039 -0.91900003 145 96 53
-16.063 5.0939999 -0.98900002 88 43 22
-16.049999 5.1030002 -1.039 138 96 54
-16.042999 5.0910001 -1.022 98 40 3
-16.034 5.0939999 -1.03 125 80 47
-16.042 5.0780001 -1.048 143 71 21
-16.041 5.0609999 -1.046 158 105 53
-16.032 5.1009998 -1.034 105 58 32
-16.040001 5.0840001 -1.038 103 68 49
-16.065001 5.0929999 -0.96200001 151 118 101
-16.051001 5.0749998 -1.018 169 99 30
-16.047001 5.0700002 -1.028 189 104 40
-16.023001 5.0650001 -1.036 152 100 53
-16.02 5.0609999 -1.04 180 131 88
-16.014999 5.066 -1.039 133 72 25
-16.042 5.0780001 -1.033 124 50 5
-16.045 5.073 -1.008 150 58 7
-16.058001 5.0929999 -1.0039999 176 114 67
-16.054001 5.0840001 -1.01 60 24 12
-16.034 5.04 -0.87400001 208 141 99
-16.033001 5.0339999 -0.89200002 124 93 62
-16.031 5.0279999 -0.88300002 121 72 40
-16.028999 5.0149999 -0.86500001 137 94 51
-16.035 5.0170002 -0.86699998 156 92 28
-16.034 5.027 -0.86400002 127 73 29
-16.047001 5.0250001 -0.88599998 164 133 105
-16.035999 5.079 -0.99599999 124 85 68
-16.049999 5.0409999 -0.90700001 111 38 0
-16.045 5.0419998 -0.91100001 61 21 0
-16.035999 5.0469999 -0.93699998 170 109 62
-16.040001 5.086 -1.053 42 10 0
-16.031 5.099 -1.031 171 111 61
-16.047001 5.0640001 -1.0470001 103 47 12
-16.044001 5.073 -1.04 124 57 12
-16.058001 5.0760002 -1.012 159 78 13
-16.056999 5.0780001 -1.021 212 163 122
-16.056999 5.0780001 -1.0089999 126 74 34
-16.037001 5.033 -0.87699997 145 96 53
-16.039 5.0229998 -0.88200003 128 75 33
-16.035 5.0219998 -0.86199999 132 69 18
-16.041 5.039 -0.88300002 171 117 73
-16.049 5.0840001 -1.057 121 74 28
-16.049999 5.0840001 -1.0650001 132 85 39
-16.054001 5.092 -1.029 129 41 0
-16.052 5.0799999 -1.029 120 53 8
-16.049 5.073 -1.033 89 61 22
-16.038 5.0960002 -1.0319999 168 114 68
-16.045 5.0450001 -0.90799999 121 85 63
-16.054001 5.0799999 -1.041 158 100 52
-16.052 5.0780001 -1.03 125 71 25
-16.049 5.066 -0.99699998 105 63 38
-16.039 5.0430002 -0.89399999 103 60 26
-16.049 5.0960002 -1.038 195 125 63
0 0 0 1 0 0 0 1 0 0 0 1 0 0 0 0 0 219 1 0 0
