ply
format ascii 1.0
comment PCL generated
element vertex 168
property float x
property float y
property float z
property uchar red
property uchar green
property uchar blue
element camera 1
property float view_px
property float view_py
property float view_pz
property float x_axisx
property float x_axisy
property float x_axisz
property float y_axisx
property float y_axisy
property float y_axisz
property float z_axisx
property float z_axisy
property float z_axisz
property float focal
property float scalex
property float scaley
property float centerx
property float centery
property int viewportx
property int viewporty
property float k1
property float k2
end_header
-3.779 9.2119999 -0.96499997 218 141 37
-3.779 9.2119999 -0.97399998 220 148 50
-3.7839999 9.2150002 -0.972 174 101 0
-3.7390001 9.1929998 -1.058 242 178 72
-3.75 9.1999998 -1.0599999 206 186 175
-3.7490001 9.1940002 -1.063 246 179 62
-3.734 9.2340002 -1.027 200 172 133
-3.7360001 9.2410002 -1.029 236 157 91
-3.7279999 9.243 -1.022 155 140 137
-3.73 9.2340002 -1.022 214 140 51
-3.7490001 9.191 -1.054 146 102 75
-3.75 9.1949997 -1.059 255 186 80
-3.7379999 9.1929998 -1.051 240 178 67
-3.7490001 9.1899996 -1.0319999 123 112 84
-3.7449999 9.1960001 -1.026 255 219 131
-3.7550001 9.1890001 -1.025 190 120 60
-3.7509999 9.1960001 -1.012 228 175 71
-3.734 9.2209997 -1.026 135 120 117
-3.7320001 9.2309999 -1.018 234 154 67
-3.7349999 9.224 -1.018 213 135 53
-3.7609999 9.21 -0.98199999 193 163 129
-3.756 9.1940002 -0.986 165 102 67
-3.7609999 9.2069998 -1 198 136 79
-3.76 9.198 -0.92799997 174 111 60
-3.7609999 9.2030001 -0.93400002 255 200 87
-3.7539999 9.1969995 -0.949 57 31 16
-3.76 9.198 -0.94099998 241 182 66
-3.7609999 9.1940002 -0.93599999 197 135 84
-3.743 9.2229996 -1.0190001 199 133 73
-3.7490001 9.2069998 -1.025 149 95 61
-3.734 9.2270002 -1.018 234 154 69
-3.733 9.2360001 -1.0190001 231 155 69
-3.767 9.2030001 -0.95700002 251 177 70
-3.767 9.2030001 -0.93900001 245 186 70
-3.75 9.1949997 -1.051 240 162 88
-3.75 9.1949997 -1.046 220 144 69
-3.743 9.2329998 -0.99800003 122 94 93
-3.7379999 9.2259998 -0.99299997 195 184 182
-3.733 9.2270002 -0.99000001 245 172 44
-3.7309999 9.2200003 -0.98299998 250 185 59
-3.7449999 9.2049999 -0.98699999 225 153 79
-3.7409999 9.2209997 -0.98799998 219 158 113
-3.7579999 9.2299995 -0.99400002 125 73 26
-3.753 9.2370005 -1.003 216 133 65
-3.7520001 9.2349997 -1.0039999 150 94 59
-3.7639999 9.2390003 -0.97899997 222 162 108
-3.756 9.2440004 -0.98400003 198 126 67
-3.753 9.217 -0.98699999 169 132 103
-3.7539999 9.21 -0.99699998 199 141 59
-3.733 9.2299995 -0.97600001 142 123 119
-3.7320001 9.2209997 -0.977 254 180 57
-3.734 9.2270002 -0.98400003 242 171 43
-3.7479999 9.243 -0.972 189 99 11
-3.7449999 9.2460003 -0.97600001 229 149 54
-3.7479999 9.2329998 -0.972 226 171 117
-3.757 9.2010002 -0.95099998 134 88 54
-3.757 9.2030001 -0.96200001 162 113 73
-3.756 9.1999998 -0.97500002 254 195 101
-3.757 9.2010002 -0.96700001 255 185 93
-3.7550001 9.191 -0.97600001 198 155 123
-3.76 9.2030001 -0.963 228 149 57
-3.7420001 9.2449999 -0.98400003 79 55 51
-3.734 9.2349997 -0.98500001 142 121 104
-3.7609999 9.2030001 -0.92500001 255 192 87
-3.7620001 9.2040005 -0.93000001 255 201 91
-3.7609999 9.2030001 -0.91600001 255 195 97
-3.757 9.2030001 -0.912 150 105 74
-3.7609999 9.2030001 -0.912 253 190 93
-3.76 9.2030001 -0.90700001 132 100 85
-3.756 9.2069998 -0.90600002 171 125 91
-3.7639999 9.2060003 -0.90499997 255 182 105
-3.7509999 9.1960001 -1.016 246 192 94
-3.7509999 9.1960001 -1.02 250 195 104
-3.7449999 9.1960001 -1.031 249 215 125
-3.747 9.2309999 -1.043 94 45 2
-3.7409999 9.2329998 -1.061 150 82 33
-3.7449999 9.2379999 -1.062 167 147 140
-3.7490001 9.2279997 -1.039 132 103 73
-3.7479999 9.2329998 -1.064 108 64 15
-3.753 9.2320004 -1.041 229 142 49
-3.75 9.2340002 -1.011 155 128 119
-3.747 9.243 -1.018 141 93 57
-3.7620001 9.1999998 -0.94999999 254 183 75
-3.7639999 9.2049999 -0.95999998 242 163 68
-3.7460001 9.1960001 -1.0549999 246 195 86
-3.7379999 9.2370005 -0.98900002 142 122 121
-3.7579999 9.2159996 -0.98199999 233 159 54
-3.7520001 9.21 -0.99299997 147 95 58
-3.7520001 9.1990004 -1.003 153 102 73
-3.76 9.2360001 -0.98299998 141 105 55
-3.753 9.2290001 -0.995 57 28 10
-3.756 9.243 -0.97799999 207 147 95
-3.743 9.2390003 -0.97500002 239 156 52
-3.763 9.2049999 -0.93900001 252 199 87
-3.7690001 9.21 -0.94499999 254 201 89
-3.756 9.1999998 -0.97899997 255 203 109
-3.7379999 9.2419996 -1.025 205 133 61
-3.7390001 9.2410002 -1.031 193 120 41
-3.7409999 9.243 -0.97899997 228 151 45
-3.744 9.2399998 -0.99400002 203 165 118
-3.76 9.2030001 -0.92000002 253 187 90
-3.7620001 9.2040005 -0.90799999 255 190 101
-3.7520001 9.1960001 -0.986 246 173 118
-3.7520001 9.1960001 -0.98900002 241 179 122
-3.7520001 9.1969995 -0.977 207 132 65
-3.757 9.1929998 -1.015 138 79 37
-3.756 9.2019997 -1.016 183 135 87
-3.7579999 9.2049999 -1.027 130 80 29
-3.753 9.2030001 -1.05 221 138 60
-3.7420001 9.2349997 -1.034 191 130 83
-3.7550001 9.1990004 -0.97000003 255 194 102
-3.753 9.2040005 -0.97100002 254 181 87
-3.7509999 9.2089996 -0.977 193 137 90
-3.76 9.198 -0.94499999 233 170 57
-3.767 9.2080002 -0.95300001 223 159 53
-3.7709999 9.2119999 -0.94599998 71 44 27
-3.744 9.2299995 -0.995 224 134 48
-3.7520001 9.1999998 -1.01 148 93 63
-3.7520001 9.1969995 -1.0039999 250 179 73
-3.7620001 9.2360001 -0.97799999 209 137 29
-3.7550001 9.224 -0.97600001 148 98 61
-3.753 9.2309999 -0.97399998 243 168 103
-3.753 9.2340002 -1 188 147 103
-3.7460001 9.2290001 -0.995 229 176 126
-3.7650001 9.2030001 -0.92500001 250 204 145
-3.7449999 9.2360001 -0.97399998 244 158 57
-3.7679999 9.2080002 -0.949 245 187 79
-3.7360001 9.2390003 -0.98199999 231 159 51
-3.74 9.2419996 -0.98400003 241 190 137
-3.747 9.2270002 -0.97399998 219 142 72
-3.7490001 9.2390003 -0.972 201 110 27
-3.7520001 9.2130003 -0.97500002 152 98 54
-3.753 9.2010002 -1.03 157 103 57
-3.7539999 9.2049999 -1.052 96 79 72
-3.747 9.2349997 -1.035 162 126 94
-3.7550001 9.1999998 -0.96600002 255 204 111
-3.7650001 9.2060003 -0.95700002 251 178 76
-3.7390001 9.2370005 -0.991 224 149 48
-3.74 9.2419996 -0.98799998 201 129 27
-3.7509999 9.2010002 -1.017 155 100 69
-3.756 9.2030001 -1.007 196 133 79
-3.7550001 9.1960001 -1.001 133 71 30
-3.7520001 9.1969995 -1.008 218 156 53
-3.7550001 9.198 -0.991 245 175 64
-3.757 9.2299995 -0.98500001 203 99 14
-3.7539999 9.2049999 -0.97100002 184 126 80
-3.7509999 9.2209997 -0.97500002 230 148 46
-3.7420001 9.2200003 -0.98000002 247 184 81
-3.7509999 9.1949997 -1.038 255 201 114
-3.75 9.2379999 -1.034 245 198 156
-3.7490001 9.2370005 -1.024 153 112 68
-3.7550001 9.2290001 -1.023 192 156 130
-3.747 9.2379999 -1.0319999 255 167 71
-3.7520001 9.2209997 -1.035 251 182 105
-3.7520001 9.2349997 -1.018 118 64 26
-3.7479999 9.2229996 -1.021 175 119 70
-3.7379999 9.2390003 -0.98699999 240 166 81
-3.753 9.2010002 -1.015 234 174 120
-3.7539999 9.2080002 -0.99699998 197 138 94
-3.7520001 9.1949997 -1.002 202 135 82
-3.7550001 9.2010002 -0.986 227 166 77
-3.7490001 9.2390003 -0.99800003 162 79 0
-3.753 9.2349997 -0.99800003 199 134 66
-3.757 9.2089996 -1.044 188 174 174
-3.7509999 9.1960001 -1.033 248 192 107
-3.753 9.1969995 -0.99900001 244 167 61
-3.757 9.2030001 -1.0319999 223 163 109
-3.753 9.198 -0.99599999 128 83 54
0 0 0 1 0 0 0 1 0 0 0 1 0 0 0 0 0 168 1 0 0
