ply
format ascii 1.0
comment PCL generated
element vertex 860
property float x
property float y
property float z
property uchar red
property uchar green
property uchar blue
element camera 1
property float view_px
property float view_py
property float view_pz
property float x_axisx
property float x_axisy
property float x_axisz
property float y_axisx
property float y_axisy
property float y_axisz
property float z_axisx
property float z_axisy
property float z_axisz
property float focal
property float scalex
property float scaley
property float centerx
property float centery
property int viewportx
property int viewporty
property float k1
property float k2
end_header
-6.493 5.3309999 -1.015 163 155 144
-6.4819999 5.316 -1.015 96 60 28
-6.4920001 5.3309999 -1.021 149 135 122
-6.4829998 5.3119998 -1.007 142 107 79
-6.4819999 5.3189998 -1.012 131 114 106
-6.4400001 5.4039998 -0.95200002 185 136 95
-6.4429998 5.4050002 -0.95700002 229 175 128
-6.4429998 5.4229999 -0.963 119 84 56
-6.4400001 5.4229999 -0.95200002 170 130 94
-6.434 5.4130001 -0.93599999 147 105 65
-6.586 5.467 -0.917 237 216 185
-6.592 5.4559999 -0.91799998 247 198 105
-6.5780001 5.4650002 -0.91000003 196 162 125
-6.5840001 5.46 -0.91500002 202 177 147
-6.4759998 5.2950001 -0.977 138 80 32
-6.4689999 5.2930002 -0.986 139 86 46
-6.4860001 5.3049998 -0.98400003 124 75 34
-6.4720001 5.2950001 -0.98100001 133 66 21
-6.467 5.2919998 -0.97399998 231 164 83
-6.4829998 5.2919998 -0.95999998 255 195 128
-6.4949999 5.316 -0.95999998 122 98 86
-6.4949999 5.316 -0.95700002 114 91 77
-6.4949999 5.3179998 -0.95899999 105 82 68
-6.4990001 5.309 -0.96799999 137 73 29
-6.4910002 5.3000002 -0.958 186 116 57
-6.4619999 5.3010001 -0.972 192 129 60
-6.4629998 5.3080001 -0.96700001 116 62 24
-6.4780002 5.2950001 -0.95499998 101 57 10
-6.4770002 5.3200002 -0.96100003 131 105 92
-6.487 5.3169999 -0.96100003 150 115 96
-6.493 5.3140001 -0.95700002 120 98 87
-6.4850001 5.3189998 -0.96499997 121 88 69
-6.4860001 5.3330002 -1.005 101 98 91
-6.4650002 5.3099999 -1.001 79 21 0
-6.473 5.3189998 -1.024 76 58 54
-6.441 5.4109998 -0.93699998 231 175 66
-6.441 5.414 -0.94400001 106 66 31
-6.4499998 5.4070001 -0.94099998 254 226 80
-6.4450002 5.4050002 -0.95099998 183 114 19
-6.5 5.4000001 -0.954 185 138 46
-6.4949999 5.402 -0.95499998 247 191 104
-6.4899998 5.4089999 -0.94700003 169 119 68
-6.4949999 5.401 -0.958 248 189 111
-6.4419999 5.414 -0.93199998 249 199 148
-6.4380002 5.4229999 -0.93000001 199 162 133
-6.4520001 5.4109998 -0.93900001 252 230 85
-6.4580002 5.4159999 -0.94 105 59 26
-6.4640002 5.415 -0.94499999 156 107 67
-6.5669999 5.5040002 -0.94400001 54 25 9
-6.5679998 5.506 -0.94199997 75 46 30
-6.566 5.507 -0.94099998 129 96 79
-6.5009999 5.4499998 -1.085 184 117 64
-6.5089998 5.4499998 -1.086 126 63 22
-6.4990001 5.448 -1.087 87 60 39
-6.5079999 5.4460001 -1.09 121 88 55
-6.5770001 5.467 -0.91299999 205 167 120
-6.592 5.4829998 -0.917 109 87 76
-6.4559999 5.4369998 -0.93400002 127 95 74
-6.4489999 5.434 -0.93900001 131 100 79
-6.4419999 5.4250002 -0.93599999 113 74 43
-6.467 5.303 -0.96499997 191 147 108
-6.4660001 5.2950001 -0.97100002 149 95 35
-6.4770002 5.3000002 -0.95999998 156 109 57
-6.4559999 5.302 -0.98000002 231 177 117
-6.487 5.3000002 -0.96200001 180 111 46
-6.4850001 5.3060002 -0.97100002 137 72 14
-6.5890002 5.46 -0.926 207 150 73
-6.599 5.4699998 -0.92799997 94 17 0
-6.5809999 5.4520001 -0.926 254 238 163
-6.4840002 5.3200002 -0.97299999 77 46 28
-6.4920001 5.3119998 -0.97000003 111 40 0
-6.4819999 5.3060002 -0.98500001 109 59 8
-6.4749999 5.3239999 -0.97799999 148 111 69
-6.4770002 5.3200002 -1.024 111 60 15
-6.5009999 5.408 -1.041 128 113 108
-6.5009999 5.4120002 -1.049 121 104 97
-6.4949999 5.4000001 -1.043 125 117 114
-6.4879999 5.4029999 -0.95899999 160 137 129
-6.5970001 5.474 -0.92400002 153 78 23
-6.5939999 5.4829998 -0.91600001 114 94 83
-6.5960002 5.4770002 -0.92400002 217 145 71
-6.5890002 5.4650002 -0.92199999 142 107 77
-6.4359999 5.4159999 -0.93699998 157 121 89
-6.4439998 5.4099998 -0.94099998 196 152 31
-6.4450002 5.4130001 -0.935 140 88 31
-6.4569998 5.4130001 -0.94999999 152 102 67
-6.5960002 5.4770002 -0.92799997 174 101 32
-6.5619998 5.4970002 -0.94099998 128 84 57
-6.5599999 5.4980001 -0.94300002 85 43 19
-6.4400001 5.4200001 -0.93699998 106 66 41
-6.4549999 5.4200001 -0.94 250 207 156
-6.4910002 5.3039999 -0.95899999 220 150 91
-6.493 5.309 -0.97000003 168 101 48
-6.4990001 5.3130002 -0.97600001 188 116 66
-6.4710002 5.2940001 -0.972 212 139 71
-6.4790001 5.303 -0.97500002 142 75 20
-6.4910002 5.4439998 -0.95700002 159 144 185
-6.473 5.4439998 -0.958 127 99 88
-6.4790001 5.4320002 -0.94800001 143 94 36
-6.4920001 5.4180002 -0.94599998 179 138 74
-6.5 5.4250002 -0.949 204 177 134
-6.4580002 5.428 -0.94400001 125 99 86
-6.5710001 5.5 -0.94099998 208 142 84
-6.5669999 5.4990001 -0.94099998 186 122 60
-6.5609999 5.493 -0.935 169 122 80
-6.5180001 5.4229999 -0.99199998 125 76 43
-6.5180001 5.4200001 -1.0089999 220 166 106
-6.5349998 5.434 -1.001 207 132 64
-6.5190001 5.4039998 -0.99299997 184 132 95
-6.592 5.4619999 -0.92400002 243 193 104
-6.5869999 5.4640002 -0.93099999 120 102 98
-6.4629998 5.3140001 -0.96600002 201 140 111
-6.4580002 5.3210001 -0.972 100 76 66
-6.467 5.322 -0.97799999 71 45 30
-6.467 5.3319998 -0.98400003 209 151 87
-6.4790001 5.3319998 -0.99199998 31 14 7
-6.4809999 5.329 -0.99299997 89 82 72
-6.4879999 5.3439999 -0.99299997 55 30 23
-6.4879999 5.3470001 -0.991 32 7 0
-6.4759998 5.3140001 -0.99900001 131 90 58
-6.4699998 5.3130002 -0.99900001 166 113 69
-6.4650002 5.303 -0.99400002 90 32 0
-6.447 5.3060002 -0.98699999 118 102 103
-6.4549999 5.3169999 -0.99800003 178 135 92
-6.4840002 5.3520002 -1.024 234 190 143
-6.507 5.4289999 -1.045 232 190 148
-6.5029998 5.4260001 -1.067 148 88 36
-6.4889998 5.4130001 -1.024 177 125 85
-6.4899998 5.3899999 -1.033 124 106 102
-6.5089998 5.415 -1.021 105 95 94
-6.5050001 5.4099998 -1.013 210 145 87
-6.5170002 5.4099998 -1.0089999 166 118 78
-6.586 5.4689999 -0.91799998 146 123 89
-6.5929999 5.4759998 -0.92199999 144 121 113
-6.4970002 5.4029999 -1.075 114 74 38
-6.4980001 5.401 -1.069 230 158 86
-6.4990001 5.4099998 -1.085 165 117 68
-6.4380002 5.4180002 -0.93699998 110 73 46
-6.4899998 5.4060001 -0.98100001 219 163 112
-6.447 5.414 -0.93699998 164 122 80
-6.4619999 5.4380002 -0.95700002 130 107 89
-6.4549999 5.4349999 -0.94999999 132 106 91
-6.4510002 5.4349999 -0.94 125 94 74
-6.4530001 5.4349999 -0.93900001 133 100 81
-6.4640002 5.4310002 -0.97299999 82 51 33
-6.4619999 5.434 -0.96399999 103 75 64
-6.4489999 5.4250002 -0.963 126 78 42
-6.5830002 5.4720001 -0.91600001 149 112 70
-6.4910002 5.395 -1.069 134 90 61
-6.48 5.3759999 -1.068 187 135 87
-6.4850001 5.3740001 -1.058 167 91 39
-6.4840002 5.388 -1.077 211 156 102
-6.5560002 5.4920001 -0.93400002 176 134 94
-6.573 5.4489999 -0.92699999 224 202 119
-6.5749998 5.4510002 -0.93099999 255 231 150
-6.4520001 5.4169998 -1.039 137 98 65
-6.4549999 5.4219999 -1.044 41 15 2
-6.4510002 5.4250002 -1.041 44 25 18
-6.4889998 5.3379998 -1 72 46 33
-6.4860001 5.3330002 -1.016 95 97 92
-6.4790001 5.3499999 -1.006 166 99 46
-6.4850001 5.3639998 -1.035 135 86 45
-6.4790001 5.3530002 -1.04 53 18 0
-6.4790001 5.3070002 -0.98699999 126 111 106
-6.48 5.3070002 -0.95899999 101 48 6
-6.473 5.3049998 -0.96499997 156 104 65
-6.4520001 5.4299998 -0.95300001 46 19 8
-6.5949998 5.4759998 -0.93199998 191 122 57
-6.5710001 5.494 -0.93900001 211 158 90
-6.5419998 5.4000001 -0.921 123 82 38
-6.5430002 5.4050002 -0.93400002 248 182 88
-6.5380001 5.3959999 -0.91900003 173 127 78
-6.54 5.3990002 -0.94300002 123 101 90
-6.5419998 5.4460001 -0.99699998 105 79 62
-6.5500002 5.4590001 -1.001 75 46 30
-6.5450001 5.4520001 -1.01 63 43 34
-6.5450001 5.4549999 -0.99699998 79 35 0
-6.5170002 5.4790001 -1.016 118 87 59
-6.507 5.4720001 -1.013 147 116 96
-6.5170002 5.4819999 -1.007 218 156 83
-6.4780002 5.3200002 -0.98199999 181 129 92
-6.48 5.3130002 -0.99299997 155 140 143
-6.4619999 5.309 -0.99199998 98 37 0
-6.4549999 5.3099999 -0.977 170 112 64
-6.48 5.3390002 -1.026 58 18 0
-6.48 5.355 -1.044 55 19 0
-6.4829998 5.4089999 -1.039 209 140 85
-6.4699998 5.408 -1.0319999 166 115 70
-6.5209999 5.4190001 -1.017 255 196 135
-6.5050001 5.4039998 -1.006 210 152 104
-6.4770002 5.408 -1.0140001 215 149 71
-6.4689999 5.355 -1.033 101 60 30
-6.4710002 5.3499999 -1.018 61 42 35
-6.4790001 5.3639998 -1.031 21 10 8
-6.4619999 5.3990002 -1.008 255 222 183
-6.4510002 5.4000001 -1.03 222 163 83
-6.447 5.4000001 -1.025 184 130 86
-6.4590001 5.4070001 -1.016 107 70 43
-6.4530001 5.4169998 -1.0190001 114 112 115
-6.461 5.4310002 -1.053 91 71 60
-6.4530001 5.4260001 -1.036 40 17 9
-6.4499998 5.415 -1.0319999 222 177 138
-6.4640002 5.4200001 -1.007 73 43 19
-6.4689999 5.415 -1.003 222 166 79
-6.461 5.4250002 -0.986 93 70 52
-6.4650002 5.4070001 -1.0089999 154 123 77
-6.526 5.4260001 -1.0140001 174 108 58
-6.5289998 5.4320002 -1.015 168 102 50
-6.5240002 5.4239998 -1.02 183 126 73
-6.4980001 5.4120002 -1.086 201 155 106
-6.4790001 5.4039998 -1.087 94 63 43
-6.4840002 5.4229999 -1.09 172 112 58
-6.4840002 5.4180002 -1.087 50 21 3
-6.4840002 5.4239998 -1.082 140 97 55
-6.4819999 5.421 -1.087 99 67 44
-6.441 5.421 -0.93300003 215 176 145
-6.4419999 5.408 -0.95300001 124 81 47
-6.4990001 5.4219999 -0.949 147 112 84
-6.4959998 5.4260001 -0.95099998 128 84 55
-6.4699998 5.4200001 -0.99400002 174 134 98
-6.4949999 5.4089999 -0.949 228 198 148
-6.474 5.4120002 -0.96399999 93 70 56
-6.4699998 5.4060001 -0.97799999 227 180 126
-6.4580002 5.4349999 -0.95599997 68 45 31
-6.4660001 5.441 -0.95599997 126 104 90
-6.4679999 5.441 -0.95999998 130 103 94
-6.5830002 5.4679999 -0.91600001 247 217 179
-6.48 5.4180002 -1.087 41 17 7
-6.4749999 5.408 -1.087 142 102 67
-6.4910002 5.3959999 -1.073 139 83 34
-6.4520001 5.381 -1.054 150 107 65
-6.4580002 5.3870001 -1.057 174 127 83
-6.447 5.388 -1.058 129 91 55
-6.4559999 5.4029999 -1.0700001 66 38 27
-6.4530001 5.3969998 -1.064 71 43 31
-6.4559999 5.3979998 -1.064 59 30 16
-6.4520001 5.3940001 -1.062 177 129 91
-6.5570002 5.4990001 -0.94700003 194 159 137
-6.5650001 5.5019999 -0.94400001 147 109 88
-6.579 5.4679999 -0.91600001 191 148 95
-6.579 5.4590001 -0.93099999 255 240 164
-6.4809999 5.3470001 -1.017 106 83 65
-6.507 5.401 -0.97899997 220 162 89
-6.5 5.4060001 -0.97500002 191 128 61
-6.5079999 5.4060001 -0.98500001 228 169 103
-6.5180001 5.4029999 -0.99199998 139 89 30
-6.5089998 5.3979998 -0.98299998 173 111 54
-6.4899998 5.401 -0.995 148 93 37
-6.5089998 5.3959999 -0.995 186 127 69
-6.513 5.402 -0.99400002 143 82 38
-6.513 5.414 -0.99699998 86 40 7
-6.4809999 5.3140001 -0.96200001 133 103 79
-6.5409999 5.408 -0.92000002 124 90 42
-6.5510001 5.4089999 -0.926 136 97 54
-6.5560002 5.4219999 -0.92000002 120 94 71
-6.5430002 5.4000001 -0.917 255 218 177
-6.5409999 5.401 -0.921 167 125 83
-6.526 5.4109998 -0.935 173 123 70
-6.447 5.427 -0.93900001 116 79 61
-6.5630002 5.4920001 -0.96899998 153 77 1
-6.5539999 5.4879999 -0.963 151 90 45
-6.5679998 5.4949999 -0.95099998 229 147 48
-6.5770001 5.4899998 -0.93800002 170 114 79
-6.5190001 5.4289999 -0.99900001 157 97 35
-6.5619998 5.4580002 -0.99699998 118 64 18
-6.5580001 5.4320002 -0.93900001 160 108 71
-6.5560002 5.4239998 -0.935 207 154 84
-6.566 5.4169998 -0.93400002 248 170 88
-6.5580001 5.4219999 -0.921 126 101 79
-6.546 5.4039998 -0.92299998 119 82 40
-6.513 5.4180002 -0.98100001 175 119 72
-6.4819999 5.309 -0.98299998 178 127 82
-6.4819999 5.3439999 -0.99299997 44 19 12
-6.4759998 5.3410001 -1.001 182 110 51
-6.4790001 5.336 -0.99299997 171 115 68
-6.4790001 5.3109999 -0.991 180 131 91
-6.4899998 5.3959999 -1.045 120 115 112
-6.467 5.3639998 -1.054 148 119 111
-6.4629998 5.3709998 -1.058 113 74 41
-6.4710002 5.3649998 -1.054 141 91 42
-6.4959998 5.408 -1.049 133 109 97
-6.494 5.4200001 -1.066 181 120 63
-6.4640002 5.3839998 -1.054 244 183 129
-6.4629998 5.3839998 -1.059 112 74 37
-6.4679999 5.3759999 -1.05 230 177 127
-6.4829998 5.3299999 -1.027 202 161 115
-6.5029998 5.4250002 -1.048 184 130 83
-6.487 5.4070001 -1.0089999 185 130 73
-6.487 5.4050002 -0.99900001 194 129 65
-6.4899998 5.4130001 -1.013 217 156 102
-6.4640002 5.4029999 -1.0140001 241 183 119
-6.4559999 5.427 -1.0369999 101 81 72
-6.4679999 5.4349999 -0.972 136 103 84
-6.4689999 5.4299998 -0.98699999 188 148 96
-6.46 5.4260001 -1.017 47 15 0
-6.4549999 5.4250002 -1.029 114 73 29
-6.4860001 5.4380002 -1.0140001 218 155 112
-6.4899998 5.4419999 -0.99800003 138 110 88
-6.4780002 5.4349999 -1.006 84 61 45
-6.5110002 5.461 -1.015 118 91 72
-6.5100002 5.4590001 -1.025 127 79 30
-6.5170002 5.4549999 -1.002 120 77 45
-6.5110002 5.467 -1.012 108 79 63
-6.5100002 5.4439998 -1.073 202 132 80
-6.5079999 5.4400001 -1.082 238 189 120
-6.5879998 5.4819999 -0.92199999 91 69 56
-6.5929999 5.4850001 -0.93000001 209 161 112
-6.5910001 5.4829998 -0.949 233 164 97
-6.4889998 5.4250002 -1.086 133 67 17
-6.494 5.4060001 -1.082 227 179 130
-6.4819999 5.3959999 -1.085 205 153 103
-6.4720001 5.3990002 -1.085 223 184 153
-6.4949999 5.4380002 -0.95899999 99 80 65
-6.4829998 5.4310002 -0.94999999 121 105 105
-6.4710002 5.4169998 -0.99599999 155 97 57
-6.5019999 5.4320002 -0.95499998 51 22 6
-6.5110002 5.4310002 -0.958 240 189 97
-6.5009999 5.4239998 -0.94999999 250 222 174
-6.4749999 5.4050002 -0.986 208 162 102
-6.4889998 5.4070001 -0.98400003 186 93 26
-6.4720001 5.4070001 -0.99000001 161 108 42
-6.4699998 5.408 -0.98199999 162 111 56
-6.4559999 5.408 -0.95499998 206 166 130
-6.4580002 5.4289999 -0.96100003 122 72 23
-6.4590001 5.4349999 -0.95700002 127 104 88
-6.487 5.448 -0.96399999 113 81 66
-6.5050001 5.4489999 -0.97100002 145 90 49
-6.5180001 5.4530001 -0.98500001 143 99 74
-6.5089998 5.447 -0.98400003 50 13 4
-6.494 5.4499998 -0.96899998 219 155 55
-6.5100002 5.474 -1.007 222 192 156
-6.48 5.4400001 -0.96399999 202 157 102
-6.4879999 5.4489999 -0.96700001 139 111 99
-6.4629998 5.4239998 -0.94800001 106 48 8
-6.5809999 5.4889998 -0.93599999 230 184 150
-6.4460001 5.3800001 -1.0549999 141 76 18
-6.4549999 5.414 -1.035 154 99 58
-6.4559999 5.4190001 -1.04 186 131 90
-6.4569998 5.3969998 -1.067 76 47 29
-6.4580002 5.4260001 -1.051 49 21 7
-6.461 5.4310002 -1.056 58 38 27
-6.4530001 5.395 -1.063 47 19 5
-6.5780001 5.4650002 -0.91900003 169 114 58
-6.5840001 5.46 -0.92900002 252 222 149
-6.5710001 5.4650002 -0.92699999 161 108 56
-6.5710001 5.4619999 -0.94199997 159 114 73
-6.4809999 5.342 -1.023 192 144 104
-6.5229998 5.408 -0.96200001 161 96 38
-6.5209999 5.421 -0.97100002 155 97 51
-6.5180001 5.4169998 -0.96600002 245 186 130
-6.5050001 5.401 -0.98500001 248 196 139
-6.4780002 5.3600001 -1.031 129 119 118
-6.4650002 5.3010001 -0.98400003 188 120 57
-6.4650002 5.2989998 -0.98000002 212 144 69
-6.5370002 5.427 -0.93000001 169 123 74
-6.5349998 5.4190001 -0.93000001 254 231 177
-6.539 5.421 -0.93099999 220 160 74
-6.5339999 5.4239998 -0.93199998 200 159 103
-6.4419999 5.414 -0.94800001 211 157 113
-6.4439998 5.427 -0.94800001 141 70 24
-6.5619998 5.467 -0.99599999 177 118 42
-6.5619998 5.4660001 -1.002 131 94 65
-6.5640001 5.4710002 -1.0039999 195 152 117
-6.5599999 5.427 -0.94099998 187 142 101
-6.5879998 5.473 -0.93400002 151 83 10
-6.585 5.4720001 -0.93400002 223 145 71
-6.5879998 5.467 -0.93099999 163 144 137
-6.52 5.4310002 -0.99400002 69 63 49
-6.5209999 5.4310002 -0.99800003 125 97 75
-6.527 5.4390001 -0.99699998 129 87 47
-6.5500002 5.4590001 -1.0039999 63 37 24
-6.5609999 5.4549999 -0.98900002 115 62 12
-6.5549998 5.4289999 -0.93599999 213 141 59
-6.5510001 5.4200001 -0.926 217 193 169
-6.5539999 5.4200001 -0.94099998 248 207 117
-6.553 5.4289999 -0.95200002 173 117 60
-6.5469999 5.4169998 -0.94499999 213 137 61
-6.5489998 5.415 -0.94099998 242 176 116
-6.5479999 5.4200001 -0.94499999 135 80 23
-6.5409999 5.4039998 -0.92500001 170 122 82
-6.5409999 5.408 -0.92299998 127 89 44
-6.5430002 5.4000001 -0.91900003 116 79 37
-6.4949999 5.4060001 -0.963 238 178 108
-6.5149999 5.4219999 -0.986 227 142 59
-6.5089998 5.4130001 -0.98199999 200 121 55
-6.5149999 5.4499998 -0.98900002 244 185 127
-6.513 5.448 -0.98100001 53 17 3
-6.5139999 5.4489999 -0.98900002 238 177 122
-6.5170002 5.4510002 -0.96700001 118 85 70
-6.4949999 5.4439998 -0.958 109 87 76
-6.48 5.3179998 -0.98000002 46 17 1
-6.4790001 5.3239999 -1.021 243 198 143
-6.4920001 5.4050002 -1.056 134 117 109
-6.48 5.3629999 -1.05 75 27 0
-6.474 5.3670001 -1.054 79 28 0
-6.4629998 5.3429999 -1.039 74 63 61
-6.4640002 5.3410001 -1.0369999 108 100 97
-6.467 5.3670001 -1.046 152 115 86
-6.4720001 5.3639998 -1.0420001 213 164 123
-6.4559999 5.3169999 -0.98699999 145 97 57
-6.4559999 5.3189998 -0.986 164 115 72
-6.4619999 5.322 -0.97799999 53 26 15
-6.4580002 5.322 -0.977 42 15 6
-6.454 5.3109999 -0.97799999 244 186 136
-6.4530001 5.3140001 -0.98100001 202 148 102
-6.4559999 5.3189998 -0.98400003 199 149 100
-6.4549999 5.3189998 -0.977 127 103 93
-6.4559999 5.3189998 -0.98199999 199 152 100
-6.4530001 5.3140001 -0.97899997 217 161 114
-6.4780002 5.3189998 -1.005 133 118 115
-6.4759998 5.4159999 -1.085 51 23 12
-6.4660001 5.3730001 -1.053 194 156 120
-6.4860001 5.3860002 -1.039 128 113 110
-6.48 5.4089999 -1.0420001 162 99 46
-6.4689999 5.3829999 -1.0650001 206 169 125
-6.4829998 5.381 -1.058 222 156 95
-6.48 5.3800001 -1.052 162 101 38
-6.467 5.3390002 -1.028 114 101 95
-6.4679999 5.3369999 -1.024 126 109 102
-6.4650002 5.3449998 -1.027 163 123 88
-6.4629998 5.3390002 -1.018 106 53 11
-6.513 5.4109998 -1.01 141 90 47
-6.5040002 5.4120002 -1.016 104 75 67
-6.5159998 5.4200001 -1.006 250 200 137
-6.4510002 5.415 -1.029 145 141 140
-6.4770002 5.4070001 -0.99900001 174 124 73
-6.46 5.4060001 -1.021 174 118 69
-6.4920001 5.4050002 -0.96100003 46 13 0
-6.48 5.4159999 -0.95700002 204 156 118
-6.4819999 5.415 -0.95700002 195 156 115
-6.4530001 5.4239998 -1.033 71 44 37
-6.4640002 5.4330001 -0.96799999 91 57 45
-6.4699998 5.4380002 -0.96799999 103 51 11
-6.4679999 5.4299998 -1.015 201 158 105
-6.4660001 5.4299998 -1.022 51 24 7
-6.4629998 5.428 -1.02 84 55 41
-6.4569998 5.428 -1.031 73 46 39
-6.4580002 5.428 -1.033 113 89 79
-6.461 5.4289999 -1.031 162 136 123
-6.46 5.428 -1.029 97 69 57
-6.4840002 5.441 -0.97600001 107 80 69
-6.487 5.4450002 -0.97000003 134 106 94
-6.4899998 5.4390001 -0.98000002 149 83 25
-6.5159998 5.4419999 -1.041 134 89 60
-6.5149999 5.4380002 -1.038 107 63 28
-6.52 5.4369998 -1.033 156 107 67
-6.4949999 5.4419999 -0.98799998 206 135 71
-6.5110002 5.4499998 -1.025 88 59 43
-6.539 5.454 -1.01 54 26 15
-6.5310001 5.4549999 -1.0140001 44 24 15
-6.5320001 5.4629998 -1.0089999 222 164 100
-6.5279999 5.4530001 -1.031 206 157 114
-6.5250001 5.4699998 -1.015 182 142 107
-6.5170002 5.448 -1.0420001 200 144 93
-6.493 5.4460001 -1.067 187 126 71
-6.4980001 5.4429998 -1.072 214 163 106
-6.4959998 5.4419999 -1.066 69 45 33
-6.4889998 5.4450002 -1.0779999 191 131 71
-6.539 5.447 -1.0190001 161 134 107
-6.5380001 5.4460001 -1.0140001 48 26 13
-6.5310001 5.4429998 -1.018 111 55 20
-6.5749998 5.487 -0.92900002 126 73 39
-6.5570002 5.4840002 -0.93099999 189 143 107
-6.5469999 5.487 -0.93000001 178 127 80
-6.5700002 5.48 -0.93000001 229 195 147
-6.5050001 5.4450002 -1.09 111 67 38
-6.4899998 5.4330001 -1.086 110 66 31
-6.4949999 5.408 -1.084 235 188 144
-6.448 5.4070001 -0.954 207 150 69
-6.5 5.421 -0.94999999 255 226 158
-6.4629998 5.4349999 -0.94800001 134 120 120
-6.5089998 5.4689999 -1.012 139 108 88
-6.4629998 5.4239998 -0.97899997 208 154 108
-6.4530001 5.4050002 -0.963 122 65 0
-6.4460001 5.408 -0.958 172 123 80
-6.467 5.4109998 -0.98000002 153 98 42
-6.5079999 5.448 -1.031 136 108 94
-6.4590001 5.4169998 -1.0369999 233 202 156
-6.4510002 5.4099998 -1.031 165 141 137
-6.461 5.4289999 -1.044 78 51 40
-6.46 5.4229999 -1.045 71 43 31
-6.4759998 5.388 -1.0700001 47 24 10
-6.4770002 5.3860002 -1.069 62 36 23
-6.5630002 5.4619999 -0.95099998 185 130 66
-6.5669999 5.4559999 -0.97100002 141 77 16
-6.5710001 5.4689999 -0.95999998 148 83 25
-6.559 5.4559999 -0.96600002 255 191 139
-6.5549998 5.4530001 -0.95899999 227 172 89
-6.5739999 5.4650002 -0.94 255 222 129
-6.4780002 5.3540001 -1.011 121 99 86
-6.5 5.4039998 -0.95300001 220 176 81
-6.5100002 5.4099998 -0.954 145 103 65
-6.5 5.4089999 -0.95200002 254 215 120
-6.4710002 5.348 -1.016 147 99 61
-6.4759998 5.3470001 -1.012 224 204 195
-6.4819999 5.3000002 -0.95599997 136 84 47
-6.559 5.4749999 -0.92799997 157 108 68
-6.5489998 5.48 -0.93099999 164 129 99
-6.5450001 5.4710002 -0.93000001 174 138 104
-6.5469999 5.4710002 -0.93300003 111 75 39
-6.546 5.4689999 -0.93599999 203 154 95
-6.5430002 5.4770002 -0.93099999 196 157 124
-6.5380001 5.4689999 -0.93900001 100 79 58
-6.546 5.4759998 -0.93599999 138 115 97
-6.5489998 5.4809999 -0.95200002 247 179 108
-6.5339999 5.4660001 -0.94499999 192 145 91
-6.5479999 5.4790001 -0.95899999 138 89 57
-6.5339999 5.4640002 -0.94199997 169 130 63
-6.5359998 5.4660001 -0.94099998 91 69 45
-6.447 5.4250002 -0.95300001 142 96 62
-6.4530001 5.4349999 -0.94599998 54 25 11
-6.4510002 5.4320002 -0.94800001 82 52 41
-6.5430002 5.48 -0.97100002 103 75 61
-6.5570002 5.4840002 -0.97100002 239 186 134
-6.5539999 5.4829998 -0.96799999 110 68 46
-6.5619998 5.4899998 -0.972 186 107 32
-6.539 5.4650002 -1.005 141 92 51
-6.5289998 5.4679999 -0.99900001 118 94 82
-6.5440001 5.4790001 -0.98000002 109 82 65
-6.559 5.4829998 -0.986 210 146 72
-6.5469999 5.4759998 -0.98699999 193 141 84
-6.5370002 5.4650002 -0.95499998 128 79 49
-6.539 5.4660001 -0.949 160 137 106
-6.5419998 5.4759998 -0.98100001 95 68 51
-6.493 5.4549999 -0.96200001 74 46 34
-6.4990001 5.447 -0.96399999 147 84 33
-6.5700002 5.4990001 -0.94599998 245 192 124
-6.5339999 5.4050002 -0.93599999 206 145 90
-6.5349998 5.4060001 -0.93400002 177 135 37
-6.5310001 5.4089999 -0.93400002 119 62 9
-6.5229998 5.4070001 -0.93800002 193 128 74
-6.5310001 5.415 -0.93699998 238 195 144
-6.54 5.4050002 -0.949 255 181 112
-6.5279999 5.4029999 -0.95599997 171 105 45
-6.5300002 5.3979998 -0.94499999 222 153 84
-6.5289998 5.402 -0.94499999 215 165 114
-6.5250001 5.4029999 -0.95300001 214 163 97
-6.5170002 5.402 -0.95899999 234 190 127
-6.5279999 5.4169998 -0.96399999 156 104 57
-6.5380001 5.4200001 -0.96399999 151 94 49
-6.5450001 5.4330001 -0.93300003 132 115 97
-6.5489998 5.4109998 -0.94 189 119 60
-6.5100002 5.4460001 -0.98799998 63 26 8
-6.4710002 5.3200002 -1.02 52 32 21
-6.46 5.309 -0.97100002 157 115 73
-6.4759998 5.3720002 -1.044 163 146 138
-6.4580002 5.348 -1.0420001 169 144 139
-6.4720001 5.3600001 -1.039 148 102 68
-6.4679999 5.3559999 -1.038 116 99 92
-6.4569998 5.3499999 -1.043 200 149 96
-6.4640002 5.3509998 -1.04 117 103 102
-6.4590001 5.3559999 -1.044 130 98 83
-6.4549999 5.316 -0.97600001 94 74 65
-6.4770002 5.3499999 -1.0369999 116 80 54
-6.4619999 5.4289999 -1.053 63 34 20
-6.474 5.4130001 -1.061 130 101 97
-6.4749999 5.4260001 -1.057 255 227 196
-6.4790001 5.3769999 -1.0420001 43 26 18
-6.4650002 5.3969998 -1.071 126 90 58
-6.4689999 5.4039998 -1.057 151 115 81
-6.4679999 5.4200001 -1.041 184 154 120
-6.4660001 5.3940001 -1.061 174 122 65
-6.4809999 5.3860002 -1.053 131 126 130
-6.4770002 5.3940001 -1.0549999 156 94 57
-6.4710002 5.3860002 -1.056 254 193 128
-6.467 5.3720002 -1.059 158 113 72
-6.4850001 5.3940001 -1.059 213 174 133
-6.4889998 5.3940001 -1.069 141 75 14
-6.48 5.3790002 -1.063 225 173 123
-6.473 5.4109998 -0.99400002 218 176 134
-6.474 5.4169998 -0.95599997 217 177 141
-6.4790001 5.4159999 -0.958 141 79 28
-6.4699998 5.4400001 -0.96200001 133 103 93
-6.4629998 5.434 -0.96499997 76 48 37
-6.46 5.414 -1.013 218 184 146
-6.4650002 5.427 -1.012 43 15 1
-6.4679999 5.427 -0.98799998 205 154 109
-6.473 5.428 -0.995 143 119 107
-6.4590001 5.427 -1.025 68 40 26
-6.4780002 5.4380002 -0.97500002 147 118 102
-6.474 5.4349999 -0.97600001 90 59 41
-6.4749999 5.4320002 -0.98400003 144 82 31
-6.4809999 5.4159999 -1.025 162 99 32
-6.5149999 5.4530001 -0.99699998 219 188 159
-6.5159998 5.4530001 -0.99599999 196 116 47
-6.474 5.4369998 -1.017 40 11 0
-6.4660001 5.427 -1.0319999 142 111 83
-6.5310001 5.4460001 -0.99299997 211 134 64
-6.5209999 5.4530001 -1.03 175 130 99
-6.5209999 5.4569998 -1.0190001 82 53 37
-6.5139999 5.4759998 -1.01 140 110 76
-6.5219998 5.4749999 -1.0140001 174 138 102
-6.513 5.467 -1.011 130 102 81
-6.52 5.4549999 -0.99199998 149 104 73
-6.4889998 5.4429998 -1.064 150 114 78
-6.4980001 5.448 -1.046 232 190 150
-6.4959998 5.4450002 -1.049 229 191 154
-6.5079999 5.4390001 -1.045 219 159 96
-6.572 5.4790001 -0.93000001 255 223 172
-6.5890002 5.4840002 -0.92500001 81 54 43
-6.5900002 5.4840002 -0.93300003 243 186 119
-6.5009999 5.4450002 -1.0779999 150 114 80
-6.4809999 5.4229999 -1.076 178 182 185
-6.5040002 5.4180002 -0.95200002 177 147 119
-6.5029998 5.408 -0.97000003 235 176 106
-6.4619999 5.4219999 -0.97899997 239 181 135
-6.4650002 5.415 -0.98000002 252 196 109
-6.4720001 5.427 -0.99299997 167 145 134
-6.4720001 5.4289999 -0.99000001 151 128 114
-6.4759998 5.4320002 -0.98900002 115 91 79
-6.5580001 5.447 -0.94599998 240 164 86
-6.5009999 5.4400001 -1.05 191 152 111
-6.5029998 5.441 -1.0470001 94 61 44
-6.461 5.3889999 -1.062 70 36 9
-6.553 5.4850001 -0.96100003 100 62 39
-6.5570002 5.4910002 -0.95300001 77 35 11
-6.553 5.4860001 -0.94599998 95 52 35
-6.5560002 5.4879999 -0.95300001 98 49 17
-6.5050001 5.4099998 -0.95300001 81 47 20
-6.4980001 5.4050002 -1.002 254 190 129
-6.4650002 5.3439999 -1.024 161 136 129
-6.4619999 5.3390002 -1.0140001 190 124 72
-6.5349998 5.4619999 -0.93900001 198 147 82
-6.5669999 5.4720001 -0.92500001 249 211 162
-6.5370002 5.467 -0.94499999 178 129 71
-6.5500002 5.4879999 -0.93400002 163 115 75
-6.5500002 5.4809999 -0.95899999 105 56 24
-6.546 5.4699998 -0.95599997 116 76 50
-6.454 5.4320002 -0.954 29 2 0
-6.5630002 5.4790001 -0.98000002 252 193 115
-6.5609999 5.4660001 -0.98400003 247 170 64
-6.5609999 5.467 -1.003 145 106 75
-6.5359998 5.4650002 -0.94800001 254 215 160
-6.527 5.4660001 -0.991 134 117 107
-6.5310001 5.4580002 -0.98500001 82 50 35
-6.5339999 5.4679999 -0.97600001 110 48 0
-6.533 5.467 -0.98500001 74 37 19
-6.5250001 5.4640002 -0.99599999 130 112 102
-6.579 5.4720001 -0.949 151 121 85
-6.5910001 5.4829998 -0.94499999 238 168 99
-6.5910001 5.4780002 -0.94 201 135 77
-6.573 5.4770002 -0.95899999 198 136 75
-6.5640001 5.4819999 -0.96600002 145 78 25
-6.5760002 5.4860001 -0.954 228 161 90
-6.5890002 5.4860001 -0.95300001 233 156 88
-6.533 5.4109998 -0.95700002 198 136 79
-6.5440001 5.415 -0.95200002 192 112 39
-6.5149999 5.4120002 -0.96399999 118 67 22
-6.5450001 5.4439998 -0.95599997 249 160 58
-6.5440001 5.4330001 -0.96399999 241 148 45
-6.5339999 5.4530001 -0.96799999 115 79 53
-6.5110002 5.4429998 -0.96399999 153 111 73
-6.5170002 5.4359999 -0.96100003 181 106 38
-6.4590001 5.3239999 -1.0140001 102 63 32
-6.4720001 5.3610001 -1.04 163 114 74
-6.4720001 5.3200002 -1.0089999 114 62 23
-6.4699998 5.3189998 -1.007 109 66 32
-6.4689999 5.3200002 -1.0089999 126 87 58
-6.4679999 5.3150001 -1.003 160 104 67
-6.4619999 5.3309999 -0.98900002 236 178 115
-6.461 5.3210001 -0.99800003 147 102 69
-6.4619999 5.322 -0.99699998 140 96 59
-6.4629998 5.335 -1.0089999 187 121 71
-6.4650002 5.3470001 -1.041 97 88 89
-6.473 5.3579998 -1.044 98 53 22
-6.4990001 5.441 -1.054 118 85 54
-6.4860001 5.382 -1.0369999 171 115 58
-6.4590001 5.4039998 -1.0700001 68 36 23
-6.4770002 5.3940001 -1.079 157 120 91
-6.4899998 5.3959999 -1.05 136 126 124
-6.4790001 5.3779998 -1.045 18 0 0
-6.4759998 5.3699999 -1.0549999 207 156 103
-6.4790001 5.375 -1.061 86 36 3
-6.474 5.4089999 -1.01 191 133 83
-6.4699998 5.408 -1.006 175 139 77
-6.4749999 5.4070001 -0.99400002 158 112 76
-6.4699998 5.4109998 -0.986 198 143 86
-6.4679999 5.4320002 -0.97500002 78 46 25
-6.4699998 5.428 -1.0089999 150 126 114
-6.461 5.428 -1.026 62 34 22
-6.4559999 5.4219999 -1.024 85 62 48
-6.4840002 5.441 -0.97000003 75 46 32
-6.4629998 5.4289999 -1.038 154 122 109
-6.4679999 5.4239998 -1.04 81 52 38
-6.4699998 5.4260001 -1.035 51 25 12
-6.5040002 5.441 -1.046 58 25 10
-6.5089998 5.4460001 -1.038 77 48 32
-6.5250001 5.428 -1.018 248 188 128
-6.5050001 5.441 -1.003 137 62 7
-6.4980001 5.4400001 -0.99900001 199 168 137
-6.5079999 5.4419999 -0.99299997 70 32 9
-6.526 5.4549999 -1.0190001 43 15 3
-6.5320001 5.4450002 -1.0190001 103 76 46
-6.52 5.454 -1.024 42 13 0
-6.5209999 5.4629998 -0.99800003 79 66 60
-6.513 5.4180002 -1.0190001 114 106 103
-6.5029998 5.4320002 -1.08 205 155 86
-6.4970002 5.441 -0.99199998 67 31 19
-6.4499998 5.4190001 -0.96100003 235 196 157
-6.4770002 5.4299998 -1 221 167 120
-6.4650002 5.4180002 -1.0369999 198 127 61
-6.5489998 5.4829998 -0.94800001 110 68 20
-6.5599999 5.4920001 -0.95099998 102 58 31
-6.4770002 5.3559999 -1.03 109 70 39
-6.4720001 5.3499999 -1.025 74 38 12
-6.5279999 5.4260001 -0.96700001 236 153 59
-6.5170002 5.4120002 -0.949 154 114 78
-6.4699998 5.3520002 -1.03 116 75 53
-6.4720001 5.3439999 -1.0140001 119 75 38
-6.4629998 5.3239999 -1.003 107 64 30
-6.546 5.4400001 -0.93400002 227 163 89
-6.5209999 5.4450002 -0.95999998 67 54 82
-6.5580001 5.4949999 -0.94099998 96 53 18
-6.539 5.4679999 -0.94499999 137 110 89
-6.4499998 5.4330001 -0.94400001 96 63 46
-6.5370002 5.4720001 -0.98299998 56 29 12
-6.5669999 5.4699998 -0.96200001 186 124 67
-6.5599999 5.4720001 -0.99400002 207 137 51
-6.553 5.473 -0.99199998 213 159 99
-6.5650001 5.4640002 -0.977 212 152 92
-6.5619998 5.461 -0.97899997 248 170 70
-6.539 5.4549999 -0.94099998 160 108 32
-6.5440001 5.4520001 -0.94199997 251 181 96
-6.5339999 5.4720001 -0.977 115 80 60
-6.5310001 5.4699998 -0.99400002 113 91 80
-6.5739999 5.4710002 -0.95099998 71 44 27
-6.5770001 5.4959998 -0.95099998 219 154 86
-6.5809999 5.4879999 -0.93900001 240 187 145
-6.5419998 5.4330001 -0.93699998 150 133 115
-6.5430002 5.4380002 -0.93900001 255 187 99
-6.533 5.4039998 -0.95099998 201 135 57
-6.5289998 5.4060001 -0.95700002 182 118 56
-6.5380001 5.415 -0.95499998 187 116 52
-6.552 5.4489999 -0.96899998 156 86 14
-6.527 5.4520001 -0.97500002 115 58 15
-6.5279999 5.4380002 -0.97899997 91 56 37
-6.5419998 5.4499998 -0.98199999 100 43 0
-6.4679999 5.3470001 -1.024 126 111 106
-6.4580002 5.3270001 -1.01 133 79 41
-6.4580002 5.3189998 -1.008 74 29 0
-6.4780002 5.3600001 -1.048 35 18 10
-6.4759998 5.3460002 -1.033 58 37 18
-6.5 5.4369998 -1.053 164 122 80
-6.5050001 5.4359999 -1.0470001 202 125 55
-6.487 5.434 -1.0599999 119 83 59
-6.4829998 5.4250002 -1.076 135 93 51
-6.4710002 5.4200001 -1.048 239 202 157
-6.4770002 5.382 -1.067 116 64 17
-6.4780002 5.428 -1.064 127 108 101
-6.4770002 5.4250002 -1.066 100 61 32
-6.4850001 5.4349999 -1.0650001 55 33 20
-6.4720001 5.4130001 -0.99199998 208 142 55
-6.4759998 5.4070001 -0.995 209 160 104
-6.4679999 5.428 -1.012 89 61 50
-6.5120001 5.4390001 -1.017 217 150 95
-6.5079999 5.4359999 -1.015 232 173 115
-6.5029998 5.4349999 -1.017 161 132 92
-6.5100002 5.4390001 -1.008 109 36 0
-6.5240002 5.4330001 -1.02 171 104 49
-6.5209999 5.4369998 -1.026 248 185 132
-6.54 5.4439998 -1.002 83 57 42
-6.5279999 5.4569998 -1.015 56 24 11
-6.5240002 5.4419999 -1.023 132 71 26
-6.527 5.4460001 -1.022 107 81 56
-6.5209999 5.4749999 -1.016 193 150 115
-6.5110002 5.448 -1.034 118 90 76
-6.5209999 5.4239998 -1.021 233 180 126
-6.487 5.4330001 -1.073 225 174 131
-6.4980001 5.415 -0.949 212 168 73
-6.461 5.4260001 -0.97000003 169 123 87
-6.46 5.427 -0.96700001 119 73 40
-6.4699998 5.4320002 -0.977 105 74 54
-6.4749999 5.4289999 -0.995 126 102 92
-6.546 5.4349999 -0.95300001 187 117 31
-6.5240002 5.4289999 -0.95099998 166 108 62
-6.4699998 5.3509998 -1.029 141 126 119
-6.5380001 5.4689999 -0.94099998 156 132 108
-6.5609999 5.4720001 -0.98100001 198 149 90
-6.5609999 5.4629998 -0.98199999 245 178 108
-6.5339999 5.4640002 -0.94400001 254 225 157
-6.5359998 5.4720001 -0.98100001 64 36 22
-6.5630002 5.4699998 -0.96600002 194 137 84
-6.585 5.4889998 -0.94800001 162 115 73
-6.5409999 5.434 -0.93900001 202 183 168
-6.5339999 5.4200001 -0.93699998 249 218 161
-6.5320001 5.4159999 -0.94099998 130 78 30
-6.546 5.4229999 -0.95300001 158 87 9
-6.5479999 5.4400001 -0.93699998 233 169 97
-6.5240002 5.428 -0.977 193 128 74
-6.527 5.4299998 -0.972 187 105 19
-6.5549998 5.414 -0.93099999 232 153 76
-6.474 5.3499999 -1.021 155 121 96
-6.4850001 5.4320002 -1.0599999 74 36 13
-6.4749999 5.4099998 -1.079 41 15 2
-6.4660001 5.4250002 -1.049 92 72 63
-6.4980001 5.4349999 -1.067 152 100 52
-6.4879999 5.4320002 -1.0420001 192 163 123
-6.4749999 5.4159999 -1.066 113 77 51
-6.461 5.4310002 -0.96499997 113 81 66
-6.4679999 5.4369998 -0.96600002 79 45 33
-6.5029998 5.434 -1.024 221 148 97
-6.513 5.4460001 -1 210 147 103
-6.5250001 5.4380002 -1.021 116 56 0
-6.5209999 5.441 -1.033 132 83 43
-6.5149999 5.4499998 -1.03 46 17 3
-6.4949999 5.4380002 -1.085 71 40 19
-6.4819999 5.4330001 -1.069 81 54 25
-6.5009999 5.4130001 -0.95099998 251 211 115
-6.5120001 5.4239998 -0.958 237 186 121
-6.5419998 5.4689999 -0.99800003 188 134 72
-6.5250001 5.4130001 -0.94700003 134 95 56
-6.5770001 5.4770002 -0.95099998 162 97 39
-6.5359998 5.4330001 -0.94199997 229 173 90
-6.539 5.4450002 -0.95099998 201 135 87
-6.5489998 5.4499998 -0.98900002 184 120 49
-6.5440001 5.447 -0.97600001 194 104 8
-6.539 5.4450002 -0.97299999 138 111 84
-6.552 5.4400001 -0.94099998 141 80 26
-6.553 5.4130001 -0.93300003 250 231 217
-6.5019999 5.4310002 -1.054 157 109 61
-6.4790001 5.428 -1.034 162 106 45
-6.4629998 5.3909998 -1.066 130 95 63
-6.4819999 5.4289999 -1.051 222 188 150
-6.4949999 5.4369998 -1.049 50 26 14
-6.494 5.4349999 -1.045 223 155 92
-6.4770002 5.4180002 -1.071 145 112 105
-6.4910002 5.4320002 -1.018 191 126 62
-6.5089998 5.4320002 -1.038 206 148 84
-6.5079999 5.427 -1.035 180 131 91
-6.4749999 5.4299998 -0.991 217 168 125
-6.5100002 5.4429998 -0.99400002 217 151 103
-6.5359998 5.4499998 -0.991 219 159 105
-6.5609999 5.46 -0.94599998 32 5 0
-6.5359998 5.4590001 -0.95099998 211 185 150
-6.5749998 5.474 -0.954 207 143 81
-6.5380001 5.428 -0.93400002 233 192 136
-6.5549998 5.4530001 -0.98100001 252 188 114
-6.5430002 5.4390001 -0.96899998 216 129 24
-6.5539999 5.414 -0.93000001 136 114 100
-6.5549998 5.414 -0.935 223 149 76
-6.4689999 5.3959999 -1.073 75 41 14
-6.4689999 5.4070001 -1.069 71 23 0
-6.4619999 5.3920002 -1.066 147 111 77
-6.48 5.4219999 -1.073 139 108 87
-6.5640001 5.4660001 -0.93400002 154 98 47
-6.566 5.4629998 -0.93900001 255 203 115
-6.5320001 5.427 -0.94700003 188 150 113
-6.5339999 5.4520001 -0.93900001 232 190 118
-6.5580001 5.4530001 -0.97600001 246 182 118
-6.5570002 5.415 -0.93599999 243 201 119
-6.487 5.4310002 -1.0549999 83 43 18
-6.4850001 5.4310002 -1.023 159 137 96
-6.4879999 5.4310002 -1.023 201 142 76
-6.4559999 5.4169998 -0.97100002 214 158 111
-6.5580001 5.4689999 -0.93300003 189 133 82
-6.5599999 5.4650002 -0.93800002 255 205 140
-6.5560002 5.4489999 -0.97100002 192 108 10
-6.4910002 5.4320002 -1.049 192 156 122
-6.4920001 5.4320002 -1.031 167 112 48
-6.4949999 5.434 -1.034 185 162 121
0 0 0 1 0 0 0 1 0 0 0 1 0 0 0 0 0 860 1 0 0
