ply
format ascii 1.0
comment PCL generated
element vertex 1223
property float x
property float y
property float z
property uchar red
property uchar green
property uchar blue
element camera 0
property float view_px
property float view_py
property float view_pz
property float x_axisx
property float x_axisy
property float x_axisz
property float y_axisx
property float y_axisy
property float y_axisz
property float z_axisx
property float z_axisy
property float z_axisz
property float focal
property float scalex
property float scaley
property float centerx
property float centery
property int viewportx
property int viewporty
property float k1
property float k2
end_header
6.678 -3.6559999 -0.889 42 16 0
6.678 -3.6500001 -0.89600003 125 97 76
6.6700001 -3.6459999 -0.88999999 105 53 14
6.6589999 -3.78 -0.92799997 193 145 97
6.658 -3.7839999 -0.93000001 96 60 38
6.6529999 -3.7780001 -0.93300003 144 144 144
6.7080002 -3.691 -0.745 66 34 13
6.7280002 -3.697 -0.75999999 111 87 83
6.7080002 -3.6989999 -0.74699998 105 76 58
6.704 -3.6930001 -0.73799998 139 107 82
6.4749999 -3.5250001 -0.37200001 102 58 13
6.4759998 -3.5250001 -0.37799999 105 60 18
6.428 -3.4590001 -0.27599999 126 112 103
6.428 -3.4630001 -0.27500001 138 121 111
6.4299998 -3.46 -0.278 131 115 100
6.6529999 -3.8069999 -0.90600002 121 85 59
6.652 -3.8010001 -0.90899998 76 41 11
6.6440001 -3.8069999 -0.89899999 99 56 24
6.6599998 -3.7980001 -0.92299998 154 119 81
6.4359999 -3.484 -0.28 110 82 58
6.4349999 -3.461 -0.28200001 174 159 128
6.7940001 -3.711 -0.87599999 108 64 39
6.4439998 -3.474 -0.294 80 30 0
6.4499998 -3.473 -0.30000001 110 87 56
6.4530001 -3.4849999 -0.303 163 94 39
6.46 -3.493 -0.322 65 46 29
6.4510002 -3.494 -0.31400001 75 31 4
6.4590001 -3.4890001 -0.31799999 66 45 26
6.473 -3.5280001 -0.38 121 77 40
6.493 -3.526 -0.373 61 42 27
6.4910002 -3.5250001 -0.37900001 93 67 42
6.5 -3.5280001 -0.384 124 98 75
6.4850001 -3.5190001 -0.373 150 92 52
6.7410002 -3.6370001 -0.77700001 136 113 99
6.7290001 -3.6340001 -0.77899998 211 183 159
6.7459998 -3.631 -0.78399998 130 95 75
6.7519999 -3.638 -0.77999997 56 28 6
6.566 -3.6159999 -0.53299999 96 75 44
6.572 -3.6129999 -0.53200001 44 26 2
6.5739999 -3.625 -0.551 90 67 36
6.7420001 -3.665 -0.75599998 88 75 69
6.743 -3.6670001 -0.76200002 92 77 72
6.7399998 -3.6630001 -0.76200002 50 31 24
6.7379999 -3.6619999 -0.76499999 57 33 23
6.474 -3.5280001 -0.37400001 99 54 12
6.474 -3.5280001 -0.377 79 35 0
6.4759998 -3.5309999 -0.37799999 85 38 0
6.4679999 -3.53 -0.35800001 48 25 19
6.4819999 -3.543 -0.396 100 94 80
6.4710002 -3.523 -0.34999999 119 80 41
6.6020002 -3.6730001 -0.62400001 161 134 107
6.592 -3.6700001 -0.611 70 41 27
6.5939999 -3.674 -0.62199998 85 35 2
6.5999999 -3.664 -0.61799997 169 145 121
6.5650001 -3.638 -0.56300002 125 93 70
6.5770001 -3.6440001 -0.56 93 51 29
6.5770001 -3.6530001 -0.57200003 74 35 2
6.5679998 -3.6370001 -0.54900002 100 63 37
6.5710001 -3.641 -0.57099998 58 22 6
6.7490001 -3.6329999 -0.92500001 154 97 52
6.7459998 -3.6459999 -0.91900003 172 121 66
6.539 -3.5810001 -0.46399999 78 58 34
6.5630002 -3.6070001 -0.52200001 75 50 28
6.5440001 -3.5880001 -0.484 101 76 56
6.546 -3.5899999 -0.48199999 61 40 19
6.7470002 -3.652 -0.92400002 88 48 22
6.5289998 -3.5880001 -0.45699999 170 133 104
6.527 -3.5780001 -0.43700001 92 56 32
6.6560001 -3.7939999 -0.91500002 170 150 139
6.665 -3.6240001 -0.92900002 215 180 126
6.665 -3.6199999 -0.93199998 254 230 194
6.6750002 -3.6389999 -0.90899998 53 25 13
6.6490002 -3.717 -0.93800002 185 158 137
6.6469998 -3.7219999 -0.935 181 145 111
6.6880002 -3.6659999 -0.90100002 139 97 81
6.6609998 -3.8039999 -0.912 95 63 40
6.6690001 -3.802 -0.90700001 98 50 2
6.6669998 -3.8110001 -0.89700001 170 127 84
6.678 -3.813 -0.89899999 120 104 91
6.6589999 -3.806 -0.90399998 148 128 117
6.6810002 -3.809 -0.89399999 71 28 0
6.6690001 -3.8139999 -0.88999999 89 72 56
6.7610002 -3.757 -0.90899998 158 108 73
6.7610002 -3.753 -0.90899998 92 73 59
6.6799998 -3.803 -0.88700002 127 113 110
6.7639999 -3.7090001 -0.88200003 93 57 31
6.7519999 -3.7190001 -0.88800001 77 49 27
6.763 -3.723 -0.884 15 1 0
6.744 -3.701 -0.89099997 45 11 0
6.7509999 -3.7130001 -0.884 24 0 0
6.6440001 -3.7349999 -0.815 77 44 25
6.6430001 -3.7390001 -0.82200003 136 109 88
6.651 -3.7360001 -0.83099997 74 36 17
6.6329999 -3.7409999 -0.83600003 45 35 43
6.625 -3.7409999 -0.81199998 115 109 95
6.645 -3.743 -0.83200002 137 107 83
6.6409998 -3.7479999 -0.84299999 111 86 79
6.6490002 -3.8050001 -0.88200003 185 122 69
6.6589999 -3.8099999 -0.89399999 228 176 129
6.6560001 -3.806 -0.889 220 161 105
6.658 -3.8039999 -0.884 141 80 33
6.7379999 -3.632 -0.78799999 113 80 61
6.5650001 -3.6329999 -0.54699999 127 111 98
6.553 -3.598 -0.49700001 90 66 40
6.5640001 -3.6289999 -0.55400002 87 45 21
6.5630002 -3.6270001 -0.55000001 81 46 24
6.5869999 -3.661 -0.59100002 73 36 17
6.5840001 -3.664 -0.60100001 117 90 69
6.5879998 -3.6659999 -0.60399997 78 69 52
6.5890002 -3.6500001 -0.57999998 90 69 48
6.7020001 -3.704 -0.74400002 99 64 36
6.7059999 -3.7190001 -0.75199997 85 45 19
6.5180001 -3.5829999 -0.43900001 82 62 53
6.533 -3.5910001 -0.47299999 58 29 13
6.5339999 -3.572 -0.456 74 57 39
6.5240002 -3.5829999 -0.47099999 62 26 4
6.5370002 -3.5780001 -0.465 81 60 39
6.4809999 -3.517 -0.36899999 255 238 216
6.48 -3.5239999 -0.37599999 85 41 0
6.4759998 -3.53 -0.38100001 77 29 0
6.421 -3.467 -0.28 218 190 176
6.4250002 -3.4690001 -0.28400001 105 72 37
6.4190001 -3.4690001 -0.285 83 54 40
6.6529999 -3.8099999 -0.89899999 137 90 48
6.4559999 -3.5020001 -0.324 128 87 65
6.4520001 -3.4979999 -0.324 19 3 3
6.4380002 -3.493 -0.317 170 121 80
6.454 -3.503 -0.33399999 33 15 3
6.4559999 -3.5020001 -0.329 15 0 0
6.5159998 -3.573 -0.426 93 57 33
6.5050001 -3.573 -0.419 39 17 6
6.5100002 -3.5810001 -0.433 56 37 30
6.4330001 -3.4649999 -0.28200001 134 118 92
6.421 -3.4649999 -0.289 117 66 21
6.4450002 -3.4679999 -0.29499999 110 84 57
6.461 -3.484 -0.317 60 41 24
6.4559999 -3.4809999 -0.31 75 55 31
6.4530001 -3.4760001 -0.30500001 85 60 29
6.4510002 -3.4760001 -0.303 92 69 37
6.4809999 -3.53 -0.38499999 79 30 0
6.4910002 -3.539 -0.39899999 195 169 152
6.487 -3.5439999 -0.403 91 39 2
6.487 -3.5280001 -0.38 100 63 36
6.5009999 -3.536 -0.39700001 95 71 47
6.802 -3.7279999 -0.87699997 88 46 24
6.8099999 -3.7279999 -0.87400001 89 66 50
6.8140001 -3.714 -0.86400002 145 96 55
6.803 -3.743 -0.86799997 62 29 12
6.809 -3.743 -0.86000001 129 99 73
6.8039999 -3.753 -0.86000001 184 148 122
6.8039999 -3.7409999 -0.87199998 52 26 9
6.7550001 -3.7550001 -0.91100001 76 50 25
6.7249999 -3.654 -0.76099998 225 182 148
6.737 -3.6459999 -0.77100003 24 9 6
6.723 -3.6500001 -0.778 119 81 62
6.7529998 -3.6440001 -0.78899997 103 80 66
6.7410002 -3.638 -0.80299997 83 58 38
6.7410002 -3.638 -0.80599999 124 103 86
6.552 -3.5969999 -0.48899999 33 8 0
6.559 -3.6070001 -0.50400001 29 7 0
6.5500002 -3.595 -0.48699999 38 15 0
6.552 -3.598 -0.49200001 59 35 11
6.5689998 -3.6240001 -0.52999997 77 45 24
6.5570002 -3.6229999 -0.528 98 81 73
6.5510001 -3.6129999 -0.50700003 79 65 39
6.743 -3.6700001 -0.76099998 86 73 67
6.5960002 -3.6500001 -0.597 67 50 42
6.5929999 -3.641 -0.583 149 131 109
6.7119999 -3.697 -0.75599998 244 225 193
6.724 -3.655 -0.773 27 9 0
6.5419998 -3.6059999 -0.49599999 103 88 81
6.4619999 -3.5150001 -0.35499999 70 29 1
6.473 -3.5280001 -0.37099999 129 82 36
6.4759998 -3.53 -0.375 130 82 34
6.4780002 -3.5239999 -0.36000001 247 185 134
6.4330001 -3.48 -0.30399999 125 81 46
6.428 -3.474 -0.303 93 67 34
6.428 -3.4860001 -0.31200001 93 48 15
6.5479999 -3.6129999 -0.52499998 80 38 13
6.5500002 -3.6159999 -0.528 81 41 16
6.5510001 -3.619 -0.53200001 83 45 26
6.553 -3.6210001 -0.53200001 61 23 10
6.5510001 -3.619 -0.52899998 92 51 29
6.618 -3.7309999 -0.75599998 71 34 8
6.6160002 -3.7279999 -0.76499999 102 60 36
6.6209998 -3.733 -0.759 102 68 40
6.5689998 -3.6440001 -0.583 135 114 85
6.6199999 -3.6960001 -0.708 157 127 99
6.6069999 -3.707 -0.70999998 89 42 14
6.6030002 -3.6960001 -0.69199997 142 119 78
6.6110001 -3.71 -0.71799999 98 52 26
6.6220002 -3.7030001 -0.71700001 132 103 71
6.6259999 -3.71 -0.73299998 132 105 78
6.7270002 -3.641 -0.78500003 36 9 0
6.7329998 -3.6389999 -0.796 130 82 42
6.5619998 -3.632 -0.55599999 78 36 11
6.5640001 -3.632 -0.56 71 32 3
6.5710001 -3.6389999 -0.55900002 105 92 75
6.665 -3.622 -0.92299998 91 65 42
6.6830001 -3.602 -0.94 195 169 152
6.6919999 -3.596 -0.94300002 70 46 22
6.6890001 -3.5940001 -0.94 189 167 146
6.6719999 -3.605 -0.94199997 49 32 14
6.6739998 -3.599 -0.93699998 204 143 86
6.6719999 -3.6129999 -0.94199997 50 25 3
6.6880002 -3.602 -0.93199998 139 103 69
6.684 -3.609 -0.93300003 132 74 26
6.6799998 -3.6300001 -0.93000001 126 80 82
6.6849999 -3.599 -0.93900001 240 206 169
6.5419998 -3.602 -0.50800002 65 28 1
6.5409999 -3.5929999 -0.493 60 24 2
6.54 -3.602 -0.50400001 66 26 0
6.5339999 -3.596 -0.47999999 79 43 9
6.5479999 -3.592 -0.48300001 59 37 23
6.546 -3.5899999 -0.47799999 69 24 1
6.5419998 -3.5869999 -0.479 85 67 47
6.704 -3.668 -0.75099999 160 80 21
6.7020001 -3.6700001 -0.74900001 216 136 67
6.6989999 -3.6689999 -0.75300002 182 111 57
6.756 -3.6500001 -0.92500001 89 44 11
6.7639999 -3.638 -0.92400002 154 95 53
6.7649999 -3.641 -0.921 232 170 111
6.75 -3.6359999 -0.92400002 74 57 50
6.7249999 -3.645 -0.81900001 42 2 0
6.737 -3.6370001 -0.80800003 99 68 48
6.7360001 -3.652 -0.82499999 117 93 81
6.723 -3.677 -0.85100001 156 115 83
6.7150002 -3.678 -0.86400002 119 113 123
6.723 -3.6789999 -0.85500002 167 128 99
6.7119999 -3.677 -0.85600001 155 122 107
6.717 -3.6489999 -0.88599998 170 129 109
6.7160001 -3.6429999 -0.87800002 244 205 164
6.711 -3.6329999 -0.88599998 57 27 3
6.711 -3.645 -0.889 128 83 54
6.5450001 -3.5969999 -0.495 123 86 59
6.6430001 -3.7290001 -0.92900002 145 141 130
6.6550002 -3.7720001 -0.92400002 84 59 39
6.6479998 -3.7739999 -0.91299999 137 94 51
6.652 -3.7780001 -0.921 77 38 5
6.651 -3.7219999 -0.92400002 187 143 80
6.6420002 -3.72 -0.92000002 91 57 30
6.6680002 -3.6129999 -0.93300003 54 27 8
6.6719999 -3.622 -0.94199997 79 54 32
6.6669998 -3.632 -0.93000001 125 81 82
6.691 -3.796 -0.90600002 141 123 109
6.6719999 -3.8 -0.903 154 107 55
6.7589998 -3.7539999 -0.91399997 94 42 2
6.737 -3.7260001 -0.87699997 95 72 56
6.7550001 -3.737 -0.87599999 88 56 43
6.7540002 -3.7509999 -0.917 122 80 84
6.7579999 -3.744 -0.90899998 113 91 68
6.6420002 -3.7509999 -0.852 123 96 89
6.6430001 -3.75 -0.85000002 128 100 78
6.6259999 -3.7520001 -0.84399998 117 76 46
6.6420002 -3.7880001 -0.90600002 112 88 76
6.6440001 -3.7880001 -0.90200001 151 132 118
6.645 -3.7939999 -0.889 166 131 89
6.6420002 -3.7309999 -0.77899998 52 15 0
6.6430001 -3.734 -0.76599997 75 24 5
6.6399999 -3.744 -0.787 162 86 34
6.6469998 -3.743 -0.79699999 37 7 0
6.6329999 -3.7490001 -0.829 95 53 31
6.632 -3.7179999 -0.759 83 36 16
6.6300001 -3.717 -0.75 178 147 118
6.618 -3.724 -0.764 82 47 19
6.638 -3.714 -0.75700003 113 82 38
6.6350002 -3.721 -0.76300001 122 69 27
6.6110001 -3.723 -0.76800001 124 100 66
6.6300001 -3.73 -0.745 105 50 19
6.6279998 -3.7279999 -0.73900002 117 70 42
6.6269999 -3.73 -0.75199997 122 97 75
6.6329999 -3.74 -0.77499998 57 10 0
6.6139998 -3.7130001 -0.72500002 89 36 4
6.6160002 -3.7160001 -0.73199999 103 39 1
6.618 -3.7219999 -0.74599999 77 33 0
6.618 -3.7260001 -0.74900001 73 37 11
6.6149998 -3.7190001 -0.73500001 98 36 0
6.6279998 -3.7079999 -0.722 169 141 104
6.632 -3.71 -0.736 75 49 16
6.7379999 -3.6359999 -0.80199999 124 92 67
6.572 -3.641 -0.57800001 78 43 24
6.5700002 -3.641 -0.574 74 37 19
6.572 -3.6440001 -0.57800001 70 35 16
6.573 -3.6440001 -0.574 115 80 61
6.5739999 -3.6470001 -0.58399999 68 27 7
6.5770001 -3.652 -0.59500003 75 34 14
6.5749998 -3.6470001 -0.588 65 27 4
6.5780001 -3.652 -0.59799999 73 32 10
6.579 -3.648 -0.57200003 78 60 40
6.6869998 -3.687 -0.73799998 126 95 67
6.678 -3.6949999 -0.74699998 157 116 94
6.6830001 -3.677 -0.74699998 149 117 92
6.6830001 -3.6930001 -0.74299997 139 106 75
6.691 -3.6989999 -0.741 120 87 68
6.592 -3.658 -0.60299999 43 27 14
6.5960002 -3.6559999 -0.60600001 35 18 11
6.7059999 -3.7030001 -0.74900001 158 123 103
6.6900001 -3.7190001 -0.75 120 65 35
6.539 -3.5840001 -0.46700001 76 54 30
6.5120001 -3.573 -0.44999999 57 20 0
6.5120001 -3.576 -0.44999999 82 36 3
6.507 -3.5680001 -0.44299999 71 27 2
6.5219998 -3.586 -0.465 115 112 107
6.5300002 -3.592 -0.48100001 66 29 10
6.526 -3.586 -0.47099999 77 36 14
6.5120001 -3.576 -0.447 121 69 30
6.5110002 -3.573 -0.44400001 138 90 50
6.5320001 -3.5940001 -0.484 72 30 14
6.5370002 -3.576 -0.45699999 44 28 12
6.5370002 -3.5799999 -0.461 120 101 84
6.4879999 -3.523 -0.375 116 90 63
6.5339999 -3.5710001 -0.449 105 90 71
6.527 -3.566 -0.44499999 72 55 29
6.5339999 -3.575 -0.45300001 75 56 39
6.5320001 -3.573 -0.44999999 94 78 52
6.5180001 -3.559 -0.428 71 56 35
6.5180001 -3.5580001 -0.42500001 79 64 41
6.5110002 -3.5510001 -0.42399999 46 12 0
6.5120001 -3.5580001 -0.428 143 99 74
6.4980001 -3.562 -0.40599999 138 88 63
6.506 -3.5480001 -0.40099999 135 109 82
6.4920001 -3.5550001 -0.39700001 112 67 46
6.5009999 -3.5569999 -0.42399999 84 39 0
6.4949999 -3.5420001 -0.40400001 132 97 69
6.4920001 -3.549 -0.40700001 156 99 46
6.4850001 -3.5380001 -0.39399999 86 36 1
6.4879999 -3.5420001 -0.38499999 181 152 138
6.4790001 -3.533 -0.38100001 114 63 18
6.4819999 -3.536 -0.38499999 129 79 30
6.658 -3.8099999 -0.89700001 161 109 62
6.6479998 -3.8 -0.898 105 55 4
6.4390001 -3.4619999 -0.28799999 79 51 29
6.4429998 -3.467 -0.29300001 135 108 79
6.4679999 -3.5 -0.331 112 95 79
6.4569998 -3.4979999 -0.34 83 33 0
6.4640002 -3.503 -0.34299999 109 72 53
6.4689999 -3.494 -0.338 98 79 64
6.4439998 -3.4909999 -0.32800001 84 78 52
6.4530001 -3.4990001 -0.336 87 35 0
6.4640002 -3.4949999 -0.33199999 138 80 40
6.52 -3.5610001 -0.42699999 81 67 41
6.5149999 -3.5650001 -0.42199999 135 114 83
6.8119998 -3.7290001 -0.86900002 42 15 0
6.8119998 -3.7249999 -0.86400002 122 95 74
6.8169999 -3.7119999 -0.86000001 156 96 62
6.7820001 -3.7079999 -0.884 58 24 0
6.783 -3.714 -0.88499999 122 66 31
6.7979999 -3.74 -0.87800002 51 18 0
6.7969999 -3.7420001 -0.87300003 56 18 5
6.4299998 -3.473 -0.28999999 252 226 209
6.448 -3.4719999 -0.30000001 213 153 91
6.4460001 -3.471 -0.301 56 32 8
6.4460001 -3.4719999 -0.29699999 101 75 42
6.4320002 -3.4679999 -0.31099999 191 163 142
6.448 -3.4820001 -0.315 54 32 21
6.4369998 -3.461 -0.29699999 253 245 208
6.4390001 -3.461 -0.29899999 170 155 122
6.454 -3.477 -0.30700001 85 59 32
6.4569998 -3.4849999 -0.31600001 58 37 16
6.4980001 -3.5309999 -0.389 127 101 68
6.5040002 -3.5409999 -0.39700001 77 56 29
6.494 -3.55 -0.39500001 179 151 139
6.4559999 -3.5079999 -0.33899999 63 37 20
6.461 -3.51 -0.338 103 78 48
6.4580002 -3.51 -0.34599999 79 36 4
6.4590001 -3.506 -0.33399999 35 15 4
6.4759998 -3.5109999 -0.345 52 35 19
6.4819999 -3.5209999 -0.35800001 99 87 65
6.4790001 -3.5179999 -0.35299999 106 88 68
6.4809999 -3.5179999 -0.35499999 102 86 63
6.7989998 -3.7309999 -0.87800002 71 29 7
6.8080001 -3.7149999 -0.85500002 96 66 40
6.8080001 -3.714 -0.85100001 73 43 19
6.8109999 -3.7160001 -0.85299999 136 110 87
6.6750002 -3.799 -0.87900001 77 40 13
6.6680002 -3.8080001 -0.884 91 68 54
6.664 -3.8 -0.875 98 60 24
6.665 -3.8050001 -0.88200003 109 79 45
6.6669998 -3.802 -0.88 132 106 79
6.8060002 -3.714 -0.852 65 31 6
6.757 -3.6429999 -0.90399998 146 108 97
6.75 -3.645 -0.90200001 82 43 10
6.7490001 -3.6370001 -0.90700001 193 159 114
6.7639999 -3.654 -0.88300002 161 137 99
6.7620001 -3.6559999 -0.884 56 30 0
6.7600002 -3.652 -0.89200002 124 76 40
6.763 -3.652 -0.884 52 26 0
6.7509999 -3.6559999 -0.889 133 87 53
6.7389998 -3.655 -0.88599998 83 41 1
6.7340002 -3.6659999 -0.81999999 97 67 43
6.7480001 -3.6600001 -0.81 104 70 42
6.7379999 -3.6730001 -0.81599998 106 84 71
6.7350001 -3.674 -0.833 130 94 72
6.7509999 -3.6700001 -0.88 73 51 37
6.737 -3.658 -0.88 36 8 0
6.737 -3.6470001 -0.77399999 37 19 15
6.7490001 -3.6389999 -0.78600001 65 33 12
6.7509999 -3.642 -0.78799999 120 91 75
6.7529998 -3.6400001 -0.78399998 70 44 29
6.7579999 -3.6589999 -0.78500003 140 112 90
6.7490001 -3.6559999 -0.79299998 93 65 41
6.7519999 -3.6530001 -0.78899997 83 49 24
6.75 -3.652 -0.79100001 81 45 19
6.5609999 -3.605 -0.50800002 188 167 140
6.5809999 -3.638 -0.55800003 85 64 35
6.585 -3.6359999 -0.56699997 62 39 31
6.579 -3.631 -0.55299997 167 141 108
6.5869999 -3.638 -0.57200003 44 23 4
6.5770001 -3.6289999 -0.55000001 222 196 163
6.5700002 -3.6240001 -0.54000002 88 56 33
6.572 -3.6199999 -0.537 121 103 81
6.566 -3.615 -0.52600002 107 83 55
6.5700002 -3.618 -0.53600001 74 52 28
6.5679998 -3.6199999 -0.537 98 77 48
6.572 -3.6199999 -0.53899997 133 113 89
6.566 -3.6270001 -0.54299998 79 34 3
6.553 -3.612 -0.523 98 50 4
6.8130002 -3.7190001 -0.852 130 108 85
6.7329998 -3.6760001 -0.75599998 216 185 154
6.7389998 -3.674 -0.76300001 38 11 0
6.7090001 -3.6849999 -0.74299997 95 41 15
6.7290001 -3.6919999 -0.76099998 248 233 214
6.7080002 -3.7030001 -0.75099999 177 161 135
6.7360001 -3.6830001 -0.79000002 132 75 45
6.7389998 -3.6960001 -0.80599999 103 57 60
6.737 -3.6760001 -0.80000001 76 54 33
6.7550001 -3.671 -0.79100001 115 93 72
6.7459998 -3.6689999 -0.792 84 38 5
6.46 -3.516 -0.352 89 49 14
6.4749999 -3.5280001 -0.36700001 167 141 124
6.4840002 -3.523 -0.36000001 72 59 40
6.4460001 -3.4949999 -0.32699999 130 72 32
6.4510002 -3.4909999 -0.32699999 95 37 0
6.4489999 -3.487 -0.31999999 90 59 41
6.434 -3.4849999 -0.31 132 84 44
6.4359999 -3.4879999 -0.28999999 144 106 69
6.4349999 -3.4879999 -0.28799999 174 144 108
6.4200001 -3.4719999 -0.29899999 93 58 38
6.5489998 -3.6040001 -0.50999999 111 75 53
6.5479999 -3.602 -0.505 102 66 44
6.5560002 -3.6110001 -0.51999998 109 67 43
6.5419998 -3.608 -0.50800002 79 42 23
6.5469999 -3.6159999 -0.50300002 85 64 47
6.5450001 -3.6099999 -0.51200002 82 46 30
6.5510001 -3.6110001 -0.498 69 34 15
6.6669998 -3.6110001 -0.91900003 97 76 59
6.6739998 -3.6040001 -0.92299998 204 164 92
6.6690001 -3.6129999 -0.92400002 52 24 2
6.678 -3.618 -0.87699997 249 202 148
6.677 -3.6210001 -0.87400001 145 108 90
6.6960001 -3.618 -0.87 87 51 19
6.6020002 -3.665 -0.625 64 40 14
6.6020002 -3.668 -0.62900001 56 34 11
6.6020002 -3.6689999 -0.63200003 64 43 24
6.6079998 -3.6700001 -0.63700002 51 28 10
6.6059999 -3.6760001 -0.63499999 32 10 0
6.5900002 -3.6849999 -0.64600003 172 131 109
6.5910001 -3.691 -0.65600002 37 3 0
6.5970001 -3.6900001 -0.64099997 52 30 19
6.6030002 -3.701 -0.67500001 88 57 26
6.5879998 -3.691 -0.66799998 68 36 13
6.5939999 -3.6960001 -0.67900002 71 36 14
6.6719999 -3.6270001 -0.87800002 141 88 56
6.665 -3.6159999 -0.90799999 87 69 57
6.664 -3.6289999 -0.90200001 125 75 40
6.6960001 -3.6619999 -0.764 119 72 44
6.6859999 -3.674 -0.75700003 64 28 14
6.691 -3.671 -0.77399999 46 18 7
6.7199998 -3.6619999 -0.75300002 96 64 41
6.7119999 -3.664 -0.75700003 179 120 76
6.7080002 -3.665 -0.75999999 113 44 2
6.7069998 -3.665 -0.76899999 129 64 24
6.6729999 -3.6070001 -0.92000002 84 57 36
6.6739998 -3.615 -0.90799999 142 106 56
6.6729999 -3.6059999 -0.92199999 95 73 52
6.6810002 -3.5999999 -0.92199999 80 55 35
6.5840001 -3.648 -0.597 65 29 5
6.5799999 -3.652 -0.602 64 28 4
6.5879998 -3.658 -0.61299998 93 46 18
6.598 -3.655 -0.60900003 60 42 30
6.585 -3.635 -0.57800001 119 95 67
6.5960002 -3.651 -0.60000002 55 40 33
6.5739999 -3.6370001 -0.57499999 55 20 0
6.5929999 -3.6689999 -0.63 136 95 73
6.5999999 -3.6689999 -0.63 66 46 22
6.5999999 -3.661 -0.61400002 131 109 88
6.598 -3.654 -0.60600001 22 7 0
6.5869999 -3.664 -0.62300003 76 39 12
6.5809999 -3.661 -0.61500001 89 40 10
6.598 -3.6630001 -0.61900002 58 36 15
6.5910001 -3.6719999 -0.62099999 129 97 74
6.5799999 -3.6530001 -0.57999998 87 47 22
6.566 -3.638 -0.56699997 72 42 18
6.5580001 -3.6300001 -0.53500003 120 103 93
6.6690001 -3.6370001 -0.898 37 0 0
6.6659999 -3.6300001 -0.90700001 176 148 134
6.677 -3.631 -0.89099997 125 87 64
6.6680002 -3.632 -0.91799998 255 200 145
6.6799998 -3.596 -0.926 90 60 36
6.6929998 -3.5999999 -0.92500001 147 87 25
6.7249999 -3.675 -0.92299998 69 21 1
6.7199998 -3.6789999 -0.92299998 106 60 63
6.7160001 -3.6819999 -0.93000001 68 27 0
6.7119999 -3.658 -0.912 37 17 10
6.5549998 -3.599 -0.49700001 214 193 172
6.5630002 -3.6040001 -0.51200002 83 67 41
6.553 -3.599 -0.49900001 75 55 28
6.546 -3.5899999 -0.47999999 62 43 26
6.6430001 -3.7360001 -0.79500002 55 30 8
6.6430001 -3.7360001 -0.79799998 147 125 102
6.638 -3.727 -0.78899997 86 48 29
6.763 -3.6429999 -0.91299999 209 165 128
6.7649999 -3.6459999 -0.91100001 175 115 65
6.7550001 -3.642 -0.92799997 148 86 25
6.7449999 -3.6459999 -0.81300002 117 69 33
6.7059999 -3.638 -0.89099997 131 95 43
6.7220001 -3.655 -0.89899999 250 181 122
6.7069998 -3.648 -0.90899998 42 15 4
6.7049999 -3.6340001 -0.87199998 111 51 17
6.7049999 -3.6240001 -0.87199998 120 85 53
6.6830001 -3.625 -0.87199998 104 68 34
6.684 -3.631 -0.87400001 136 91 50
6.6550002 -3.789 -0.92000002 80 54 31
6.645 -3.7820001 -0.91000003 83 61 50
6.652 -3.783 -0.92000002 174 146 122
6.6609998 -3.7869999 -0.92299998 81 46 27
6.6389999 -3.7179999 -0.921 139 122 106
6.6420002 -3.7249999 -0.92900002 106 77 47
6.6729999 -3.6070001 -0.92400002 197 167 133
6.6849999 -3.6429999 -0.91500002 140 118 105
6.7270002 -3.6789999 -0.85699999 31 3 0
6.71 -3.681 -0.85799998 151 89 48
6.6420002 -3.7579999 -0.82700002 63 30 13
6.6459999 -3.7490001 -0.81900001 128 59 17
6.6490002 -3.75 -0.833 141 115 80
6.651 -3.756 -0.84299999 109 77 28
6.6820002 -3.688 -0.75099999 89 38 11
6.6209998 -3.7309999 -0.764 81 37 12
6.6230001 -3.734 -0.77100003 79 37 12
6.6209998 -3.7309999 -0.76700002 85 41 16
6.678 -3.71 -0.75300002 145 76 37
6.6859999 -3.71 -0.75 117 58 26
6.6500001 -3.7980001 -0.90499997 173 130 88
6.652 -3.7809999 -0.92900002 120 98 74
6.6440001 -3.77 -0.89200002 83 40 8
6.6469998 -3.783 -0.884 253 225 201
6.6409998 -3.767 -0.88 104 61 27
6.6440001 -3.7639999 -0.889 119 69 34
6.6479998 -3.757 -0.87900001 143 116 95
6.6399999 -3.7609999 -0.87699997 128 84 55
6.6440001 -3.7639999 -0.88499999 98 50 14
6.6789999 -3.651 -0.88700002 112 88 64
6.6919999 -3.793 -0.90700001 129 95 57
6.6869998 -3.7920001 -0.89999998 139 101 62
6.6880002 -3.79 -0.90600002 150 130 105
6.684 -3.796 -0.89200002 117 103 94
6.6799998 -3.8010001 -0.88599998 125 98 89
6.7600002 -3.7539999 -0.90600002 101 53 15
6.7350001 -3.7060001 -0.89600003 42 10 0
6.7490001 -3.6949999 -0.88599998 87 51 25
6.7649999 -3.7019999 -0.88099998 128 99 81
6.7519999 -3.684 -0.89200002 99 77 64
6.711 -3.714 -0.84799999 45 25 16
6.7179999 -3.7219999 -0.83700001 79 49 23
6.7220001 -3.72 -0.84200001 99 69 33
6.717 -3.714 -0.861 68 49 43
6.645 -3.777 -0.912 140 105 67
6.6490002 -3.77 -0.90799999 149 93 56
6.6700001 -3.704 -0.82200003 46 11 5
6.6750002 -3.697 -0.80900002 119 97 86
6.684 -3.6889999 -0.82800001 123 84 69
6.625 -3.734 -0.77899998 84 46 23
6.6240001 -3.734 -0.77499998 81 39 15
6.625 -3.74 -0.78500003 136 102 74
6.632 -3.7520001 -0.82499999 65 30 11
6.6269999 -3.747 -0.81099999 129 87 49
6.6329999 -3.7490001 -0.82499999 75 34 16
6.6329999 -3.7520001 -0.82200003 112 67 70
6.6339998 -3.76 -0.824 135 124 130
6.6300001 -3.7579999 -0.84200001 74 40 13
6.6290002 -3.74 -0.80000001 96 54 29
6.6279998 -3.737 -0.79299998 117 73 46
6.638 -3.7309999 -0.792 124 99 69
6.6269999 -3.7309999 -0.78200001 115 100 81
6.6360002 -3.73 -0.78100002 137 109 87
6.6360002 -3.743 -0.81699997 111 70 50
6.6360002 -3.7520001 -0.84399998 137 97 62
6.645 -3.7409999 -0.80900002 143 120 102
6.6469998 -3.74 -0.81400001 117 94 76
6.645 -3.7390001 -0.80500001 143 117 102
6.619 -3.7149999 -0.73299998 154 141 122
6.6220002 -3.7190001 -0.741 97 38 0
6.6279998 -3.714 -0.741 174 147 120
6.6409998 -3.7260001 -0.77399999 130 97 66
6.6370001 -3.734 -0.76599997 112 75 48
6.651 -3.799 -0.87599999 54 56 55
6.631 -3.753 -0.801 138 127 135
6.6389999 -3.72 -0.755 73 14 0
6.6129999 -3.717 -0.71899998 89 55 27
6.6100001 -3.7160001 -0.71700001 96 56 30
6.6069999 -3.7160001 -0.71200001 81 44 17
6.6149998 -3.7190001 -0.72899997 97 45 8
6.619 -3.724 -0.72399998 86 43 24
6.6100001 -3.7130001 -0.72000003 82 36 10
6.6100001 -3.7130001 -0.71700001 75 34 6
6.6259999 -3.7030001 -0.71200001 206 177 143
6.6259999 -3.707 -0.70700002 114 65 24
6.6900001 -3.701 -0.74199998 135 104 84
6.6939998 -3.7090001 -0.74800003 148 76 18
6.6999998 -3.704 -0.74400002 124 88 62
6.6259999 -3.71 -0.72600001 100 67 32
6.6960001 -3.6730001 -0.74800003 153 108 75
6.7080002 -3.668 -0.75099999 141 66 27
6.7080002 -3.6689999 -0.74900001 114 51 10
6.7059999 -3.668 -0.75099999 165 87 39
6.71 -3.665 -0.75700003 191 121 70
6.6919999 -3.6689999 -0.75700003 140 95 72
6.7080002 -3.72 -0.75700003 38 16 3
6.6900001 -3.7179999 -0.75800002 145 102 70
6.71 -3.7190001 -0.77100003 142 99 80
6.6989999 -3.681 -0.74699998 148 80 15
6.6950002 -3.694 -0.741 155 112 77
6.586 -3.665 -0.60699999 127 101 78
6.5869999 -3.6670001 -0.616 147 100 70
6.585 -3.664 -0.61299998 82 69 35
6.585 -3.6670001 -0.61900002 125 79 53
6.5939999 -3.651 -0.59500003 43 25 13
6.6279998 -3.6960001 -0.69499999 77 39 18
6.6199999 -3.7 -0.68699998 35 10 0
6.605 -3.697 -0.662 72 42 31
6.5300002 -3.5699999 -0.45100001 92 75 49
6.5320001 -3.5710001 -0.447 184 171 139
6.5409999 -3.5840001 -0.46700001 104 83 56
6.513 -3.5699999 -0.447 70 30 4
6.5170002 -3.572 -0.454 59 48 42
6.5250001 -3.563 -0.44 90 70 45
6.5190001 -3.5869999 -0.45199999 81 62 55
6.5289998 -3.5899999 -0.47400001 142 141 136
6.5110002 -3.573 -0.447 90 45 14
6.5349998 -3.5969999 -0.49399999 60 24 2
6.5339999 -3.5940001 -0.48800001 77 35 19
6.5279999 -3.586 -0.47400001 53 18 0
6.5300002 -3.589 -0.47799999 53 20 3
6.5320001 -3.5880001 -0.48199999 57 24 7
6.5359998 -3.576 -0.45500001 60 44 29
6.5349998 -3.579 -0.463 81 60 41
6.4879999 -3.523 -0.366 82 59 41
6.4910002 -3.527 -0.37099999 70 49 30
6.5279999 -3.5739999 -0.44 158 137 108
6.5180001 -3.5580001 -0.42300001 100 84 59
6.5229998 -3.5610001 -0.43099999 116 99 79
6.513 -3.553 -0.41299999 147 122 82
6.5110002 -3.549 -0.412 71 45 10
6.5139999 -3.5569999 -0.417 179 157 120
6.5159998 -3.5580001 -0.421 74 57 29
6.513 -3.553 -0.417 78 57 28
6.513 -3.5610001 -0.433 155 110 87
6.5040002 -3.569 -0.414 64 46 42
6.4980001 -3.5710001 -0.41499999 71 38 19
6.5029998 -3.566 -0.42300001 112 67 46
6.4959998 -3.5539999 -0.417 88 36 0
6.4990001 -3.552 -0.41600001 56 46 36
6.4829998 -3.539 -0.391 96 43 1
6.4819999 -3.533 -0.38800001 85 34 3
6.4899998 -3.5350001 -0.38999999 92 52 27
6.4840002 -3.5469999 -0.398 113 78 46
6.5019999 -3.563 -0.43000001 98 49 6
6.4819999 -3.5339999 -0.375 188 159 145
6.427 -3.461 -0.28999999 112 63 22
6.4619999 -3.493 -0.324 65 46 29
6.4380002 -3.4690001 -0.30500001 161 133 109
6.4349999 -3.4619999 -0.30000001 251 244 215
6.4260001 -3.464 -0.30500001 153 136 118
6.427 -3.461 -0.29899999 155 136 104
6.4419999 -3.4649999 -0.30000001 204 148 97
6.4400001 -3.4860001 -0.301 119 72 30
6.4429998 -3.4760001 -0.29499999 94 39 9
6.507 -3.549 -0.403 106 79 52
6.4660001 -3.5079999 -0.34799999 101 63 42
6.4629998 -3.51 -0.33399999 44 12 0
6.474 -3.5079999 -0.34200001 136 119 103
6.7919998 -3.7309999 -0.88 153 121 108
6.7989998 -3.7509999 -0.861 84 52 37
6.7940001 -3.75 -0.86199999 126 84 62
6.79 -3.747 -0.86500001 117 84 67
6.7979999 -3.7149999 -0.85100001 84 54 30
6.796 -3.7130001 -0.85000002 96 66 40
6.7150002 -3.717 -0.773 48 10 0
6.7179999 -3.7090001 -0.78399998 81 44 18
6.724 -3.7019999 -0.77600002 121 74 44
6.8060002 -3.7520001 -0.85399997 215 179 145
6.7919998 -3.7449999 -0.852 71 34 15
6.803 -3.7449999 -0.852 151 118 87
6.6630001 -3.806 -0.88700002 136 132 133
6.658 -3.802 -0.88200003 157 110 64
6.665 -3.793 -0.87800002 104 77 47
6.658 -3.793 -0.87599999 120 81 48
6.6789999 -3.7690001 -0.88700002 143 108 66
6.6810002 -3.766 -0.889 130 96 58
6.677 -3.7679999 -0.884 132 98 53
6.7519999 -3.743 -0.86500001 86 60 59
6.7579999 -3.7390001 -0.87199998 25 5 0
6.7579999 -3.74 -0.86900002 34 15 9
6.7620001 -3.744 -0.861 154 93 49
6.756 -3.7420001 -0.85900003 99 61 40
6.7719998 -3.7479999 -0.86900002 200 152 80
6.684 -3.7920001 -0.90399998 137 108 78
6.744 -3.675 -0.81199998 25 11 11
6.7340002 -3.694 -0.815 64 44 37
6.7350001 -3.701 -0.81599998 57 33 21
6.802 -3.7390001 -0.852 112 81 52
6.7880001 -3.7219999 -0.852 160 110 73
6.79 -3.724 -0.85299999 117 84 49
6.7579999 -3.6459999 -0.903 106 56 19
6.7329998 -3.655 -0.88800001 129 106 92
6.73 -3.661 -0.90899998 101 54 28
6.7290001 -3.668 -0.91000003 81 52 34
6.7579999 -3.655 -0.88599998 70 44 17
6.7940001 -3.7019999 -0.87099999 184 162 141
6.7930002 -3.7049999 -0.86799997 83 51 26
6.7319999 -3.664 -0.82700002 41 18 4
6.7179999 -3.664 -0.82300001 81 43 20
6.7389998 -3.6659999 -0.81300002 57 5 0
6.7550001 -3.668 -0.88200003 60 33 6
6.756 -3.655 -0.78500003 75 48 27
6.7360001 -3.6559999 -0.77700001 94 75 71
6.7360001 -3.6589999 -0.77600002 42 24 22
6.7529998 -3.6459999 -0.78600001 114 84 60
6.7490001 -3.664 -0.79900002 91 59 36
6.5549998 -3.6040001 -0.50800002 96 79 63
6.5739999 -3.6199999 -0.53899997 45 29 6
6.5700002 -3.6140001 -0.52999997 165 141 117
6.566 -3.6099999 -0.52100003 175 153 130
6.5650001 -3.6240001 -0.54500002 161 123 104
6.5440001 -3.6099999 -0.51499999 76 37 20
6.5489998 -3.615 -0.51499999 109 92 85
6.5440001 -3.6099999 -0.51800001 73 32 10
6.5489998 -3.6159999 -0.52499998 99 58 30
6.5570002 -3.6129999 -0.52499998 120 79 59
6.8109999 -3.7190001 -0.852 121 97 73
6.7069998 -3.6800001 -0.74199998 159 123 99
6.7259998 -3.6670001 -0.75400001 137 101 69
6.724 -3.6659999 -0.75099999 176 146 122
6.724 -3.665 -0.755 111 75 49
6.5960002 -3.6530001 -0.60299999 37 22 17
6.7270002 -3.6989999 -0.76800001 109 99 108
6.7280002 -3.6830001 -0.759 173 147 112
6.7410002 -3.6689999 -0.76300001 57 37 30
6.5409999 -3.599 -0.49900001 71 35 9
6.4629998 -3.5179999 -0.35499999 74 29 0
6.4840002 -3.5209999 -0.36199999 72 56 33
6.4619999 -3.4920001 -0.32699999 84 65 48
6.4569998 -3.4960001 -0.33000001 161 132 116
6.4569998 -3.487 -0.31799999 84 63 44
6.4419999 -3.49 -0.31900001 48 39 24
6.441 -3.487 -0.317 97 50 20
6.4349999 -3.4820001 -0.31099999 99 56 22
6.4330001 -3.483 -0.30700001 143 97 61
6.4320002 -3.484 -0.30899999 87 79 58
6.4310002 -3.474 -0.29499999 79 46 13
6.5949998 -3.688 -0.66000003 87 50 31
6.5970001 -3.687 -0.66399997 78 41 22
6.586 -3.6700001 -0.62199998 101 64 46
6.5799999 -3.661 -0.611 103 54 22
6.5869999 -3.6719999 -0.62599999 35 0 0
6.586 -3.6700001 -0.625 74 39 19
6.5929999 -3.6819999 -0.64999998 76 34 9
6.598 -3.6800001 -0.65100002 127 86 68
6.5890002 -3.675 -0.639 57 26 8
6.6220002 -3.6960001 -0.69300002 96 65 34
6.618 -3.698 -0.70099998 141 111 83
6.677 -3.622 -0.89700001 187 154 101
6.6929998 -3.6659999 -0.75999999 135 83 44
6.698 -3.6689999 -0.75400001 158 87 23
6.7020001 -3.665 -0.76800001 89 37 15
6.704 -3.6670001 -0.75800002 171 96 31
6.6900001 -3.6029999 -0.921 148 136 122
6.6859999 -3.6110001 -0.90700001 165 148 120
6.5760002 -3.6440001 -0.58499998 62 24 3
6.5840001 -3.648 -0.59399998 174 140 113
6.5770001 -3.641 -0.579 146 112 87
6.5869999 -3.6429999 -0.58399999 75 53 29
6.5869999 -3.6719999 -0.63200003 71 39 24
6.598 -3.6600001 -0.616 60 38 15
6.612 -3.6819999 -0.671 112 92 67
6.6020002 -3.6659999 -0.62400001 97 71 46
6.5770001 -3.6489999 -0.59100002 79 41 18
6.6750002 -3.6400001 -0.903 38 1 0
6.6739998 -3.642 -0.89600003 128 82 58
6.6630001 -3.6300001 -0.91399997 118 92 67
6.6760001 -3.6300001 -0.88300002 74 27 1
6.6890001 -3.6240001 -0.88499999 85 49 25
6.697 -3.6229999 -0.87599999 97 66 45
6.6950002 -3.6210001 -0.875 101 67 42
6.6830001 -3.628 -0.89099997 77 52 32
6.6799998 -3.6040001 -0.93900001 206 174 136
6.6750002 -3.605 -0.93199998 197 176 155
6.6900001 -3.6029999 -0.92699999 166 154 138
6.6859999 -3.6110001 -0.92400002 230 216 187
6.7270002 -3.684 -0.92500001 70 42 21
6.7280002 -3.6819999 -0.91900003 78 36 12
6.5570002 -3.602 -0.50300002 67 46 27
6.698 -3.678 -0.917 150 106 79
6.6929998 -3.675 -0.91799998 39 17 4
6.691 -3.6760001 -0.91399997 91 65 50
6.7090001 -3.6930001 -0.921 33 7 0
6.7010002 -3.6689999 -0.91000003 37 18 3
6.763 -3.6470001 -0.91799998 136 88 48
6.7350001 -3.6440001 -0.81199998 84 48 24
6.7290001 -3.6570001 -0.81900001 91 88 95
6.7049999 -3.6819999 -0.84299999 58 24 15
6.7129998 -3.6800001 -0.838 172 138 110
6.697 -3.642 -0.87900001 133 88 93
6.684 -3.652 -0.87800002 51 14 0
6.7049999 -3.6459999 -0.87800002 52 20 5
6.6849999 -3.622 -0.87300003 121 77 32
6.7179999 -3.655 -0.80900002 84 35 18
6.7080002 -3.674 -0.81900001 80 57 41
6.6919999 -3.681 -0.83700001 119 104 97
6.691 -3.6860001 -0.84399998 29 13 14
6.7020001 -3.6819999 -0.852 172 110 71
6.6830001 -3.635 -0.875 61 30 2
6.6789999 -3.6429999 -0.87800002 51 15 0
6.6799998 -3.6329999 -0.87699997 132 102 74
6.6849999 -3.635 -0.87599999 76 43 12
6.7049999 -3.625 -0.875 85 57 35
6.7069998 -3.6270001 -0.87699997 35 6 0
6.723 -3.6700001 -0.875 93 90 101
6.6859999 -3.734 -0.90600002 144 103 75
6.6849999 -3.727 -0.90399998 42 21 2
6.6820002 -3.74 -0.90100002 75 52 38
6.6690001 -3.776 -0.92000002 183 160 128
6.6469998 -3.7550001 -0.86900002 177 149 128
6.6440001 -3.7520001 -0.85900003 193 165 143
6.6409998 -3.7609999 -0.87300003 104 60 31
6.6430001 -3.7590001 -0.86900002 93 51 11
6.6529999 -3.7579999 -0.875 204 174 138
6.6560001 -3.756 -0.86799997 97 66 20
6.6960001 -3.6819999 -0.85699999 91 35 0
6.684 -3.6470001 -0.90100002 108 70 47
6.6900001 -3.645 -0.90799999 66 34 13
6.6830001 -3.618 -0.92299998 181 165 140
6.6919999 -3.628 -0.91799998 227 214 182
6.7160001 -3.6889999 -0.92199999 60 12 2
6.7129998 -3.694 -0.91799998 96 60 34
6.6750002 -3.7609999 -0.88099998 96 63 32
6.6719999 -3.7690001 -0.88 114 97 79
6.677 -3.7650001 -0.88499999 191 151 99
6.664 -3.77 -0.86699998 171 90 34
6.6630001 -3.766 -0.86699998 100 74 57
6.71 -3.7119999 -0.85399997 65 50 47
6.698 -3.694 -0.85399997 170 116 88
6.7129998 -3.7060001 -0.85699999 88 53 34
6.6880002 -3.704 -0.79799998 44 12 0
6.6900001 -3.6949999 -0.79900002 44 17 6
6.6810002 -3.6949999 -0.80800003 111 91 80
6.6939998 -3.6889999 -0.80199999 65 42 36
6.6500001 -3.7490001 -0.83399999 35 6 2
6.6500001 -3.7479999 -0.833 169 101 40
6.651 -3.753 -0.84399998 82 44 0
6.6490002 -3.7579999 -0.84200001 85 31 0
6.625 -3.734 -0.76499999 119 86 53
6.6789999 -3.714 -0.75999999 119 63 36
6.645 -3.7360001 -0.801 58 35 19
6.6430001 -3.7360001 -0.79000002 48 20 0
6.6409998 -3.7349999 -0.78600001 59 22 13
6.6830001 -3.7160001 -0.77100003 100 52 29
6.6810002 -3.7090001 -0.76700002 134 100 73
6.6789999 -3.71 -0.77899998 132 67 29
6.6890001 -3.714 -0.77399999 64 35 21
6.7129998 -3.7190001 -0.778 52 19 2
6.678 -3.71 -0.75999999 185 107 58
6.6789999 -3.701 -0.75 71 30 0
6.6500001 -3.7950001 -0.90799999 224 186 137
6.6440001 -3.767 -0.889 98 49 17
6.678 -3.6470001 -0.88599998 45 22 4
6.7610002 -3.7490001 -0.91000003 86 65 48
6.7410002 -3.7090001 -0.88700002 123 72 45
6.7399998 -3.714 -0.88300002 36 9 2
6.6459999 -3.7739999 -0.91100001 160 113 57
6.6719999 -3.7579999 -0.89700001 166 118 82
6.6869998 -3.7509999 -0.89700001 141 111 87
6.6750002 -3.76 -0.89300001 165 112 60
6.6539998 -3.7390001 -0.82099998 20 1 0
6.6719999 -3.707 -0.82300001 48 10 0
6.6750002 -3.701 -0.82800001 34 1 0
6.671 -3.6389999 -0.88200003 117 82 63
6.6459999 -3.7490001 -0.83999997 116 76 27
6.6490002 -3.7509999 -0.84200001 119 83 47
6.6469998 -3.806 -0.889 130 58 0
6.6259999 -3.743 -0.796 68 32 10
6.6240001 -3.7379999 -0.792 130 113 119
6.6339998 -3.7460001 -0.82300001 79 40 23
6.6360002 -3.7550001 -0.85100001 83 44 13
6.6339998 -3.7609999 -0.85399997 71 36 17
6.6469998 -3.8010001 -0.88200003 118 70 34
6.6500001 -3.7739999 -0.852 78 28 0
6.7059999 -3.7090001 -0.79799998 101 96 77
6.704 -3.7119999 -0.78299999 50 21 7
6.7010002 -3.71 -0.78600001 60 27 8
6.6989999 -3.7049999 -0.801 45 19 4
6.697 -3.714 -0.77399999 82 44 23
6.6329999 -3.7520001 -0.83200002 89 47 22
6.6199999 -3.7219999 -0.75 108 66 41
6.6199999 -3.7249999 -0.75700003 84 46 23
6.6409998 -3.7290001 -0.778 138 104 76
6.6339998 -3.727 -0.77200001 133 103 69
6.6269999 -3.7309999 -0.773 161 152 143
6.6259999 -3.7279999 -0.74599999 118 96 73
6.632 -3.717 -0.74199998 152 123 91
6.6329999 -3.73 -0.755 117 67 40
6.6360002 -3.724 -0.75599998 102 70 29
6.638 -3.723 -0.75999999 159 91 44
6.6139998 -3.7160001 -0.70300001 78 46 23
6.6110001 -3.7060001 -0.68300003 81 44 26
6.6869998 -3.7090001 -0.74900001 126 74 35
6.7049999 -3.6300001 -0.88800001 90 56 31
6.744 -3.6440001 -0.79900002 71 39 14
6.7399998 -3.635 -0.79299998 49 14 0
6.5770001 -3.6489999 -0.588 114 76 53
6.7199998 -3.6619999 -0.76099998 94 63 43
6.7020001 -3.668 -0.75400001 161 77 13
6.7059999 -3.6670001 -0.755 182 98 36
6.7080002 -3.6659999 -0.755 180 97 45
6.698 -3.6989999 -0.741 151 115 89
6.7010002 -3.714 -0.75 158 117 85
6.6989999 -3.7160001 -0.75199997 45 27 25
6.585 -3.638 -0.56999999 54 31 17
6.5830002 -3.655 -0.60600001 79 37 12
6.5929999 -3.645 -0.58700001 35 16 1
6.5890002 -3.645 -0.58700001 60 42 20
6.5890002 -3.6429999 -0.579 96 70 47
6.599 -3.694 -0.66000003 158 120 84
6.5999999 -3.6919999 -0.65600002 116 98 96
6.5279999 -3.5699999 -0.449 78 62 37
6.5190001 -3.5810001 -0.46000001 101 52 19
6.5339999 -3.596 -0.47799999 89 74 69
6.5219998 -3.5810001 -0.447 193 159 132
6.5370002 -3.5999999 -0.495 62 24 5
6.5349998 -3.5969999 -0.491 68 30 11
6.5310001 -3.586 -0.47299999 92 63 47
6.5349998 -3.579 -0.458 72 55 39
6.52 -3.5610001 -0.433 46 33 16
6.5300002 -3.569 -0.44400001 166 150 116
6.5139999 -3.556 -0.41800001 89 69 36
6.5110002 -3.55 -0.41 89 64 24
6.5089998 -3.55 -0.40799999 83 58 27
6.5029998 -3.54 -0.39399999 86 66 41
6.5100002 -3.575 -0.426 90 70 59
6.507 -3.5569999 -0.42699999 114 72 48
6.506 -3.5650001 -0.43700001 79 35 0
6.494 -3.549 -0.41100001 96 45 0
6.5 -3.5480001 -0.40900001 122 77 46
6.4970002 -3.536 -0.38699999 77 50 23
6.4790001 -3.533 -0.384 86 38 2
6.4819999 -3.533 -0.37400001 66 43 29
6.4910002 -3.529 -0.37400001 68 46 23
6.441 -3.4679999 -0.29100001 101 75 48
6.467 -3.4979999 -0.331 58 41 21
6.4650002 -3.497 -0.329 60 45 24
6.473 -3.5039999 -0.338 73 56 38
6.4710002 -3.5039999 -0.33700001 76 59 43
6.4780002 -3.5120001 -0.34900001 93 72 51
6.79 -3.7409999 -0.86900002 70 46 44
6.7719998 -3.7420001 -0.87599999 82 37 6
6.7779999 -3.7049999 -0.875 153 119 84
6.4260001 -3.47 -0.30899999 72 57 28
6.427 -3.467 -0.30700001 255 215 155
6.507 -3.5469999 -0.405 96 70 43
6.5079999 -3.5469999 -0.40700001 90 66 38
6.5040002 -3.5420001 -0.405 115 94 75
6.5089998 -3.549 -0.412 88 65 33
6.4580002 -3.5039999 -0.34299999 93 48 19
6.4699998 -3.5079999 -0.338 233 169 105
6.4689999 -3.516 -0.36199999 110 78 63
6.4770002 -3.517 -0.34799999 157 140 122
6.7820001 -3.72 -0.884 90 67 49
6.7950001 -3.7079999 -0.85000002 109 79 53
6.7740002 -3.7119999 -0.852 145 109 97
6.789 -3.701 -0.85100001 73 25 5
6.8150001 -3.744 -0.85399997 54 17 0
6.809 -3.744 -0.85799998 151 121 95
6.8119998 -3.737 -0.861 82 47 25
6.789 -3.7539999 -0.861 81 41 15
6.756 -3.7360001 -0.84799999 92 33 0
6.7129998 -3.7179999 -0.76899999 66 55 61
6.671 -3.8039999 -0.884 161 76 0
6.6539998 -3.7909999 -0.88 164 117 89
6.6690001 -3.7850001 -0.88200003 75 57 45
6.6739998 -3.79 -0.88700002 241 210 127
6.677 -3.777 -0.88599998 185 155 119
6.6700001 -3.7880001 -0.91000003 140 91 48
6.7379999 -3.6830001 -0.81 78 23 2
6.7470002 -3.6670001 -0.79799998 91 34 4
6.8049998 -3.744 -0.852 78 45 14
6.7950001 -3.723 -0.85299999 106 61 22
6.7449999 -3.6630001 -0.81 101 45 20
6.8140001 -3.7249999 -0.85799998 127 105 82
6.7360001 -3.651 -0.90100002 91 63 41
6.7470002 -3.6500001 -0.90799999 57 35 24
6.7340002 -3.6570001 -0.90399998 227 159 110
6.7360001 -3.6589999 -0.90799999 93 47 21
6.7480001 -3.6589999 -0.88700002 149 105 68
6.7880001 -3.6989999 -0.87 87 55 32
6.7340002 -3.6600001 -0.82099998 88 49 20
6.7319999 -3.6719999 -0.83099997 100 51 55
6.763 -3.6659999 -0.88800001 100 49 2
6.7410002 -3.678 -0.87099999 54 24 0
6.7379999 -3.674 -0.87699997 119 92 81
6.7690001 -3.7290001 -0.85299999 164 111 77
6.757 -3.7290001 -0.84399998 112 94 80
6.7449999 -3.654 -0.78399998 160 91 50
6.7490001 -3.6600001 -0.80199999 65 36 18
6.75 -3.6600001 -0.79299998 101 66 38
6.756 -3.6630001 -0.787 88 66 43
6.579 -3.6289999 -0.55500001 189 163 130
6.5760002 -3.6240001 -0.54500002 126 102 74
6.566 -3.615 -0.52999997 84 61 30
6.5650001 -3.608 -0.51800001 65 47 25
6.5630002 -3.6070001 -0.51800001 75 55 30
6.5609999 -3.6110001 -0.51899999 70 52 28
6.566 -3.6259999 -0.55000001 145 108 89
6.5669999 -3.628 -0.55199999 126 65 21
6.572 -3.625 -0.54799998 105 80 50
6.5689998 -3.635 -0.56400001 88 57 28
6.5450001 -3.608 -0.51499999 70 31 14
6.7309999 -3.668 -0.75700003 129 88 42
6.7030001 -3.678 -0.74599999 85 29 0
6.7220001 -3.664 -0.74900001 153 121 98
6.737 -3.675 -0.76599997 135 104 84
6.7199998 -3.6619999 -0.764 97 67 43
6.737 -3.668 -0.76999998 42 15 4
6.5469999 -3.5999999 -0.5 130 94 70
6.467 -3.523 -0.361 145 97 49
6.4629998 -3.4949999 -0.32600001 55 38 18
6.4460001 -3.4890001 -0.31299999 68 41 12
6.434 -3.483 -0.30599999 81 33 0
6.4369998 -3.4719999 -0.289 205 134 82
6.7010002 -3.6719999 -0.74800003 168 96 24
6.6030002 -3.6900001 -0.65200001 100 57 23
6.5999999 -3.6849999 -0.65600002 133 91 75
6.5970001 -3.678 -0.64499998 136 95 75
6.5890002 -3.6789999 -0.64300001 74 39 19
6.5900002 -3.6819999 -0.64300001 103 68 48
6.5929999 -3.6849999 -0.653 82 41 11
6.6030002 -3.7019999 -0.69499999 96 51 18
6.6069999 -3.707 -0.70599997 86 40 14
6.6030002 -3.7019999 -0.68900001 80 37 18
6.6079998 -3.704 -0.70300001 88 39 6
6.6199999 -3.7030001 -0.70099998 97 66 37
6.6139998 -3.7079999 -0.70099998 70 22 2
6.6040001 -3.6719999 -0.63099998 46 24 3
6.5840001 -3.6670001 -0.625 80 48 25
6.6160002 -3.6960001 -0.69 121 94 67
6.6079998 -3.678 -0.64899999 65 37 15
6.6040001 -3.674 -0.63999999 60 38 24
6.6020002 -3.6730001 -0.63700002 65 46 31
6.5960002 -3.675 -0.63999999 131 90 68
6.6719999 -3.635 -0.91000003 77 38 5
6.6750002 -3.6040001 -0.94 180 152 138
6.684 -3.6110001 -0.92699999 178 122 65
6.6859999 -3.6099999 -0.91000003 90 56 28
6.6890001 -3.5940001 -0.93400002 113 59 15
6.559 -3.6040001 -0.51200002 73 51 27
6.678 -3.7030001 -0.77100003 83 30 12
6.678 -3.698 -0.76999998 174 89 52
6.6830001 -3.691 -0.755 145 113 88
6.6890001 -3.6849999 -0.77200001 54 0 0
6.7010002 -3.6830001 -0.778 85 53 32
6.6929998 -3.7060001 -0.78500003 53 16 10
6.7249999 -3.652 -0.792 124 65 23
6.7319999 -3.6440001 -0.79500002 119 73 39
6.7360001 -3.688 -0.89700001 80 44 18
6.73 -3.684 -0.90799999 129 80 37
6.7309999 -3.677 -0.91000003 37 8 2
6.7360001 -3.6819999 -0.89600003 125 90 60
6.6989999 -3.6600001 -0.91000003 34 6 5
6.698 -3.655 -0.91100001 57 31 14
6.7080002 -3.6659999 -0.90899998 80 40 5
6.7610002 -3.6459999 -0.92500001 115 67 27
6.7350001 -3.6470001 -0.81599998 84 53 33
6.7309999 -3.645 -0.81400001 51 6 0
6.6989999 -3.648 -0.90899998 144 116 104
6.724 -3.6570001 -0.81599998 118 82 70
6.6989999 -3.6830001 -0.79400003 91 73 61
6.698 -3.6789999 -0.79900002 103 72 51
6.7080002 -3.6289999 -0.87599999 138 95 52
6.6989999 -3.6240001 -0.87199998 144 104 69
6.6919999 -3.648 -0.88099998 85 49 25
6.7030001 -3.6819999 -0.83600003 198 162 130
6.6869998 -3.6199999 -0.87400001 151 104 58
6.6820002 -3.652 -0.88300002 67 36 15
6.7049999 -3.6530001 -0.88200003 89 43 7
6.698 -3.6530001 -0.88200003 45 14 0
6.6950002 -3.76 -0.90600002 191 127 63
6.6999998 -3.744 -0.90799999 189 155 120
6.6919999 -3.76 -0.90799999 60 31 15
6.6880002 -3.7279999 -0.90899998 172 134 113
6.6929998 -3.73 -0.91000003 136 100 64
6.6919999 -3.7219999 -0.91299999 110 68 72
6.6929998 -3.7479999 -0.90499997 162 124 87
6.6890001 -3.75 -0.90200001 71 40 20
6.6950002 -3.7290001 -0.91000003 186 139 95
6.6999998 -3.7409999 -0.90899998 143 101 59
6.6989999 -3.73 -0.90799999 151 103 54
6.645 -3.7590001 -0.87800002 110 67 22
6.7249999 -3.71 -0.88499999 59 31 9
6.7309999 -3.711 -0.88800001 47 24 6
6.7030001 -3.697 -0.89499998 73 45 34
6.71 -3.7 -0.884 85 40 17
6.7049999 -3.6900001 -0.89200002 47 23 11
6.7059999 -3.687 -0.88800001 70 33 14
6.6950002 -3.6849999 -0.85000002 170 105 65
6.6939998 -3.691 -0.852 131 71 35
6.6929998 -3.691 -0.84899998 86 30 3
6.698 -3.678 -0.90200001 36 14 1
6.6919999 -3.7260001 -0.90899998 137 99 80
6.7080002 -3.6930001 -0.90700001 249 211 162
6.7090001 -3.687 -0.91799998 52 25 6
6.717 -3.704 -0.889 37 4 0
6.6939998 -3.6589999 -0.90100002 106 103 98
6.6700001 -3.7620001 -0.88800001 182 127 86
6.6729999 -3.7609999 -0.89099997 138 107 89
6.6630001 -3.7590001 -0.88999999 174 139 120
6.6560001 -3.7509999 -0.84899998 77 39 18
6.7160001 -3.7130001 -0.85500002 40 20 11
6.7119999 -3.6800001 -0.88200003 216 159 104
6.7049999 -3.6630001 -0.88300002 88 42 9
6.7059999 -3.674 -0.88700002 39 15 5
6.6950002 -3.7090001 -0.78200001 66 24 12
6.6810002 -3.6960001 -0.81599998 46 24 11
6.6810002 -3.697 -0.81999999 51 27 15
6.6869998 -3.6919999 -0.81699997 79 49 25
6.75 -3.7019999 -0.85100001 118 77 47
6.7659998 -3.704 -0.85799998 94 87 95
6.7639999 -3.7090001 -0.85699999 146 124 101
6.7360001 -3.688 -0.84600002 88 60 39
6.757 -3.691 -0.85699999 35 15 4
6.7080002 -3.717 -0.83600003 93 68 64
6.6919999 -3.7079999 -0.83200002 71 46 26
6.7069998 -3.7119999 -0.83899999 105 55 30
6.6999998 -3.707 -0.83600003 65 53 39
6.697 -3.71 -0.82599998 71 20 0
6.7160001 -3.7190001 -0.833 81 55 40
6.7309999 -3.7030001 -0.80199999 28 1 0
6.7319999 -3.7 -0.80000001 39 10 0
6.7189999 -3.7030001 -0.796 75 23 0
6.7270002 -3.701 -0.80000001 63 40 22
6.7140002 -3.7049999 -0.80400002 21 1 0
6.698 -3.6849999 -0.82599998 64 31 14
6.6939998 -3.6889999 -0.82499999 81 54 43
6.6240001 -3.734 -0.76800001 104 62 37
6.6820002 -3.6960001 -0.76099998 129 81 45
6.6799998 -3.698 -0.76700002 114 27 0
6.6409998 -3.7320001 -0.78200001 87 56 28
6.6430001 -3.7360001 -0.79299998 54 28 5
6.6900001 -3.7160001 -0.76300001 113 53 3
6.783 -3.727 -0.88300002 52 16 0
6.7420001 -3.721 -0.87699997 20 7 1
6.7329998 -3.711 -0.88800001 34 10 0
6.7290001 -3.7079999 -0.88999999 31 7 3
6.7210002 -3.7030001 -0.89399999 78 30 7
6.7490001 -3.723 -0.87 49 30 16
6.7249999 -3.707 -0.87 31 6 1
6.7210002 -3.701 -0.86799997 58 21 5
6.7379999 -3.714 -0.87300003 80 62 50
6.7319999 -3.711 -0.88 30 1 0
6.6820002 -3.698 -0.82999998 30 0 0
6.6820002 -3.701 -0.83399999 45 13 2
6.6989999 -3.697 -0.85000002 44 1 0
6.6490002 -3.744 -0.82700002 126 100 67
6.6469998 -3.744 -0.81699997 59 28 10
6.7090001 -3.711 -0.801 66 55 63
6.7090001 -3.711 -0.80800003 82 79 60
6.6729999 -3.7049999 -0.81900001 82 47 27
6.6300001 -3.743 -0.78200001 100 59 63
6.6339998 -3.74 -0.80599999 103 57 33
6.6259999 -3.737 -0.78899997 117 72 43
6.632 -3.7460001 -0.81800002 84 46 27
6.638 -3.7579999 -0.86199999 84 46 23
6.6440001 -3.7720001 -0.87599999 151 109 110
6.6360002 -3.7639999 -0.86799997 100 63 34
6.6389999 -3.7639999 -0.84100002 43 19 9
6.638 -3.756 -0.81599998 142 118 106
6.638 -3.7490001 -0.80599999 50 20 10
6.645 -3.767 -0.89200002 85 36 4
6.6459999 -3.766 -0.898 87 54 21
6.6570001 -3.766 -0.86500001 75 30 0
6.6459999 -3.767 -0.89999998 143 93 58
6.645 -3.77 -0.89600003 96 49 19
6.7150002 -3.7090001 -0.78399998 56 25 7
6.6329999 -3.7550001 -0.83600003 121 80 52
6.632 -3.72 -0.75999999 182 151 120
6.618 -3.7260001 -0.75300002 68 31 5
6.618 -3.7219999 -0.74299997 96 48 10
6.619 -3.7249999 -0.74299997 88 49 16
6.6300001 -3.724 -0.74299997 119 84 54
6.6269999 -3.734 -0.76599997 114 74 48
6.638 -3.724 -0.76499999 142 110 71
6.6079998 -3.71 -0.70700002 72 31 9
6.6170001 -3.7219999 -0.73900002 144 95 55
6.6149998 -3.7190001 -0.73199999 96 41 2
6.619 -3.724 -0.73299998 144 122 101
6.612 -3.7160001 -0.72100002 68 24 0
6.6129999 -3.7160001 -0.72500002 89 40 10
6.6129999 -3.7160001 -0.72799999 87 31 0
6.6230001 -3.707 -0.72000003 103 54 13
6.684 -3.707 -0.75099999 148 83 43
6.7379999 -3.6359999 -0.80000001 128 93 65
6.6989999 -3.6700001 -0.77600002 56 27 11
6.6929998 -3.717 -0.75599998 112 45 0
6.5879998 -3.6559999 -0.60900003 148 116 91
6.5799999 -3.655 -0.602 75 31 4
6.5939999 -3.652 -0.597 76 60 47
6.5929999 -3.6459999 -0.58999997 37 17 8
6.5890002 -3.6429999 -0.58399999 61 39 16
6.6030002 -3.6989999 -0.68900001 88 48 23
6.5159998 -3.5680001 -0.442 117 76 54
6.5139999 -3.575 -0.45300001 76 39 10
6.5219998 -3.5810001 -0.46399999 73 34 5
6.5300002 -3.5810001 -0.46200001 162 117 88
6.5310001 -3.592 -0.47799999 79 41 20
6.5219998 -3.5739999 -0.45300001 66 34 19
