ply
format ascii 1.0
comment PCL generated
element vertex 705
property float x
property float y
property float z
property uchar red
property uchar green
property uchar blue
element camera 1
property float view_px
property float view_py
property float view_pz
property float x_axisx
property float x_axisy
property float x_axisz
property float y_axisx
property float y_axisy
property float y_axisz
property float z_axisx
property float z_axisy
property float z_axisz
property float focal
property float scalex
property float scaley
property float centerx
property float centery
property int viewportx
property int viewporty
property float k1
property float k2
end_header
-7.0120001 -2.7539999 -0.64999998 114 93 88
-7.0209999 -2.7479999 -0.65399998 255 200 127
-7.0149999 -2.7420001 -0.66399997 123 97 74
-7.0100002 -2.7539999 -0.65600002 253 232 227
-7.0190001 -2.7520001 -0.67199999 72 57 36
-7.0300002 -2.7460001 -0.66799998 113 78 50
-7.0300002 -2.7509999 -0.676 115 89 76
-7.0310001 -2.7539999 -0.65600002 128 97 69
-7.033 -2.7590001 -0.65499997 203 174 142
-7.0320001 -2.7509999 -0.66900003 62 44 30
-7.013 -2.7920001 -0.68800002 190 143 89
-7.0159998 -2.777 -0.67400002 255 228 188
-7.0159998 -2.7920001 -0.69099998 128 97 68
-7.0079999 -2.79 -0.69199997 119 83 57
-6.8099999 -3.0320001 -0.824 106 96 95
-6.8099999 -3.0439999 -0.833 96 62 34
-6.8049998 -3.046 -0.82999998 69 41 38
-6.8109999 -3.033 -0.83499998 111 98 63
-7.0170002 -2.783 -0.66399997 223 151 93
-7.02 -2.77 -0.64700001 81 42 11
-7.0229998 -2.779 -0.66000003 76 49 22
-7.0229998 -2.7750001 -0.64600003 43 28 23
-7.0300002 -2.7720001 -0.64600003 113 77 51
-7.0359998 -2.7739999 -0.64899999 158 115 81
-6.7150002 -3.1229999 -1.044 62 33 3
-6.7210002 -3.118 -1.048 58 42 19
-6.7150002 -3.122 -1.0369999 43 27 0
-6.7080002 -3.118 -1.039 135 97 50
-6.7049999 -3.118 -1.045 182 144 99
-6.7030001 -3.1129999 -1.05 84 67 57
-6.7049999 -3.1010001 -1.041 55 34 31
-6.7049999 -3.109 -1.045 48 29 23
-6.6989999 -3.1140001 -1.051 134 99 80
-6.6960001 -3.112 -1.048 126 93 58
-6.9640002 -2.8099999 -0.69099998 162 128 82
-6.9489999 -2.8299999 -0.69199997 221 209 213
-6.9660001 -2.812 -0.69800001 99 86 69
-6.9640002 -2.8099999 -0.68599999 205 165 103
-6.7179999 -3.092 -1.007 35 16 12
-6.7290001 -3.099 -1.002 45 8 2
-6.7309999 -3.1059999 -1.013 208 161 107
-6.7140002 -3.1010001 -1.029 98 46 25
-6.7080002 -3.095 -1.016 121 75 42
-7.026 -2.757 -0.67699999 88 70 58
-7.0120001 -2.7609999 -0.66600001 96 55 1
-7.0240002 -2.7709999 -0.67000002 107 76 29
-7.007 -2.8010001 -0.68099999 252 216 156
-7.0079999 -2.7980001 -0.68099999 248 236 196
-6.9780002 -2.8210001 -0.69800001 255 254 227
-6.9660001 -2.8369999 -0.70099998 176 130 70
-6.8569999 -2.918 -0.74000001 139 104 74
-6.8579998 -2.9189999 -0.74900001 145 126 109
-6.8660002 -2.905 -0.73299998 102 85 69
-6.869 -2.911 -0.73400003 132 98 70
-6.783 -3.0250001 -0.83399999 182 138 91
-6.7789998 -3.0209999 -0.83399999 173 101 42
-6.79 -3.0190001 -0.82300001 206 164 116
-6.974 -2.8410001 -0.69499999 255 227 179
-6.9809999 -2.8299999 -0.68400002 121 82 51
-6.9699998 -2.8239999 -0.671 135 94 62
-6.9650002 -2.829 -0.671 144 102 64
-6.9640002 -2.8239999 -0.67000002 48 25 9
-7.02 -2.7620001 -0.64899999 201 157 108
-7.0209999 -2.7720001 -0.634 139 109 73
-7.0279999 -2.7739999 -0.64399999 200 169 149
-7.0089998 -2.7590001 -0.65600002 184 159 154
-7.0120001 -2.76 -0.653 207 170 126
-6.7030001 -3.1070001 -1.034 136 107 91
-6.6999998 -3.1029999 -1.023 28 10 8
-6.704 -3.118 -1.05 83 64 49
-6.7150002 -3.1140001 -1.04 211 171 122
-6.902 -2.875 -0.71200001 88 63 43
-6.8969998 -2.878 -0.70499998 225 207 207
-6.914 -2.869 -0.70499998 87 65 44
-6.895 -2.8840001 -0.70499998 172 152 154
-6.9029999 -2.875 -0.71799999 50 28 17
-6.822 -2.984 -0.79100001 108 59 0
-6.8150001 -2.9960001 -0.80800003 133 73 19
-6.8109999 -2.9890001 -0.79799998 118 99 101
-6.8070002 -3.0250001 -0.82999998 162 125 96
-6.7979999 -3.0309999 -0.85299999 217 174 131
-6.9749999 -2.809 -0.69300002 255 211 133
-6.9650002 -2.8099999 -0.68400002 140 94 35
-6.9650002 -2.8099999 -0.68900001 254 222 161
-7.0209999 -2.78 -0.66299999 180 122 74
-7.013 -2.7650001 -0.66100001 252 235 179
-7.0180001 -2.7750001 -0.667 217 181 131
-6.9990001 -2.7820001 -0.68900001 112 81 50
-6.994 -2.783 -0.67900002 217 169 123
-6.994 -2.783 -0.69 66 54 38
-7.02 -2.78 -0.66900003 209 175 127
-6.9349999 -2.878 -0.70700002 255 231 191
-6.9359999 -2.8840001 -0.699 102 56 23
-6.9349999 -2.8789999 -0.704 216 187 147
-6.9390001 -2.8740001 -0.699 191 153 116
-6.921 -2.895 -0.70999998 249 215 143
-6.927 -2.895 -0.70200002 147 123 119
-6.9299998 -2.885 -0.70599997 234 199 133
-6.9250002 -2.8900001 -0.70499998 187 141 108
-6.7940001 -3.0439999 -0.85100001 155 122 91
-6.7919998 -3.049 -0.86500001 109 73 49
-6.7220001 -3.112 -1.031 136 108 86
-6.717 -3.1159999 -1.035 86 62 28
-6.7179999 -3.1129999 -1.035 80 48 27
-6.711 -3.1099999 -1.0089999 120 80 45
-6.7119999 -3.1099999 -1.018 54 41 7
-6.7160001 -3.112 -1.021 121 85 51
-6.7189999 -3.1110001 -1.018 176 129 85
-6.7189999 -3.1059999 -1.027 119 76 44
-6.724 -3.108 -1.023 103 75 53
-6.7179999 -3.1040001 -1.018 109 69 33
-6.98 -2.826 -0.68300003 34 5 0
-6.8920002 -2.8940001 -0.71399999 78 66 44
-6.9120002 -2.8740001 -0.70099998 164 146 144
-6.9879999 -2.7850001 -0.67199999 168 129 86
-6.993 -2.7839999 -0.676 133 90 48
-6.994 -2.7839999 -0.68099999 205 154 107
-6.7789998 -3.023 -0.83600003 178 104 43
-6.8010001 -3.043 -0.833 74 45 31
-6.8600001 -2.9200001 -0.741 131 110 89
-6.8039999 -3.016 -0.81699997 130 90 41
-6.7950001 -3.0109999 -0.82200003 135 74 7
-6.796 -3.0090001 -0.815 203 166 121
-6.8039999 -3.0039999 -0.815 95 44 0
-6.7389998 -3.0969999 -0.97100002 178 133 91
-6.743 -3.0929999 -0.95999998 180 126 82
-6.7399998 -3.0829999 -0.96100003 102 53 20
-6.7379999 -3.0940001 -0.96899998 174 129 88
-6.9679999 -2.8429999 -0.69400001 255 218 159
-6.9679999 -2.842 -0.68599999 115 87 63
-6.8990002 -2.931 -0.72299999 255 232 146
-6.8969998 -2.9330001 -0.72600001 241 217 121
-6.8959999 -2.9389999 -0.722 192 151 121
-6.9369998 -2.898 -0.69 135 101 74
-6.9250002 -2.892 -0.685 110 83 56
-6.9330001 -2.904 -0.68699998 99 85 85
-6.9289999 -2.9030001 -0.69 178 145 114
-6.9699998 -2.835 -0.69700003 255 225 181
-6.776 -3.03 -0.84799999 120 55 0
-6.7750001 -3.039 -0.85399997 185 146 105
-6.7779999 -3.036 -0.85000002 192 153 112
-7.0170002 -2.7590001 -0.64600003 92 73 56
-7.0159998 -2.757 -0.648 195 157 118
-7.0289998 -2.7739999 -0.65499997 136 92 55
-7.033 -2.7739999 -0.65100002 175 137 100
-7.0139999 -2.7679999 -0.63800001 189 150 111
-6.7069998 -3.1129999 -1.034 156 110 77
-6.7220001 -3.109 -1.01 162 118 81
-6.7270002 -3.1040001 -0.98799998 88 66 53
-6.724 -3.1059999 -1.003 220 186 148
-6.7259998 -3.105 -1.0140001 81 50 32
-6.723 -3.085 -0.96100003 65 54 26
-6.723 -3.0869999 -0.958 64 52 52
-6.7290001 -3.0769999 -0.94199997 63 56 30
-6.7340002 -3.086 -0.94099998 85 46 13
-6.7309999 -3.0829999 -0.95300001 126 107 111
-6.8439999 -2.967 -0.77100003 122 89 58
-6.8569999 -2.9690001 -0.75999999 253 190 95
-6.8610001 -2.9630001 -0.76099998 94 89 59
-6.829 -2.987 -0.79400003 254 203 120
-6.8340001 -2.974 -0.77700001 249 220 150
-6.8299999 -2.9849999 -0.78799999 220 170 99
-6.829 -2.98 -0.78299999 228 206 149
-6.8330002 -2.9809999 -0.78299999 224 185 130
-6.9829998 -2.8180001 -0.69099998 250 217 172
-7.0279999 -2.773 -0.66600001 247 224 180
-7.0170002 -2.76 -0.66600001 99 70 12
-7.013 -2.7650001 -0.66399997 255 234 167
-6.994 -2.7880001 -0.66600001 135 100 68
-6.994 -2.7839999 -0.685 239 182 129
-7.0289998 -2.77 -0.66900003 251 245 223
-7.0170002 -2.7809999 -0.67000002 209 172 127
-7 -2.7920001 -0.66799998 80 60 61
-7.0149999 -2.7850001 -0.67400002 231 208 164
-6.9039998 -2.914 -0.71600002 93 49 12
-6.9039998 -2.915 -0.713 77 42 14
-6.9219999 -2.9070001 -0.69400001 136 102 74
-6.8979998 -2.921 -0.708 124 96 59
-6.9159999 -2.8670001 -0.71200001 101 82 67
-6.9239998 -2.8670001 -0.70599997 125 117 78
-6.9159999 -2.8940001 -0.71600002 129 113 88
-6.7719998 -3.0580001 -0.88599998 95 60 41
-6.7670002 -3.0710001 -0.90499997 133 90 56
-6.7649999 -3.0769999 -0.89399999 96 70 57
-6.77 -3.046 -0.866 124 89 57
-6.756 -3.039 -0.86799997 84 68 35
-6.7719998 -3.0420001 -0.86199999 124 86 50
-6.7620001 -3.0380001 -0.86799997 55 42 51
-6.7789998 -3.049 -0.86299998 91 77 74
-6.9120002 -2.8740001 -0.69599998 209 190 186
-6.8959999 -2.8989999 -0.71799999 124 88 38
-6.908 -2.881 -0.72000003 122 104 94
-6.8909998 -2.9070001 -0.71700001 255 224 183
-6.9029999 -2.8859999 -0.713 250 218 169
-6.9920001 -2.8069999 -0.685 157 136 117
-6.9949999 -2.7980001 -0.65600002 132 99 66
-6.9899998 -2.803 -0.65499997 133 98 60
-6.9879999 -2.7909999 -0.67799997 255 219 180
-6.9949999 -2.7939999 -0.667 214 164 105
-6.882 -2.9200001 -0.741 255 218 167
-6.8720002 -2.931 -0.75199997 103 64 25
-6.8730001 -2.9289999 -0.75 116 71 30
-6.8769999 -2.9170001 -0.73400003 255 236 195
-6.8990002 -2.915 -0.71899998 243 178 94
-6.9039998 -2.9100001 -0.71200001 150 105 74
-6.8930001 -2.9059999 -0.70700002 141 98 47
-6.9000001 -2.9030001 -0.69999999 238 193 136
-6.8649998 -2.9119999 -0.73100001 109 88 93
-6.868 -2.914 -0.72600001 148 126 129
-6.9120002 -2.882 -0.71499997 171 151 126
-6.9130001 -2.881 -0.71399999 151 120 99
-6.9169998 -2.8829999 -0.71100003 171 151 144
-6.9050002 -2.8800001 -0.71700001 105 84 65
-6.8099999 -3.0079999 -0.81400001 78 39 10
-6.8270001 -3.0090001 -0.80699998 97 77 50
-6.8010001 -3.0179999 -0.82999998 169 125 78
-6.79 -3.0239999 -0.83099997 173 131 83
-6.8049998 -3.029 -0.82499999 81 54 37
-6.823 -2.9820001 -0.787 136 96 35
-6.8179998 -3.007 -0.80000001 255 223 175
-6.829 -2.997 -0.78799999 216 179 134
-6.8299999 -3.0139999 -0.80500001 150 93 40
-6.7319999 -3.0899999 -0.97600001 98 55 13
-6.73 -3.099 -0.98500001 169 131 95
-6.7280002 -3.082 -0.97000003 33 8 4
-6.7449999 -3.0840001 -0.94099998 209 143 85
-6.7410002 -3.089 -0.94800001 215 142 74
-6.7399998 -3.0880001 -0.94 153 98 57
-6.7459998 -3.082 -0.94099998 136 70 12
-6.737 -3.0799999 -0.94800001 108 94 94
-6.7449999 -3.072 -0.93099999 116 96 98
-6.7389998 -3.082 -0.95499998 88 43 10
-6.927 -2.8970001 -0.699 122 88 60
-6.967 -2.823 -0.699 88 76 62
-6.961 -2.8310001 -0.699 99 87 71
-6.9559999 -2.8280001 -0.69800001 151 115 65
-6.7779999 -3.027 -0.84200001 151 76 11
-6.7919998 -3.017 -0.833 128 87 55
-6.7979999 -3.026 -0.83999997 96 55 25
-6.7620001 -3.0380001 -0.87400001 111 98 105
-6.7690001 -3.0350001 -0.85900003 75 60 17
-6.7800002 -3.0320001 -0.85299999 125 64 1
-7.0289998 -2.757 -0.65600002 233 188 149
-7.0219998 -2.773 -0.64600003 142 124 114
-6.71 -3.1129999 -1.027 209 166 111
-6.717 -3.1159999 -1.028 175 123 66
-6.7199998 -3.115 -1.027 86 56 32
-6.7049999 -3.1129999 -1.0420001 78 47 19
-6.7150002 -3.1010001 -1.016 78 49 51
-6.7290001 -3.102 -1 71 29 0
-6.7259998 -3.0969999 -1 115 74 44
-6.7199998 -3.095 -0.97299999 127 95 70
-6.7150002 -3.0969999 -0.98400003 125 97 75
-6.7179999 -3.0929999 -0.97899997 56 41 18
-6.717 -3.0929999 -0.98400003 137 111 88
-6.7199998 -3.092 -0.98500001 92 51 21
-6.7360001 -3.0929999 -0.963 176 134 96
-6.73 -3.0829999 -0.95999998 38 19 15
-6.7389998 -3.073 -0.935 44 20 10
-6.7350001 -3.075 -0.94 94 45 5
-6.7810001 -3.0350001 -0.86299998 84 44 8
-6.7859998 -3.0380001 -0.86400002 85 42 8
-6.744 -3.0899999 -0.954 195 121 56
-6.8429999 -2.97 -0.76999998 111 71 36
-6.835 -2.997 -0.79400003 138 99 60
-6.8699999 -2.9619999 -0.75099999 139 77 0
-6.8319998 -2.9920001 -0.78799999 152 114 69
-6.8369999 -2.984 -0.77899998 107 73 36
-6.8509998 -2.96 -0.76700002 255 237 200
-6.8449998 -2.964 -0.76899999 133 102 71
-6.8559999 -2.957 -0.76099998 137 110 89
-6.8639998 -2.931 -0.75 97 79 59
-6.9829998 -2.8210001 -0.69300002 255 242 205
-7.0139999 -2.7520001 -0.66500002 112 66 17
-7.0019999 -2.7839999 -0.68199998 161 118 76
-7.0190001 -2.779 -0.67000002 215 173 125
-7.033 -2.7720001 -0.66399997 255 252 220
-7.0089998 -2.7950001 -0.67900002 254 232 185
-7.006 -2.799 -0.67299998 90 59 38
-6.9039998 -2.902 -0.704 117 84 77
-6.9190001 -2.8900001 -0.70999998 127 84 50
-6.915 -2.872 -0.71499997 108 96 70
-6.9310002 -2.8829999 -0.70599997 163 114 48
-6.9239998 -2.885 -0.70700002 156 108 68
-6.7859998 -3.0510001 -0.86000001 77 51 54
-6.777 -3.052 -0.86900002 57 26 31
-6.7709999 -3.05 -0.87199998 59 24 4
-6.928 -2.8900001 -0.69099998 139 106 99
-6.9229999 -2.8759999 -0.69300002 181 153 132
-6.9169998 -2.8740001 -0.69 174 137 93
-6.9809999 -2.813 -0.68599999 255 228 172
-6.9809999 -2.8199999 -0.68800002 235 202 149
-6.9970002 -2.803 -0.66600001 44 25 11
-6.9629998 -2.8180001 -0.68199998 146 132 132
-6.9920001 -2.79 -0.68300003 96 49 7
-6.9910002 -2.7939999 -0.67299998 115 100 103
-6.9790001 -2.809 -0.68699998 252 216 168
-6.967 -2.813 -0.68199998 192 180 180
-6.9850001 -2.802 -0.68400002 225 183 143
-6.9899998 -2.799 -0.67900002 145 86 26
-6.8790002 -2.9289999 -0.74699998 147 112 80
-6.8779998 -2.941 -0.75400001 75 56 49
-6.9060001 -2.891 -0.71799999 97 75 54
-6.8870001 -2.9189999 -0.73400003 227 205 147
-6.8889999 -2.9260001 -0.71899998 155 123 102
-6.8099999 -3.003 -0.81 174 115 57
-6.8239999 -3.0139999 -0.80699998 209 177 128
-6.7930002 -3.0309999 -0.83899999 127 91 55
-6.789 -3.0309999 -0.84100002 255 242 173
-6.7979999 -3.036 -0.84500003 183 155 131
-6.8000002 -3.029 -0.84399998 207 168 129
-6.7909999 -3.03 -0.85100001 190 175 168
-6.7870002 -3.0350001 -0.847 219 179 128
-6.7839999 -3.0350001 -0.84799999 192 132 72
-6.79 -3.0209999 -0.82800001 225 169 94
-6.796 -3.0220001 -0.82800001 213 160 94
-6.8010001 -3.0190001 -0.82099998 191 147 100
-6.8600001 -2.967 -0.75700003 244 174 79
-6.862 -2.9649999 -0.75599998 201 138 45
-6.8379998 -2.9660001 -0.76499999 97 66 37
-6.8410001 -2.964 -0.764 140 114 81
-6.8169999 -2.9979999 -0.796 60 25 19
-6.829 -2.9909999 -0.78299999 184 144 95
-6.835 -2.983 -0.76899999 64 42 28
-6.724 -3.0899999 -0.97899997 68 39 31
-6.7210002 -3.092 -0.98000002 82 41 11
-6.7540002 -3.0680001 -0.917 79 44 16
-6.7639999 -3.053 -0.89899999 192 136 85
-6.7540002 -3.073 -0.92299998 200 122 50
-6.743 -3.0829999 -0.94499999 188 120 59
-6.9200001 -2.898 -0.69300002 124 93 64
-6.9699998 -2.8210001 -0.69800001 67 38 20
-6.8649998 -2.957 -0.75 153 90 19
-6.8569999 -2.9579999 -0.74900001 167 124 81
-6.8699999 -2.95 -0.73799998 162 135 118
-6.7789998 -3.0250001 -0.838 137 63 2
-6.7779999 -3.0280001 -0.847 142 70 11
-6.7870002 -3.0369999 -0.861 194 172 135
-6.7909999 -3.0350001 -0.85600001 107 84 53
-6.79 -3.033 -0.84399998 255 219 164
-6.783 -3.026 -0.847 179 120 62
-7.0149999 -2.766 -0.64999998 161 134 117
-6.7179999 -3.1070001 -1.031 127 88 49
-6.7080002 -3.112 -1.031 131 86 63
-6.7220001 -3.112 -1.018 220 189 169
-6.7059999 -3.109 -1.025 103 58 25
-6.7080002 -3.1040001 -1.018 120 96 86
-6.7259998 -3.1040001 -0.99599999 198 173 143
-6.7090001 -3.1040001 -1.0140001 85 40 7
-6.7259998 -3.0899999 -0.96399999 115 83 62
-6.73 -3.092 -0.96200001 51 19 4
-6.7649999 -3.0680001 -0.89600003 86 36 3
-6.7280002 -3.085 -0.95700002 128 97 66
-6.783 -3.0420001 -0.86500001 247 229 181
-6.783 -3.039 -0.86500001 171 150 107
-6.7779999 -3.043 -0.87 242 225 173
-6.737 -3.0780001 -0.94199997 90 36 0
-6.7550001 -3.0469999 -0.88999999 103 90 100
-6.7649999 -3.04 -0.88099998 177 146 102
-6.7529998 -3.05 -0.88599998 85 36 6
-6.7550001 -3.053 -0.90100002 85 56 40
-6.7709999 -3.0469999 -0.88499999 94 51 17
-6.7729998 -3.0409999 -0.87199998 75 37 14
-6.7729998 -3.0450001 -0.87599999 105 64 32
-6.763 -3.05 -0.87300003 111 67 42
-6.7649999 -3.0610001 -0.88999999 175 131 102
-6.7740002 -3.0480001 -0.875 231 167 95
-6.8369999 -2.977 -0.77600002 108 63 30
-6.822 -3.0020001 -0.80599999 129 113 116
-7.0050001 -2.7939999 -0.67199999 148 85 32
-7.0019999 -2.8 -0.67699999 234 164 92
-6.9819999 -2.823 -0.69300002 255 249 213
-6.9829998 -2.8210001 -0.69 188 162 113
-7.0149999 -2.7539999 -0.66600001 153 112 56
-7.0300002 -2.756 -0.66299999 232 191 147
-7.033 -2.7620001 -0.66000003 248 231 188
-7.0279999 -2.756 -0.67199999 126 92 54
-7.007 -2.7880001 -0.67900002 96 61 21
-7.0349998 -2.767 -0.66500002 253 247 215
-7.0339999 -2.766 -0.662 255 251 218
-7.0349998 -2.77 -0.66399997 252 249 216
-6.9099998 -2.901 -0.69999999 147 116 87
-6.9530001 -2.835 -0.69599998 143 114 58
-6.9239998 -2.8729999 -0.71100003 190 156 118
-6.928 -2.865 -0.69700003 174 123 57
-6.934 -2.8789999 -0.69800001 123 93 59
-6.9850001 -2.806 -0.68300003 206 164 126
-6.9650002 -2.8180001 -0.67799997 107 74 39
-6.9689999 -2.8180001 -0.68000001 218 167 114
-6.9970002 -2.8039999 -0.68300003 255 217 145
-7.0050001 -2.8 -0.68199998 204 179 139
-7.0040002 -2.796 -0.685 205 163 89
-6.994 -2.7950001 -0.68300003 249 231 183
-6.9959998 -2.7869999 -0.67699999 190 156 119
-6.881 -2.9300001 -0.74299997 155 144 116
-6.8839998 -2.937 -0.73900002 108 79 61
-6.881 -2.9400001 -0.74299997 125 111 84
-6.9099998 -2.905 -0.71499997 255 196 103
-6.9109998 -2.9030001 -0.70999998 182 137 80
-6.8899999 -2.927 -0.72899997 150 103 59
-6.8920002 -2.911 -0.71600002 140 82 45
-6.8070002 -3.0090001 -0.80900002 117 81 33
-6.8070002 -3.0039999 -0.80400002 176 138 93
-6.8049998 -3.0050001 -0.80900002 88 59 41
-6.7989998 -3.0320001 -0.83399999 253 217 169
-6.7969999 -3.0209999 -0.83399999 137 85 35
-6.7909999 -3.023 -0.838 128 87 55
-6.7979999 -3.0109999 -0.82200003 122 68 0
-6.796 -3.013 -0.82499999 115 49 0
-6.7940001 -3.0150001 -0.829 122 58 14
-6.7859998 -3.0190001 -0.833 123 54 0
-6.7989998 -3.0209999 -0.82499999 255 200 126
-6.8779998 -2.948 -0.74199998 189 142 50
-6.8769999 -2.9360001 -0.722 190 153 100
-6.868 -2.928 -0.71600002 132 104 80
-6.8740001 -2.928 -0.72100002 194 163 108
-6.8600001 -2.9189999 -0.73500001 118 98 74
-6.8189998 -2.993 -0.79299998 55 24 3
-6.809 -3.0009999 -0.80000001 160 123 81
-6.8449998 -2.9719999 -0.75400001 113 63 28
-6.8410001 -2.97 -0.76300001 239 197 147
-6.8410001 -2.97 -0.76499999 97 62 34
-6.8400002 -2.97 -0.77100003 158 126 87
-6.836 -2.9719999 -0.77100003 107 74 20
-6.8049998 -3.003 -0.81099999 127 74 22
-6.809 -2.9909999 -0.79500002 95 86 57
-6.7290001 -3.099 -0.98799998 168 138 110
-6.7280002 -3.092 -0.97899997 121 76 34
-6.7270002 -3.0940001 -0.986 120 73 31
-6.7249999 -3.095 -0.98900002 110 61 20
-6.744 -3.0869999 -0.95099998 174 100 25
-6.7639999 -3.072 -0.90100002 75 64 62
-6.757 -3.0650001 -0.91000003 164 99 45
-6.9580002 -2.826 -0.69700003 176 140 90
-6.961 -2.8210001 -0.69400001 155 123 100
-6.8449998 -2.9679999 -0.76800001 252 235 191
-6.8720002 -2.9349999 -0.75199997 72 38 10
-6.8649998 -2.931 -0.75 229 183 124
-6.8460002 -2.9619999 -0.76499999 138 113 83
-6.8449998 -2.96 -0.755 150 124 101
-6.8499999 -2.95 -0.74199998 186 148 85
-6.7820001 -3.033 -0.847 157 118 75
-6.8039999 -3.0050001 -0.81599998 90 42 0
-6.7880001 -3.0220001 -0.83899999 116 49 0
-6.789 -3.0209999 -0.83700001 127 111 114
-6.7820001 -3.033 -0.85900003 109 54 13
-6.7789998 -3.0350001 -0.86000001 140 92 44
-7.0149999 -2.7639999 -0.648 112 76 44
-7.0149999 -2.777 -0.639 183 154 120
-7.033 -2.7679999 -0.653 41 19 0
-6.7080002 -3.1010001 -1.025 94 73 78
-6.7220001 -3.0999999 -1.008 101 51 16
-6.7129998 -3.098 -1.008 105 84 89
-6.7140002 -3.099 -1.003 102 79 85
-6.7259998 -3.086 -0.96899998 39 15 11
-6.7259998 -3.0969999 -0.98199999 60 24 10
-6.7259998 -3.095 -0.977 163 108 44
-6.7350001 -3.095 -0.97000003 182 142 107
-6.7270002 -3.089 -0.95700002 157 127 91
-6.7449999 -3.082 -0.93099999 186 133 91
-6.7420001 -3.0829999 -0.935 135 83 36
-6.737 -3.082 -0.93699998 117 54 10
-6.7329998 -3.0829999 -0.94499999 148 116 91
-6.7340002 -3.0829999 -0.95499998 110 58 21
-6.7779999 -3.0480001 -0.86900002 101 67 40
-6.7350001 -3.079 -0.94800001 66 35 15
-6.7340002 -3.0810001 -0.94999999 69 46 40
-6.7399998 -3.079 -0.93300003 159 110 67
-6.7399998 -3.076 -0.92900002 165 119 83
-6.7459998 -3.0610001 -0.90399998 104 64 39
-6.7509999 -3.0610001 -0.89499998 192 148 99
-6.7449999 -3.0680001 -0.90799999 203 151 104
-6.7709999 -3.053 -0.88800001 70 23 0
-6.7670002 -3.0550001 -0.88300002 76 53 37
-6.7610002 -3.0450001 -0.87400001 77 37 12
-6.7659998 -3.0569999 -0.89600003 151 118 87
-6.7729998 -3.0469999 -0.87699997 122 89 46
-6.7119999 -3.0999999 -0.99800003 44 30 4
-6.7220001 -3.1070001 -1.003 144 117 98
-6.836 -2.98 -0.77899998 245 204 148
-6.842 -2.9690001 -0.77100003 255 239 195
-6.8429999 -2.9660001 -0.76999998 126 92 64
-6.8270001 -2.9990001 -0.79699999 224 173 118
-6.809 -3.0090001 -0.81099999 212 181 116
-6.8150001 -3.007 -0.80599999 142 84 34
-6.98 -2.826 -0.69300002 255 252 223
-7.0159998 -2.7520001 -0.667 185 121 50
-6.9180002 -2.904 -0.699 81 67 67
-6.96 -2.832 -0.68300003 216 171 112
-6.908 -2.878 -0.70099998 140 120 121
-6.9320002 -2.872 -0.70099998 166 143 135
-6.7839999 -3.04 -0.85299999 117 68 27
-6.9510002 -2.845 -0.69700003 127 72 18
-6.9439998 -2.8440001 -0.69599998 250 195 138
-6.9369998 -2.8570001 -0.69700003 182 125 72
-6.9439998 -2.8499999 -0.69599998 146 91 34
-6.9380002 -2.855 -0.69499999 170 114 55
-6.9380002 -2.8710001 -0.699 205 172 131
-6.928 -2.8740001 -0.69599998 182 150 112
-6.928 -2.8770001 -0.69599998 244 197 151
-6.9320002 -2.8759999 -0.69700003 234 196 160
-6.9359999 -2.872 -0.699 232 183 140
-6.8920002 -2.905 -0.71600002 255 231 183
-6.9759998 -2.8180001 -0.68300003 146 79 26
-6.993 -2.8039999 -0.662 223 188 156
-6.8839998 -2.924 -0.736 215 179 145
-6.8629999 -2.9230001 -0.73199999 193 168 174
-6.8759999 -2.9530001 -0.73900002 168 133 95
-6.8740001 -2.951 -0.73500001 81 46 14
-6.881 -2.9530001 -0.73000002 64 38 21
-6.8800001 -2.95 -0.73500001 90 58 33
-6.8959999 -2.9159999 -0.72000003 236 178 94
-6.9000001 -2.9100001 -0.71700001 249 175 86
-6.8709998 -2.9230001 -0.722 173 133 84
-6.8790002 -2.918 -0.71799999 227 181 131
-6.9029999 -2.9089999 -0.71600002 230 184 151
-6.9029999 -2.908 -0.71600002 255 188 97
-6.8049998 -3.0120001 -0.81300002 150 114 64
-6.7839999 -3.03 -0.84299999 237 196 150
-6.8039999 -3.036 -0.83899999 164 138 111
-6.7880001 -3.0150001 -0.82700002 146 80 48
-6.816 -2.9920001 -0.79699999 180 108 24
-6.8720002 -2.957 -0.74800003 115 57 0
-6.8699999 -2.9419999 -0.72399998 57 40 32
-6.8829999 -2.9389999 -0.72399998 152 141 139
-6.8839998 -2.9449999 -0.72799999 214 179 160
-6.8590002 -2.927 -0.73799998 211 156 91
-6.8660002 -2.938 -0.73100001 247 206 162
-6.849 -2.948 -0.73699999 235 194 128
-6.8119998 -2.9960001 -0.796 40 8 0
-6.836 -2.9719999 -0.76599997 225 181 132
-6.8039999 -3.0050001 -0.81099999 170 116 54
-6.8109999 -2.9960001 -0.80299997 136 72 11
-6.8109999 -2.9990001 -0.80599999 168 113 48
-6.8039999 -3.0150001 -0.81999999 253 214 139
-6.8010001 -3.0090001 -0.81800002 124 76 12
-6.7199998 -3.0999999 -0.99199998 66 34 19
-6.724 -3.1010001 -0.98799998 112 95 88
-6.7199998 -3.0929999 -0.98900002 47 22 18
-6.7189999 -3.095 -0.99199998 120 98 101
-6.7610002 -3.0599999 -0.903 179 118 61
-6.7589998 -3.063 -0.90600002 188 127 72
-6.7620001 -3.069 -0.90700001 137 91 58
-6.96 -2.8210001 -0.68800002 185 146 79
-6.8470001 -2.967 -0.76499999 250 229 184
-6.8709998 -2.938 -0.75300002 132 98 52
-6.8709998 -2.9289999 -0.74699998 110 67 32
-6.8559999 -2.9619999 -0.75300002 150 107 62
-6.8670001 -2.951 -0.74800003 142 79 8
-6.783 -3.0320001 -0.85299999 160 101 43
-6.7690001 -3.039 -0.86699998 109 86 45
-6.7740002 -3.039 -0.866 136 96 60
-6.7859998 -3.0209999 -0.83600003 136 66 7
-6.783 -3.026 -0.84299999 133 64 0
-7.0149999 -2.7709999 -0.639 150 123 93
-7.033 -2.7709999 -0.65799999 110 88 67
-6.71 -3.1110001 -1.025 194 139 74
-6.7090001 -3.112 -1.028 93 51 29
-6.711 -3.1040001 -1.01 85 40 7
-6.7119999 -3.1010001 -1.005 57 34 26
-6.723 -3.092 -0.97299999 136 102 75
-6.73 -3.086 -0.95300001 153 120 87
-6.743 -3.075 -0.92400002 120 67 23
-6.75 -3.0769999 -0.93000001 203 128 63
-6.7270002 -3.0929999 -0.96700001 186 128 82
-6.7399998 -3.0780001 -0.93199998 167 111 74
-6.7389998 -3.0780001 -0.93300003 123 69 31
-6.75 -3.056 -0.90200001 132 112 121
-6.7340002 -3.0739999 -0.93400002 38 13 8
-6.7610002 -3.0550001 -0.88599998 132 70 31
-6.7610002 -3.049 -0.89099997 124 72 24
-6.7639999 -3.052 -0.87800002 115 78 52
-6.7740002 -3.0439999 -0.87400001 255 238 189
-6.7199998 -3.1059999 -1.002 89 56 37
-6.7220001 -3.1029999 -0.99599999 47 25 4
-6.717 -3.096 -0.99400002 38 8 0
-6.8130002 -3.006 -0.81 86 47 18
-6.98 -2.826 -0.69 255 243 208
-7.0320001 -2.7609999 -0.66299999 244 234 198
-6.9050002 -2.891 -0.69400001 203 158 103
-6.8990002 -2.8859999 -0.70200002 222 182 130
-6.9549999 -2.835 -0.685 167 135 88
-6.9510002 -2.8310001 -0.69099998 176 135 69
-6.9520001 -2.8329999 -0.69099998 250 212 149
-6.961 -2.8380001 -0.68800002 210 152 102
-6.7870002 -3.0380001 -0.85100001 123 90 57
-6.9320002 -2.8599999 -0.69700003 149 96 46
-6.921 -2.872 -0.69700003 168 149 145
-6.928 -2.865 -0.69999999 255 217 147
-6.9310002 -2.882 -0.69599998 114 78 46
-6.9239998 -2.8859999 -0.69199997 87 59 45
-6.8790002 -2.9170001 -0.73199999 249 230 190
-6.8740001 -2.9189999 -0.73500001 251 192 126
-6.8829999 -2.9449999 -0.73799998 255 229 119
-6.8920002 -2.9089999 -0.71799999 241 199 159
-6.9050002 -2.9059999 -0.71600002 224 161 68
-6.7870002 -3.026 -0.83600003 236 177 117
-6.802 -3.03 -0.83700001 127 92 62
-6.7950001 -3.013 -0.81900001 211 170 124
-6.8200002 -2.9949999 -0.79699999 80 53 36
-6.8179998 -2.9920001 -0.79299998 253 198 115
-6.849 -2.95 -0.73699999 255 232 157
-6.8400002 -2.9489999 -0.74000001 254 220 157
-6.8800001 -2.941 -0.72500002 120 65 26
-6.8319998 -2.9760001 -0.773 181 151 81
-6.8070002 -3.0020001 -0.80800003 112 60 12
-6.7290001 -3.102 -0.98799998 174 140 112
-6.723 -3.0969999 -0.98299998 158 106 56
-6.7540002 -3.0650001 -0.91100001 182 147 117
-6.7509999 -3.0669999 -0.91500002 234 187 135
-6.7319999 -3.086 -0.949 170 134 98
-6.8670001 -2.937 -0.74900001 118 82 48
-6.8600001 -2.928 -0.74299997 225 204 211
-6.79 -3.027 -0.84200001 89 50 21
-6.777 -3.0369999 -0.86299998 111 69 29
-6.73 -3.0899999 -0.95899999 145 93 45
-6.7550001 -3.063 -0.90700001 73 28 0
-6.7610002 -3.0710001 -0.90799999 71 59 33
-6.7589998 -3.0710001 -0.91100001 169 121 85
-6.7620001 -3.069 -0.89899999 156 98 60
-6.7509999 -3.075 -0.92699999 203 124 57
-6.7389998 -3.079 -0.94099998 54 30 20
-6.7290001 -3.0940001 -0.972 193 145 97
-6.7270002 -3.0940001 -0.97299999 223 172 115
-6.7480001 -3.0639999 -0.91000003 142 100 58
-6.7540002 -3.052 -0.89600003 114 99 106
-6.7389998 -3.0710001 -0.926 100 58 33
-6.7410002 -3.0699999 -0.92400002 117 97 99
-6.7449999 -3.073 -0.92000002 104 56 16
-6.7420001 -3.0699999 -0.92299998 71 30 2
-6.7470002 -3.0699999 -0.91399997 183 137 101
-6.7579999 -3.0569999 -0.89099997 163 109 63
-6.763 -3.049 -0.88999999 177 117 63
-6.717 -3.102 -0.99800003 47 25 2
-6.7179999 -3.098 -0.99000001 115 88 67
-7.0310001 -2.767 -0.66900003 255 251 224
-6.8930001 -2.8900001 -0.70200002 185 145 93
-6.908 -2.8800001 -0.69999999 152 121 92
-6.9510002 -2.8469999 -0.69700003 105 51 4
-6.9510002 -2.8310001 -0.69599998 86 53 2
-6.783 -3.043 -0.85600001 101 62 33
-6.7810001 -3.033 -0.85600001 132 74 24
-6.9569998 -2.846 -0.69800001 255 209 147
-6.9359999 -2.862 -0.699 99 44 0
-6.927 -2.8800001 -0.69499999 182 133 75
-6.9299998 -2.881 -0.69599998 146 103 61
-6.9580002 -2.8310001 -0.68699998 203 158 103
-6.868 -2.9389999 -0.727 243 204 147
-6.8930001 -2.925 -0.72500002 167 118 62
-6.816 -2.9820001 -0.78600001 91 56 18
-6.8150001 -2.9849999 -0.78600001 108 85 69
-6.8759999 -2.9530001 -0.745 122 65 0
-6.8639998 -2.947 -0.73100001 115 68 38
-6.8829999 -2.941 -0.73799998 249 228 109
-6.823 -2.9820001 -0.78500003 176 140 78
-6.8340001 -2.9760001 -0.76999998 185 141 92
-6.8309999 -2.9790001 -0.77399999 200 156 109
-6.8080001 -3.0009999 -0.80599999 138 86 29
-6.7329998 -3.089 -0.95099998 121 64 19
-6.8499999 -2.964 -0.75599998 227 187 136
-6.8579998 -2.9449999 -0.74599999 222 187 119
-6.8639998 -2.9460001 -0.74800003 252 229 162
-6.7210002 -3.095 -0.977 87 60 31
-6.7319999 -3.089 -0.95599997 168 117 62
-6.7519999 -3.072 -0.91399997 165 112 70
-6.7540002 -3.069 -0.90899998 162 107 66
-6.7529998 -3.0639999 -0.903 90 42 0
-6.7509999 -3.066 -0.90700001 200 143 88
-6.7519999 -3.063 -0.89700001 129 85 40
-6.7470002 -3.059 -0.90200001 68 27 5
-6.7480001 -3.066 -0.91399997 177 141 105
-6.7449999 -3.0680001 -0.92000002 112 67 34
-6.743 -3.0710001 -0.926 79 36 1
-6.75 -3.0769999 -0.91900003 164 112 72
-6.7519999 -3.0699999 -0.91900003 188 143 101
-6.7589998 -3.0550001 -0.88800001 144 83 38
-6.7709999 -3.049 -0.88099998 124 81 38
-6.77 -3.0539999 -0.88 131 93 56
-6.7639999 -3.052 -0.89300001 204 147 80
-6.914 -2.8870001 -0.68900001 207 161 109
-6.928 -2.8670001 -0.69700003 117 62 0
-6.8730001 -2.934 -0.72100002 252 220 161
-6.8839998 -2.918 -0.72799999 253 232 185
-6.823 -2.9820001 -0.77700001 74 51 35
-6.8260002 -2.9860001 -0.78200001 234 194 145
-6.869 -2.9489999 -0.73000002 175 136 79
-6.8649998 -2.944 -0.73199999 215 175 124
-6.809 -2.9979999 -0.80000001 38 8 0
-6.8639998 -2.9349999 -0.73500001 205 166 111
-6.8499999 -2.9590001 -0.76200002 146 119 92
-6.8559999 -2.9389999 -0.74400002 179 156 162
-6.7249999 -3.095 -0.97500002 138 81 38
-6.7519999 -3.0769999 -0.92400002 161 121 86
-6.7470002 -3.0710001 -0.91600001 112 68 31
-6.7659998 -3.0550001 -0.884 62 24 1
-6.7150002 -3.0969999 -0.99699998 68 54 51
-6.9060001 -2.885 -0.69999999 136 108 87
-6.8839998 -2.9159999 -0.72299999 255 233 197
-6.8270001 -2.993 -0.78600001 61 24 16
-6.8070002 -3.0009999 -0.80400002 41 11 1
-6.848 -2.96 -0.759 153 129 105
-6.7129998 -3.099 -1.0140001 94 55 22
-6.8850002 -2.915 -0.72100002 149 123 108
-6.8660002 -2.948 -0.73799998 255 222 170
-6.7459998 -3.0699999 -0.92199999 142 106 72
0 0 0 1 0 0 0 1 0 0 0 1 0 0 0 0 0 705 1 0 0
