ply
format ascii 1.0
comment PCL generated
element vertex 394
property float x
property float y
property float z
property uchar red
property uchar green
property uchar blue
element camera 1
property float view_px
property float view_py
property float view_pz
property float x_axisx
property float x_axisy
property float x_axisz
property float y_axisx
property float y_axisy
property float y_axisz
property float z_axisx
property float z_axisy
property float z_axisz
property float focal
property float scalex
property float scaley
property float centerx
property float centery
property int viewportx
property int viewporty
property float k1
property float k2
end_header
-2.3239999 14.98 -0.77399999 139 54 0
-2.3280001 14.973 -0.77600002 121 49 0
-2.3340001 14.973 -0.77499998 125 71 35
-2.3150001 14.981 -0.77499998 151 111 76
-2.368 15.005 -0.99699998 131 66 26
-2.369 15.008 -0.99599999 126 60 25
-2.3499999 15.012 -1.006 131 43 5
-2.3740001 15.005 -0.995 42 26 27
-2.3759999 15.02 -0.83899999 124 48 0
-2.3740001 15.025 -0.82999998 116 75 43
-2.3699999 15.013 -0.83399999 94 53 21
-2.3629999 15.033 -0.829 94 41 1
-2.3599999 15.041 -0.83099997 137 74 31
-2.3710001 15.043 -0.829 120 75 34
-2.3699999 15.028 -0.82599998 137 78 34
-2.3770001 15.039 -0.83399999 122 45 3
-2.3599999 15.001 -0.93800002 98 47 18
-2.3610001 15.005 -0.935 119 66 35
-2.3610001 15.005 -0.92699999 91 56 34
-2.3610001 15.007 -0.93900001 86 52 27
-2.369 15.029 -0.838 39 27 3
-2.3510001 15.03 -0.82999998 137 93 66
-2.365 15.021 -0.82800001 208 120 31
-2.346 14.984 -0.796 255 185 109
-2.345 14.987 -0.78899997 94 29 1
-2.345 14.979 -0.78600001 228 157 79
-2.3710001 15.016 -0.98699999 148 84 56
-2.3139999 14.987 -0.78299999 235 147 60
-2.3150001 14.993 -0.78799999 101 66 46
-2.3199999 14.993 -0.77399999 158 79 22
-2.3169999 14.978 -0.78299999 130 86 49
-2.3169999 14.986 -0.79799998 128 81 37
-2.316 14.992 -0.79100001 147 90 99
-2.3599999 15.034 -0.94999999 127 50 4
-2.369 15.03 -0.97100002 125 82 40
-2.3499999 15.022 -0.95700002 92 42 5
-2.3559999 15.013 -0.954 118 64 30
-2.3610001 15.018 -0.93800002 133 54 15
-2.3110001 15.025 -0.83700001 58 31 12
-2.3010001 15.009 -0.83899999 47 24 8
-2.2920001 15.017 -0.82700002 109 53 64
-2.302 15.013 -0.85000002 127 92 70
-2.3299999 14.996 -0.829 91 62 54
-2.3329999 15.002 -0.84299999 134 48 0
-2.329 14.99 -0.82800001 153 91 42
-2.3380001 14.995 -0.83600003 154 66 26
-2.339 15.017 -0.83099997 75 47 43
-2.3340001 15.008 -0.81999999 238 169 255
-2.3280001 15.014 -0.81699997 78 58 34
-2.3399999 14.999 -0.80299997 116 70 21
-2.345 15.004 -0.82499999 204 117 40
-2.339 14.998 -0.80699998 211 156 115
-2.3440001 14.993 -0.78500003 114 44 8
-2.3380001 14.992 -0.778 120 72 34
-2.342 14.985 -0.778 107 87 60
-2.359 15.009 -0.82800001 171 78 19
-2.2820001 14.998 -0.86000001 99 46 56
-2.2780001 14.999 -0.84899998 115 83 60
-2.2850001 15.004 -0.85500002 81 57 57
-2.339 15.025 -0.88200003 89 37 13
-2.3299999 15.023 -0.87 70 25 0
-2.349 15.034 -0.87 91 50 20
-2.3329999 15.031 -0.889 105 40 8
-2.2980001 14.988 -0.84500003 150 75 20
-2.3050001 14.996 -0.852 134 89 58
-2.3069999 14.989 -0.86500001 96 31 3
-2.2950001 15.003 -0.86199999 117 75 50
-2.325 14.977 -0.77499998 244 162 88
-2.2820001 14.981 -0.85000002 135 91 62
-2.286 14.978 -0.84600002 125 62 19
-2.273 14.989 -0.838 128 47 0
-2.2820001 14.983 -0.83499998 131 86 55
-2.369 15.031 -0.972 60 48 36
-2.375 15.021 -0.97799999 108 76 55
-2.3740001 15.04 -0.98100001 74 13 0
-2.3759999 15.041 -0.98400003 73 51 54
-2.3740001 15.048 -0.97799999 60 2 0
-2.3469999 15.016 -0.98100001 103 65 29
-2.3399999 15 -0.97799999 100 46 12
-2.3499999 15.01 -0.97600001 100 64 40
-2.3299999 15.006 -0.995 216 121 55
-2.273 14.99 -0.84799999 157 89 44
-2.342 15.032 -0.91299999 90 27 0
-2.346 15.029 -0.89399999 75 29 3
-2.3499999 15.033 -0.89300001 103 58 25
-2.326 14.993 -0.77399999 108 77 74
-2.335 14.986 -0.77399999 170 88 14
-2.359 15.004 -0.94499999 133 55 16
-2.3570001 14.999 -0.92799997 175 92 40
-2.3629999 15.035 -0.94199997 126 78 32
-2.3670001 15.04 -0.94300002 83 52 21
-2.289 15.005 -0.838 158 91 184
-2.2920001 15.004 -0.85000002 77 42 12
-2.3169999 14.993 -0.796 97 79 75
-2.3210001 14.98 -0.80199999 233 147 60
-2.3 14.992 -0.83600003 90 49 19
-2.2969999 14.985 -0.83499998 216 136 73
-2.336 14.98 -0.78500003 221 146 53
-2.3440001 15.03 -0.84299999 123 51 13
-2.3329999 15.033 -0.83200002 113 60 18
-2.3410001 15.034 -0.83200002 94 50 13
-2.332 15.035 -0.83099997 140 98 73
-2.312 15.031 -0.84200001 90 55 36
-2.3399999 14.994 -0.87099999 135 53 0
-2.342 14.998 -0.86199999 143 61 3
-2.349 14.994 -0.86900002 100 77 71
-2.348 14.997 -0.85600001 115 39 5
-2.335 14.99 -0.82700002 107 55 68
-2.3410001 14.993 -0.81699997 169 89 40
-2.3380001 14.993 -0.82599998 155 66 10
-2.3629999 15.03 -0.82999998 110 69 39
-2.3529999 15.023 -0.83099997 110 49 4
-2.3469999 15.022 -0.833 80 40 14
-2.3559999 15.018 -0.82999998 79 46 29
-2.346 14.988 -0.80299997 210 152 114
-2.346 14.983 -0.80400002 106 36 0
-2.3329999 15.001 -0.79100001 49 25 21
-2.3210001 14.991 -0.78299999 105 60 41
-2.3429999 14.999 -0.82499999 159 90 51
-2.3529999 15.012 -0.82800001 197 115 68
-2.329 15.01 -0.93400002 107 64 30
-2.3299999 15.009 -0.94400001 107 81 56
-2.325 15.022 -0.92799997 76 49 32
-2.332 14.995 -0.94099998 82 47 25
-2.329 15.003 -0.95499998 111 65 29
-2.336 15.022 -0.89999998 121 74 46
-2.2980001 14.988 -0.85100001 128 96 73
-2.3080001 15.011 -0.84500003 87 33 46
-2.276 14.996 -0.83600003 89 68 51
-2.3310001 14.978 -0.80199999 228 143 50
-2.323 14.987 -0.80500001 118 95 81
-2.326 14.989 -0.81300002 230 143 64
-2.322 14.98 -0.792 250 165 72
-2.325 14.98 -0.79799998 102 34 0
-2.358 15.021 -0.83099997 135 99 77
-2.339 15.003 -0.847 119 36 6
-2.368 15.025 -0.977 85 38 18
-2.3440001 15.031 -0.96100003 106 51 20
-2.3440001 15.034 -0.93699998 79 62 55
-2.345 15.022 -0.94400001 88 48 22
-2.369 15.008 -0.98900002 128 65 22
-2.3310001 14.999 -0.977 111 54 11
-2.326 15.012 -0.995 103 44 2
-2.3399999 14.997 -0.96100003 121 58 14
-2.2809999 14.984 -0.85699999 157 90 48
-2.326 15.011 -0.98699999 125 70 29
-2.3310001 15.014 -0.97299999 90 56 31
-2.362 15.038 -0.93599999 104 42 53
-2.325 15.029 -0.89999998 115 73 48
-2.325 15.038 -0.91900003 89 42 12
-2.323 15.03 -0.89899999 147 76 206
-2.3299999 15.029 -0.88800001 61 34 13
-2.322 15.026 -0.87900001 46 27 12
-2.313 15.032 -0.89899999 48 18 7
-2.3150001 15.028 -0.903 148 80 31
-2.323 15.028 -0.92900002 163 98 44
-2.326 15.036 -0.93099999 134 74 22
-2.309 15.028 -0.89300001 89 41 5
-2.3280001 15.028 -0.935 87 38 8
-2.326 15.032 -0.93099999 113 57 22
-2.319 14.991 -0.77499998 147 70 16
-2.3699999 15.012 -0.98100001 104 43 12
-2.336 14.994 -0.93800002 173 145 124
-2.3340001 14.999 -0.93599999 77 39 3
-2.2920001 15.007 -0.85500002 151 106 83
-2.2780001 14.991 -0.83499998 137 61 3
-2.2780001 14.998 -0.83200002 221 134 67
-2.2820001 15.002 -0.83099997 117 43 4
-2.286 14.991 -0.82700002 122 72 49
-2.29 15.002 -0.82999998 106 72 60
-2.3 15.001 -0.83200002 172 81 24
-2.2869999 14.983 -0.83399999 158 80 16
-2.3010001 14.993 -0.847 113 74 45
-2.293 14.991 -0.83099997 180 86 24
-2.3239999 14.996 -0.81199998 182 112 63
-2.286 14.988 -0.83099997 157 113 78
-2.3310001 15.005 -0.81199998 158 119 78
-2.3239999 15.006 -0.81099999 125 58 15
-2.3440001 14.985 -0.787 105 58 28
-2.3239999 15.035 -0.83200002 95 70 66
-2.322 15.027 -0.82099998 74 48 31
-2.312 15.032 -0.81800002 65 44 23
-2.313 15.037 -0.838 166 98 59
-2.3299999 15.022 -0.82800001 164 82 32
-2.325 15.033 -0.85799998 61 35 36
-2.322 15.031 -0.85100001 80 43 16
-2.325 15.029 -0.85500002 102 70 47
-2.348 14.996 -0.866 112 37 0
-2.3570001 15.005 -0.83499998 179 93 8
-2.3570001 15.002 -0.85799998 59 36 18
-2.339 14.989 -0.81099999 167 100 48
-2.3429999 15.031 -0.833 190 128 89
-2.322 15.001 -0.80599999 121 49 9
-2.3210001 14.999 -0.80699998 183 142 112
-2.316 15.007 -0.815 129 87 63
-2.3429999 14.99 -0.79699999 54 34 7
-2.336 14.992 -0.77700001 101 87 76
-2.3410001 14.995 -0.78899997 89 53 31
-2.312 15.023 -0.88300002 100 60 35
-2.339 15.021 -0.86699998 91 26 6
-2.3410001 15.022 -0.86000001 157 87 203
-2.3599999 15.022 -0.88599998 129 65 30
-2.359 15.026 -0.90200001 94 33 2
-2.3529999 15.033 -0.87800002 100 55 36
-2.348 14.997 -0.89600003 127 46 0
-2.349 15 -0.90399998 100 55 14
-2.339 14.996 -0.89899999 95 54 24
-2.3429999 14.996 -0.89499998 89 40 7
-2.2909999 14.983 -0.84600002 146 90 41
-2.2920001 14.985 -0.85799998 122 44 5
-2.3099999 15.022 -0.89399999 80 68 46
-2.319 15.017 -0.90700001 80 23 6
-2.3199999 15 -0.88999999 91 58 39
-2.3239999 15.013 -0.91500002 78 51 34
-2.322 15.027 -0.91799998 45 26 12
-2.326 15.006 -0.90799999 101 54 26
-2.3280001 14.998 -0.898 58 20 0
-2.3329999 15.003 -0.83999997 98 63 43
-2.3529999 14.998 -0.93000001 184 88 11
-2.3299999 14.983 -0.80900002 125 96 90
-2.3299999 14.978 -0.77499998 145 95 58
-2.316 15.009 -0.84299999 159 68 15
-2.316 15.009 -0.85299999 149 63 16
-2.358 15.03 -0.83999997 128 54 9
-2.3610001 15.036 -0.85000002 111 62 21
-2.3110001 14.994 -0.86400002 80 52 31
-2.319 15.004 -0.88599998 137 69 30
-2.3139999 15.005 -0.87099999 115 44 0
-2.323 15.001 -0.88200003 128 71 42
-2.3699999 15.023 -0.97600001 113 81 66
-2.369 15.021 -0.98000002 172 123 82
-2.3469999 15.017 -1.005 154 118 92
-2.346 15.016 -1.006 97 41 16
-2.3540001 15.019 -0.97000003 115 60 21
-2.3510001 15.011 -0.96499997 50 20 0
-2.3310001 15.012 -0.98900002 115 79 53
-2.335 15.012 -0.95599997 114 64 27
-2.3499999 15.008 -0.96600002 159 78 31
-2.3369999 15.015 -0.977 136 100 74
-2.3239999 15.004 -0.87099999 131 84 58
-2.3299999 15.004 -0.866 94 42 5
-2.339 14.996 -0.89300001 117 34 0
-2.3429999 15.005 -0.93000001 103 67 35
-2.3299999 15.004 -0.93000001 71 46 42
-2.323 15.029 -0.92199999 113 57 6
-2.3469999 15.037 -0.92900002 157 108 75
-2.362 15.038 -0.94199997 154 72 25
-2.3139999 15.024 -0.88499999 62 24 3
-2.3199999 14.991 -0.78100002 114 86 65
-2.349 15.003 -0.94599998 137 55 8
-2.3440001 15.003 -0.954 92 36 0
-2.3310001 14.999 -0.95200002 143 66 22
-2.3380001 14.996 -0.954 52 31 12
-2.332 14.998 -0.958 142 63 6
-2.2850001 15.004 -0.83499998 66 42 40
-2.2839999 14.989 -0.829 195 133 82
-2.3050001 15.003 -0.84200001 121 70 43
-2.329 14.994 -0.82300001 197 110 39
-2.323 15.03 -0.84100002 54 33 16
-2.312 15.027 -0.81900001 129 57 9
-2.3080001 15.016 -0.824 167 78 22
-2.313 15.027 -0.81800002 117 62 31
-2.3110001 15.014 -0.81800002 129 54 0
-2.316 15.012 -0.81699997 140 97 65
-2.3299999 15.013 -0.82300001 126 75 32
-2.3499999 15.004 -0.83700001 104 58 22
-2.3299999 14.999 -0.79900002 188 124 200
-2.3710001 15.023 -0.82999998 188 93 35
-2.3269999 14.995 -0.79400003 58 28 26
-2.332 14.979 -0.79299998 248 165 69
-2.336 14.981 -0.79500002 196 122 27
-2.3540001 15.034 -0.87300003 50 27 19
-2.289 14.982 -0.85299999 166 87 31
-2.326 15.004 -0.85299999 108 62 28
-2.316 15.008 -0.85100001 113 37 1
-2.3280001 14.987 -0.81300002 90 62 40
-2.3599999 15.013 -0.84799999 121 40 0
-2.362 15.011 -0.85900003 112 56 23
-2.3440001 15.024 -0.85000002 92 49 17
-2.349 15.022 -0.861 57 28 12
-2.3069999 15.012 -0.86000001 66 33 18
-2.319 15.022 -0.87900001 143 73 195
-2.323 15.012 -0.90499997 92 26 0
-2.3099999 14.993 -0.866 170 118 79
-2.3039999 15.003 -0.861 90 36 49
-2.3110001 15.021 -0.89200002 160 93 51
-2.345 15.032 -0.97000003 106 87 80
-2.348 15.009 -0.97000003 167 83 23
-2.3510001 15.013 -0.97000003 124 80 43
-2.3329999 15.003 -0.96799999 122 99 91
-2.3299999 15.011 -0.96399999 157 83 38
-2.336 15.013 -0.96200001 80 32 9
-2.342 15.002 -0.96799999 94 41 51
-2.3399999 15 -0.96899998 101 41 7
-2.3380001 15.001 -0.97399998 76 52 28
-2.3469999 14.997 -0.89300001 160 75 21
-2.329 14.999 -0.88599998 120 45 5
-2.3380001 14.997 -0.89600003 121 40 0
-2.358 15.011 -0.92900002 80 60 51
-2.365 15.023 -0.90499997 90 29 0
-2.3599999 15.02 -0.917 77 19 0
-2.362 15.021 -0.91100001 113 82 62
-2.3529999 15.024 -0.91299999 86 42 15
-2.365 15.019 -0.91900003 86 26 0
-2.3659999 15.018 -0.90499997 100 57 22
-2.3269999 15.008 -0.92000002 73 37 13
-2.329 15.011 -0.92500001 85 48 21
-2.322 15.028 -0.91900003 145 74 206
-2.3440001 15.037 -0.92900002 54 26 15
-2.3399999 14.999 -0.94499999 148 112 80
-2.3499999 15.001 -0.94300002 57 30 3
-2.3310001 14.998 -0.96700001 133 55 6
-2.296 15.012 -0.829 130 89 61
-2.2809999 15.004 -0.833 119 51 6
-2.323 15.027 -0.84600002 112 30 0
-2.3 15.012 -0.82599998 161 71 9
-2.3329999 15.005 -0.81699997 195 132 97
-2.319 15.022 -0.82200003 120 75 46
-2.312 15.025 -0.829 162 80 20
-2.312 15.033 -0.83700001 47 29 5
-2.3369999 14.986 -0.80599999 210 130 43
-2.3640001 15.033 -0.84299999 124 57 15
-2.3629999 15.03 -0.84799999 133 74 34
-2.365 15.039 -0.83700001 116 44 0
-2.3280001 14.976 -0.79000002 175 114 60
-2.3310001 15.019 -0.94199997 98 59 20
-2.3280001 15.02 -0.93300003 117 53 17
-2.3599999 15.022 -0.87 110 42 3
-2.3599999 15.016 -0.88599998 90 26 0
-2.3540001 15.017 -0.87800002 120 94 81
-2.335 15 -0.90399998 77 51 36
-2.3429999 15.006 -0.90799999 84 38 12
-2.299 14.996 -0.85900003 91 45 22
-2.345 15.004 -0.84399998 169 80 22
-2.323 15.002 -0.86199999 223 141 91
-2.365 15.015 -0.90100002 114 64 31
-2.3610001 15.009 -0.91399997 102 50 13
-2.358 15.008 -0.92199999 188 97 16
-2.3570001 15.01 -0.89899999 88 29 0
-2.3380001 14.991 -0.81599998 225 141 68
-2.369 15.02 -0.847 122 62 26
-2.313 15.02 -0.88 103 47 60
-2.322 15.013 -0.86900002 101 57 28
-2.3169999 15.01 -0.86799997 93 29 1
-2.309 15.008 -0.86199999 124 79 58
-2.3099999 14.997 -0.86000001 162 81 38
-2.319 15.004 -0.85699999 148 70 31
-2.3210001 15.016 -0.89700001 148 83 41
-2.3429999 15.029 -0.96899998 151 70 14
-2.3410001 15.02 -0.95499998 79 64 61
-2.3299999 15.008 -0.96200001 123 85 49
-2.332 15.003 -0.94400001 124 48 0
-2.339 14.998 -0.884 111 66 33
-2.362 15.016 -0.85299999 65 29 5
-2.3529999 15.021 -0.92400002 153 99 65
-2.346 15.01 -0.91600001 106 50 63
-2.2909999 15.003 -0.84799999 130 78 38
-2.3340001 15.002 -0.81400001 108 67 39
-2.3269999 15.008 -0.838 108 60 22
-2.322 15.003 -0.82800001 100 67 50
-2.313 15.032 -0.82300001 92 54 35
-2.358 15.009 -0.83899999 111 76 56
-2.342 14.982 -0.80199999 224 141 89
-2.3269999 15.024 -0.93300003 144 103 75
-2.3399999 14.999 -0.90200001 187 102 48
-2.349 15.004 -0.847 102 21 0
-2.3369999 15.014 -0.829 140 99 71
-2.3659999 15.015 -0.88999999 110 46 10
-2.3499999 15.004 -0.88700002 94 50 13
-2.3610001 15.01 -0.91500002 106 72 47
-2.3180001 15.014 -0.88700002 63 29 2
-2.309 15 -0.85600001 178 103 63
-2.332 15.003 -0.94700003 104 36 0
-2.362 15.014 -0.903 97 62 40
-2.336 14.998 -0.89099997 65 39 24
-2.349 15.003 -0.889 91 59 38
-2.358 15.024 -0.90700001 97 36 5
-2.3380001 15.009 -0.91500002 92 74 64
-2.3429999 15.024 -0.96200001 56 34 36
-2.3640001 15.028 -0.84600002 106 34 0
-2.3640001 15.025 -0.84799999 115 44 2
-2.3139999 15.033 -0.82599998 85 30 9
-2.3670001 15.031 -0.84100002 184 113 217
-2.3599999 15.009 -0.92299998 92 63 33
-2.349 15.006 -0.95999998 116 69 27
-2.332 15.004 -0.94099998 95 67 46
-2.3499999 15 -0.87900001 68 43 21
-2.349 15.006 -0.87699997 79 47 24
-2.3610001 15.004 -0.86500001 69 34 14
-2.3640001 15.027 -0.86299998 120 52 15
-2.332 15.03 -0.91799998 60 28 17
-2.323 15.015 -0.86199999 60 13 0
-2.332 14.999 -0.94800001 168 86 26
-2.358 15 -0.86699998 168 97 45
0 0 0 1 0 0 0 1 0 0 0 1 0 0 0 0 0 394 1 0 0
